ply
format ascii 1.0
element vertex 753
property float x
property float y
property float z
end_header
0.149732321500778198 0.415493577718734741 0.059778943657875061
0.105735540390014648 0.115008123219013214 0.0144751556217670441
0.12081553041934967 0.218000158667564392 0.255508273839950562
0.140312761068344116 0.351160705089569092 0.162700504064559937
0.146949455142021179 0.396487414836883545 0.0547536909580230713
0.117461994290351868 0.195096462965011597 0.00411353260278701782
0.132152214646339417 0.295426487922668457 0.142494574189186096
0.169655025005340576 0.551559925079345703 0.0973991453647613525
0.110381297767162323 0.146737352013587952 0.00842113792896270752
0.113971680402755737 0.171258628368377686 0.0174727216362953186
0.119367949664592743 0.208113595843315125 0.0499919131398200989
0.163446336984634399 0.509156405925750732 0.0403226613998413086
0.112003117799758911 0.157813921570777893 0.23489224910736084
0.138334497809410095 0.337649732828140259 0.0798378735780715942
0.128982856869697571 0.273780673742294312 0.0330094844102859497
0.146975412964820862 0.396664708852767944 0.178344830870628357
0.102088414132595062 0.0900993198156356812 0.0661908313632011414
0.0996320396661758423 0.0733229517936706543 0.136715412139892578
0.12812921404838562 0.267950564622879028 0.132018178701400757
0.089740455150604248 0.005766287911683321 0.0781028643250465393
0.129905015230178833 0.280078709125518799 0.0422053337097167969
0.109612539410591125 0.141486912965774536 0.311907947063446045
0.105264514684677124 0.111791141331195831 0.152419134974479675
0.0952594578266143799 0.0434595085680484772 0.0245530642569065094
0.130931377410888672 0.287088513374328613 0.14421314001083374
0.161620855331420898 0.496688932180404663 0.0200319290161132812
0.11499408632516861 0.178241387009620667 0.291788667440414429
0.137640863656997681 0.332912445068359375 0.0937616974115371704
0.0957429632544517517 0.0467616990208625793 0.140114337205886841
0.14732244610786438 0.399034827947616577 0.0841433852910995483
0.181716769933700562 0.633938193321228027 0.0783164799213409424
0.169459909200668335 0.550227344036102295 0.0435900092124938965
0.110726781189441681 0.149096876382827759 0.0578095987439155579
0.128139913082122803 0.268023639917373657 0.189600944519042969
0.115900047123432159 0.184428811073303223 0.249657571315765381
0.193840265274047852 0.716738283634185791 0.0308330953121185303
0.10736614465713501 0.126144692301750183 0.166408061981201172
0.126542985439300537 0.25711706280708313 0.249162241816520691
0.0946720913052558899 0.0394479259848594666 0.348049193620681763
0.0894787833094596863 0.00397911528125405312 0.152662068605422974
0.147345602512359619 0.399192929267883301 0.0123904049396514893
0.125628441572189331 0.250871032476425171 0.0371825098991394043
0.133545577526092529 0.304942816495895386 0.0385952591896057129
0.133458420634269714 0.304347485303878784 0.0899556279182434082
0.144523605704307556 0.379919528961181641 0.131334125995635986
0.163374960422515869 0.508669018745422363 0.0593061149120330811
0.140094548463821411 0.349670320749282837 0.0472190976142883301
0.143324375152587891 0.371729135513305664 0.0865411609411239624
0.121480733156204224 0.222543343901634216 0.0912158861756324768
0.188980937004089355 0.683550417423248291 0.00656685233116149902
0.181015297770500183 0.62914741039276123 0.0258423388004302979
0.0907822996377944946 0.0128817800432443619 0.329600363969802856
0.155877143144607544 0.457461029291152954 0.0929068326950073242
0.132807552814483643 0.29990231990814209 0.219455182552337646
0.122747726738452911 0.231196507811546326 0.17514309287071228
0.103867486119270325 0.102249845862388611 0.0525213219225406647
0.0934386402368545532 0.0310238264501094818 0.295105785131454468
0.185089021921157837 0.656969666481018066 0.0389911532402038574
0.108863994479179382 0.136374607682228088 0.166029632091522217
0.140373557806015015 0.351575851440429688 0.0731435120105743408
0.0964500531554222107 0.0515908896923065186 0.121443197131156921
0.119992509484291077 0.212379187345504761 0.0759730115532875061
0.158188268542289734 0.473245292901992798 0.056899145245552063
0.148859843611717224 0.40953478217124939 0.0333465933799743652
0.110968194901943207 0.150745689868927002 0.31408846378326416
0.101118974387645721 0.0834783166646957397 0.00729278102517127991
0.0941889360547065735 0.0361481420695781708 0.0531203262507915497
0.0889774560928344727 0.000555227859877049923 0.371268272399902344
0.107256136834621429 0.125393375754356384 0.151794314384460449
0.180256664752960205 0.623966217041015625 0.075007021427154541
0.116701722145080566 0.18990403413772583 0.10620136559009552
0.0998545661568641663 0.0748427435755729675 0.115452729165554047
0.110137902200222015 0.145075038075447083 0.238137602806091309
0.102995142340660095 0.0962920263409614563 0.100787237286567688
0.0951334163546562195 0.0425986647605895996 0.209996521472930908
0.117338560521602631 0.194253474473953247 0.0395749583840370178
0.105819962918758392 0.115584716200828552 0.287394076585769653
0.0942595824599266052 0.0366306379437446594 0.345751941204071045
0.102422058582305908 0.0923780202865600586 0.314890682697296143
0.12011997401714325 0.213249698281288147 0.214580416679382324
0.115111604332923889 0.179043993353843689 0.0631414130330085754
0.103683061897754669 0.100990302860736847 0.145430579781532288
0.146499574184417725 0.393414914608001709 0.013464123010635376
0.0979939922690391541 0.0621355734765529633 0.223019123077392578
0.104275599122047424 0.105037137866020203 0.317313432693481445
0.14610445499420166 0.390716284513473511 0.17094634473323822
0.104453742504119873 0.106253832578659058 0.336717009544372559
0.149245887994766235 0.412171393632888794 0.134338080883026123
0.140268713235855103 0.350859880447387695 0.016693994402885437
0.151446074247360229 0.42719799280166626 0.0506014227867126465
0.12402614951133728 0.239927783608436584 0.0608901083469390869
0.125916332006454468 0.252837210893630981 0.0418044328689575195
0.145593643188476562 0.38722759485244751 0.203680679202079773
0.0971587151288986206 0.0564308464527130127 0.327669531106948853
0.0919757857918739319 0.0210329685360193253 0.0866992995142936707
0.150885075330734253 0.423366546630859375 0.170417442917823792
0.109992958605289459 0.144085094332695007 0.168589651584625244
0.111289456486701965 0.152939781546592712 0.145257264375686646
0.0983234047889709473 0.0643853619694709778 0.118656635284423828
0.133528873324394226 0.3048287034034729 0.165330544114112854
0.120553970336914062 0.21621374785900116 0.277252614498138428
0.120574191212654114 0.216351926326751709 0.0551991090178489685
0.12578272819519043 0.251924723386764526 0.180323198437690735
0.149430423974990845 0.413431763648986816 0.150238767266273499
0.127489447593688965 0.263581067323684692 0.219064190983772278
0.138678759336471558 0.34000086784362793 0.195243909955024719
0.158941790461540222 0.478391647338867188 0.0584537535905838013
0.0941563323140144348 0.0359254702925682068 0.147210821509361267
0.0994058698415756226 0.0717783048748970032 0.250799059867858887
0.120194271206855774 0.213757172226905823 0.021482512354850769
0.135261684656143188 0.316663265228271484 0.0778303444385528564
0.101473420858383179 0.0858990699052810669 0.143078163266181946
0.11982080340385437 0.211206451058387756 0.234496086835861206
0.170620962977409363 0.558157086372375488 0.00567856431007385254
0.10128813236951828 0.0846335962414741516 0.351973563432693481
0.138644129037857056 0.339764446020126343 0.0217128843069076538
0.125848963856697083 0.252377122640609741 0.176223963499069214
0.14182513952255249 0.361489832401275635 0.114082261919975281
0.0938071832060813904 0.0335408598184585571 0.111088089644908905
0.125052511692047119 0.246937558054924011 0.234112486243247986
0.154485821723937988 0.447958678007125854 0.162283003330230713
0.112515881657600403 0.161315947771072388 0.26575237512588501
0.113666638731956482 0.169175282120704651 0.231419369578361511
0.176462620496749878 0.598053932189941406 0.018855750560760498
0.137521028518676758 0.332093894481658936 0.228432923555374146
0.117545127868652344 0.195664241909980774 0.108438558876514435
0.124497473239898682 0.243146762251853943 0.174044996500015259
0.117395550012588501 0.19464266300201416 0.00539711862802505493
0.186238914728164673 0.664823234081268311 0.0327930450439453125
0.130707472562789917 0.285559266805648804 0.0607076734304428101
0.119032323360443115 0.205821335315704346 0.144047260284423828
0.119576223194599152 0.209536045789718628 0.235583379864692688
0.13066786527633667 0.285288751125335693 0.204908803105354309
0.190619081258773804 0.694738388061523438 0.00334009528160095215
0.121289573609828949 0.221237733960151672 0.177099168300628662
0.133021354675292969 0.301362454891204834 0.203762814402580261
0.152882397174835205 0.437007725238800049 0.128808185458183289
0.126107126474380493 0.254140257835388184 0.0497238487005233765
0.0956199988722801208 0.045921865850687027 0.192566320300102234
0.0911498218774795532 0.0153918592259287834 0.106105566024780273
0.0892194285988807678 0.00220783171243965626 0.272890627384185791
0.188836485147476196 0.682563900947570801 0.0365937352180480957
0.134623065590858459 0.312301725149154663 0.0744055807590484619
0.136000648140907288 0.321710199117660522 0.0797424018383026123
0.10153275728225708 0.0863043069839477539 0.337145894765853882
0.0930350720882415771 0.0282675493508577347 0.325772225856781006
0.115328826010227203 0.180527552962303162 0.190193772315979004
0.0954380333423614502 0.0446791127324104309 0.0789042264223098755
0.10051342099905014 0.0793425440788269043 0.049116186797618866
0.164121270179748535 0.513765990734100342 0.00302609801292419434
0.0896894410252571106 0.0054178447462618351 0.321375012397766113
0.105170413851737976 0.11114850640296936 0.0776578336954116821
0.114278145134449005 0.173351690173149109 0.125332087278366089
0.100680291652679443 0.0804822072386741638 0.336496055126190186
0.0910602062940597534 0.0147798079997301102 0.0899489521980285645
0.144959151744842529 0.382894188165664673 0.000258609652519226074
0.0985695421695709229 0.066066443920135498 0.0310821123421192169
0.104049891233444214 0.103495627641677856 0.330963492393493652
0.128005608916282654 0.267106324434280396 0.232786297798156738
0.124085001647472382 0.240329727530479431 0.228393256664276123
0.127706512808799744 0.265063613653182983 0.0909042954444885254
0.178563982248306274 0.612405598163604736 0.0494721531867980957
0.119603171944618225 0.209720119833946228 0.19713670015335083
0.131074011325836182 0.288062602281570435 0.24440300464630127
0.10997597873210907 0.143969133496284485 0.101298816502094269
0.145057111978530884 0.383563190698623657 0.0966015607118606567
0.0999175384640693665 0.0752728357911109924 0.095136493444442749
0.118750415742397308 0.203896015882492065 0.202081412076950073
0.168184295296669006 0.5415152907371521 0.0719152688980102539
0.178418844938278198 0.61141437292098999 0.0108373761177062988
0.143623322248458862 0.373770833015441895 0.179798021912574768
0.117990307509899139 0.198704704642295837 0.28746485710144043
0.112538367509841919 0.161469489336013794 0.0233170390129089355
0.0986737683415412903 0.0667782500386238098 0.07457733154296875
0.0972746312618255615 0.0572225339710712433 0.289996683597564697
0.102022536098957062 0.089649394154548645 0.160926967859268188
0.114755980670452118 0.176615163683891296 0.283361166715621948
0.0949034169316291809 0.0410278104245662689 0.194078117609024048
0.0998063459992408752 0.0745134353637695312 0.347356259822845459
0.112902328372001648 0.163955286145210266 0.275388658046722412
0.128432601690292358 0.270022541284561157 0.0266979038715362549
0.125520229339599609 0.250131845474243164 0.0858467817306518555
0.144166573882102966 0.377481132745742798 0.0206532776355743408
0.104960024356842041 0.109711609780788422 0.134820699691772461
0.158452287316322327 0.475048482418060303 0.103223070502281189
0.145814880728721619 0.388738572597503662 0.0762890875339508057
0.148769199848175049 0.408915728330612183 0.182830005884170532
0.0928193628787994385 0.02679433673620224 0.371669948101043701
0.114813357591629028 0.177007049322128296 0.226675629615783691
0.105995237827301025 0.116781793534755707 0.0397694706916809082
0.167981207370758057 0.54012829065322876 0.0551005899906158447
0.098604053258895874 0.0663021057844161987 0.12434966117143631
0.121448591351509094 0.222323819994926453 0.180339306592941284
0.100926734507083893 0.0821653455495834351 0.341692686080932617
0.104005634784698486 0.103193402290344238 0.0838288068771362305
0.107604585587978363 0.127773180603981018 0.0618097484111785889
0.109620630741119385 0.141542211174964905 0.267037183046340942
0.101675182580947876 0.0872770398855209351 0.254157215356826782
0.119259722530841827 0.207374438643455505 0.0265520811080932617
0.113755092024803162 0.169779390096664429 0.274656385183334351
0.156054586172103882 0.458672821521759033 0.0142946988344192505
0.0976246371865272522 0.0596129894256591797 0.122958853840827942
0.109136492013931274 0.138235688209533691 0.144510835409164429
0.149979263544082642 0.417180120944976807 0.0325901806354522705
0.174962759017944336 0.587810337543487549 0.00140631198883056641
0.0944313332438468933 0.0378036387264728546 0.366085439920425415
0.11973949521780014 0.210651159286499023 0.14916132390499115
0.0947344750165939331 0.0398740284144878387 0.0388689897954463959
0.104473479092121124 0.106388643383979797 0.208174332976341248
0.118755340576171875 0.203929662704467773 0.00777679681777954102
0.121226280927658081 0.220805466175079346 0.0780029296875
0.0894806757569313049 0.0039920387789607048 0.301144301891326904
0.112309001386165619 0.159902989864349365 0.308756053447723389
0.102484934031963348 0.0928074195981025696 0.13887961208820343
0.104775123298168182 0.108448751270771027 0.302131414413452148
0.136955022811889648 0.328228265047073364 0.101621329784393311
0.0942852422595024109 0.0368058644235134125 0.0183905977755784988
0.13485303521156311 0.313872277736663818 0.13146992027759552
0.125050574541091919 0.246924281120300293 0.0771942511200904846
0.153762936592102051 0.443021595478057861 0.0796227306127548218
0.170264899730682373 0.555725157260894775 0.0625685751438140869
0.0940162837505340576 0.0349689386785030365 0.278148651123046875
0.164537757635116577 0.516610503196716309 0.0230665206909179688
0.117465764284133911 0.195122241973876953 0.155641287565231323
0.185667186975479126 0.660918533802032471 0.0156339406967163086
0.0920540615916252136 0.0215675663203001022 0.151546493172645569
0.143170163035392761 0.370675951242446899 0.0447558164596557617
0.0925095304846763611 0.024678276851773262 0.0776136964559555054
0.121769621968269348 0.224516347050666809 0.197218000888824463
0.119270235300064087 0.207446262240409851 0.118323743343353271
0.144910037517547607 0.382558733224868774 0.0300433188676834106
0.0911880433559417725 0.0156528763473033905 0.372619658708572388
0.122895881533622742 0.232208371162414551 0.153075724840164185
0.110357314348220825 0.146573558449745178 0.255792975425720215
0.159689366817474365 0.483497321605682373 0.128843173384666443
0.130638793110847473 0.285090267658233643 0.172681614756584167
0.0910000428557395935 0.0143688889220356941 0.170857518911361694
0.132085651159286499 0.294971883296966553 0.0773041099309921265
0.182898670434951782 0.642010271549224854 0.00720310211181640625
0.132892787456512451 0.300484418869018555 0.0468685328960418701
0.152490794658660889 0.434333145618438721 0.0940743386745452881
0.115982048213481903 0.184988871216773987 0.0695674121379852295
0.120534643530845642 0.216081783175468445 0.112394161522388458
0.0947685837745666504 0.0401069633662700653 0.322439283132553101
0.103312946856021881 0.0984624996781349182 0.0239818952977657318
0.138115495443344116 0.336153954267501831 0.139135926961898804
0.151451915502548218 0.427237868309020996 0.127994507551193237
0.115955844521522522 0.184809893369674683 0.118907272815704346
0.110566474497318268 0.148002028465270996 0.257223248481750488
0.106520876288414001 0.120371773838996887 0.0130303502082824707
0.0939155295491218567 0.0342808514833450317 0.345041960477828979
0.120669931173324585 0.217005729675292969 0.259876638650894165
0.101785920560359955 0.0880333781242370605 0.0200692154467105865
0.0893600881099700928 0.00316845206543803215 0.334557384252548218
0.0931526795029640198 0.0290707945823669434 0.0818714722990989685
0.102300181984901428 0.0915456265211105347 0.260642975568771362
0.108143314719200134 0.1314525306224823 0.11734578013420105
0.126408636569976807 0.256199538707733154 0.0125579684972763062
0.100807271897792816 0.0813494622707366943 0.212309777736663818
0.122160978615283966 0.227189198136329651 0.0237565860152244568
0.129438862204551697 0.276895046234130859 0.156988337635993958
0.100748874247074127 0.0809506401419639587 0.129018440842628479
0.158170685172080994 0.473125219345092773 0.0484545677900314331
0.123101130127906799 0.233610153198242188 0.0205091014504432678
0.140552908182144165 0.35280078649520874 0.181112974882125854
0.0962337777018547058 0.0501137934625148773 0.149812623858451843
0.131585732102394104 0.291557550430297852 0.245006844401359558
0.114876769483089447 0.17744012176990509 0.126990050077438354
0.188601076602935791 0.680956125259399414 0.0291955471038818359
0.0980625748634338379 0.0626040026545524597 0.290586113929748535
0.168658018112182617 0.544750630855560303 0.0834507346153259277
0.182605251669883728 0.640006303787231445 0.0669805407524108887
0.117575004696846008 0.19586828351020813 0.0904188081622123718
0.0968549326062202454 0.054356113076210022 0.0578237250447273254
0.18899381160736084 0.683638334274291992 0.00944623351097106934
0.0933530107140541077 0.030438985675573349 0.137869879603385925
0.160575896501541138 0.489552050828933716 0.107784345746040344
0.100029349327087402 0.076036505401134491 0.260501205921173096
0.173858508467674255 0.580268561840057373 0.0699591934680938721
0.119269043207168579 0.207438111305236816 0.139091998338699341
0.132960036396980286 0.300943702459335327 0.0505158156156539917
0.0974267125129699707 0.058261234313249588 0.351706594228744507
0.170037403702735901 0.554171502590179443 0.0885643362998962402
0.100471436977386475 0.0790558084845542908 0.357940047979354858
0.1271563321352005 0.261306017637252808 0.266699731349945068
0.0899503082036972046 0.00719953514635562897 0.340580612421035767
0.16321246325969696 0.507559120655059814 0.0534246563911437988
0.10141541063785553 0.0855028852820396423 0.287285029888153076
0.111033976078033447 0.151194959878921509 0.10843416303396225
0.137124955654144287 0.329388856887817383 0.210986226797103882
0.14152228832244873 0.359421432018280029 0.0449814796447753906
0.155168920755386353 0.452623933553695679 0.128858879208564758
0.125489264726638794 0.249920442700386047 0.213627234101295471
0.157294273376464844 0.467139601707458496 0.0745660215616226196
0.121442027390003204 0.222278967499732971 0.243169277906417847
0.178419485688209534 0.611418724060058594 0.0195994675159454346
0.108553394675254822 0.134253278374671936 0.227706849575042725
0.100038647651672363 0.0761000141501426697 0.220902875065803528
0.170252248644828796 0.55563884973526001 0.0419425666332244873
0.129700064659118652 0.278679043054580688 0.0978062897920608521
0.109013259410858154 0.137394040822982788 0.209557607769966125
0.120620697736740112 0.216669544577598572 0.0896861031651496887
0.138788089156150818 0.340747624635696411 0.0869254618883132935
0.108391977846622467 0.133150845766067505 0.186462327837944031
0.11272922158241272 0.162772998213768005 0.153148055076599121
0.126090258359909058 0.254024982452392578 0.139442607760429382
0.105070941150188446 0.11046910285949707 0.0911335200071334839
0.0971257984638214111 0.0562060661613941193 0.100200839340686798
0.0896766707301139832 0.00533065386116504669 0.222034648060798645
0.0894525498151779175 0.0037999679334461689 0.00384606001898646355
0.119790077209472656 0.210996612906455994 0.23592028021812439
0.168227314949035645 0.541809141635894775 0.122451245784759521
0.12352462112903595 0.236502468585968018 0.22101283073425293
0.126545310020446777 0.257132947444915771 0.0938875824213027954
0.1855660080909729 0.660227477550506592 0.00190529227256774902
0.102789781987667084 0.0948894619941711426 0.135804414749145508
0.149724394083023071 0.415439456701278687 0.10599873960018158
0.146706685423851013 0.394829362630844116 0.00910931825637817383
0.116010814905166626 0.18518531322479248 0.141305714845657349
0.0892634987831115723 0.00250877533107995987 0.315467208623886108
0.12118055671453476 0.220493197441101074 0.00593390315771102905
0.127254128456115723 0.26197388768196106 0.260242074728012085
0.0974364280700683594 0.0583275854587554932 0.221610173583030701
0.0897552147507667542 0.00586705980822443962 0.344193905591964722
0.13875851035118103 0.340545564889907837 0.21947796642780304
0.0921621173620223999 0.0223055183887481689 0.310914844274520874
0.160006031394004822 0.48566010594367981 0.0130349248647689819
0.119313269853591919 0.207740157842636108 0.249898463487625122
0.0979177206754684448 0.0616146884858608246 0.333197355270385742
0.13611014187335968 0.322457998991012573 0.187187239527702332
0.109233208000659943 0.138896211981773376 0.102828428149223328
0.139042839407920837 0.342487514019012451 0.0523451119661331177
0.107205905020236969 0.12505030632019043 0.0802461281418800354
0.101495295763015747 0.0860484540462493896 0.328220456838607788
0.100131921470165253 0.0767370313405990601 0.166125640273094177
0.120780467987060547 0.217760667204856873 0.0432795137166976929
0.187106847763061523 0.670750916004180908 0.0313602685928344727
0.142106726765632629 0.363412976264953613 0.172333016991615295
0.169081911444664001 0.547645807266235352 0.108348459005355835
0.192347362637519836 0.706542134284973145 0.0124075114727020264
0.0958556383848190308 0.0475312508642673492 0.32624092698097229
0.141751214861869812 0.360984891653060913 0.0384597629308700562
0.0943792909383773804 0.0374481752514839172 0.196673780679702759
0.192568689584732056 0.708053767681121826 0.0181028544902801514
0.165833383798599243 0.525459229946136475 0.131601572036743164
0.104043319821357727 0.10345073789358139 0.0837627872824668884
0.118856362998485565 0.204619631171226501 0.017945609986782074
0.136984765529632568 0.328431457281112671 0.119316801428794861
0.135803401470184326 0.320363014936447144 0.0437804907560348511
0.127534091472625732 0.263885974884033203 0.0870371758937835693
0.116384118795394897 0.187734872102737427 0.075223974883556366
0.150734230875968933 0.422336310148239136 0.139320686459541321
0.106868371367454529 0.12274506688117981 0.0717168450355529785
0.123996049165725708 0.239722222089767456 0.0270689278841018677
0.102685987949371338 0.0941805839538574219 0.0533799640834331512
0.123541027307510376 0.236614525318145752 0.121377632021903992
0.08934812992811203 0.00308682234026491642 0.0931809097528457642
0.0957260802388191223 0.0466463752090930939 0.123533912003040314
0.124688401818275452 0.244450733065605164 0.167006850242614746
0.0931911394000053406 0.0293334648013114929 0.151574507355690002
0.131398767232894897 0.290280640125274658 0.0952807217836380005
0.150185182690620422 0.418586492538452148 0.171054437756538391
0.177629619836807251 0.606024086475372314 0.0310844480991363525
0.161388903856277466 0.495104700326919556 0.142821609973907471
0.131782174110412598 0.292899221181869507 0.148190528154373169
0.109939560294151306 0.143720388412475586 0.182085871696472168
0.109283313155174255 0.1392383873462677 0.170576512813568115
0.0936102792620658875 0.0321960523724555969 0.090680345892906189
0.0953457280993461609 0.0440487116575241089 0.176747947931289673
0.145265355706214905 0.384985506534576416 0.158242419362068176
0.187695339322090149 0.674770116806030273 0.0535598993301391602
0.130863934755325317 0.28662794828414917 0.0625443458557128906
0.146237820386886597 0.391627103090286255 0.143540084362030029
0.10271182656288147 0.0943570584058761597 0.277286827564239502
0.115353100001811981 0.180693328380584717 0.0904679000377655029
0.152898326516151428 0.437116503715515137 0.162277698516845703
0.126499414443969727 0.256819486618041992 0.000668630003929138184
0.11988464742898941 0.211642488837242126 0.0210878327488899231
0.149982675909996033 0.417203456163406372 0.0139634013175964355
0.101817697286605835 0.088250383734703064 0.289035677909851074
0.141315937042236328 0.358012020587921143 0.0876207500696182251
0.111686296761035919 0.155650109052658081 0.234728455543518066
0.0996085330843925476 0.0731624439358711243 0.125824779272079468
0.0949532613158226013 0.0413682647049427032 0.281164884567260742
0.147389277815818787 0.399491310119628906 0.118557468056678772
0.0895157083868980408 0.00423133978620171547 0.219316020607948303
0.10490097850561142 0.109308332204818726 0.244794130325317383
0.147050157189369202 0.39717516303062439 0.12620072066783905
0.105320744216442108 0.112175218760967255 0.10916098952293396
0.181811988353729248 0.634588539600372314 0.0599470138549804688
0.0966819822788238525 0.0531749166548252106 0.0882847830653190613
0.114983364939689636 0.178168147802352905 0.106656514108181
0.148240149021148682 0.405302494764328003 0.0420118272304534912
0.107560791075229645 0.127474069595336914 0.167538851499557495
0.103920690715312958 0.102613218128681183 0.151997625827789307
0.110575996339321136 0.148067057132720947 0.152670860290527344
0.0919381082057952881 0.0207756105810403824 0.31592676043510437
0.172448620200157166 0.570639431476593018 0.0948401689529418945
0.0971821025013923645 0.0565906204283237457 0.240468248724937439
0.127185001969337463 0.261501878499984741 0.100238293409347534
0.127448946237564087 0.263304531574249268 0.104875132441520691
0.0936456099152565002 0.0324373580515384674 0.259299188852310181
0.141264200210571289 0.357658684253692627 0.11764700710773468
0.13690359890460968 0.32787710428237915 0.0559934377670288086
0.161566793918609619 0.496319681406021118 0.0612472593784332275
0.0998885110020637512 0.0750746056437492371 0.33800932765007019
0.135773003101348877 0.32015538215637207 0.154064372181892395
0.105998702347278595 0.116805478930473328 0.250318855047225952
0.101045854389667511 0.0829789340496063232 0.225212365388870239
0.19208875298500061 0.704775869846343994 0.01386260986328125
0.111038289964199066 0.151224419474601746 0.123811639845371246
0.124744459986686707 0.244833663105964661 0.0863371193408966064
0.0928443074226379395 0.0269646774977445602 0.0600187256932258606
0.132359325885772705 0.296841025352478027 0.0885550379753112793
0.143302872776985168 0.371582269668579102 0.175267457962036133
0.145982682704925537 0.389884650707244873 0.00516028702259063721
0.119619652628898621 0.209832683205604553 0.0141597539186477661
0.145849153399467468 0.388972669839859009 0.0502595454454421997
0.110805138945579529 0.149632066488265991 0.0215766802430152893
0.152825921773910522 0.436622053384780884 0.115019917488098145
0.153409257531166077 0.440606027841567993 0.0330530107021331787
0.0977258086204528809 0.0603039674460887909 0.217247292399406433
0.163471609354019165 0.509329020977020264 0.123230636119842529
0.111197985708713531 0.152315080165863037 0.270313292741775513
0.118471182882785797 0.201988920569419861 0.180444151163101196
0.107830241322517395 0.129314318299293518 0.283983618021011353
0.112236209213733673 0.15940585732460022 0.170203089714050293
0.145631909370422363 0.387488991022109985 0.155342370271682739
0.120733089745044708 0.217437118291854858 0.137127593159675598
0.0953736454248428345 0.0442393757402896881 0.0947236865758895874
0.0987321287393569946 0.0671768262982368469 0.299196213483810425
0.103163719177246094 0.097443312406539917 0.143782824277877808
0.133743345737457275 0.306293457746505737 0.180097609758377075
0.161417245864868164 0.495298236608505249 0.0428183674812316895
0.157992541790008545 0.471908509731292725 0.0672308504581451416
0.110802493989467621 0.149614006280899048 0.287744641304016113
0.104069694876670837 0.103630915284156799 0.215439930558204651
0.10522548109292984 0.111524581909179688 0.316553235054016113
0.119636364281177521 0.209946796298027039 0.0545287206768989563
0.0956691056489944458 0.0462572872638702393 0.317064166069030762
0.116151824593544006 0.186148360371589661 0.247282892465591431
0.132590144872665405 0.298417448997497559 0.204496011137962341
0.160863339900970459 0.49151533842086792 0.0260209739208221436
0.0978020280599594116 0.060824517160654068 0.358420819044113159
0.124923288822174072 0.246054977178573608 0.170895278453826904
0.0897074565291404724 0.00554092321544885635 0.142444238066673279
0.153461754322052002 0.440964549779891968 0.125490307807922363
0.0964131131768226624 0.0513386204838752747 0.0638505816459655762
0.151651650667190552 0.428602010011672974 0.131185606122016907
0.0930170640349388123 0.0281445961445569992 0.371382653713226318
0.106563292443752289 0.120661452412605286 0.0135531462728977203
0.12827657163143158 0.268956899642944336 0.0223088264465332031
0.142259910702705383 0.36445915699005127 0.109829500317573547
0.0970791280269622803 0.055887315422296524 0.370653808116912842
0.0993438065052032471 0.0713544189929962158 0.292403578758239746
0.0926138311624526978 0.0253905914723873138 0.152564123272895813
0.103523388504981995 0.0998997762799263 0.270332157611846924
0.100434161722660065 0.0788012370467185974 0.014008108526468277
0.167152553796768188 0.53446882963180542 0.10558474063873291
0.121912091970443726 0.225489348173141479 0.242685690522193909
0.145720839500427246 0.388096272945404053 0.10345005989074707
0.126563742756843567 0.257258772850036621 0.0350755900144577026
0.159227296710014343 0.480341583490371704 0.0260653197765350342
0.179785281419754028 0.620746791362762451 0.0302241146564483643
0.150394991040229797 0.420019418001174927 0.0800200998783111572
0.105840340256690979 0.115723878145217896 0.240639418363571167
0.0915521606802940369 0.0181397050619125366 0.0558383837342262268
0.0921730995178222656 0.0223805215209722519 0.328042417764663696
0.106900326907634735 0.122963301837444305 0.19141089916229248
0.120132915675640106 0.213338091969490051 0.262876749038696289
0.138508513569831848 0.338838160037994385 0.205100849270820618
0.103335611522197723 0.0986173227429389954 0.0562627799808979034
0.0996206924319267273 0.0732454657554626465 0.0620422773063182831
0.103180922567844391 0.0975608453154563904 0.113295286893844604
0.106477878987789154 0.120078094303607941 0.275032281875610352
0.151707559823989868 0.428983926773071289 0.168432697653770447
0.124869123101234436 0.24568505585193634 0.0567183122038841248
0.105293944478034973 0.111992180347442627 0.148036032915115356
0.144646942615509033 0.380761891603469849 0.111326441168785095
0.139335393905639648 0.344485551118850708 0.177118003368377686
0.122560471296310425 0.229917585849761963 0.21430930495262146
0.137750118970870972 0.333658516407012939 0.0448958128690719604
0.124028973281383514 0.239947065711021423 0.0148981288075447083
0.0975273028016090393 0.0589482299983501434 0.159317329525947571
0.121749863028526306 0.224381402134895325 0.194879144430160522
0.112668097019195557 0.162355527281761169 0.115802623331546783
0.0945799052715301514 0.03881831094622612 0.0798200592398643494
0.125822275876998901 0.252194851636886597 0.0437081605195999146
0.108877696096897125 0.136468157172203064 0.251365989446640015
0.104178600013256073 0.104374662041664124 0.179282143712043762
0.168317884206771851 0.542427599430084229 0.0789883732795715332
0.0972050130367279053 0.0567470453679561615 0.144507184624671936
0.0934555083513259888 0.0311390236020088196 0.265310198068618774
0.0960577651858329773 0.0489116981625556946 0.255055338144302368
0.0984758287668228149 0.0654264017939567566 0.190758019685745239
0.16676485538482666 0.531820952892303467 0.0600044429302215576
0.123744890093803406 0.238006874918937683 0.201890707015991211
0.172806084156036377 0.573080778121948242 0.0917815864086151123
0.163189321756362915 0.507401108741760254 0.0684646666049957275
0.102869458496570587 0.0954336076974868774 0.130564659833908081
0.159816831350326538 0.484367847442626953 0.0283637493848800659
0.139024898409843445 0.342364907264709473 0.116370663046836853
0.11369653046131134 0.169379442930221558 0.1068686842918396
0.138369813561439514 0.337890863418579102 0.0594989508390426636
0.132287055253982544 0.296347439289093018 0.162425532937049866
0.0889886021614074707 0.000631332804914563894 0.367461234331130981
0.125465601682662964 0.24975883960723877 0.0148031562566757202
0.135236665606498718 0.316492438316345215 0.217603147029876709
0.0980250760912895203 0.0623478740453720093 0.0400890149176120758
0.107004493474960327 0.123674720525741577 0.128276020288467407
0.129263326525688171 0.27569618821144104 0.17984384298324585
0.128094032406806946 0.267710238695144653 0.0611588656902313232
0.187682315707206726 0.674681186676025391 0.0134473145008087158
0.108526110649108887 0.134066954255104065 0.226754277944564819
0.0964425504207611084 0.0515396818518638611 0.13939984142780304
0.124651089310646057 0.24419596791267395 0.134650945663452148
0.137135297060012817 0.329459518194198608 0.0811733603477478027
0.123834982514381409 0.238622128963470459 0.232876598834991455
0.130777910351753235 0.286040365695953369 0.230208858847618103
0.141969501972198486 0.362475693225860596 0.1051616370677948
0.108387544751167297 0.133120596408843994 0.026508137583732605
0.126310095191001892 0.255526483058929443 0.234417706727981567
0.124116122722625732 0.240542292594909668 0.221383959054946899
0.120494171977043152 0.215805381536483765 0.10506594181060791
0.122499160468578339 0.229498878121376038 0.0969521999359130859
0.158012449741363525 0.472044527530670166 0.0187077075242996216
0.116186767816543579 0.186387062072753906 0.125741764903068542
0.1248636394739151 0.24564756453037262 0.00685807317495346069
0.117364987730979919 0.194433972239494324 0.0304649993777275085
0.104192331433296204 0.104468479752540588 0.0779460594058036804
0.128903582692146301 0.273239225149154663 0.00999289751052856445
0.104454763233661652 0.106260791420936584 0.281302154064178467
0.117532074451446533 0.195575118064880371 0.207954943180084229
0.09852629154920578 0.0657710134983062744 0.324045300483703613
0.197510659694671631 0.741805970668792725 0.0201352536678314209
0.126707613468170166 0.258241444826126099 0.2613944411277771
0.0996879264712333679 0.0737046524882316589 0.0634512454271316528
0.128645420074462891 0.271476089954376221 0.191969424486160278
0.122600942850112915 0.230194017291069031 0.0788146182894706726
0.0958712175488471985 0.0476376526057720184 0.0192863363772630692
0.177042469382286072 0.602014124393463135 0.0204770863056182861
0.0947435945272445679 0.0399362929165363312 0.260779768228530884
0.162925004959106445 0.505595922470092773 0.129296541213989258
0.121267326176166534 0.221085786819458008 0.174288183450698853
0.137260168790817261 0.330312401056289673 0.124226748943328857
0.147602826356887817 0.400949716567993164 0.0213215798139572144
0.178954780101776123 0.615074694156646729 0.0792517960071563721
0.146221578121185303 0.391516178846359253 0.171151712536811829
0.131663352251052856 0.292087674140930176 0.183325693011283875
0.115338250994682312 0.180591896176338196 0.0908456519246101379
0.15553244948387146 0.455106824636459351 0.158305898308753967
0.128601893782615662 0.27117881178855896 0.187212809920310974
0.181905061006546021 0.635224223136901855 0.0595017075538635254
0.0976125001907348633 0.0595300756394863129 0.0339226722717285156
0.156323924660682678 0.460512369871139526 0.0795678943395614624
0.124500535428524017 0.243167713284492493 0.0120535343885421753
0.176043242216110229 0.595189690589904785 0.0068034827709197998
0.0898982435464859009 0.00684394175186753273 0.136935427784919739
0.122939333319664001 0.232505157589912415 0.235290616750717163
0.152343332767486572 0.433326005935668945 0.07860565185546875
0.130068868398666382 0.281197875738143921 0.116129174828529358
0.107525773346424103 0.127234905958175659 0.247299522161483765
0.107664979994297028 0.128185674548149109 0.123947501182556152
0.105203889310359955 0.111377112567424774 0.322519421577453613
0.1063065305352211 0.118907846510410309 0.278685808181762695
0.13046988844871521 0.28393670916557312 0.0300150811672210693
0.0926029011607170105 0.0253159832209348679 0.260550856590270996
0.137275129556655884 0.330414533615112305 0.00271025300025939941
0.168721258640289307 0.545182645320892334 0.0357371866703033447
0.0994355157017707825 0.0719807893037796021 0.195470452308654785
0.152917802333831787 0.437249511480331421 0.0258228331804275513
0.122789278626441956 0.23148028552532196 0.241360485553741455
0.132741034030914307 0.299447894096374512 0.162659958004951477
0.137444242835044861 0.331569492816925049 0.0616891384124755859
0.128199592232704163 0.268431216478347778 0.256006866693496704
0.161125987768173218 0.493309140205383301 0.149142593145370483
0.107537791132926941 0.127317026257514954 0.266887485980987549
0.151815176010131836 0.429718911647796631 0.124401971697807312
0.148245871067047119 0.405341565608978271 0.13071933388710022
0.169874697923660278 0.553060233592987061 0.0721083879470825195
0.0918286740779876709 0.0200282391160726547 0.2514781653881073
0.144022390246391296 0.376496434211730957 0.169138923287391663
0.191018447279930115 0.697466015815734863 0.0472800135612487793
0.145784229040145874 0.388529300689697266 0.140048280358314514
0.130332604050636292 0.28299906849861145 0.190166041254997253
0.102238945662975311 0.0911274105310440063 0.0769462659955024719
0.109886057674884796 0.143354982137680054 0.181899577379226685
0.145877823233604431 0.389168471097946167 0.184099093079566956
0.0902505666017532349 0.00925017800182104111 0.362644791603088379
0.0900012850761413574 0.00754766073077917099 0.298713982105255127
0.0901516079902648926 0.00857435073703527451 0.360869675874710083
0.162785828113555908 0.504645407199859619 0.0457248985767364502
0.132921367883682251 0.300679594278335571 0.126801386475563049
0.124998927116394043 0.246571585536003113 0.170639067888259888
0.15282854437828064 0.436639934778213501 0.15940113365650177
0.142235472798347473 0.364292234182357788 0.10074247419834137
0.0930298864841461182 0.0282321516424417496 0.0701052770018577576
0.117691598832607269 0.196664616465568542 0.116762049496173859
0.0934667736291885376 0.0312159638851881027 0.154146715998649597
0.100059926509857178 0.076245330274105072 0.113767921924591064
0.117506146430969238 0.195398017764091492 0.0650642737746238708
0.127993613481521606 0.267024427652359009 0.183059051632881165
0.187104925513267517 0.670737802982330322 0.036564946174621582
0.12125018984079361 0.220968768000602722 0.149126499891281128
0.123027712106704712 0.233108699321746826 0.115693844854831696
0.116274833679199219 0.186988532543182373 0.209007382392883301
0.152164071798324585 0.432101726531982422 0.0830083191394805908
0.190096989274024963 0.69117271900177002 0.0224667787551879883
0.125359565019607544 0.24903462827205658 0.117811530828475952
0.138165518641471863 0.33649560809135437 0.211038902401924133
0.0973808914422988892 0.0579482540488243103 0.0796747356653213501
0.103327259421348572 0.0985602959990501404 0.179674446582794189
0.108307577669620514 0.132574424147605896 0.0479643493890762329
0.162929341197013855 0.505625486373901367 0.1344127357006073
0.101900637149810791 0.0888168588280677795 0.346357762813568115
0.126837745308876038 0.259130150079727173 0.166346088051795959
0.179880857467651367 0.621399462223052979 0.082730412483215332
0.147625118494033813 0.401101946830749512 0.0115212053060531616
0.118060849606990814 0.199186474084854126 0.290975898504257202
0.0962029695510864258 0.0499034151434898376 0.176877051591873169
0.0992165133357048035 0.0704850628972053528 0.142458274960517883
0.0940115153789520264 0.0349363721907138824 0.0936393812298774719
0.10365169495344162 0.10077609121799469 0.164608508348464966
0.0928470268845558167 0.0269832666963338852 0.035603255033493042
0.113047577440738678 0.164947271347045898 0.0104804113507270813
0.0925030559301376343 0.0246340502053499222 0.318969249725341797
0.117722779512405396 0.196877554059028625 0.269568473100662231
0.179331317543983459 0.617646276950836182 0.0733577311038970947
0.106459490954875946 0.119952522218227386 0.219910740852355957
0.113488361239433289 0.167957708239555359 0.189723342657089233
0.113964542746543884 0.171209901571273804 0.0147560909390449524
0.144549548625946045 0.380096733570098877 0.177971869707107544
0.114971652626991272 0.178088173270225525 0.257700681686401367
0.130789577960968018 0.286120086908340454 0.0444040596485137939
0.1939525306224823 0.717505037784576416 0.0148787200450897217
0.146197587251663208 0.391352415084838867 0.154322251677513123
0.107203476130962372 0.125033721327781677 0.150813549757003784
0.144307076930999756 0.378440678119659424 0.159713834524154663
0.112728968262672424 0.162771239876747131 0.156612008810043335
0.163666784763336182 0.5106620192527771 0.132638752460479736
0.116118654608726501 0.18592187762260437 0.119268931448459625
0.152943998575210571 0.437428414821624756 0.172990083694458008
0.153497457504272461 0.441208332777023315 0.0278285890817642212
0.0898704454302787781 0.00665409211069345474 0.289729326963424683
0.142245054244995117 0.364357680082321167 0.102004528045654297
0.0942238718271255493 0.0363867506384849548 0.219876617193222046
0.112055689096450806 0.158172935247421265 0.00923167169094085693
0.099004112184047699 0.0690343901515007019 0.118240915238857269
0.105052098631858826 0.110340423882007599 0.0471127219498157501
0.130653753876686096 0.285192400217056274 0.197646573185920715
0.108694091439247131 0.135214164853096008 0.300309687852859497
0.140531003475189209 0.352651238441467285 0.0741153210401535034
0.125596284866333008 0.250651299953460693 0.162865132093429565
0.09243745356798172 0.0241860002279281616 0.271454185247421265
0.117253080010414124 0.193669617176055908 0.285811185836791992
0.09515380859375 0.0427379608154296875 0.032747022807598114
0.116645820438861847 0.189522236585617065 0.0734319984912872314
0.189557105302810669 0.68748551607131958 0.024715036153793335
0.148425862193107605 0.406570851802825928 0.120709449052810669
0.111753121018409729 0.156106501817703247 0.194901794195175171
0.0913214161992073059 0.0165638010948896408 0.330073714256286621
0.158454045653343201 0.475060462951660156 0.0407303124666213989
0.0969028472900390625 0.0546833649277687073 0.119160927832126617
0.113533981144428253 0.168269261717796326 0.0188449695706367493
0.132570222020149231 0.298281341791152954 0.0564943701028823853
0.141501769423484802 0.359281271696090698 0.0149140506982803345
0.176321908831596375 0.597092926502227783 0.0858986973762512207
0.0956026613712310791 0.0458034425973892212 0.00228840485215187073
0.117628343403339386 0.196232587099075317 0.17196887731552124
0.145781248807907104 0.388508886098861694 0.0265381336212158203
0.144386142492294312 0.378980755805969238 0.160362333059310913
0.133193060755729675 0.302535146474838257 0.246776998043060303
0.113569796085357666 0.168513879179954529 0.204258531332015991
0.101504549384117126 0.086111702024936676 0.0701142549514770508
0.127624332904815674 0.264502376317977905 0.263875186443328857
0.111584782600402832 0.154956802725791931 0.0582629591226577759
0.190543413162231445 0.694221735000610352 0.031285017728805542
0.121163614094257355 0.220377475023269653 0.0956076905131340027
0.105300441384315491 0.112036563456058502 0.33972543478012085
0.112169742584228516 0.158951893448829651 0.134333819150924683
0.10776248574256897 0.128851592540740967 0.0420779064297676086
0.130771517753601074 0.285996764898300171 0.0387628227472305298
0.158591121435165405 0.475996673107147217 0.0684853494167327881
0.0992532074451446533 0.0707356780767440796 0.185615703463554382
0.108821280300617218 0.136082842946052551 0.213600307703018188
0.0996646136045455933 0.0735454484820365906 0.0989374518394470215
0.0999487638473510742 0.0754861310124397278 0.0974933058023452759
0.125298053026199341 0.24861454963684082 0.0503989309072494507
0.137492507696151733 0.331899195909500122 0.21637396514415741
0.100014165043830872 0.0759327858686447144 0.233462870121002197
0.150514572858810425 0.420836150646209717 0.00196820497512817383
0.130414918065071106 0.283561259508132935 0.0357513427734375
0.190259605646133423 0.692283332347869873 0.0223487317562103271
0.0913819968700408936 0.0169775392860174179 0.123074114322662354
0.108346462249755859 0.132839962840080261 0.0490116477012634277
0.100127093493938446 0.0767040476202964783 0.193682193756103516
0.110069610178470612 0.144608601927757263 0.197137594223022461
0.183977782726287842 0.649380326271057129 0.038305133581161499
0.149408012628555298 0.413278669118881226 0.0218968987464904785
0.111732035875320435 0.155962511897087097 0.00669627636671066284
0.139399200677871704 0.344921290874481201 0.209328576922416687
0.104766786098480225 0.108391851186752319 0.123513557016849518
0.120398782193660736 0.215153887867927551 0.168068617582321167
0.0977400690317153931 0.0604013353586196899 0.204519346356391907
0.095618225634098053 0.0459097512066364288 0.018474208191037178
0.0943695232272148132 0.0373814702033996582 0.0733966231346130371
0.145798951387405396 0.388629764318466187 0.0397261232137680054
0.153934001922607422 0.444189846515655518 0.0252560526132583618
0.184863537549972534 0.655429720878601074 0.0424715578556060791
0.119356200098991394 0.208033338189125061 0.27451169490814209
0.137569546699523926 0.332425296306610107 0.118559226393699646
0.101277723908424377 0.084562547504901886 0.020470641553401947
0.0898658782243728638 0.00662288721650838852 0.239883646368980408
0.104526802897453308 0.106752842664718628 0.23799559473991394
0.157785862684249878 0.470497012138366699 0.111716523766517639
0.106134235858917236 0.117731101810932159 0.295384496450424194
0.185517370700836182 0.659895241260528564 0.0161590576171875
0.120743237435817719 0.217506438493728638 0.289336562156677246
0.173810109496116638 0.579937994480133057 0.093892514705657959
0.115508124232292175 0.181752100586891174 0.272187680006027222
0.149195581674575806 0.41182786226272583 0.126947417855262756
0.146044299006462097 0.390305459499359131 0.154191151261329651
0.169201552867889404 0.548462808132171631 0.0340317487716674805
0.104754358530044556 0.108306944370269775 0.262085855007171631
0.161958694458007812 0.49899628758430481 0.123652756214141846
0.170786425471305847 0.559287071228027344 0.0237213671207427979
0.0953854173421859741 0.0443197786808013916 0.29380112886428833
0.122015319764614105 0.226194366812705994 0.0362485572695732117
0.116220161318778992 0.186615079641342163 0.298736691474914551
0.136775180697441101 0.32699999213218689 0.120864883065223694
0.0942739024758338928 0.0367284156382083893 0.307204276323318481
0.133275881409645081 0.303100794553756714 0.0339016914367675781
0.185045510530471802 0.656672537326812744 0.0552068352699279785
0.108840562403202057 0.136214569211006165 0.126011326909065247
0.122290030121803284 0.228070557117462158 0.0736963376402854919
0.145219177007675171 0.384670138359069824 0.00852546095848083496
0.190046250820159912 0.690826296806335449 0.0486944615840911865
0.0926207378506660461 0.0254377983510494232 0.27120053768157959
0.110791027545928955 0.149535685777664185 0.269003957509994507
0.120418369770050049 0.215287670493125916 0.198119282722473145
0.12113557755947113 0.220185965299606323 0.194814801216125488
0.101030483841896057 0.0828739479184150696 0.0505772195756435394
0.103797182440757751 0.101769715547561646 0.347556889057159424
0.125117406249046326 0.247380733489990234 0.162510871887207031
0.110733851790428162 0.149145156145095825 0.00826577842235565186
0.154450118541717529 0.447714745998382568 0.00693812966346740723
0.106464207172393799 0.119984738528728485 0.106271103024482727
0.0954402908682823181 0.0446945428848266602 0.276408880949020386
0.142356127500534058 0.365116328001022339 0.170360639691352844
0.132579833269119263 0.298346996307373047 0.119395703077316284
0.156052768230438232 0.458660483360290527 0.000124439597129821777
0.138410627841949463 0.338169634342193604 0.0970021188259124756
0.146951586008071899 0.396501928567886353 0.0305695533752441406
