ply
format ascii 1.0
element vertex 732
property float x
property float y
property float z
end_header
2.01227923213309623e-16 0.226942375302314758 0.85248100757598877
2.01227923213309623e-16 0.73896259069442749 1.06829214096069336
2.01227923213309623e-16 0.815503299236297607 0.691690921783447266
2.01227923213309623e-16 0.133232578635215759 0.70246124267578125
2.01227923213309623e-16 0.497842937707901001 0.993906021118164062
2.01227923213309623e-16 0.327729880809783936 1.2199026346206665
2.01227923213309623e-16 0.564059674739837646 0.935680091381072998
2.01227923213309623e-16 1.05387532711029053 1.23125290870666504
2.01227923213309623e-16 1.0698317289352417 1.07099127769470215
2.01227923213309623e-16 0.236355021595954895 0.953408241271972656
2.01227923213309623e-16 0.985432744026184082 0.817005157470703125
2.01227923213309623e-16 0.0621738620102405548 0.833946824073791504
2.01227923213309623e-16 0.415415108203887939 0.418357610702514648
2.01227923213309623e-16 0.547761738300323486 0.673939526081085205
2.01227923213309623e-16 0.430605888366699219 0.545102953910827637
2.01227923213309623e-16 0.624545395374298096 0.653710782527923584
2.01227923213309623e-16 0.0504694655537605286 0.883364617824554443
2.01227923213309623e-16 0.0888297334313392639 0.958890438079833984
2.01227923213309623e-16 1.01049041748046875 1.22263979911804199
2.01227923213309623e-16 0.266025692224502563 1.1241225004196167
2.01227923213309623e-16 0.167516306042671204 0.402570724487304688
2.01227923213309623e-16 0.903863906860351562 1.18442606925964355
2.01227923213309623e-16 0.521098732948303223 0.785118520259857178
2.01227923213309623e-16 0.17418651282787323 1.06531381607055664
2.01227923213309623e-16 0.48289838433265686 0.833411574363708496
2.01227923213309623e-16 1.07701051235198975 0.850346028804779053
2.01227923213309623e-16 0.865331947803497314 0.823755383491516113
2.01227923213309623e-16 0.678247749805450439 1.0811617374420166
2.01227923213309623e-16 0.877418696880340576 0.838446140289306641
2.01227923213309623e-16 0.544653654098510742 0.892676115036010742
2.01227923213309623e-16 1.00230646133422852 0.985439419746398926
2.01227923213309623e-16 0.777798473834991455 1.149932861328125
2.01227923213309623e-16 0.0293796248733997345 0.287846982479095459
2.01227923213309623e-16 0.133879378437995911 0.182796120643615723
2.01227923213309623e-16 1.27551877498626709 1.03131318092346191
2.01227923213309623e-16 1.07076561450958252 0.869223475456237793
2.01227923213309623e-16 0.61171722412109375 0.506561160087585449
2.01227923213309623e-16 0.284405946731567383 0.405556023120880127
2.01227923213309623e-16 0.0762189403176307678 0.841474533081054688
2.01227923213309623e-16 1.02929890155792236 1.1513291597366333
2.01227923213309623e-16 0.64244002103805542 1.01471233367919922
2.01227923213309623e-16 0.367951005697250366 0.508633136749267578
2.01227923213309623e-16 0.647414743900299072 1.22180986404418945
2.01227923213309623e-16 0.389310061931610107 0.941026449203491211
2.01227923213309623e-16 0.7520294189453125 0.948230326175689697
2.01227923213309623e-16 0.258273869752883911 0.731532931327819824
2.01227923213309623e-16 1.28087079524993896 1.18056690692901611
2.01227923213309623e-16 1.11324584484100342 0.872460484504699707
2.01227923213309623e-16 0.474360942840576172 0.94156193733215332
2.01227923213309623e-16 0.742590844631195068 0.633501052856445312
2.01227923213309623e-16 0.0391913838684558868 0.908555984497070312
2.01227923213309623e-16 0.0876236483454704285 0.994643330574035645
2.01227923213309623e-16 1.51681137084960938 1.185249924659729
2.01227923213309623e-16 0.416482746601104736 1.08208155632019043
2.01227923213309623e-16 0.115094080567359924 1.15281963348388672
2.01227923213309623e-16 0.111984960734844208 0.731534302234649658
2.01227923213309623e-16 0.777645528316497803 0.906112074851989746
2.01227923213309623e-16 1.3826524019241333 1.10976719856262207
2.01227923213309623e-16 0.696135222911834717 0.900270402431488037
2.01227923213309623e-16 0.000509059813339263201 0.835674941539764404
2.01227923213309623e-16 0.371408522129058838 0.839284121990203857
2.01227923213309623e-16 0.353400379419326782 0.637426018714904785
2.01227923213309623e-16 0.412019580602645874 0.55205082893371582
2.01227923213309623e-16 0.506284415721893311 1.08240628242492676
2.01227923213309623e-16 0.261965036392211914 1.10114800930023193
2.01227923213309623e-16 0.417049497365951538 0.873077869415283203
2.01227923213309623e-16 0.74230039119720459 0.810688138008117676
2.01227923213309623e-16 0.0801512822508811951 0.868025720119476318
2.01227923213309623e-16 0.422109216451644897 0.789759159088134766
2.01227923213309623e-16 0.129967436194419861 0.344575047492980957
2.01227923213309623e-16 0.210305526852607727 0.263559162616729736
2.01227923213309623e-16 0.0203562360256910324 0.54460829496383667
2.01227923213309623e-16 0.481519043445587158 1.16908633708953857
2.01227923213309623e-16 0.392957746982574463 0.395412445068359375
2.01227923213309623e-16 1.39174556732177734 1.24573206901550293
2.01227923213309623e-16 0.731372356414794922 1.12135875225067139
2.01227923213309623e-16 0.0712978467345237732 0.775719285011291504
2.01227923213309623e-16 0.596334874629974365 1.20339655876159668
2.01227923213309623e-16 0.626945853233337402 0.834533095359802246
2.01227923213309623e-16 0.304141461849212646 0.564363837242126465
2.01227923213309623e-16 0.177169591188430786 0.296862125396728516
2.01227923213309623e-16 0.630249917507171631 0.656927049160003662
2.01227923213309623e-16 0.936209380626678467 1.0794060230255127
2.01227923213309623e-16 0.273383975028991699 0.428267717361450195
2.01227923213309623e-16 0.635549783706665039 0.583104491233825684
2.01227923213309623e-16 0.0111083062365651131 0.502303004264831543
2.01227923213309623e-16 1.40132880210876465 1.15238285064697266
2.01227923213309623e-16 0.819598138332366943 0.944629192352294922
2.01227923213309623e-16 0.949801862239837646 1.00638341903686523
2.01227923213309623e-16 0.479211091995239258 0.595438361167907715
2.01227923213309623e-16 0.012457563541829586 1.05631828308105469
2.01227923213309623e-16 0.468376308679580688 0.554189622402191162
2.01227923213309623e-16 0.394505769014358521 1.00449275970458984
2.01227923213309623e-16 0.219315767288208008 0.595782876014709473
2.01227923213309623e-16 0.370253294706344604 0.755273699760437012
2.01227923213309623e-16 0.00702410563826560974 0.587807595729827881
2.01227923213309623e-16 0.760327756404876709 1.21004700660705566
2.01227923213309623e-16 0.304119586944580078 0.644984841346740723
2.01227923213309623e-16 0.586836576461791992 1.19171881675720215
2.01227923213309623e-16 0.208881959319114685 0.472097098827362061
2.01227923213309623e-16 0.056287866085767746 0.531116127967834473
2.01227923213309623e-16 1.38391613960266113 1.11131691932678223
2.01227923213309623e-16 0.291840314865112305 0.244725465774536133
2.01227923213309623e-16 1.06147909164428711 0.881322383880615234
2.01227923213309623e-16 0.608263492584228516 0.892510950565338135
2.01227923213309623e-16 0.267912477254867554 1.00262725353240967
2.01227923213309623e-16 0.482751667499542236 1.00759077072143555
2.01227923213309623e-16 0.064107164740562439 0.124388337135314941
2.01227923213309623e-16 0.113989368081092834 0.609591007232666016
2.01227923213309623e-16 0.122595764696598053 0.495466470718383789
2.01227923213309623e-16 1.21283233165740967 1.18227887153625488
2.01227923213309623e-16 0.156728819012641907 0.709840476512908936
2.01227923213309623e-16 0.174585074186325073 0.144815921783447266
2.01227923213309623e-16 0.0887868031859397888 0.339350700378417969
2.01227923213309623e-16 0.0345476381480693817 0.672338187694549561
2.01227923213309623e-16 1.07165300846099854 0.954299569129943848
2.01227923213309623e-16 0.233211472630500793 0.650639772415161133
2.01227923213309623e-16 0.495482981204986572 0.94040071964263916
2.01227923213309623e-16 0.202406644821166992 0.812226533889770508
2.01227923213309623e-16 0.361946165561676025 1.24660634994506836
2.01227923213309623e-16 0.518747806549072266 1.14832460880279541
2.01227923213309623e-16 1.47130715847015381 1.20111954212188721
2.01227923213309623e-16 0.783585190773010254 0.643724262714385986
2.01227923213309623e-16 1.07510924339294434 0.90087127685546875
2.01227923213309623e-16 0.345370739698410034 0.289603710174560547
2.01227923213309623e-16 0.276220649480819702 0.402768790721893311
2.01227923213309623e-16 0.733958065509796143 0.634751260280609131
2.01227923213309623e-16 0.383036196231842041 1.12739551067352295
2.01227923213309623e-16 0.0874724611639976501 1.14619922637939453
2.01227923213309623e-16 0.187549561262130737 0.788259148597717285
2.01227923213309623e-16 0.658521354198455811 0.704877257347106934
2.01227923213309623e-16 0.254315793514251709 0.852135181427001953
2.01227923213309623e-16 0.551968097686767578 1.02271032333374023
2.01227923213309623e-16 0.168862655758857727 0.195265054702758789
2.01227923213309623e-16 0.228593513369560242 0.26460564136505127
2.01227923213309623e-16 0.0858158096671104431 1.00801956653594971
2.01227923213309623e-16 0.374749749898910522 1.23188483715057373
2.01227923213309623e-16 0.575304687023162842 1.03210115432739258
2.01227923213309623e-16 1.19878315925598145 1.10228943824768066
2.01227923213309623e-16 0.626841425895690918 1.02572846412658691
2.01227923213309623e-16 0.135047659277915955 0.504674851894378662
2.01227923213309623e-16 0.355672270059585571 0.840736508369445801
2.01227923213309623e-16 0.35701104998588562 1.10491883754730225
2.01227923213309623e-16 1.14572131633758545 1.02692961692810059
2.01227923213309623e-16 0.112386740744113922 0.298816859722137451
2.01227923213309623e-16 0.811816215515136719 1.12486612796783447
2.01227923213309623e-16 0.193591117858886719 0.181881427764892578
2.01227923213309623e-16 0.365471601486206055 1.0936654806137085
2.01227923213309623e-16 0.279265642166137695 0.401052296161651611
2.01227923213309623e-16 0.777287602424621582 1.08182132244110107
2.01227923213309623e-16 0.543614089488983154 0.566739380359649658
2.01227923213309623e-16 1.26241552829742432 1.0896754264831543
2.01227923213309623e-16 0.119263224303722382 1.20534086227416992
2.01227923213309623e-16 1.2576214075088501 1.07194113731384277
2.01227923213309623e-16 0.410839229822158813 1.05189251899719238
2.01227923213309623e-16 1.36916434764862061 1.17925894260406494
2.01227923213309623e-16 0.414847761392593384 0.465769052505493164
2.01227923213309623e-16 0.350516915321350098 1.12122869491577148
2.01227923213309623e-16 0.662540316581726074 0.726882100105285645
2.01227923213309623e-16 0.611921608448028564 1.1459423303604126
2.01227923213309623e-16 0.0488483421504497528 0.128949522972106934
2.01227923213309623e-16 0.648590505123138428 0.537105739116668701
2.01227923213309623e-16 0.306874245405197144 0.392876327037811279
2.01227923213309623e-16 1.08986270427703857 1.14933919906616211
2.01227923213309623e-16 0.603659987449645996 0.701906442642211914
2.01227923213309623e-16 1.29289805889129639 1.23737573623657227
2.01227923213309623e-16 0.871226727962493896 0.945057868957519531
2.01227923213309623e-16 1.17739605903625488 1.01843714714050293
2.01227923213309623e-16 0.175737470388412476 0.460866987705230713
2.01227923213309623e-16 0.28409084677696228 0.784942507743835449
2.01227923213309623e-16 0.396168917417526245 0.987582087516784668
2.01227923213309623e-16 0.629793047904968262 1.09692263603210449
2.01227923213309623e-16 0.0455412939190864563 0.989056944847106934
2.01227923213309623e-16 0.137128114700317383 0.270114898681640625
2.01227923213309623e-16 0.0594971850514411926 0.479362070560455322
2.01227923213309623e-16 1.19670188426971436 1.08529925346374512
2.01227923213309623e-16 0.269584953784942627 1.05658519268035889
2.01227923213309623e-16 1.01918351650238037 1.19646358489990234
2.01227923213309623e-16 0.691052794456481934 0.551284074783325195
2.01227923213309623e-16 0.86231529712677002 1.18671870231628418
2.01227923213309623e-16 0.405908197164535522 1.01945483684539795
2.01227923213309623e-16 1.30710983276367188 1.13097703456878662
2.01227923213309623e-16 1.08996212482452393 1.13460719585418701
2.01227923213309623e-16 0.526114046573638916 0.685463428497314453
2.01227923213309623e-16 0.25317537784576416 0.913951516151428223
2.01227923213309623e-16 0.644851863384246826 1.03251767158508301
2.01227923213309623e-16 0.389555186033248901 0.687553703784942627
2.01227923213309623e-16 0.311786115169525146 0.502411782741546631
2.01227923213309623e-16 0.415270477533340454 0.709702432155609131
2.01227923213309623e-16 0.491580724716186523 0.464047908782958984
2.01227923213309623e-16 1.2116541862487793 1.20080173015594482
2.01227923213309623e-16 0.589215517044067383 0.86844182014465332
2.01227923213309623e-16 0.401009410619735718 1.05086231231689453
2.01227923213309623e-16 0.446262896060943604 0.763840794563293457
2.01227923213309623e-16 0.802914440631866455 1.23418164253234863
2.01227923213309623e-16 0.416205883026123047 1.07764959335327148
2.01227923213309623e-16 0.0947476550936698914 0.609710335731506348
2.01227923213309623e-16 0.631989061832427979 0.515648186206817627
2.01227923213309623e-16 1.06501424312591553 1.06865835189819336
2.01227923213309623e-16 1.2317812442779541 1.13327765464782715
2.01227923213309623e-16 0.665236949920654297 0.943297147750854492
2.01227923213309623e-16 0.482126235961914062 0.852144837379455566
2.01227923213309623e-16 0.203184962272644043 0.614537894725799561
2.01227923213309623e-16 0.218015536665916443 1.16642224788665771
2.01227923213309623e-16 0.126723393797874451 0.430205583572387695
2.01227923213309623e-16 0.371387273073196411 1.01846277713775635
2.01227923213309623e-16 0.198206156492233276 0.985171198844909668
2.01227923213309623e-16 0.783447027206420898 0.700328052043914795
2.01227923213309623e-16 1.20918095111846924 1.15945744514465332
2.01227923213309623e-16 0.820238709449768066 0.76842045783996582
2.01227923213309623e-16 0.456419229507446289 0.995142817497253418
2.01227923213309623e-16 0.30115702748298645 1.22807693481445312
2.01227923213309623e-16 0.802333652973175049 0.932242274284362793
2.01227923213309623e-16 0.0245290808379650116 0.597798526287078857
2.01227923213309623e-16 1.42944478988647461 1.24391782283782959
2.01227923213309623e-16 1.42136740684509277 1.18469071388244629
2.01227923213309623e-16 0.861500442028045654 1.15854418277740479
2.01227923213309623e-16 1.14915144443511963 1.02456820011138916
2.01227923213309623e-16 0.0972195938229560852 0.115316152572631836
2.01227923213309623e-16 0.610651791095733643 0.715232253074645996
2.01227923213309623e-16 0.895976722240447998 1.05085408687591553
2.01227923213309623e-16 0.0757539793848991394 0.127685785293579102
2.01227923213309623e-16 0.284253209829330444 0.570174336433410645
2.01227923213309623e-16 1.05514514446258545 0.911055684089660645
2.01227923213309623e-16 0.545354306697845459 1.10064423084259033
2.01227923213309623e-16 0.433513134717941284 0.412457644939422607
2.01227923213309623e-16 0.280168056488037109 0.641133666038513184
2.01227923213309623e-16 0.443441003561019897 1.20713329315185547
2.01227923213309623e-16 1.08701932430267334 1.22874152660369873
2.01227923213309623e-16 0.308965116739273071 1.0953676700592041
2.01227923213309623e-16 0.35832899808883667 0.609206676483154297
2.01227923213309623e-16 0.369696706533432007 0.574593782424926758
2.01227923213309623e-16 0.861484348773956299 1.12444210052490234
2.01227923213309623e-16 0.643381774425506592 0.733464837074279785
2.01227923213309623e-16 0.122812166810035706 0.380241930484771729
2.01227923213309623e-16 0.429698139429092407 0.765238046646118164
2.01227923213309623e-16 0.107938304543495178 0.691491484642028809
2.01227923213309623e-16 0.591266632080078125 0.479608774185180664
2.01227923213309623e-16 0.41394391655921936 0.333332419395446777
2.01227923213309623e-16 0.446959972381591797 0.902191281318664551
2.01227923213309623e-16 0.0280634611845016479 1.17532896995544434
2.01227923213309623e-16 0.114136211574077606 0.658315479755401611
2.01227923213309623e-16 1.35865104198455811 1.11981010437011719
2.01227923213309623e-16 0.519460022449493408 0.853563070297241211
2.01227923213309623e-16 0.316156834363937378 0.440472722053527832
2.01227923213309623e-16 0.0620797872543334961 0.678066849708557129
2.01227923213309623e-16 0.432965666055679321 0.759458065032958984
2.01227923213309623e-16 1.18169701099395752 1.02585864067077637
2.01227923213309623e-16 0.0627904310822486877 0.804912984371185303
2.01227923213309623e-16 1.14991247653961182 1.24846005439758301
2.01227923213309623e-16 0.0768532007932662964 0.376012980937957764
2.01227923213309623e-16 0.647135615348815918 0.992685079574584961
2.01227923213309623e-16 0.0221313461661338806 1.1330726146697998
2.01227923213309623e-16 0.682531535625457764 0.590695798397064209
2.01227923213309623e-16 0.874549686908721924 1.21913313865661621
2.01227923213309623e-16 0.52765965461730957 0.452385485172271729
2.01227923213309623e-16 0.393376260995864868 0.87431943416595459
2.01227923213309623e-16 0.871021926403045654 1.03433442115783691
2.01227923213309623e-16 0.299507319927215576 1.12568366527557373
2.01227923213309623e-16 0.394288867712020874 0.91109764575958252
2.01227923213309623e-16 0.110094033181667328 1.21931242942810059
2.01227923213309623e-16 1.07792508602142334 0.850546002388000488
2.01227923213309623e-16 0.00237830169498920441 0.731856107711791992
2.01227923213309623e-16 1.04357743263244629 0.926334261894226074
2.01227923213309623e-16 0.0676632076501846313 0.65759885311126709
2.01227923213309623e-16 0.202231690287590027 0.7752227783203125
2.01227923213309623e-16 0.460552692413330078 1.09864866733551025
2.01227923213309623e-16 0.797475993633270264 1.21587741374969482
2.01227923213309623e-16 0.874879002571105957 0.776623547077178955
2.01227923213309623e-16 0.954295456409454346 1.04114890098571777
2.01227923213309623e-16 0.804606914520263672 0.782955646514892578
2.01227923213309623e-16 0.446014881134033203 0.350107192993164062
2.01227923213309623e-16 0.408931881189346313 0.791433274745941162
2.01227923213309623e-16 1.39277815818786621 1.17040491104125977
2.01227923213309623e-16 0.207046076655387878 0.901594460010528564
2.01227923213309623e-16 0.202185586094856262 0.717425048351287842
2.01227923213309623e-16 0.822609126567840576 1.05413532257080078
2.01227923213309623e-16 0.406154483556747437 0.657294392585754395
2.01227923213309623e-16 0.730787992477416992 0.8090628981590271
2.01227923213309623e-16 0.632037878036499023 0.628495573997497559
2.01227923213309623e-16 0.352033019065856934 1.04096674919128418
2.01227923213309623e-16 0.371377080678939819 0.893279731273651123
2.01227923213309623e-16 0.634269654750823975 0.993001937866210938
2.01227923213309623e-16 0.164626404643058777 0.36022484302520752
2.01227923213309623e-16 0.133390605449676514 0.708600103855133057
2.01227923213309623e-16 0.356597810983657837 0.438971221446990967
2.01227923213309623e-16 0.358271628618240356 1.09407877922058105
2.01227923213309623e-16 0.544943273067474365 0.998208165168762207
2.01227923213309623e-16 0.296921908855438232 0.601849853992462158
2.01227923213309623e-16 0.636167705059051514 0.818303942680358887
2.01227923213309623e-16 0.379417240619659424 0.618153572082519531
2.01227923213309623e-16 0.962731480598449707 0.797290682792663574
2.01227923213309623e-16 0.628932535648345947 0.773362636566162109
2.01227923213309623e-16 0.312117844820022583 0.49146115779876709
2.01227923213309623e-16 0.480685442686080933 0.842852354049682617
2.01227923213309623e-16 1.36487281322479248 1.13610601425170898
2.01227923213309623e-16 0.681175172328948975 1.04140722751617432
2.01227923213309623e-16 0.512106060981750488 1.2087324857711792
2.01227923213309623e-16 0.77295994758605957 0.615099012851715088
2.01227923213309623e-16 0.488609790802001953 0.671203792095184326
2.01227923213309623e-16 0.110293023288249969 0.149371504783630371
2.01227923213309623e-16 0.539611518383026123 1.20821750164031982
2.01227923213309623e-16 0.0729547664523124695 0.393067717552185059
2.01227923213309623e-16 0.259464174509048462 0.858870267868041992
2.01227923213309623e-16 0.19259876012802124 0.456399679183959961
2.01227923213309623e-16 0.572336137294769287 0.687962055206298828
2.01227923213309623e-16 0.187192663550376892 0.712627232074737549
2.01227923213309623e-16 1.02136659622192383 1.16893041133880615
2.01227923213309623e-16 0.998867511749267578 1.00594830513000488
2.01227923213309623e-16 0.788085401058197021 0.695308804512023926
2.01227923213309623e-16 0.600427389144897461 1.1630403995513916
2.01227923213309623e-16 0.23417980968952179 0.310640275478363037
2.01227923213309623e-16 0.252320289611816406 0.565320491790771484
2.01227923213309623e-16 0.920924484729766846 1.05310416221618652
2.01227923213309623e-16 0.755770862102508545 0.917559921741485596
2.01227923213309623e-16 0.272478729486465454 0.309968531131744385
2.01227923213309623e-16 0.213704466819763184 0.213909745216369629
2.01227923213309623e-16 1.14900422096252441 1.1723792552947998
2.01227923213309623e-16 0.149910673499107361 1.02157402038574219
2.01227923213309623e-16 1.40891134738922119 1.146018385887146
2.01227923213309623e-16 0.238081678748130798 0.673612892627716064
2.01227923213309623e-16 0.796934604644775391 1.00898313522338867
2.01227923213309623e-16 0.361622869968414307 0.388898551464080811
2.01227923213309623e-16 0.848639011383056641 0.723772406578063965
2.01227923213309623e-16 0.452033966779708862 0.438509345054626465
2.01227923213309623e-16 0.731074631214141846 0.993861198425292969
2.01227923213309623e-16 0.0185429640114307404 1.13515329360961914
2.01227923213309623e-16 0.249617323279380798 1.23957085609436035
2.01227923213309623e-16 0.564747631549835205 0.617955565452575684
2.01227923213309623e-16 0.429610311985015869 0.769328832626342773
2.01227923213309623e-16 0.55344092845916748 0.671155989170074463
2.01227923213309623e-16 0.140366896986961365 0.832874417304992676
2.01227923213309623e-16 0.109959088265895844 0.635567545890808105
2.01227923213309623e-16 1.00018489360809326 1.02389013767242432
2.01227923213309623e-16 0.481940269470214844 1.19329690933227539
2.01227923213309623e-16 0.547951400279998779 1.07219696044921875
2.01227923213309623e-16 1.1071627140045166 1.07678210735321045
2.01227923213309623e-16 0.0260801017284393311 0.769125819206237793
2.01227923213309623e-16 0.131217852234840393 0.787067294120788574
2.01227923213309623e-16 0.920748412609100342 0.732465922832489014
2.01227923213309623e-16 1.10470259189605713 1.10032808780670166
2.01227923213309623e-16 0.624211609363555908 0.960871696472167969
2.01227923213309623e-16 0.0615160278975963593 1.01627910137176514
2.01227923213309623e-16 0.597284913063049316 1.15725874900817871
2.01227923213309623e-16 0.135947629809379578 0.297311007976531982
2.01227923213309623e-16 0.216627955436706543 1.1626814603805542
2.01227923213309623e-16 0.132692322134971619 0.215878844261169434
2.01227923213309623e-16 0.985488057136535645 0.90356743335723877
2.01227923213309623e-16 0.38747107982635498 1.21288812160491943
2.01227923213309623e-16 0.88387531042098999 1.04406440258026123
2.01227923213309623e-16 1.12098824977874756 1.07673490047454834
2.01227923213309623e-16 0.214752435684204102 1.10372757911682129
2.01227923213309623e-16 0.668136239051818848 1.00449824333190918
2.01227923213309623e-16 0.568393528461456299 0.728222370147705078
2.01227923213309623e-16 0.623177468776702881 0.596231341361999512
2.01227923213309623e-16 0.11847861111164093 0.483365893363952637
2.01227923213309623e-16 1.29244720935821533 1.17410039901733398
2.01227923213309623e-16 0.103838317096233368 0.761179745197296143
2.01227923213309623e-16 1.40944278240203857 1.17263436317443848
2.01227923213309623e-16 0.619561135768890381 1.14273810386657715
2.01227923213309623e-16 0.541228234767913818 1.06207740306854248
2.01227923213309623e-16 0.417406171560287476 1.12244892120361328
2.01227923213309623e-16 0.445552587509155273 0.7747458815574646
2.01227923213309623e-16 0.0486434958875179291 0.153556346893310547
2.01227923213309623e-16 1.43959164619445801 1.23869287967681885
2.01227923213309623e-16 0.905920982360839844 0.708242714405059814
2.01227923213309623e-16 0.65157085657119751 0.537691652774810791
2.01227923213309623e-16 0.564210236072540283 0.797605395317077637
2.01227923213309623e-16 0.662391841411590576 0.655786097049713135
2.01227923213309623e-16 0.0145658841356635094 0.0698043107986450195
2.01227923213309623e-16 0.133045390248298645 1.11699056625366211
2.01227923213309623e-16 0.106834910809993744 0.420973241329193115
2.01227923213309623e-16 0.757290959358215332 0.806338489055633545
2.01227923213309623e-16 0.743113279342651367 0.580561161041259766
2.01227923213309623e-16 0.509073197841644287 0.581798434257507324
2.01227923213309623e-16 0.0839482918381690979 0.233480215072631836
2.01227923213309623e-16 0.250903666019439697 1.02254951000213623
2.01227923213309623e-16 0.275860011577606201 0.728231847286224365
2.01227923213309623e-16 0.27895393967628479 0.664151310920715332
2.01227923213309623e-16 1.26600492000579834 1.0285184383392334
2.01227923213309623e-16 0.745631396770477295 0.667812108993530273
2.01227923213309623e-16 0.528715133666992188 0.687158524990081787
2.01227923213309623e-16 0.0614510662853717804 0.802540898323059082
2.01227923213309623e-16 0.556621074676513672 0.939622938632965088
2.01227923213309623e-16 0.952906250953674316 0.803890705108642578
2.01227923213309623e-16 0.111917115747928619 0.78353726863861084
2.01227923213309623e-16 0.188190683722496033 0.65297466516494751
2.01227923213309623e-16 0.070714317262172699 0.869523286819458008
2.01227923213309623e-16 0.766503572463989258 1.00355792045593262
2.01227923213309623e-16 0.741699337959289551 1.20399963855743408
2.01227923213309623e-16 1.04282081127166748 0.924275755882263184
2.01227923213309623e-16 1.36544942855834961 1.24908959865570068
2.01227923213309623e-16 0.469877094030380249 1.14576196670532227
2.01227923213309623e-16 0.375469744205474854 0.617008507251739502
2.01227923213309623e-16 0.93758314847946167 1.07671129703521729
2.01227923213309623e-16 0.0386925823986530304 0.0702244043350219727
2.01227923213309623e-16 1.22101294994354248 1.20165598392486572
2.01227923213309623e-16 0.361374258995056152 0.455067694187164307
2.01227923213309623e-16 0.79077833890914917 0.842509150505065918
2.01227923213309623e-16 1.09198248386383057 1.09422612190246582
2.01227923213309623e-16 0.827080845832824707 1.0182417631149292
2.01227923213309623e-16 0.509415328502655029 0.803538918495178223
2.01227923213309623e-16 0.470761150121688843 0.993219614028930664
2.01227923213309623e-16 0.385583609342575073 0.30942833423614502
2.01227923213309623e-16 0.141552850604057312 1.00756442546844482
2.01227923213309623e-16 1.22530126571655273 1.19142961502075195
2.01227923213309623e-16 0.521723449230194092 0.819929659366607666
2.01227923213309623e-16 0.669816195964813232 0.601576685905456543
2.01227923213309623e-16 0.84463655948638916 1.15613937377929688
2.01227923213309623e-16 0.70611947774887085 0.73434746265411377
2.01227923213309623e-16 1.23616373538970947 0.966134786605834961
2.01227923213309623e-16 0.686417043209075928 0.660189926624298096
2.01227923213309623e-16 0.0593666844069957733 0.520349621772766113
2.01227923213309623e-16 0.83268815279006958 0.680739223957061768
2.01227923213309623e-16 1.50236606597900391 1.23974120616912842
2.01227923213309623e-16 0.128502205014228821 0.393909811973571777
2.01227923213309623e-16 1.02452504634857178 1.02955853939056396
2.01227923213309623e-16 0.892418503761291504 1.09983420372009277
2.01227923213309623e-16 0.146985858678817749 0.203230142593383789
2.01227923213309623e-16 0.172415673732757568 0.819317102432250977
2.01227923213309623e-16 1.28531038761138916 1.22925186157226562
2.01227923213309623e-16 0.784138023853302002 0.821835935115814209
2.01227923213309623e-16 0.274831503629684448 0.281253159046173096
2.01227923213309623e-16 0.1113276407122612 0.222157955169677734
2.01227923213309623e-16 0.318818330764770508 0.99956357479095459
2.01227923213309623e-16 0.993650734424591064 1.23604857921600342
2.01227923213309623e-16 0.260826766490936279 0.614875674247741699
2.01227923213309623e-16 0.0848625749349594116 0.776319324970245361
2.01227923213309623e-16 0.296516627073287964 0.988799333572387695
2.01227923213309623e-16 0.471858233213424683 1.00681436061859131
2.01227923213309623e-16 0.197982937097549438 0.73381882905960083
2.01227923213309623e-16 0.0324989482760429382 0.0448358058929443359
2.01227923213309623e-16 0.524039089679718018 0.474436819553375244
2.01227923213309623e-16 0.970681607723236084 0.774125218391418457
2.01227923213309623e-16 1.18639087677001953 1.12300670146942139
2.01227923213309623e-16 0.0376781672239303589 1.2308039665222168
2.01227923213309623e-16 0.221271201968193054 0.529285967350006104
2.01227923213309623e-16 0.123656727373600006 0.879034698009490967
2.01227923213309623e-16 1.33792006969451904 1.12667715549468994
2.01227923213309623e-16 0.812848508358001709 0.942581415176391602
2.01227923213309623e-16 0.831746876239776611 1.14661824703216553
2.01227923213309623e-16 0.43745991587638855 1.08942174911499023
2.01227923213309623e-16 0.21711575984954834 1.05925858020782471
2.01227923213309623e-16 0.208832979202270508 0.614730000495910645
2.01227923213309623e-16 0.190856188535690308 1.20367205142974854
2.01227923213309623e-16 0.40151602029800415 0.59222787618637085
2.01227923213309623e-16 0.724835574626922607 0.822357535362243652
2.01227923213309623e-16 0.524182021617889404 0.550205469131469727
2.01227923213309623e-16 0.191511347889900208 0.265916228294372559
2.01227923213309623e-16 0.574873864650726318 1.03173816204071045
2.01227923213309623e-16 0.0128783974796533585 1.01296401023864746
2.01227923213309623e-16 0.0534633807837963104 0.359069764614105225
2.01227923213309623e-16 1.12858378887176514 0.88986814022064209
2.01227923213309623e-16 0.788519561290740967 1.12722396850585938
2.01227923213309623e-16 0.25249183177947998 1.17323791980743408
2.01227923213309623e-16 1.00611722469329834 1.10763800144195557
2.01227923213309623e-16 0.422640800476074219 0.743573307991027832
2.01227923213309623e-16 0.350539535284042358 0.531442523002624512
2.01227923213309623e-16 0.4987221360206604 0.934375882148742676
2.01227923213309623e-16 0.472495228052139282 1.18317461013793945
2.01227923213309623e-16 0.885889232158660889 0.925902605056762695
2.01227923213309623e-16 0.129818439483642578 0.304057896137237549
2.01227923213309623e-16 0.385758697986602783 1.01319098472595215
2.01227923213309623e-16 0.255990475416183472 0.450171351432800293
2.01227923213309623e-16 0.0221114959567785263 1.19005000591278076
2.01227923213309623e-16 1.28000760078430176 1.10223901271820068
2.01227923213309623e-16 0.293034017086029053 0.825310945510864258
2.01227923213309623e-16 0.475902408361434937 0.644141674041748047
2.01227923213309623e-16 0.945470452308654785 0.944230437278747559
2.01227923213309623e-16 0.6418953537940979 0.724852800369262695
2.01227923213309623e-16 0.0964569970965385437 0.24226832389831543
2.01227923213309623e-16 0.527540385723114014 0.468251705169677734
2.01227923213309623e-16 0.279547274112701416 0.899634301662445068
2.01227923213309623e-16 0.245586857199668884 0.570965707302093506
2.01227923213309623e-16 0.0111185023561120033 0.546240448951721191
2.01227923213309623e-16 1.08375704288482666 1.18316733837127686
2.01227923213309623e-16 0.189486980438232422 0.527109384536743164
2.01227923213309623e-16 1.06294751167297363 1.2099611759185791
2.01227923213309623e-16 1.36113858222961426 1.14691102504730225
2.01227923213309623e-16 1.29603350162506104 1.10299193859100342
2.01227923213309623e-16 1.38653755187988281 1.17109155654907227
2.01227923213309623e-16 0.144275039434432983 0.639806151390075684
2.01227923213309623e-16 0.320418775081634521 0.872382283210754395
2.01227923213309623e-16 0.711332619190216064 1.06881678104400635
2.01227923213309623e-16 1.19180679321289062 1.16066515445709229
2.01227923213309623e-16 0.874780595302581787 1.02237629890441895
2.01227923213309623e-16 0.364330649375915527 1.24802803993225098
2.01227923213309623e-16 0.626657724380493164 0.999235391616821289
2.01227923213309623e-16 0.850521743297576904 0.897927939891815186
2.01227923213309623e-16 0.344560354948043823 0.411399543285369873
2.01227923213309623e-16 0.0352492146193981171 0.260789275169372559
2.01227923213309623e-16 0.887573540210723877 0.742201864719390869
2.01227923213309623e-16 0.696821987628936768 0.548387885093688965
2.01227923213309623e-16 0.42316100001335144 0.787532448768615723
2.01227923213309623e-16 0.240751266479492188 0.640690445899963379
2.01227923213309623e-16 0.228715896606445312 0.955239415168762207
2.01227923213309623e-16 0.0183218028396368027 0.37379300594329834
2.01227923213309623e-16 0.0390772596001625061 0.620955944061279297
2.01227923213309623e-16 0.25733456015586853 1.19367003440856934
2.01227923213309623e-16 1.25659060478210449 1.10137414932250977
2.01227923213309623e-16 0.764020800590515137 0.746635854244232178
2.01227923213309623e-16 0.614018142223358154 0.758133649826049805
2.01227923213309623e-16 0.196916773915290833 1.23941349983215332
2.01227923213309623e-16 0.242742970585823059 0.869660377502441406
2.01227923213309623e-16 0.506357908248901367 0.647023260593414307
2.01227923213309623e-16 1.1210559606552124 1.24451351165771484
2.01227923213309623e-16 0.886736690998077393 0.751410126686096191
2.01227923213309623e-16 0.300212353467941284 0.949696958065032959
2.01227923213309623e-16 0.482606232166290283 0.426414728164672852
2.01227923213309623e-16 0.392815291881561279 0.882756352424621582
2.01227923213309623e-16 0.546202480792999268 0.557891964912414551
2.01227923213309623e-16 0.132272243499755859 1.06156432628631592
2.01227923213309623e-16 0.149174496531486511 0.755604028701782227
2.01227923213309623e-16 1.19009244441986084 1.19528055191040039
2.01227923213309623e-16 1.05525612831115723 0.925334334373474121
2.01227923213309623e-16 0.771407425403594971 1.07803881168365479
2.01227923213309623e-16 0.572837531566619873 0.801569938659667969
2.01227923213309623e-16 0.153059855103492737 0.677950143814086914
2.01227923213309623e-16 0.0458106771111488342 0.328459739685058594
2.01227923213309623e-16 0.0025879773311316967 0.769261717796325684
2.01227923213309623e-16 1.08185136318206787 0.981730997562408447
2.01227923213309623e-16 0.324823349714279175 1.1017221212387085
2.01227923213309623e-16 0.202627584338188171 1.16052532196044922
2.01227923213309623e-16 0.969766139984130859 0.80638277530670166
2.01227923213309623e-16 0.0675002634525299072 1.21912229061126709
2.01227923213309623e-16 0.859053254127502441 0.978830695152282715
2.01227923213309623e-16 0.150288373231887817 1.18347418308258057
2.01227923213309623e-16 0.406902074813842773 0.46308600902557373
2.01227923213309623e-16 0.611484110355377197 1.23113250732421875
2.01227923213309623e-16 0.814515888690948486 0.673358559608459473
2.01227923213309623e-16 0.307502955198287964 0.917170166969299316
2.01227923213309623e-16 1.0793682336807251 0.969210147857666016
2.01227923213309623e-16 1.26611113548278809 1.00851631164550781
2.01227923213309623e-16 1.1477125883102417 1.24699389934539795
2.01227923213309623e-16 0.22835521399974823 0.179620265960693359
2.01227923213309623e-16 0.747662544250488281 0.735323667526245117
2.01227923213309623e-16 0.426361322402954102 1.06831109523773193
2.01227923213309623e-16 0.428353279829025269 0.687357306480407715
2.01227923213309623e-16 1.30586862564086914 1.04446661472320557
2.01227923213309623e-16 1.46894025802612305 1.20780634880065918
2.01227923213309623e-16 0.891715824604034424 0.794286131858825684
2.01227923213309623e-16 0.339634865522384644 1.23815286159515381
2.01227923213309623e-16 0.466238409280776978 1.2456977367401123
2.01227923213309623e-16 0.996247470378875732 0.821947455406188965
2.01227923213309623e-16 0.218575671315193176 0.484787821769714355
2.01227923213309623e-16 0.86473459005355835 0.794640541076660156
2.01227923213309623e-16 0.726212680339813232 1.08199942111968994
2.01227923213309623e-16 0.0442744120955467224 0.701942384243011475
2.01227923213309623e-16 0.820798397064208984 1.1702498197555542
2.01227923213309623e-16 1.13338887691497803 0.912013411521911621
2.01227923213309623e-16 0.641981542110443115 1.08312344551086426
2.01227923213309623e-16 0.00420159474015235901 0.212128877639770508
2.01227923213309623e-16 0.449333816766738892 1.0903782844543457
2.01227923213309623e-16 1.23128271102905273 1.22035586833953857
2.01227923213309623e-16 0.578565359115600586 0.691203832626342773
2.01227923213309623e-16 0.410372704267501831 0.906057357788085938
2.01227923213309623e-16 0.915249764919281006 1.21653330326080322
2.01227923213309623e-16 0.780536949634552002 0.722517967224121094
2.01227923213309623e-16 1.03119862079620361 1.06349563598632812
2.01227923213309623e-16 0.884521901607513428 0.904604673385620117
2.01227923213309623e-16 0.177425935864448547 0.590150713920593262
2.01227923213309623e-16 0.156839683651924133 0.132943630218505859
2.01227923213309623e-16 0.294110983610153198 0.268944978713989258
2.01227923213309623e-16 0.676008939743041992 1.05991005897521973
2.01227923213309623e-16 0.651514232158660889 0.628780245780944824
2.01227923213309623e-16 1.53248393535614014 1.22962629795074463
2.01227923213309623e-16 0.0801616758108139038 0.967118144035339355
2.01227923213309623e-16 0.0645885542035102844 1.04476773738861084
2.01227923213309623e-16 0.538097143173217773 1.2118607759475708
2.01227923213309623e-16 0.57268601655960083 0.681946814060211182
2.01227923213309623e-16 0.856833100318908691 1.10142707824707031
2.01227923213309623e-16 1.01018249988555908 1.01692163944244385
2.01227923213309623e-16 0.677545607089996338 1.15219640731811523
2.01227923213309623e-16 0.256073087453842163 0.995062112808227539
2.01227923213309623e-16 0.936809837818145752 0.948064923286437988
2.01227923213309623e-16 0.900888383388519287 0.970399975776672363
2.01227923213309623e-16 0.442622989416122437 0.696979999542236328
2.01227923213309623e-16 0.316763460636138916 0.554356276988983154
2.01227923213309623e-16 0.644290030002593994 0.734050273895263672
2.01227923213309623e-16 0.154340311884880066 0.197871565818786621
2.01227923213309623e-16 0.692854881286621094 1.16920018196105957
2.01227923213309623e-16 0.184787899255752563 1.13368415832519531
2.01227923213309623e-16 0.53244394063949585 0.818445146083831787
2.01227923213309623e-16 1.18430078029632568 1.21440017223358154
2.01227923213309623e-16 0.204008132219314575 1.01478958129882812
2.01227923213309623e-16 0.349194318056106567 0.902528643608093262
2.01227923213309623e-16 1.05644822120666504 0.982673525810241699
2.01227923213309623e-16 0.582306802272796631 0.712731420993804932
2.01227923213309623e-16 0.343027085065841675 0.645863890647888184
2.01227923213309623e-16 0.243424519896507263 0.309064984321594238
2.01227923213309623e-16 0.2378387451171875 0.269546031951904297
2.01227923213309623e-16 0.0311283264309167862 0.370631098747253418
2.01227923213309623e-16 1.11776351928710938 1.21305322647094727
2.01227923213309623e-16 0.368376106023788452 0.744534671306610107
2.01227923213309623e-16 0.0716293230652809143 1.1515345573425293
2.01227923213309623e-16 0.295260637998580933 0.544492840766906738
2.01227923213309623e-16 0.482679456472396851 1.13495862483978271
2.01227923213309623e-16 0.0890052467584609985 0.603337407112121582
2.01227923213309623e-16 1.04515647888183594 0.901993095874786377
2.01227923213309623e-16 0.647370040416717529 0.778895437717437744
2.01227923213309623e-16 0.424662798643112183 0.983897507190704346
2.01227923213309623e-16 0.250207781791687012 0.904404580593109131
2.01227923213309623e-16 0.477530568838119507 0.632241904735565186
2.01227923213309623e-16 1.10830605030059814 0.908239006996154785
2.01227923213309623e-16 1.41295361518859863 1.11487674713134766
2.01227923213309623e-16 0.142456933856010437 0.700848400592803955
2.01227923213309623e-16 0.538139522075653076 0.479188680648803711
2.01227923213309623e-16 0.496298789978027344 0.579039990901947021
2.01227923213309623e-16 0.216793090105056763 0.192559719085693359
2.01227923213309623e-16 0.833203971385955811 0.651714146137237549
2.01227923213309623e-16 0.93431776762008667 0.887217879295349121
2.01227923213309623e-16 0.584533274173736572 0.669116616249084473
2.01227923213309623e-16 0.0416734032332897186 0.85841447114944458
2.01227923213309623e-16 0.403299152851104736 0.439783990383148193
2.01227923213309623e-16 0.259288281202316284 0.719473063945770264
2.01227923213309623e-16 1.17563867568969727 0.965109527111053467
2.01227923213309623e-16 0.602394402027130127 0.512650012969970703
2.01227923213309623e-16 0.386163622140884399 1.20684313774108887
2.01227923213309623e-16 0.0726684331893920898 0.141081571578979492
2.01227923213309623e-16 1.22848916053771973 1.12077605724334717
2.01227923213309623e-16 0.297957450151443481 1.14861106872558594
2.01227923213309623e-16 0.237311273813247681 0.756998598575592041
2.01227923213309623e-16 1.12635183334350586 1.03471279144287109
2.01227923213309623e-16 0.188341870903968811 0.476815164089202881
2.01227923213309623e-16 1.33650362491607666 1.17291641235351562
2.01227923213309623e-16 0.896380126476287842 0.899713397026062012
2.01227923213309623e-16 0.195566341280937195 0.351502537727355957
2.01227923213309623e-16 0.355658233165740967 0.509194433689117432
2.01227923213309623e-16 0.117142520844936371 0.186142444610595703
2.01227923213309623e-16 0.252959191799163818 0.827147901058197021
2.01227923213309623e-16 0.690667271614074707 0.604022026062011719
2.01227923213309623e-16 0.192239567637443542 0.468190670013427734
2.01227923213309623e-16 0.118312478065490723 0.122767806053161621
2.01227923213309623e-16 0.772467315196990967 0.933766782283782959
2.01227923213309623e-16 0.703016400337219238 0.663218140602111816
2.01227923213309623e-16 1.20444118976593018 1.24607264995574951
2.01227923213309623e-16 1.34558093547821045 1.22389936447143555
2.01227923213309623e-16 0.253611057996749878 1.04757142066955566
2.01227923213309623e-16 1.47545695304870605 1.15992152690887451
2.01227923213309623e-16 0.284105896949768066 0.86948394775390625
2.01227923213309623e-16 0.0676232799887657166 0.85778510570526123
2.01227923213309623e-16 1.14735043048858643 1.16571497917175293
2.01227923213309623e-16 0.327101945877075195 1.08372068405151367
2.01227923213309623e-16 1.1827467679977417 1.24029743671417236
2.01227923213309623e-16 0.237211093306541443 0.275928974151611328
2.01227923213309623e-16 0.129870742559432983 0.909610390663146973
2.01227923213309623e-16 0.956056296825408936 0.853057622909545898
2.01227923213309623e-16 0.183464661240577698 1.14584445953369141
2.01227923213309623e-16 0.249962568283081055 0.804495275020599365
2.01227923213309623e-16 0.130022376775741577 0.926826715469360352
2.01227923213309623e-16 1.42680668830871582 1.16462063789367676
2.01227923213309623e-16 0.150267571210861206 1.04440402984619141
2.01227923213309623e-16 0.737763643264770508 0.640529990196228027
2.01227923213309623e-16 0.273871451616287231 0.918857693672180176
2.01227923213309623e-16 0.0566263087093830109 1.09480762481689453
2.01227923213309623e-16 0.0394443050026893616 0.0464763641357421875
2.01227923213309623e-16 0.189268171787261963 1.20235729217529297
2.01227923213309623e-16 0.135801717638969421 0.923219561576843262
2.01227923213309623e-16 0.469055414199829102 0.455367803573608398
2.01227923213309623e-16 0.135207712650299072 0.108091592788696289
2.01227923213309623e-16 0.112553469836711884 0.64087069034576416
2.01227923213309623e-16 0.0225237291306257248 0.66279834508895874
2.01227923213309623e-16 0.153151601552963257 1.16183960437774658
2.01227923213309623e-16 1.20765912532806396 1.07714784145355225
2.01227923213309623e-16 0.0790261626243591309 0.925153493881225586
2.01227923213309623e-16 0.522288382053375244 0.590256750583648682
2.01227923213309623e-16 1.47615790367126465 1.16027843952178955
2.01227923213309623e-16 0.350698918104171753 1.01108670234680176
2.01227923213309623e-16 0.0114152943715453148 0.756923794746398926
2.01227923213309623e-16 0.308403819799423218 0.509627163410186768
2.01227923213309623e-16 0.410812348127365112 1.22738313674926758
2.01227923213309623e-16 0.172968029975891113 0.978310942649841309
2.01227923213309623e-16 0.0720689520239830017 0.107922911643981934
2.01227923213309623e-16 0.572256743907928467 0.952031195163726807
2.01227923213309623e-16 0.185949265956878662 1.12508821487426758
2.01227923213309623e-16 0.247578740119934082 0.665709793567657471
2.01227923213309623e-16 0.911693036556243896 0.818950951099395752
2.01227923213309623e-16 0.237482354044914246 1.08155035972595215
2.01227923213309623e-16 0.0732245370745658875 0.457116246223449707
2.01227923213309623e-16 0.656290233135223389 1.06778967380523682
2.01227923213309623e-16 0.159333378076553345 0.748192906379699707
2.01227923213309623e-16 0.659210860729217529 0.936931729316711426
2.01227923213309623e-16 0.598876237869262695 1.05431663990020752
2.01227923213309623e-16 0.455532312393188477 0.992012381553649902
2.01227923213309623e-16 0.899574577808380127 1.20116162300109863
2.01227923213309623e-16 0.773393869400024414 0.864303290843963623
2.01227923213309623e-16 0.236690312623977661 0.912395775318145752
2.01227923213309623e-16 0.362566113471984863 0.330686688423156738
2.01227923213309623e-16 0.157376319169998169 0.172199010848999023
2.01227923213309623e-16 0.231899291276931763 0.773907899856567383
2.01227923213309623e-16 0.110765278339385986 0.928658962249755859
2.01227923213309623e-16 0.187686324119567871 0.75080573558807373
2.01227923213309623e-16 0.802104949951171875 1.19692134857177734
2.01227923213309623e-16 0.488944202661514282 0.720078110694885254
2.01227923213309623e-16 1.24279248714447021 1.01920855045318604
2.01227923213309623e-16 0.544459164142608643 1.24407339096069336
2.01227923213309623e-16 0.427929967641830444 1.11896967887878418
2.01227923213309623e-16 1.07882785797119141 0.845388710498809814
2.01227923213309623e-16 0.427447319030761719 1.03174102306365967
2.01227923213309623e-16 0.424044758081436157 1.0641244649887085
2.01227923213309623e-16 0.89855194091796875 0.876441597938537598
2.01227923213309623e-16 0.432307064533233643 0.740063667297363281
2.01227923213309623e-16 0.491995722055435181 0.716288208961486816
2.01227923213309623e-16 0.257160931825637817 0.506731867790222168
2.01227923213309623e-16 0.0301793366670608521 0.979523003101348877
2.01227923213309623e-16 0.293892174959182739 0.763506889343261719
2.01227923213309623e-16 0.938948333263397217 1.08876156806945801
2.01227923213309623e-16 0.344345688819885254 1.17479026317596436
2.01227923213309623e-16 0.494591325521469116 1.04599463939666748
2.01227923213309623e-16 0.0313118062913417816 0.95769953727722168
2.01227923213309623e-16 0.803849518299102783 0.927832901477813721
2.01227923213309623e-16 0.236908107995986938 0.800364136695861816
2.01227923213309623e-16 0.0757575184106826782 1.19454360008239746
2.01227923213309623e-16 0.666840076446533203 0.905077576637268066
2.01227923213309623e-16 0.826185345649719238 1.22860062122344971
2.01227923213309623e-16 0.139194220304489136 0.307952463626861572
2.01227923213309623e-16 0.548073470592498779 1.03117215633392334
2.01227923213309623e-16 0.287158936262130737 0.340795159339904785
2.01227923213309623e-16 0.974641025066375732 1.13906562328338623
2.01227923213309623e-16 0.416798025369644165 0.461907923221588135
2.01227923213309623e-16 0.52633976936340332 0.889575541019439697
2.01227923213309623e-16 0.465328425168991089 0.902440786361694336
2.01227923213309623e-16 0.0937754139304161072 0.338842570781707764
2.01227923213309623e-16 1.33134818077087402 1.14977622032165527
2.01227923213309623e-16 0.294512480497360229 0.602089464664459229
2.01227923213309623e-16 0.100815355777740479 0.341645956039428711
2.01227923213309623e-16 0.610832870006561279 0.725900053977966309
2.01227923213309623e-16 0.0906476005911827087 0.844075441360473633
2.01227923213309623e-16 1.57376492023468018 1.22975313663482666
2.01227923213309623e-16 1.0331803560256958 0.82398688793182373
2.01227923213309623e-16 0.813180863857269287 1.17613232135772705
2.01227923213309623e-16 0.746935427188873291 0.678461849689483643
