ply
format ascii 1.0
element vertex 959
property float x
property float y
property float z
end_header
0.585932016372680664 0.453492820262908936 0.234059363603591919
0.496854215860366821 0.551130175590515137 0.276404440402984619
0.379477143287658691 0.679786086082458496 0.0719183385372161865
0.381143838167190552 0.677959203720092773 0.252477914094924927
0.393381208181381226 0.664545953273773193 0.130240201950073242
0.555920302867889404 0.486388355493545532 0.214436352252960205
0.589514791965484619 0.449565768241882324 0.260792702436447144
0.545860052108764648 0.497415304183959961 0.299604177474975586
0.513848006725311279 0.532503426074981689 0.207185596227645874
0.526147127151489258 0.519022524356842041 0.200786858797073364
0.459313184022903442 0.592278540134429932 0.126942232251167297
0.528670907020568848 0.516256213188171387 0.258633971214294434
0.384755164384841919 0.674000859260559082 0.317123383283615112
0.395331621170043945 0.662408113479614258 0.0845382064580917358
0.432415753602981567 0.621760547161102295 0.232462942600250244
0.456104636192321777 0.595795392990112305 0.293409556150436401
0.583396077156066895 0.456272423267364502 0.262800276279449463
0.467920452356338501 0.582844197750091553 0.13452523946762085
0.578981697559356689 0.461111009120941162 0.24771234393119812
0.515320658683776855 0.530889272689819336 0.275199353694915771
0.575613558292388916 0.464802801609039307 0.274463117122650146
0.489619731903076172 0.559059798717498779 0.256866335868835449
0.430217087268829346 0.624170482158660889 0.221088051795959473
0.471139430999755859 0.579315900802612305 0.138378679752349854
0.666621565818786621 0.365049749612808228 0.317476838827133179
0.381191045045852661 0.677907466888427734 0.171592459082603455
0.440541267395019531 0.612854242324829102 0.201910704374313354
0.402721881866455078 0.654307723045349121 0.232728332281112671
0.639487147331237793 0.394791573286056519 0.285442113876342773
0.585144221782684326 0.45435631275177002 0.249575033783912659
0.426905155181884766 0.627800643444061279 0.209088146686553955
0.403015255928039551 0.653986155986785889 0.0820504426956176758
0.499034881591796875 0.548739969730377197 0.189631760120391846
0.577939987182617188 0.462252795696258545 0.298009634017944336
0.489843070507049561 0.55881500244140625 0.184142008423805237
0.427951961755752563 0.626653313636779785 0.261712372303009033
0.379481643438339233 0.679781138896942139 0.248663067817687988
0.573808550834655762 0.466781198978424072 0.295463204383850098
0.51347959041595459 0.532907247543334961 0.187422707676887512
0.449987858533859253 0.602499961853027344 0.208125054836273193
0.513016283512115479 0.533415079116821289 0.166691854596138
0.501238465309143066 0.546324610710144043 0.307547599077224731
0.443392336368560791 0.609729230403900146 0.299627155065536499
0.471261680126190186 0.579181909561157227 0.194616347551345825
0.436493784189224243 0.617290675640106201 0.236576974391937256
0.378514230251312256 0.680841505527496338 0.179134845733642578
0.400824248790740967 0.656387746334075928 0.218351423740386963
0.410317689180374146 0.645982027053833008 0.17275296151638031
0.420402765274047852 0.634927868843078613 0.223524481058120728
0.622484087944030762 0.413428395986557007 0.3126697838306427
0.405843764543533325 0.650885879993438721 0.13642100989818573
0.487012535333633423 0.561917543411254883 0.299050480127334595
0.504306197166442871 0.542962074279785156 0.263101845979690552
0.64296489953994751 0.390979588031768799 0.275256186723709106
0.509500265121459961 0.537268996238708496 0.278763294219970703
0.600495874881744385 0.437529474496841431 0.23257097601890564
0.675101399421691895 0.355755090713500977 0.310899168252944946
0.422337710857391357 0.632807016372680664 0.175245240330696106
0.45550963282585144 0.596447587013244629 0.176758289337158203
0.375227689743041992 0.684443891048431396 0.244446426630020142
0.407750993967056274 0.648795366287231445 0.268138617277145386
0.421750128269195557 0.63345104455947876 0.201489001512527466
0.582824945449829102 0.45689845085144043 0.306026339530944824
0.63543856143951416 0.399229168891906738 0.282159537076950073
0.4354686439037323 0.618414342403411865 0.314870506525039673
0.580678880214691162 0.459250748157501221 0.318572372198104858
0.475508302450180054 0.574527204036712646 0.238871067762374878
0.486587166786193848 0.562383770942687988 0.263976484537124634
0.383105605840682983 0.675808966159820557 0.0578621327877044678
0.471300840377807617 0.579138994216918945 0.173290207982063293
0.391479253768920898 0.666630685329437256 0.188399150967597961
0.448763877153396606 0.603841543197631836 0.0874383300542831421
0.414713561534881592 0.641163766384124756 0.267230957746505737
0.38669353723526001 0.671876251697540283 0.205917522311210632
0.380360305309295654 0.678818047046661377 0.103225782513618469
0.379093289375305176 0.680206835269927979 0.0754711180925369263
0.369515657424926758 0.690704762935638428 0.137626394629478455
0.600766003131866455 0.437233418226242065 0.311140686273574829
0.489227354526519775 0.559489905834197998 0.188619136810302734
0.396292328834533691 0.661355137825012207 0.187313348054885864
0.564130067825317383 0.477389752864837646 0.305951714515686035
0.564645707607269287 0.476824522018432617 0.302950799465179443
0.409732609987258911 0.646623313426971436 0.155398339033126831
0.514889001846313477 0.531362414360046387 0.287138372659683228
0.408285558223724365 0.648209452629089355 0.195716261863708496
0.462571829557418823 0.588706791400909424 0.169930487871170044
0.412162601947784424 0.643959879875183105 0.100560516119003296
0.448642075061798096 0.603975057601928711 0.0942798405885696411
0.412657201290130615 0.643417716026306152 0.216262251138687134
0.560491621494293213 0.481377780437469482 0.211286842823028564
0.403257668018341064 0.653720438480377197 0.265585094690322876
0.399213790893554688 0.658152937889099121 0.211460411548614502
0.400024473667144775 0.657264351844787598 0.071879953145980835
0.598753631114959717 0.439439177513122559 0.300973415374755859
0.381782442331314087 0.677259266376495361 0.288007110357284546
0.473322540521621704 0.576923012733459473 0.260516971349716187
0.442996621131896973 0.610162973403930664 0.290059983730316162
0.417815268039703369 0.63776397705078125 0.202594995498657227
0.461307883262634277 0.590092182159423828 0.174352094531059265
0.566371798515319824 0.474932551383972168 0.203109025955200195
0.364629209041595459 0.696060776710510254 0.100613623857498169
0.502804696559906006 0.544607877731323242 0.199326515197753906
0.445532023906707764 0.607383906841278076 0.105318218469619751
0.505069911479949951 0.54212498664855957 0.29642188549041748
0.520091533660888672 0.52565997838973999 0.174481764435768127
0.38061070442199707 0.678543567657470703 0.263587534427642822
0.532914817333221436 0.511604487895965576 0.197867825627326965
0.420864731073379517 0.63442152738571167 0.194290578365325928
0.590843141078948975 0.448109805583953857 0.28178858757019043
0.520253181457519531 0.525482773780822754 0.198480114340782166
0.437960386276245117 0.615683138370513916 0.231681942939758301
0.402040213346481323 0.655054926872253418 0.262588620185852051
0.45341762900352478 0.598740577697753906 0.22484588623046875
0.660254001617431641 0.37202918529510498 0.31337776780128479
0.44490581750869751 0.608070313930511475 0.143195688724517822
0.520128846168518066 0.525619029998779297 0.205237537622451782
0.400898635387420654 0.656306207180023193 0.290728926658630371
0.596676111221313477 0.441716313362121582 0.230335265398025513
0.526348710060119629 0.518801510334014893 0.166079238057136536
0.419330716133117676 0.636102914810180664 0.0632910728454589844
0.520518302917480469 0.525192141532897949 0.264958798885345459
0.373218566179275513 0.686646044254302979 0.178592517971992493
0.48827362060546875 0.560535252094268799 0.19037020206451416
0.486122101545333862 0.562893509864807129 0.287772327661514282
0.411836922168731689 0.644316792488098145 0.0856167078018188477
0.480129122734069824 0.569462358951568604 0.176541775465011597
0.589509308338165283 0.449571788311004639 0.232271075248718262
0.372694581747055054 0.687220394611358643 0.202818721532821655
0.374831736087799072 0.684877872467041016 0.179029390215873718
0.412287622690200806 0.643822789192199707 0.263845473527908325
0.385144501924514771 0.673574149608612061 0.184347465634346008
0.413967609405517578 0.641981363296508789 0.181140214204788208
0.400596171617507935 0.656637728214263916 0.105758041143417358
0.630353808403015137 0.404802501201629639 0.297173142433166504
0.546335756778717041 0.496893882751464844 0.279883086681365967
0.398248046636581421 0.659211456775665283 0.289576679468154907
0.524854540824890137 0.520439267158508301 0.254778534173965454
0.508979916572570801 0.537839293479919434 0.275219768285751343
0.397021085023880005 0.660556316375732422 0.310506135225296021
0.441364288330078125 0.61195218563079834 0.274343162775039673
0.383826613426208496 0.675018668174743652 0.0885151028633117676
0.407757043838500977 0.648788750171661377 0.241699591279029846
0.507585525512695312 0.53936767578125 0.316547125577926636
0.443264484405517578 0.60986936092376709 0.277237862348556519
0.378212958574295044 0.681171715259552002 0.274872839450836182
0.439160436391830444 0.614367783069610596 0.13799498975276947
0.594486594200134277 0.444116204977035522 0.248547419905662537
0.558516621589660645 0.48354262113571167 0.205830559134483337
0.510186493396759033 0.536516785621643066 0.243594616651535034
0.424731850624084473 0.630182802677154541 0.180923596024513245
0.419166028499603271 0.636283457279205322 0.111802056431770325
0.624026834964752197 0.411737442016601562 0.294980019330978394
0.408259540796279907 0.648237943649291992 0.265211522579193115
0.433685153722763062 0.620369195938110352 0.212837100028991699
0.581909358501434326 0.457902014255523682 0.228705137968063354
0.515184998512268066 0.531037986278533936 0.232360720634460449
0.481673836708068848 0.567769289016723633 0.269036412239074707
0.478185981512069702 0.571592211723327637 0.135638430714607239
0.465688526630401611 0.58529055118560791 0.230592727661132812
0.584287524223327637 0.455295324325561523 0.214242011308670044
0.497639328241348267 0.550269603729248047 0.132764697074890137
0.575727641582489014 0.464677751064300537 0.305664598941802979
0.364503532648086548 0.696198523044586182 0.233609765768051147
0.382271260023117065 0.676723480224609375 0.17782120406627655
0.441538095474243164 0.611761629581451416 0.307431846857070923
0.521770358085632324 0.523819804191589355 0.283512204885482788
0.553338706493377686 0.489218056201934814 0.24813804030418396
0.569981932640075684 0.470975577831268311 0.319022029638290405
0.437863796949386597 0.61578899621963501 0.279161244630813599
0.370675116777420044 0.689433932304382324 0.230072230100631714
0.365642189979553223 0.694950401782989502 0.308308988809585571
0.603964269161224365 0.433727860450744629 0.281919568777084351
0.504376590251922607 0.542884945869445801 0.311193376779556274
0.579730391502380371 0.460290372371673584 0.223560303449630737
0.534844756126403809 0.509489059448242188 0.166187912225723267
0.48519665002822876 0.563907921314239502 0.226204842329025269
0.667983174324035645 0.363557279109954834 0.317919373512268066
0.434828877449035645 0.619115531444549561 0.311763465404510498
0.54489433765411377 0.498473852872848511 0.313368886709213257
0.46872556209564209 0.581961750984191895 0.115745335817337036
0.519957363605499268 0.525807023048400879 0.208637803792953491
0.586519837379455566 0.452848523855209351 0.312287688255310059
0.518793165683746338 0.527083098888397217 0.225521758198738098
0.443010926246643066 0.610147297382354736 0.208340942859649658
0.487626433372497559 0.561244606971740723 0.286073923110961914
0.512193799018859863 0.534316539764404297 0.177760124206542969
0.527885854244232178 0.517116665840148926 0.169298827648162842
0.61322474479675293 0.42357751727104187 0.250551909208297729
0.601826190948486328 0.43607136607170105 0.311864137649536133
0.376285135746002197 0.68328481912612915 0.287752687931060791
0.507740497589111328 0.539197802543640137 0.169664010405540466
0.383783042430877686 0.67506641149520874 0.261005133390426636
0.478920578956604004 0.57078707218170166 0.280282139778137207
0.527029037475585938 0.518055856227874756 0.227446824312210083
0.60430830717086792 0.433350741863250732 0.302162230014801025
0.509860634803771973 0.536873936653137207 0.228629738092422485
0.505246281623840332 0.541931748390197754 0.144057363271713257
0.612357258796691895 0.424528390169143677 0.290726840496063232
0.511393249034881592 0.535194098949432373 0.218663603067398071
0.494883805513381958 0.553289890289306641 0.180226445198059082
0.378125578165054321 0.681267499923706055 0.274373084306716919
0.455045759677886963 0.596956014633178711 0.165625214576721191
0.415266364812850952 0.640557825565338135 0.16453947126865387
0.487241536378860474 0.561666548252105713 0.172692999243736267
0.433972209692001343 0.620054543018341064 0.316749691963195801
0.461580842733383179 0.589792966842651367 0.290105462074279785
0.428860723972320557 0.625657200813293457 0.113117024302482605
0.64052736759185791 0.393651336431503296 0.300695091485977173
0.545410513877868652 0.497908085584640503 0.232153922319412231
0.389115005731582642 0.669222116470336914 0.289780169725418091
0.480234205722808838 0.569347202777862549 0.180976048111915588
0.388758629560470581 0.669612705707550049 0.101069033145904541
0.407703578472137451 0.648847341537475586 0.123162731528282166
0.68251645565032959 0.347627520561218262 0.30555686354637146
0.391214042901992798 0.666921377182006836 0.0629728138446807861
0.451899826526641846 0.600404262542724609 0.289149492979049683
0.37871706485748291 0.680619180202484131 0.233089849352836609
0.436147242784500122 0.617670536041259766 0.10140363872051239
0.443563938140869141 0.609541177749633789 0.197082251310348511
0.561098694801330566 0.480712413787841797 0.269067376852035522
0.44668501615524292 0.606120169162750244 0.282036125659942627
0.43594089150428772 0.617896676063537598 0.306701898574829102
0.630918264389038086 0.404183775186538696 0.307759732007980347
0.514336585998535156 0.53196793794631958 0.24888688325881958
0.383173733949661255 0.675734281539916992 0.14102645218372345
0.498960644006729126 0.548821330070495605 0.163016155362129211
0.581648468971252441 0.458187967538833618 0.3148823082447052
0.366308718919754028 0.694219887256622314 0.191702425479888916
0.470364123582839966 0.580165684223175049 0.314831912517547607
0.390683859586715698 0.667502522468566895 0.151693001389503479
0.532928824424743652 0.511589109897613525 0.287321239709854126
0.427117913961410522 0.627567470073699951 0.207931399345397949
0.429037690162658691 0.625463247299194336 0.117094099521636963
0.559795916080474854 0.48214036226272583 0.223391011357307434
0.587092280387878418 0.452221035957336426 0.318173915147781372
0.484078645706176758 0.565133333206176758 0.173544019460678101
0.442983001470565796 0.610177874565124512 0.273750901222229004
0.610869109630584717 0.426159471273422241 0.310156464576721191
0.453385531902313232 0.598775744438171387 0.184898719191551208
0.621164202690124512 0.414875179529190063 0.308304280042648315
0.450507014989852905 0.601930916309356689 0.249469220638275146
0.418063610792160034 0.637491822242736816 0.20356065034866333
0.386646002531051636 0.671928346157073975 0.186995387077331543
0.482380211353302002 0.566995024681091309 0.193280592560768127
0.377633243799209595 0.681807160377502441 0.0355775654315948486
0.42456391453742981 0.630366921424865723 0.219815343618392944
0.476786375045776367 0.573126316070556641 0.236847609281539917
0.400900125503540039 0.656304538249969482 0.297208279371261597
0.540877640247344971 0.502876460552215576 0.202510520815849304
0.368718206882476807 0.691578865051269531 0.316223859786987305
0.380312561988830566 0.67887037992477417 0.0726388692855834961
0.484449625015258789 0.564726710319519043 0.120208680629730225
0.367900341749191284 0.692475318908691406 0.00817331671714782715
0.489284515380859375 0.559427261352539062 0.26409265398979187
0.382122188806533813 0.676886856555938721 0.0904205441474914551
0.486998558044433594 0.561932802200317383 0.243430763483047485
0.589720666408538818 0.449340105056762695 0.310075223445892334
0.557524442672729492 0.484630107879638672 0.281469553709030151
0.462076932191848755 0.589249253273010254 0.245282173156738281
0.47098839282989502 0.579481422901153564 0.160635441541671753
0.628425121307373047 0.406916558742523193 0.295155912637710571
0.396495461463928223 0.661132454872131348 0.08352622389793396
0.502824962139129639 0.544585704803466797 0.318214684724807739
0.501550197601318359 0.545982956886291504 0.277928978204727173
0.393386304378509521 0.664540350437164307 0.196581602096557617
0.456330209970474243 0.595548152923583984 0.125643834471702576
0.642920017242431641 0.391028821468353271 0.298949062824249268
0.361655265092849731 0.699320495128631592 0.257908165454864502
0.648458719253540039 0.384957849979400635 0.272394359111785889
0.480588465929031372 0.568958878517150879 0.125680848956108093
0.386804491281509399 0.671754658222198486 0.0816170275211334229
0.566240549087524414 0.475076436996459961 0.25252106785774231
0.527577221393585205 0.517454981803894043 0.22481854259967804
0.449795186519622803 0.602711141109466553 0.221538320183753967
0.435888946056365967 0.617953598499298096 0.237556338310241699
0.490121752023696899 0.558509588241577148 0.261412262916564941
0.502448558807373047 0.544998228549957275 0.215160772204399109
0.396216988563537598 0.661437690258026123 0.0339501798152923584
0.602691888809204102 0.435122489929199219 0.267960458993911743
0.411214709281921387 0.644998848438262939 0.162273705005645752
0.550352096557617188 0.492491662502288818 0.196147024631500244
0.40063631534576416 0.656593680381774902 0.24814547598361969
0.505364894866943359 0.541801691055297852 0.200008198618888855
0.442801207304000854 0.610377132892608643 0.0866266191005706787
0.614030957221984863 0.422693848609924316 0.242401480674743652
0.425782740116119385 0.629030942916870117 0.135687157511711121
0.541232824325561523 0.5024871826171875 0.28946220874786377
0.487078666687011719 0.561845064163208008 0.126629695296287537
0.560273051261901855 0.481617331504821777 0.27692103385925293
0.545388936996459961 0.497931718826293945 0.20848238468170166
0.379035323858261108 0.68027031421661377 0.247239962220191956
0.469152629375457764 0.581493616104125977 0.248203381896018982
0.48436439037322998 0.56482011079788208 0.213531613349914551
0.516079068183898926 0.530058026313781738 0.301015496253967285
0.366153627634048462 0.694389879703521729 0.042126387357711792
0.562022864818572998 0.479699432849884033 0.306867539882659912
0.432682067155838013 0.621468663215637207 0.288801074028015137
0.364130377769470215 0.696607530117034912 0.132789015769958496
0.469727993011474609 0.580862998962402344 0.250363290309906006
0.567327439785003662 0.473885118961334229 0.207330852746963501
0.428506076335906982 0.626045942306518555 0.0896293669939041138
0.521279096603393555 0.524358272552490234 0.157600492238998413
0.602419197559356689 0.435421377420425415 0.251478075981140137
0.423826545476913452 0.631175100803375244 0.199289754033088684
0.365497022867202759 0.695109546184539795 0.27888786792755127
0.483020305633544922 0.56629335880279541 0.185731366276741028
0.190035730600357056 0.361580371856689453 0
0.247986495494842529 0.562533736228942871 0
0.0980691015720367432 0.342589974403381348 0
0.280508637428283691 0.46784016489982605 0
0.308098167181015015 0.274584293365478516 0
0.243123859167098999 0.51346820592880249 0
0.290020644664764404 0.43292352557182312 0
0.228404849767684937 0.531308293342590332 0
0.338059186935424805 0.440165460109710693 0
0.325974881649017334 0.129108846187591553 0
0.313020676374435425 0.133782446384429932 0
0.335236042737960815 0.551926016807556152 0
0.24492347240447998 0.33551323413848877 0
0.229772657155990601 0.139929056167602539 0
0.160839512944221497 0.46165090799331665 0
0.159995198249816895 0.384979575872421265 0
0.235049635171890259 0.537823915481567383 0
0.0983376950025558472 0.327892720699310303 0
0.219370573759078979 0.432051599025726318 0
0.332649379968643188 0.506906270980834961 0
0.305553615093231201 0.133589357137680054 0
0.300599932670593262 0.480830401182174683 0
0.302732229232788086 0.149942308664321899 0
0.15924796462059021 0.405903905630111694 0
0.316369324922561646 0.164102166891098022 0
0.308796465396881104 0.27242007851600647 0
0.199510902166366577 0.444402039051055908 0
0.319222539663314819 0.211683899164199829 0
0.303117126226425171 0.0434572994709014893 0
0.272734969854354858 0.616093039512634277 0
0.297942519187927246 0.23007182776927948 0
0.334282219409942627 0.609115540981292725 0
0.324485093355178833 0.445654064416885376 0
0.313654273748397827 0.186231017112731934 0
0.29588162899017334 0.426037967205047607 0
0.317085236310958862 0.537365257740020752 0
0.27411264181137085 0.590155541896820068 0
0.346317470073699951 0.374988347291946411 0
0.250524759292602539 0.572220981121063232 0
0.285660833120346069 0.600415587425231934 0
0.166498705744743347 0.189454108476638794 0
0.206112250685691833 0.533212125301361084 0
0.319902777671813965 0.200366944074630737 0
0.311923056840896606 0.612972140312194824 0
0.12235897034406662 0.378292679786682129 0
0.10360843688249588 0.319746196269989014 0
0.0494780130684375763 0.333736002445220947 0
0.32803305983543396 0.612010002136230469 0
0.149486362934112549 0.349739968776702881 0
0.227248579263687134 0.206757307052612305 0
0.0495719276368618011 0.349436551332473755 0
0.196189224720001221 0.434654206037521362 0
0.245191007852554321 0.58319091796875 0
0.198021888732910156 0.405727565288543701 0
0.173690885305404663 0.473637759685516357 0
0.114602357149124146 0.314312756061553955 0
0.298910677433013916 0.402940720319747925 0
0.251113802194595337 0.594481587409973145 0
0.260069847106933594 0.578912496566772461 0
0.226957440376281738 0.242772817611694336 0
0.241387039422988892 0.577461481094360352 0
0.180336236953735352 0.27916252613067627 0
0.307824194431304932 0.528440535068511963 0
0.114704325795173645 0.456470966339111328 0
0.328532516956329346 0.333038061857223511 0
0.297505021095275879 0.308104902505874634 0
0.289196550846099854 0.543277442455291748 0
0.207858413457870483 0.228170350193977356 0
0.335165023803710938 0.279391109943389893 0
0.303173363208770752 0.328196167945861816 0
0.346915304660797119 0.334330826997756958 0
0.176805168390274048 0.408021092414855957 0
0.3067207932472229 0.33221745491027832 0
0.240445837378501892 0.39560234546661377 0
0.168977558612823486 0.314194202423095703 0
0.118573799729347229 0.280153840780258179 0
0.328998148441314697 0.300545424222946167 0
0.261366009712219238 0.133008569478988647 0
0.232529640197753906 0.447096496820449829 0
0.141616135835647583 0.412648409605026245 0
0.19407227635383606 0.266092240810394287 0
0.182259351015090942 0.199664115905761719 0
0.247464984655380249 0.377160042524337769 0
0.32290378212928772 0.0593194663524627686 0
0.31555590033531189 0.0795861482620239258 0
0.298615843057632446 0.465943455696105957 0
0.287921160459518433 0.150278240442276001 0
0.283342689275741577 0.501870572566986084 0
0.218042120337486267 0.555776357650756836 0
0.204099357128143311 0.240786954760551453 0
0.170532017946243286 0.260572493076324463 0
0.28970181941986084 0.584266781806945801 0
0.276711255311965942 0.124984771013259888 0
0.33335450291633606 0.0816901028156280518 0
0.220534265041351318 0.355279028415679932 0
0.332884728908538818 0.064793020486831665 0
0.342220395803451538 0.679186582565307617 0
0.141886085271835327 0.397089481353759766 0
0.217812955379486084 0.558181345462799072 0
0.326441824436187744 0.267207324504852295 0
0.189673691987991333 0.182111397385597229 0
0.334220916032791138 0.123434931039810181 0
0.10216984897851944 0.41353994607925415 0
0.328151583671569824 0.647668242454528809 0
0.320382952690124512 0.423089087009429932 0
0.0520673468708992004 0.319178164005279541 0
0.308685451745986938 0.259212851524353027 0
0.107431218028068542 0.282635986804962158 0
0.217708408832550049 0.145042896270751953 0
0.23580719530582428 0.575590968132019043 0
0.254285573959350586 0.271539837121963501 0
0.341407805681228638 0.632627248764038086 0
0.287100434303283691 0.627038955688476562 0
0.342576861381530762 0.578414022922515869 0
0.25282624363899231 0.15381641685962677 0
0.251515418291091919 0.14567236602306366 0
0.0908524245023727417 0.34902682900428772 0
0.183016061782836914 0.395985603332519531 0
0.344881832599639893 0.671842515468597412 0
0.303199827671051025 0.219674646854400635 0
0.246216610074043274 0.280297577381134033 0
0.288972288370132446 0.213644891977310181 0
0.339606821537017822 0.440346568822860718 0
0.165489509701728821 0.421788811683654785 0
0.197256669402122498 0.513880491256713867 0
0.102082528173923492 0.257933735847473145 0
0.339295566082000732 0.136644095182418823 0
0.308313429355621338 0.117098689079284668 0
0.0902385115623474121 0.400415718555450439 0
0.221309781074523926 0.393978625535964966 0
0.355324298143386841 0.523573994636535645 0
0.21559278666973114 0.552860856056213379 0
0.204333275556564331 0.379018247127532959 0
0.267567545175552368 0.281985223293304443 0
0.111407622694969177 0.256337970495223999 0
0.172136232256889343 0.415362060070037842 0
0.283926099538803101 0.256768167018890381 0
0.162574231624603271 0.459948301315307617 0
0.318881750106811523 0.650956511497497559 0
0.347398638725280762 0.64613187313079834 0
0.12277580052614212 0.237779036164283752 0
0.228513076901435852 0.18592563271522522 0
0.156905174255371094 0.363377988338470459 0
0.114477917551994324 0.373031497001647949 0
0.236682191491127014 0.576247692108154297 0
0.281190931797027588 0.623976409435272217 0
0.219773203134536743 0.482520520687103271 0
0.060332760214805603 0.400674581527709961 0
0.280609130859375 0.136200785636901855 0
0.270376771688461304 0.551810383796691895 0
0.226846009492874146 0.466824054718017578 0
0.127469733357429504 0.474127709865570068 0
0.176439270377159119 0.306255549192428589 0
0.325345724821090698 0.231605023145675659 0
0.245144039392471313 0.266154706478118896 0
0.34505230188369751 0.647787213325500488 0
0.274330109357833862 0.503646910190582275 0
0.237114325165748596 0.490111768245697021 0
0.0516447648406028748 0.372972548007965088 0
0.357847332954406738 0.671129941940307617 0
0.230822056531906128 0.504757463932037354 0
0.258505821228027344 0.597046852111816406 0
0.136633425951004028 0.429285526275634766 0
0.051015026867389679 0.366350382566452026 0
0.208310961723327637 0.414825946092605591 0
0.107989944517612457 0.460969507694244385 0
0.0999501496553421021 0.269958376884460449 0
0.310300439596176147 0.325020194053649902 0
0.230084925889968872 0.428887784481048584 0
0.212511450052261353 0.314263790845870972 0
0.199230179190635681 0.39140784740447998 0
0.264459967613220215 0.21516139805316925 0
0.33623504638671875 0.402895510196685791 0
0.144024327397346497 0.439365953207015991 0
0.175976917147636414 0.202739119529724121 0
0.294631779193878174 0.223313644528388977 0
0.171752363443374634 0.192479506134986877 0
0.271369487047195435 0.269193261861801147 0
0.0752776414155960083 0.417282223701477051 0
0.323462873697280884 0.485245108604431152 0
0.230517134070396423 0.143064990639686584 0
0.234914734959602356 0.547042787075042725 0
0.116559505462646484 0.40391087532043457 0
0.340738087892532349 0.599250495433807373 0
0.302618473768234253 0.563258469104766846 0
0.295159876346588135 0.573787033557891846 0
0.317898839712142944 0.460977375507354736 0
0.323777645826339722 0.0399339795112609863 0
0.118791356682777405 0.362609207630157471 0
0.299298375844955444 0.152571350336074829 0
0.150444716215133667 0.428623348474502563 0
0.121443763375282288 0.36986619234085083 0
0.196655631065368652 0.50529944896697998 0
0.280671119689941406 0.179102763533592224 0
0.268539339303970337 0.501340150833129883 0
0.309439897537231445 0.520775437355041504 0
0.206369370222091675 0.172404021024703979 0
0.337977111339569092 0.068651735782623291 0
0.283382803201675415 0.348860621452331543 0
0.0502920560538768768 0.400886416435241699 0
0.33870995044708252 0.500171363353729248 0
0.111454322934150696 0.275424420833587646 0
0.273328453302383423 0.185855850577354431 0
0.312329798936843872 0.082602381706237793 0
0.216383635997772217 0.172471344470977783 0
0.220552563667297363 0.363142073154449463 0
0.318071216344833374 0.609165787696838379 0
0.203671440482139587 0.395640671253204346 0
0.062709420919418335 0.316261708736419678 0
0.230081930756568909 0.446577906608581543 0
0.135980695486068726 0.368216931819915771 0
0.196334809064865112 0.3051108717918396 0
0.317989945411682129 0.378568977117538452 0
0.213672369718551636 0.337676465511322021 0
0.176243826746940613 0.514746904373168945 0
0.223361670970916748 0.529472827911376953 0
0.285750478506088257 0.273615777492523193 0
0.331338822841644287 0.416027277708053589 0
0.288234084844589233 0.475992769002914429 0
0.32916557788848877 0.198953032493591309 0
0.325115054845809937 0.206223577260971069 0
0.127036973834037781 0.387798577547073364 0
0.139434486627578735 0.312344938516616821 0
0.240918636322021484 0.139375045895576477 0
0.221810609102249146 0.556130349636077881 0
0.328231215476989746 0.384114682674407959 0
0.289024114608764648 0.0819295942783355713 0
0.21449752151966095 0.327956885099411011 0
0.303448945283889771 0.363291472196578979 0
0.354728370904922485 0.651354610919952393 0
0.30121082067489624 0.494735866785049438 0
0.29377293586730957 0.60057520866394043 0
0.173108413815498352 0.461405038833618164 0
0.309289067983627319 0.447000801563262939 0
0.195014864206314087 0.234942734241485596 0
0.286105215549468994 0.271992862224578857 0
0.237911462783813477 0.323327362537384033 0
0.346246242523193359 0.400001764297485352 0
0.25915876030921936 0.166409343481063843 0
0.331188321113586426 0.183205574750900269 0
0.271050393581390381 0.469178736209869385 0
0.214972972869873047 0.465394943952560425 0
0.334170103073120117 0.646667361259460449 0
0.343848824501037598 0.471584618091583252 0
0.102840282022953033 0.275954157114028931 0
0.20854303240776062 0.155246064066886902 0
0.117139533162117004 0.465481072664260864 0
0.0537716411054134369 0.416437774896621704 0
0.303985387086868286 0.305890947580337524 0
0.304001152515411377 0.199576184153556824 0
0.0699624121189117432 0.387925595045089722 0
0.0962929651141166687 0.450152784585952759 0
0.0781492367386817932 0.313126146793365479 0
0.289906114339828491 0.388177871704101562 0
0.257663428783416748 0.332271218299865723 0
0.13013593852519989 0.252791762351989746 0
0.21596844494342804 0.207945674657821655 0
0.172477215528488159 0.311735033988952637 0
0.250417411327362061 0.279753208160400391 0
0.205007389187812805 0.538497388362884521 0
0.287180334329605103 0.273006647825241089 0
0.166526645421981812 0.190287783741950989 0
0.181191712617874146 0.348763316869735718 0
0.171156197786331177 0.230472788214683533 0
0.302766323089599609 0.109219938516616821 0
0.241332083940505981 0.580894112586975098 0
0.190818682312965393 0.378947198390960693 0
0.155038043856620789 0.309249848127365112 0
0.225105613470077515 0.292982518672943115 0
0.259319931268692017 0.568861961364746094 0
0.331147491931915283 0.403327584266662598 0
0.297012686729431152 0.542525351047515869 0
0.23436245322227478 0.208967775106430054 0
0.0409636572003364563 0.402269572019577026 0
0.0877462923526763916 0.44056364893913269 0
0.335501104593276978 0.196204662322998047 0
0.311649799346923828 0.39220041036605835 0
0.191981330513954163 0.217581629753112793 0
0.348599553108215332 0.569502294063568115 0
0.251585036516189575 0.287511289119720459 0
0.334021687507629395 0.139077156782150269 0
0.18015289306640625 0.234195217490196228 0
0.270825773477554321 0.490115940570831299 0
0.340413749217987061 0.461370706558227539 0
0.087226569652557373 0.379320889711380005 0
0.198967278003692627 0.311100363731384277 0
0.32876664400100708 0.332092404365539551 0
0.202366098761558533 0.268549323081970215 0
0.312802135944366455 0.552023053169250488 0
0.282613784074783325 0.459461867809295654 0
0.0813220664858818054 0.357658743858337402 0
0.0335274189710617065 0.395559012889862061 0
0.158041089773178101 0.245971232652664185 0
0.0568080246448516846 0.383722513914108276 0
0.236175298690795898 0.516169250011444092 0
0.23622971773147583 0.563298881053924561 0
0.289629578590393066 0.0907641947269439697 0
0.328713476657867432 0.382581204175949097 0
0.180100306868553162 0.340684771537780762 0
0.274482667446136475 0.417642980813980103 0
0.334639877080917358 0.42987436056137085 0
0.193604305386543274 0.272349923849105835 0
0.146290943026542664 0.286751449108123779 0
0.253374338150024414 0.4700966477394104 0
0.0383787937462329865 0.347234576940536499 0
0.337166905403137207 0.413355231285095215 0
0.333279252052307129 0.098829805850982666 0
0.162886708974838257 0.318496376276016235 0
0.143390357494354248 0.43930169939994812 0
0.218342751264572144 0.331790924072265625 0
0.332153975963592529 0.341997683048248291 0
0.0704231560230255127 0.360177069902420044 0
0.141245990991592407 0.333115726709365845 0
0.23717460036277771 0.344014227390289307 0
0.320749729871749878 0.610320210456848145 0
0.175002545118331909 0.393546789884567261 0
0.260185569524765015 0.589512407779693604 0
0.208305910229682922 0.307428479194641113 0
0.165839344263076782 0.457248479127883911 0
0.223765000700950623 0.380556732416152954 0
0.245728611946105957 0.353999555110931396 0
0.281561136245727539 0.367087095975875854 0
0.326096296310424805 0.59118884801864624 0
0.188234686851501465 0.341716408729553223 0
0.237084150314331055 0.281618416309356689 0
0.207431837916374207 0.181030213832855225 0
0.24934917688369751 0.303295731544494629 0
0.1526661217212677 0.208872333168983459 0
0.280871421098709106 0.134531199932098389 0
0.224148198962211609 0.254939258098602295 0
0.170923322439193726 0.214728549122810364 0
0.119968004524707794 0.349493265151977539 0
0.336067765951156616 0.336256682872772217 0
0.307706445455551147 0.0348088741302490234 0
0.248994693160057068 0.254790544509887695 0
0.30641523003578186 0.13977515697479248 0
0.181705579161643982 0.229375407099723816 0
0.222924351692199707 0.516488313674926758 0
0.291898399591445923 0.627019286155700684 0
0.0844391733407974243 0.306948393583297729 0
0.255204558372497559 0.302471935749053955 0
0.23829987645149231 0.355440586805343628 0
0.0991566777229309082 0.322879403829574585 0
0.194329351186752319 0.285464018583297729 0
0.215698137879371643 0.445077836513519287 0
0.279216349124908447 0.356473445892333984 0
0.307059884071350098 0.466169953346252441 0
0.190467372536659241 0.455430567264556885 0
0.307987898588180542 0.635779798030853271 0
0.153391435742378235 0.253565102815628052 0
0.25382232666015625 0.192805945873260498 0
0.279511630535125732 0.182838603854179382 0
0.233349353075027466 0.491447865962982178 0
0.0818906649947166443 0.408011674880981445 0
0.15633922815322876 0.27437099814414978 0
0.255211114883422852 0.425875753164291382 0
0.182881683111190796 0.255601584911346436 0
0.106368109583854675 0.349048435688018799 0
0.157176464796066284 0.33275565505027771 0
0.299982219934463501 0.30401003360748291 0
0.229030981659889221 0.124349310994148254 0
0.267165035009384155 0.133858621120452881 0
0.296100080013275146 0.303838580846786499 0
0.331531226634979248 0.366073161363601685 0
0.0738714337348937988 0.301650196313858032 0
0.232071906328201294 0.2343645840883255 0
0.217220038175582886 0.225072115659713745 0
0.240185260772705078 0.238093048334121704 0
0.273473918437957764 0.104092925786972046 0
0.247227311134338379 0.180655822157859802 0
0.119499444961547852 0.374252498149871826 0
0.341208696365356445 0.356225848197937012 0
0.204448908567428589 0.508896589279174805 0
0.31017640233039856 0.501440286636352539 0
0.235223531723022461 0.523484706878662109 0
0.327148973941802979 0.658347845077514648 0
0.159528642892837524 0.481801003217697144 0
0.257104218006134033 0.490021109580993652 0
0.154655680060386658 0.410470724105834961 0
0.328834086656570435 0.199144721031188965 0
0.192528754472732544 0.249658554792404175 0
0.222156837582588196 0.143094971776008606 0
0.251370668411254883 0.541547536849975586 0
0.224614441394805908 0.407196223735809326 0
0.133084282279014587 0.240057855844497681 0
0.332618117332458496 0.339659273624420166 0
0.196741253137588501 0.405926018953323364 0
0.255480498075485229 0.280497491359710693 0
0.291938513517379761 0.105382263660430908 0
0.180916711688041687 0.520415425300598145 0
0.309304416179656982 0.136224657297134399 0
0.211686819791793823 0.42392614483833313 0
0.259243160486221313 0.453512191772460938 0
0.137347623705863953 0.381663918495178223 0
0.291058152914047241 0.29418647289276123 0
0.157070010900497437 0.445982068777084351 0
0.157445996999740601 0.460000306367874146 0
0.228012561798095703 0.270549029111862183 0
0.071154668927192688 0.418070167303085327 0
0.325110495090484619 0.665561974048614502 0
0.110826179385185242 0.464943498373031616 0
0.305340945720672607 0.566653609275817871 0
0.306232631206512451 0.332948595285415649 0
0.0950959548354148865 0.435056716203689575 0
0.285984039306640625 0.366179227828979492 0
0.251438051462173462 0.48659980297088623 0
0.293020784854888916 0.509633898735046387 0
0.294528394937515259 0.0612490177154541016 0
0.0983840674161911011 0.439857542514801025 0
0.0937513560056686401 0.309763818979263306 0
0.306114554405212402 0.143113851547241211 0
0.314851760864257812 0.613831698894500732 0
0.250514507293701172 0.241225287318229675 0
0.350992202758789062 0.672377824783325195 0
0.194622278213500977 0.450451791286468506 0
0.0994497090578079224 0.364456355571746826 0
0.304833769798278809 0.136773169040679932 0
0.309576243162155151 0.477636516094207764 0
0.222735166549682617 0.275500357151031494 0
0.327768683433532715 0.625011742115020752 0
0.264060139656066895 0.0938740670680999756 0
0.173438996076583862 0.397671282291412354 0
0.13458646833896637 0.327947676181793213 0
0.241022318601608276 0.154783681035041809 0
0.355238407850265503 0.557849764823913574 0
0.238856062293052673 0.465486407279968262 0
0.214517489075660706 0.197877645492553711 0
0.300524204969406128 0.639895856380462646 0
0.327843725681304932 0.540228784084320068 0
0.273976832628250122 0.556797444820404053 0
0.135567426681518555 0.391568094491958618 0
0.168639257550239563 0.312738806009292603 0
0.303254067897796631 0.513875901699066162 0
0.322617024183273315 0.0277652442455291748 0
0.229451417922973633 0.319592982530593872 0
0.327639847993850708 0.0898540914058685303 0
0.303759485483169556 0.41628032922744751 0
0.213015437126159668 0.341854274272918701 0
0.29299589991569519 0.14649692177772522 0
0.130903393030166626 0.331941902637481689 0
0.232178106904029846 0.241907566785812378 0
0.284817785024642944 0.157787710428237915 0
0.302061736583709717 0.531227290630340576 0
0.0553143098950386047 0.390108436346054077 0
0.272499382495880127 0.2894631028175354 0
0.232536688446998596 0.154240280389785767 0
0.276808410882949829 0.1041373610496521 0
0.0592119619250297546 0.330729365348815918 0
0.218651562929153442 0.290938645601272583 0
0.308578073978424072 0.207619056105613708 0
0.236540675163269043 0.150197908282279968 0
0.32678183913230896 0.200419783592224121 0
0.0297620631754398346 0.336771726608276367 0
0.332652449607849121 0.284760713577270508 0
0.302751809358596802 0.0657941699028015137 0
0.178138390183448792 0.490162283182144165 0
0.231988474726676941 0.443548262119293213 0
0.337430804967880249 0.0226238071918487549 0
0.266231894493103027 0.465635985136032104 0
0.208067715167999268 0.301888972520828247 0
0.228550553321838379 0.546927094459533691 0
0.0953323915600776672 0.349020391702651978 0
0.156754627823829651 0.361841320991516113 0
0.276136457920074463 0.454343259334564209 0
0.148811206221580505 0.286168277263641357 0
0.153950616717338562 0.252417325973510742 0
0.223243087530136108 0.416672348976135254 0
0.184949174523353577 0.263831198215484619 0
0.266670376062393188 0.118822693824768066 0
0.240708038210868835 0.131180018186569214 0
0.348126471042633057 0.57236027717590332 0
0.295300811529159546 0.410065442323684692 0
0.286057382822036743 0.0578052699565887451 0
0.285771489143371582 0.354921340942382812 0
0.220692425966262817 0.181719198822975159 0
0.178833872079849243 0.35800635814666748 0
0.280835419893264771 0.545709013938903809 0
0.137614995241165161 0.335648000240325928 0
0.0913695991039276123 0.320923149585723877 0
0.205264151096343994 0.397638916969299316 0
0.293300807476043701 0.244247749447822571 0
0.313512474298477173 0.492571383714675903 0
0.153550118207931519 0.237743988633155823 0
0.312166005373001099 0.339369982481002808 0
0.306820988655090332 0.165129780769348145 0
0.238467693328857422 0.447389483451843262 0
0.278166860342025757 0.0907534658908843994 0
0.205084726214408875 0.493797004222869873 0
0.268308579921722412 0.165943235158920288 0
0.327971428632736206 0.0228325128555297852 0
0.260503172874450684 0.446635007858276367 0
0.347115695476531982 0.53803551197052002 0
0.26146543025970459 0.280596256256103516 0
0.349693000316619873 0.453612267971038818 0
0.207128465175628662 0.163427829742431641 0
0.105627380311489105 0.348907172679901123 0
0.343696922063827515 0.483527719974517822 0
0.21011507511138916 0.471993803977966309 0
0.237610399723052979 0.289058327674865723 0
0.131250947713851929 0.41417616605758667 0
0.288977146148681641 0.546933591365814209 0
0.306702256202697754 0.242422968149185181 0
0.343700826168060303 0.269547760486602783 0
0.211128458380699158 0.559718549251556396 0
0.14820098876953125 0.468065023422241211 0
0.256279498338699341 0.268787145614624023 0
0.181963890790939331 0.298570841550827026 0
0.0768361315131187439 0.331191837787628174 0
0.250478029251098633 0.164375856518745422 0
0.290880948305130005 0.0770772993564605713 0
0.294739693403244019 0.149142801761627197 0
0.168428435921669006 0.5152168869972229 0
0.283747851848602295 0.192152023315429688 0
0.164430722594261169 0.442279338836669922 0
0.285077512264251709 0.483967840671539307 0
0.160415738821029663 0.339054584503173828 0
0.208457231521606445 0.342463791370391846 0
0.0335415787994861603 0.399592697620391846 0
0.0762292817234992981 0.38174903392791748 0
0.270341843366622925 0.120770454406738281 0
0.290526688098907471 0.312311530113220215 0
0.298494100570678711 0.501339375972747803 0
0.305147618055343628 0.231924653053283691 0
0.297709226608276367 0.228947103023529053 0
0.17738911509513855 0.357608556747436523 0
0.22006756067276001 0.199475482106208801 0
0.139762639999389648 0.385542631149291992 0
0.0591683685779571533 0.356026321649551392 0
0.204660579562187195 0.499159127473831177 0
0.288089871406555176 0.331259846687316895 0
0.222146749496459961 0.43368181586265564 0
0.319107562303543091 0.608324944972991943 0
0.225331038236618042 0.346769273281097412 0
0.303822159767150879 0.110698312520980835 0
0.179149419069290161 0.287573397159576416 0
0.258492767810821533 0.280082345008850098 0
0.13951072096824646 0.252924203872680664 0
0.308237373828887939 0.306652307510375977 0
0.334257543087005615 0.50634998083114624 0
0.333642154932022095 0.146633148193359375 0
0.326835662126541138 0.105366975069046021 0
0.248655125498771667 0.166650772094726562 0
0.331942886114120483 0.118207782506942749 0
0.141345709562301636 0.342560410499572754 0
0.302469044923782349 0.559639275074005127 0
0.259227871894836426 0.383312225341796875 0
0.293230503797531128 0.075214684009552002 0
0.199176445603370667 0.274699985980987549 0
0.240591287612915039 0.142217487096786499 0
0.351950019598007202 0.590738058090209961 0
0.165579065680503845 0.195897355675697327 0
0.307028025388717651 0.153850793838500977 0
0.242013007402420044 0.114058762788772583 0
0.0357279442250728607 0.350729405879974365 0
0.317364871501922607 0.49034881591796875 0
0.21090562641620636 0.451358944177627563 0
0.233998984098434448 0.336644142866134644 0
0.32147139310836792 0.0291417241096496582 0
0.199936762452125549 0.362328827381134033 0
0.234542056918144226 0.134963110089302063 0
0.217304497957229614 0.316295474767684937 0
0.274549186229705811 0.200744718313217163 0
0.353579938411712646 0.544464826583862305 0
0.291631847620010376 0.257394015789031982 0
0.337422668933868408 0.0201823413372039795 0
0.0520882979035377502 0.387223869562149048 0
0.0997471138834953308 0.348337411880493164 0
0.268216252326965332 0.365476727485656738 0
0.317669689655303955 0.167411714792251587 0
0.268017083406448364 0.145451486110687256 0
0.0581585913896560669 0.39963829517364502 0
0.300441205501556396 0.195551395416259766 0
0.319962203502655029 0.110366553068161011 0
0.27330508828163147 0.126279205083847046 0
0.271435707807540894 0.427635788917541504 0
0.244890421628952026 0.326711952686309814 0
0.174078330397605896 0.193685472011566162 0
0.3335399329662323 0.0100867152214050293 0
0.0907722562551498413 0.424850106239318848 0
0.173410654067993164 0.33003312349319458 0
0.289042532444000244 0.183948606252670288 0
0.219420984387397766 0.519070446491241455 0
0.250762015581130981 0.137151956558227539 0
0.27879643440246582 0.534599483013153076 0
0.271445423364639282 0.253184676170349121 0
0.31816023588180542 0.190454274415969849 0
0.270504295825958252 0.219482392072677612 0
0.336625009775161743 0.626938343048095703 0
0.128258258104324341 0.265439152717590332 0
0.257549315690994263 0.229518532752990723 0
0.324603766202926636 0.100955009460449219 0
0.339359760284423828 0.0874072611331939697 0
0.0881967842578887939 0.334856867790222168 0
0.310581505298614502 0.378406047821044922 0
0.0527157783508300781 0.378317505121231079 0
0.117509067058563232 0.292848825454711914 0
0.211979702115058899 0.267940759658813477 0
0.182956337928771973 0.380904078483581543 0
0.0617842823266983032 0.359480053186416626 0
0.169228330254554749 0.196037024259567261 0
0.316599190235137939 0.483685463666915894 0
0.32564777135848999 0.281463861465454102 0
0.288675069808959961 0.179123327136039734 0
0.334477454423904419 0.0551473498344421387 0
0.230285495519638062 0.50572812557220459 0
0.328550666570663452 0.607294440269470215 0
0.230851396918296814 0.510219991207122803 0
0.129473671317100525 0.260693669319152832 0
0.250679999589920044 0.595223963260650635 0
0.336778849363327026 0.0269499719142913818 0
0.248515158891677856 0.451174259185791016 0
0.329234451055526733 0.179686576128005981 0
0.243438750505447388 0.389087527990341187 0
0.175449609756469727 0.349371552467346191 0
0.235745802521705627 0.574127793312072754 0
0.291309237480163574 0.288673937320709229 0
0.298488140106201172 0.378018379211425781 0
0.245437324047088623 0.439691454172134399 0
0.341549217700958252 0.544248521327972412 0
0.321388214826583862 0.590245306491851807 0
0.226819992065429688 0.316203415393829346 0
0.259514123201370239 0.0934185385704040527 0
0.136583209037780762 0.489751130342483521 0
0.224928945302963257 0.516871869564056396 0
0.246062129735946655 0.321110248565673828 0
0.195968866348266602 0.544198572635650635 0
0.162408590316772461 0.494745969772338867 0
0.254391103982925415 0.490810692310333252 0
0.101409882307052612 0.407011032104492188 0
0.0616722628474235535 0.365062355995178223 0
0.287479758262634277 0.264630824327468872 0
0.327706187963485718 0.197440028190612793 0
0.228961721062660217 0.515198588371276855 0
0.0874824747443199158 0.425034642219543457 0
0.292704999446868896 0.218102738261222839 0
0.185425609350204468 0.203541949391365051 0
0.169195264577865601 0.422288119792938232 0
0.183417260646820068 0.510014951229095459 0
0.303191930055618286 0.0500056445598602295 0
0.257287085056304932 0.363374263048171997 0
0.158520728349685669 0.372779488563537598 0
0.0849989801645278931 0.407297700643539429 0
0.238160640001296997 0.349975019693374634 0
0.292514562606811523 0.596315681934356689 0
0.246882051229476929 0.238318055868148804 0
0.259035348892211914 0.257801651954650879 0
0.33730846643447876 0.185539275407791138 0
0.318616002798080444 0.0763683915138244629 0
0.335170745849609375 0.126337766647338867 0
0.282332569360733032 0.501734733581542969 0
0.125694930553436279 0.3534354567527771 0
0.130154341459274292 0.234063267707824707 0
0.0598501749336719513 0.363589078187942505 0
