ply
format ascii 1.0
element vertex 701
property float x
property float y
property float z
end_header
-0.068599998950958252 0.0266249831765890121 0.000495332293212413788
-0.068599998950958252 0.0248352941125631332 -0.000140341930091381073
-0.068599998950958252 0.0178616717457771301 -0.0184243284165859222
-0.068599998950958252 0.024458225816488266 0.00109473243355751038
-0.068599998950958252 0.0239426642656326294 0.0021261218935251236
-0.068599998950958252 0.0227939188480377197 -0.00343570299446582794
-0.068599998950958252 0.0183891672641038895 -0.026485152542591095
-0.068599998950958252 0.0154935698956251144 -0.0366067066788673401
-0.068599998950958252 0.0184817053377628326 -0.0275712404400110245
-0.068599998950958252 0.0151294991374015808 -0.0219480693340301514
-0.068599998950958252 0.0209875442087650299 -0.0110717900097370148
-0.068599998950958252 0.0157495811581611633 -0.0235968064516782761
-0.068599998950958252 0.0245583020150661469 -0.0031488398090004921
-0.068599998950958252 0.017349589616060257 -0.0177302286028862
-0.068599998950958252 0.0139383450150489807 -0.0253794416785240173
-0.068599998950958252 0.0211015269160270691 -0.0226064100861549377
-0.068599998950958252 0.0175440981984138489 -0.0201019253581762314
-0.068599998950958252 0.0243745762854814529 6.06756657361984253e-05
-0.068599998950958252 0.0110321016982197762 -0.0423230305314064026
-0.068599998950958252 0.0140978163108229637 -0.0322599411010742188
-0.068599998950958252 0.0290416311472654343 0.0098490426316857338
-0.068599998950958252 0.018049187958240509 -0.00171906687319278717
-0.068599998950958252 0.00964339170604944229 -0.024631040170788765
-0.068599998950958252 -0.00356587953865528107 -0.044115312397480011
-0.068599998950958252 0.00415570195764303207 -0.039446808397769928
-0.068599998950958252 0.010292690247297287 -0.0270400121808052063
-0.068599998950958252 0.0189779177308082581 -0.00565849430859088898
-0.068599998950958252 0.0123256128281354904 -0.0154150659218430519
-0.068599998950958252 0.000589692965149879456 -0.0377834923565387726
-0.068599998950958252 0.0250444002449512482 0.00971973221749067307
-0.068599998950958252 0.00368410162627696991 -0.0306851770728826523
-0.068599998950958252 0.0144696030765771866 -0.0214738436043262482
-0.068599998950958252 0.0114041753113269806 -0.0296373087912797928
-0.068599998950958252 0.00721890106797218323 -0.0387862622737884521
-0.068599998950958252 0.0099740978330373764 -0.0270126555114984512
-0.068599998950958252 -0.00191921554505825043 -0.0412710830569267273
-0.068599998950958252 0.0174325145781040192 -0.00868910271674394608
-0.068599998950958252 0.0211205873638391495 -0.000693130306899547577
-0.068599998950958252 0.0113957971334457397 -0.0135156083852052689
-0.068599998950958252 0.00816815905272960663 -0.0193214025348424911
-0.068599998950958252 0.0132712870836257935 -0.0114431381225585938
-0.068599998950958252 0.00768681615591049194 -0.0237009897828102112
-0.068599998950958252 0.00910137780010700226 -0.0351814962923526764
-0.068599998950958252 0.00793291814625263214 -0.03546944260597229
-0.068599998950958252 0.0139448819682002068 -0.0147937387228012085
-0.068599998950958252 0.00582989910617470741 -0.0415394492447376251
-0.068599998950958252 0.000768620520830154419 -0.0372376665472984314
-0.068599998950958252 0.0122098270803689957 -0.0139861740171909332
-0.068599998950958252 0.0159645453095436096 -0.0128804417327046394
-0.068599998950958252 0.00737334601581096649 -0.0241815485060214996
-0.068599998950958252 0.0241214688867330551 0.00390047812834382057
-0.068599998950958252 0.00871646031737327576 -0.0254251491278409958
-0.068599998950958252 0.0109841171652078629 -0.0270124729722738266
-0.068599998950958252 0.00821154378354549408 -0.0372489579021930695
-0.068599998950958252 0.0137100871652364731 -0.0112408958375453949
-0.068599998950958252 0.00701049156486988068 -0.0250391140580177307
-0.068599998950958252 0.0240041259676218033 0.00642308266833424568
-0.068599998950958252 0.00606421381235122681 -0.0321695804595947266
-0.068599998950958252 -0.00740285031497478485 -0.0336412787437438965
-0.068599998950958252 0.0136223621666431427 -0.00121110677719116211
-0.068599998950958252 0.00729627534747123718 -0.0195004492998123169
-0.068599998950958252 -0.0100704766809940338 -0.0401590391993522644
-0.068599998950958252 0.0200042054057121277 0.00736033543944358826
-0.068599998950958252 0.00932561419904232025 -0.0108744185417890549
-0.068599998950958252 0.00494146533310413361 -0.0179473049938678741
-0.068599998950958252 0.00139720737934112549 -0.0235175509005784988
-0.068599998950958252 -0.000371931120753288269 -0.0333103351294994354
-0.068599998950958252 0.0042153485119342804 -0.0139577202498912811
-0.068599998950958252 0.0203372091054916382 0.00748882628977298737
-0.068599998950958252 0.0153560014441609383 0.00101873278617858887
-0.068599998950958252 0.0286399498581886292 0.0219634976238012314
-0.068599998950958252 -0.00029534660279750824 -0.0302567500621080399
-0.068599998950958252 -0.00369852595031261444 -0.0364670306444168091
-0.068599998950958252 0.00640899874269962311 -0.0136609086766839027
-0.068599998950958252 0.00226745381951332092 -0.0223107542842626572
-0.068599998950958252 0.00576266273856163025 -0.0226049795746803284
-0.068599998950958252 0.0257115066051483154 0.0150741487741470337
-0.068599998950958252 0.0236271042376756668 0.0103135034441947937
-0.068599998950958252 -0.00816791504621505737 -0.0325771123170852661
-0.068599998950958252 0.000119893811643123627 -0.0293336920440196991
-0.068599998950958252 -0.00562706775963306427 -0.0334699302911758423
-0.068599998950958252 -0.0010693967342376709 -0.0209431704133749008
-0.068599998950958252 0.0119703924283385277 -0.00598717667162418365
-0.068599998950958252 -0.00162092037498950958 -0.0251502543687820435
-0.068599998950958252 -0.000403834506869316101 -0.0262755248695611954
-0.068599998950958252 0.0134759964421391487 -0.00770470453426241875
-0.068599998950958252 -0.0124497972428798676 -0.0379154123365879059
-0.068599998950958252 0.00614865869283676147 -0.0217200219631195068
-0.068599998950958252 -0.00355937471613287926 -0.0383913442492485046
-0.068599998950958252 -0.0061193220317363739 -0.0320487841963768005
-0.068599998950958252 0.0129126347601413727 -0.0097724059596657753
-0.068599998950958252 -0.000789161771535873413 -0.029051557183265686
-0.068599998950958252 0.0172486510127782822 0.00514494813978672028
-0.068599998950958252 0.0314352512359619141 0.0257618017494678497
-0.068599998950958252 0.00307034701108932495 -0.022187504917383194
-0.068599998950958252 -0.00214359350502490997 -0.028060251846909523
-0.068599998950958252 0.00926952250301837921 -0.00728136301040649414
-0.068599998950958252 -0.00489489920437335968 -0.0315366201102733612
-0.068599998950958252 0.0167273823171854019 0.00514784874394536018
-0.068599998950958252 -0.000170122832059860229 -0.00881993956863880157
-0.068599998950958252 -0.0184659603983163834 -0.0390560775995254517
-0.068599998950958252 0.0117918681353330612 -0.00183420313987880945
-0.068599998950958252 -0.00464195944368839264 -0.0202254410833120346
-0.068599998950958252 0.00831068772822618484 -0.00223790202289819717
-0.068599998950958252 0.0284378174692392349 0.0228957794606685638
-0.068599998950958252 -0.0173169858753681183 -0.0317554324865341187
-0.068599998950958252 0.0162500254809856415 0.00757080689072608948
-0.068599998950958252 -0.00812732242047786713 -0.0294184312224388123
-0.068599998950958252 -0.0156250689178705215 -0.0355438366532325745
-0.068599998950958252 -0.0155828520655632019 -0.0356797650456428528
-0.068599998950958252 -0.00690877297893166542 -0.0269865356385707855
-0.068599998950958252 -0.00884393230080604553 -0.018777262419462204
-0.068599998950958252 -0.00749096274375915527 -0.0226779989898204803
-0.068599998950958252 -0.0213369149714708328 -0.0343459993600845337
-0.068599998950958252 -0.00497037731111049652 -0.0164890177547931671
-0.068599998950958252 0.00295421341434121132 -0.0143882362172007561
-0.068599998950958252 -0.0140000851824879646 -0.0372325628995895386
-0.068599998950958252 -0.0101851094514131546 -0.0218478851020336151
-0.068599998950958252 -0.0213612355291843414 -0.0371087230741977692
-0.068599998950958252 -0.00591802597045898438 -0.0212456956505775452
-0.068599998950958252 -0.01739509217441082 -0.0417268946766853333
-0.068599998950958252 -0.020717201754450798 -0.0327826477587223053
-0.068599998950958252 0.0193725116550922394 0.0104962997138500214
-0.068599998950958252 -0.0135314725339412689 -0.0300755798816680908
-0.068599998950958252 0.0312567278742790222 0.0267732888460159302
-0.068599998950958252 -0.00398777984082698822 -0.0144935362040996552
-0.068599998950958252 -0.00866150390356779099 -0.0287193022668361664
-0.068599998950958252 0.0017540324479341507 -0.00839564204216003418
-0.068599998950958252 -0.00691263750195503235 -0.0251285545527935028
-0.068599998950958252 0.0119866225868463516 -0.00093733612447977066
-0.068599998950958252 0.0146321384236216545 0.00663078390061855316
-0.068599998950958252 0.000958307646214962006 -0.0132962130010128021
-0.068599998950958252 -0.0201583299785852432 -0.0401356890797615051
-0.068599998950958252 -0.00625199452042579651 -0.0235692448914051056
-0.068599998950958252 0.00153710832819342613 -0.0160082597285509109
-0.068599998950958252 -0.0168490596115589142 -0.0305721741169691086
-0.068599998950958252 -0.000226952135562896729 -0.0125126093626022339
-0.068599998950958252 0.0019316989928483963 -0.0139358770102262497
-0.068599998950958252 -0.00776007585227489471 -0.0215982683002948761
-0.068599998950958252 0.0163175445050001144 0.0100959185510873795
-0.068599998950958252 0.00034474395215511322 -0.0117667596787214279
-0.068599998950958252 0.0253504998981952667 0.0219165738672018051
-0.068599998950958252 -0.0082959737628698349 -0.0144048072397708893
-0.068599998950958252 0.0106215029954910278 0.00429967418313026428
-0.068599998950958252 -0.0184408240020275116 -0.0217784568667411804
-0.068599998950958252 -0.0109325507655739784 -0.0199324376881122589
-0.068599998950958252 0.00540572404861450195 -0.000898896250873804092
-0.068599998950958252 0.011951027438044548 0.00740431901067495346
-0.068599998950958252 -0.00492770224809646606 -0.00849084928631782532
-0.068599998950958252 -0.0239155329763889313 -0.0283076129853725433
-0.068599998950958252 -0.0259589012712240219 -0.0321265906095504761
-0.068599998950958252 -0.00868203304708003998 -0.0110392104834318161
-0.068599998950958252 -0.000402895733714103699 -0.00531564652919769287
-0.068599998950958252 -0.00188289955258369446 -0.00351005420088768005
-0.068599998950958252 -0.011392420157790184 -0.0141113214194774628
-0.068599998950958252 0.0144325727596879005 0.0110827144235372543
-0.068599998950958252 0.000509548000991344452 -0.00435968022793531418
-0.068599998950958252 -0.0138638708740472794 -0.014093693345785141
-0.068599998950958252 -0.0176658798009157181 -0.0266318880021572113
-0.068599998950958252 0.00703687220811843872 0.00274580996483564377
-0.068599998950958252 -0.0285122115164995193 -0.0339345037937164307
-0.068599998950958252 -0.0130397416651248932 -0.0187893658876419067
-0.068599998950958252 -0.0253122542053461075 -0.0278706178069114685
-0.068599998950958252 -0.0165563486516475677 -0.0227297917008399963
-0.068599998950958252 0.0186567008495330811 0.0153421498835086823
-0.068599998950958252 -0.0152063481509685516 -0.0165968872606754303
-0.068599998950958252 -0.0189429111778736115 -0.0245667248964309692
-0.068599998950958252 -0.00317711848765611649 -0.0106573738157749176
-0.068599998950958252 -0.0175977088510990143 -0.0247612409293651581
-0.068599998950958252 -0.0217943042516708374 -0.0258957911282777786
-0.068599998950958252 -5.19962050020694733e-05 -0.00678215548396110535
-0.068599998950958252 0.00637062918394804001 0.00129800569266080856
-0.068599998950958252 -0.0281441956758499146 -0.0341163650155067444
-0.068599998950958252 0.00883361510932445526 0.00566464755684137344
-0.068599998950958252 -0.0196792241185903549 -0.0220397301018238068
-0.068599998950958252 0.0204803775995969772 0.0157034620642662048
-0.068599998950958252 -0.0256070774048566818 -0.0322981439530849457
-0.068599998950958252 -0.0130271837115287781 -0.0128322988748550415
-0.068599998950958252 -0.0239784196019172668 -0.0215502995997667313
-0.068599998950958252 0.0193614158779382706 0.0155120436102151871
-0.068599998950958252 -0.0232058335095643997 -0.025067431852221489
-0.068599998950958252 -0.0338915996253490448 -0.0303969494998455048
-0.068599998950958252 -0.00414919992908835411 -0.011611228808760643
-0.068599998950958252 0.013316938653588295 0.0113464482128620148
-0.068599998950958252 0.00401516910642385483 -0.00142706464976072311
-0.068599998950958252 -0.0350859500467777252 -0.0255041439086198807
-0.068599998950958252 -0.018064599484205246 -0.00610554590821266174
-0.068599998950958252 -0.0217019263654947281 -0.0110429618507623672
-0.068599998950958252 -0.0108741195872426033 -0.0093129156157374382
-0.068599998950958252 -0.000820975750684738159 0.00405667908489704132
-0.068599998950958252 -0.0114260613918304443 -0.00135172344744205475
-0.068599998950958252 -0.0384420976042747498 -0.0236370004713535309
-0.068599998950958252 -0.00323356129229068756 0.00323375500738620758
-0.068599998950958252 -0.0156598147004842758 -0.00542940013110637665
-0.068599998950958252 0.022203538566827774 0.0215704236179590225
-0.068599998950958252 -0.0103021496906876564 -0.00830011628568172455
-0.068599998950958252 -0.0350830405950546265 -0.0181116517633199692
-0.068599998950958252 -0.0208325423300266266 -0.0120165515691041946
-0.068599998950958252 -0.00354879535734653473 -0.000521043315529823303
-0.068599998950958252 -0.0060492251068353653 0.000305300578474998474
-0.068599998950958252 -0.0343808233737945557 -0.0298623219132423401
-0.068599998950958252 -0.0112201645970344543 -0.00837075058370828629
-0.068599998950958252 -0.0334578007459640503 -0.0233323201537132263
-0.068599998950958252 -0.0250817649066448212 -0.0199774131178855896
-0.068599998950958252 -0.0188649594783782959 -0.010041920468211174
-0.068599998950958252 -0.0260415449738502502 -0.0137950927019119263
-0.068599998950958252 0.0115460483357310295 0.0120951524004340172
-0.068599998950958252 -0.0308439917862415314 -0.0268701221793889999
-0.068599998950958252 0.0095277000218629837 0.00912423804402351379
-0.068599998950958252 -0.028596954420208931 -0.017222309485077858
-0.068599998950958252 0.0175157301127910614 0.0182237140834331512
-0.068599998950958252 -0.0230093337595462799 -0.0183364637196063995
-0.068599998950958252 0.00238226726651191711 0.00352075183764100075
-0.068599998950958252 -0.0233423225581645966 -0.0192275065928697586
-0.068599998950958252 -0.0338539928197860718 -0.0289588309824466705
-0.068599998950958252 0.00935786310583353043 0.00885873101651668549
-0.068599998950958252 -0.0382409170269966125 -0.0197182949632406235
-0.068599998950958252 -0.0227861907333135605 -0.011188942939043045
-0.068599998950958252 -0.00592770986258983612 -0.00191977061331272125
-0.068599998950958252 -0.0243347585201263428 -0.0191371962428092957
-0.068599998950958252 0.0275458134710788727 0.0252149123698472977
-0.068599998950958252 -0.0165899209678173065 -0.00921288318932056427
-0.068599998950958252 0.00321639887988567352 0.00566134881228208542
-0.068599998950958252 -0.0132964905351400375 -0.00699677877128124237
-0.068599998950958252 -0.0270285196602344513 -0.0176721792668104172
-0.068599998950958252 -0.0209127683192491531 -0.0152371199801564217
-0.068599998950958252 0.0294656679034233093 0.026502411812543869
-0.068599998950958252 -0.0232299100607633591 -0.0203084684908390045
-0.068599998950958252 -0.0284686293452978134 -0.0250246170908212662
-0.068599998950958252 -0.0303260274231433868 -0.0204897839576005936
-0.068599998950958252 -0.0213991329073905945 0.00094252265989780426
-0.068599998950958252 -0.0387330874800682068 -0.0190346371382474899
-0.068599998950958252 0.00514702918007969856 0.0105711529031395912
-0.068599998950958252 -0.00618414813652634621 0.00249415566213428974
-0.068599998950958252 -0.040339544415473938 -0.00933554023504257202
-0.068599998950958252 -0.0304051470011472702 -0.0108453594148159027
-0.068599998950958252 0.0151268951594829559 0.0201767943799495697
-0.068599998950958252 -0.0215498749166727066 -0.00369584374129772186
-0.068599998950958252 0.0100511042401194572 0.0151834096759557724
-0.068599998950958252 0.002734404057264328 0.0113286785781383514
-0.068599998950958252 -0.0285717044025659561 -0.0126763414591550827
-0.068599998950958252 -0.0168964508920907974 -0.00299857649952173233
-0.068599998950958252 0.020033031702041626 0.022362537682056427
-0.068599998950958252 -0.00214626453816890717 0.00786986947059631348
-0.068599998950958252 -0.0358140133321285248 -0.00860337540507316589
-0.068599998950958252 -0.0219494439661502838 -0.00798206217586994171
-0.068599998950958252 -0.00591191090643405914 0.00547652691602706909
-0.068599998950958252 -0.00109245721250772476 0.00763547327369451523
-0.068599998950958252 -0.0187091231346130371 0.000552687793970108032
-0.068599998950958252 -0.0263545047491788864 -0.00707336794584989548
-0.068599998950958252 -0.00197850354015827179 0.00932940933853387833
-0.068599998950958252 -0.0353057980537414551 -0.00782737880945205688
-0.068599998950958252 -0.0289580114185810089 -0.00414953380823135376
-0.068599998950958252 -0.0364037156105041504 -0.0175060257315635681
-0.068599998950958252 -0.0141613651067018509 0.00415807962417602539
-0.068599998950958252 -0.0370671562850475311 -0.0171363987028598785
-0.068599998950958252 -0.0260513573884963989 -0.00185580924153327942
-0.068599998950958252 -0.0141161233186721802 0.00352062098681926727
-0.068599998950958252 0.0126409558579325676 0.0173979178071022034
-0.068599998950958252 0.0177971534430980682 0.019834740087389946
-0.068599998950958252 -0.00129491277039051056 0.00910591892898082733
-0.068599998950958252 -0.0374107547104358673 -0.00849006883800029755
-0.068599998950958252 -0.0438458733260631561 -0.0118090789765119553
-0.068599998950958252 -0.0134467277675867081 -0.00168297626078128815
-0.068599998950958252 -0.0293268132954835892 -0.00372417271137237549
-0.068599998950958252 -0.0402855724096298218 -0.0195666644722223282
-0.068599998950958252 -0.0275569818913936615 -0.0101508079096674919
-0.068599998950958252 -0.0411317944526672363 -0.0142377391457557678
-0.068599998950958252 0.00989505928009748459 0.0155747253447771072
-0.068599998950958252 -0.0382424592971801758 -0.0127882920205593109
-0.068599998950958252 0.00566886365413665771 0.0129948966205120087
-0.068599998950958252 -0.0281409639865159988 -0.00955252163112163544
-0.068599998950958252 -0.0217909589409828186 -0.00537256430834531784
-0.068599998950958252 -0.0297998208552598953 -0.00159061187878251076
-0.068599998950958252 -0.0410077422857284546 -0.00217701680958271027
-0.068599998950958252 -0.0452367663383483887 -0.00222260504961013794
-0.068599998950958252 -0.0237923413515090942 0.00320624932646751404
-0.068599998950958252 -0.00791396759450435638 0.00917388126254081726
-0.068599998950958252 -0.0386655852198600769 -0.00347141921520233154
-0.068599998950958252 -0.0129618663340806961 0.00595903536304831505
-0.068599998950958252 0.0061518852598965168 0.0163092855364084244
-0.068599998950958252 -0.0383024811744689941 -0.0032656034454703331
-0.068599998950958252 0.00791459903120994568 0.0196433104574680328
-0.068599998950958252 -0.0245897714048624039 0.000231521902605891228
-0.068599998950958252 -0.0413572937250137329 -0.00822622887790203094
-0.068599998950958252 -0.0174167118966579437 0.00560161983594298363
-0.068599998950958252 0.00557424640282988548 0.0155065860599279404
-0.068599998950958252 -0.0235841870307922363 0.00201775366440415382
-0.068599998950958252 -0.0268575903028249741 0.00169400032609701157
-0.068599998950958252 -0.0340204164385795593 0.000895490869879722595
-0.068599998950958252 0.0191591084003448486 0.0237502399832010269
-0.068599998950958252 -0.00350703950971364975 0.0115349888801574707
-0.068599998950958252 -0.011279761791229248 0.00903449486941099167
-0.068599998950958252 -0.0179695896804332733 0.00422673951834440231
-0.068599998950958252 -0.0447811484336853027 -0.00363795645534992218
-0.068599998950958252 0.0296066068112850189 0.0284053683280944824
-0.068599998950958252 -0.0336863547563552856 -0.00498755322769284248
-0.068599998950958252 -0.0233327057212591171 0.000809504184871912003
-0.068599998950958252 -0.0339856706559658051 -0.00289366766810417175
-0.068599998950958252 -0.0388755090534687042 -0.00732503831386566162
-0.068599998950958252 0.0191078148782253265 0.0244689080864191055
-0.068599998950958252 -0.039777800440788269 -0.00745903700590133667
-0.068599998950958252 -0.021457059308886528 0.00305230729281902313
-0.068599998950958252 -0.0274493265897035599 0.0064171813428401947
-0.068599998950958252 -0.0446669310331344604 -0.00189345702528953552
-0.068599998950958252 -0.0442812219262123108 -0.00213832780718803406
-0.068599998950958252 0.00138972140848636627 0.0173411965370178223
-0.068599998950958252 0.00894222594797611237 0.0181852225214242935
-0.068599998950958252 -0.0267680138349533081 0.00460247509181499481
-0.068599998950958252 -0.00670854933559894562 0.0124264610931277275
-0.068599998950958252 0.0204867534339427948 0.0245115607976913452
-0.068599998950958252 -0.0335383489727973938 -0.0022094016894698143
-0.068599998950958252 -0.042421925812959671 -0.00831008516252040863
-0.0564999990165233612 -0.0395251400768756866 0.00153043447062373161
-0.0564999990165233612 -0.0358267128467559814 0.014009447768330574
-0.0564999990165233612 -0.0409618094563484192 -0.00528051843866705894
-0.0564999990165233612 -0.0326769016683101654 0.0233425814658403397
-0.0564999990165233612 -0.0412140078842639923 0.000161139876581728458
-0.0564999990165233612 -0.0405564717948436737 -0.00478632375597953796
-0.0564999990165233612 -0.0381294898688793182 -0.00526278093457221985
-0.0564999990165233612 -0.037065550684928894 -0.00125249475240707397
-0.0564999990165233612 -0.0325315780937671661 0.0202034208923578262
-0.0564999990165233612 -0.036620061844587326 -0.0144699709489941597
-0.0564999990165233612 -0.0372780933976173401 -0.00812020711600780487
-0.0564999990165233612 -0.0398101732134819031 -0.00989690423011779785
-0.0564999990165233612 -0.0392735116183757782 -0.00778641179203987122
-0.0564999990165233612 -0.0382850021123886108 -0.00729467254132032394
-0.0564999990165233612 -0.0384372621774673462 -0.0076748281717300415
-0.0564999990165233612 -0.0380598083138465881 -0.0117784701287746429
-0.0564999990165233612 -0.0316710546612739563 0.0233992543071508408
-0.0564999990165233612 -0.0330635607242584229 -0.02030210942029953
-0.0564999990165233612 -0.034194502979516983 0.001030726358294487
-0.0564999990165233612 -0.0331731364130973816 -9.04127955436706543e-05
-0.0564999990165233612 -0.03480539470911026 -0.00773218739777803421
-0.0564999990165233612 -0.0347021631896495819 -0.0104870656505227089
-0.0564999990165233612 -0.0335937589406967163 -0.0206254646182060242
-0.0564999990165233612 -0.0328976809978485107 0.000741818919777870178
-0.0564999990165233612 -0.0349100306630134583 -0.0064058452844619751
-0.0564999990165233612 -0.0330966934561729431 0.00991730950772762299
-0.0564999990165233612 -0.0315078385174274445 -0.00859731249511241913
-0.0564999990165233612 -0.0340233482420444489 -0.0046871136873960495
-0.0564999990165233612 -0.0349566154181957245 -0.0159860458225011826
-0.0564999990165233612 -0.0355006121098995209 -0.0175113584846258163
-0.0564999990165233612 -0.0268237050622701645 -0.0185300745069980621
-0.0564999990165233612 -0.0267957635223865509 -0.0159693062305450439
-0.0564999990165233612 -0.0279781222343444824 -0.013326277956366539
-0.0564999990165233612 -0.0313064716756343842 -0.0155381262302398682
-0.0564999990165233612 -0.030795535072684288 -0.0112026389688253403
-0.0564999990165233612 -0.0285182930529117584 0.00434444472193717957
-0.0564999990165233612 -0.0301363039761781693 0.0121553502976894379
-0.0564999990165233612 -0.0269022062420845032 -0.0177584122866392136
-0.0564999990165233612 -0.02632124163210392 -0.027620561420917511
-0.0564999990165233612 -0.030846036970615387 -0.00594580546021461487
-0.0564999990165233612 -0.0289951581507921219 -0.00395290181040763855
-0.0564999990165233612 -0.0298330746591091156 0.00131602585315704346
-0.0564999990165233612 -0.0293208174407482147 -0.018338007852435112
-0.0564999990165233612 -0.0289781130850315094 0.00719391554594039917
-0.0564999990165233612 -0.0293049607425928116 -0.0175473876297473907
-0.0564999990165233612 -0.0279889814555644989 -0.0205682478845119476
-0.0564999990165233612 -0.0295225288718938828 0.00750066712498664856
-0.0564999990165233612 -0.0256604533642530441 -0.0199487693607807159
-0.0564999990165233612 -0.03025059774518013 -0.0257573164999485016
-0.0564999990165233612 -0.0243984609842300415 -0.00718732923269271851
-0.0564999990165233612 -0.0257012713700532913 -0.0135416295379400253
-0.0564999990165233612 -0.02240748330950737 -0.00993860885500907898
-0.0564999990165233612 -0.0193066652864217758 -0.0245499890297651291
-0.0564999990165233612 -0.0256192758679389954 0.00114529207348823547
-0.0564999990165233612 -0.0229257717728614807 -0.00680330768227577209
-0.0564999990165233612 -0.0208787787705659866 -0.0189010854810476303
-0.0564999990165233612 -0.0252143591642379761 -0.011308230459690094
-0.0564999990165233612 -0.0259161815047264099 -0.00242266431450843811
-0.0564999990165233612 -0.0209101568907499313 -0.0197891909629106522
-0.0564999990165233612 -0.0280968882143497467 0.00463260337710380554
-0.0564999990165233612 -0.0285674706101417542 0.00533042103052139282
-0.0564999990165233612 -0.0247635878622531891 -0.00796080939471721649
-0.0564999990165233612 -0.0230757519602775574 -0.00710516795516014099
-0.0564999990165233612 -0.0267005264759063721 -0.00716360099613666534
-0.0564999990165233612 -0.0240024980157613754 -0.00576166436076164246
-0.0564999990165233612 -0.0221268758177757263 -0.0131722725927829742
-0.0564999990165233612 -0.0253517515957355499 -0.0199265815317630768
-0.0564999990165233612 -0.0182108413428068161 -0.0340305306017398834
-0.0564999990165233612 -0.0251131579279899597 -0.00482443347573280334
-0.0564999990165233612 -0.0194435995072126389 -0.025713793933391571
-0.0564999990165233612 -0.020566524937748909 -0.0234998464584350586
-0.0564999990165233612 -0.0243740957230329514 -0.0249078515917062759
-0.0564999990165233612 -0.0132932569831609726 -0.0225051380693912506
-0.0564999990165233612 -0.0177697613835334778 -0.0113656055182218552
-0.0564999990165233612 -0.0105054453015327454 -0.0307492762804031372
-0.0564999990165233612 -0.0119868097826838493 -0.0337016209959983826
-0.0564999990165233612 -0.0147828366607427597 -0.0346922017633914948
-0.0564999990165233612 -0.00929111521691083908 -0.0360688753426074982
-0.0564999990165233612 -0.015003514476120472 -0.020258735865354538
-0.0564999990165233612 -0.0209719110280275345 -0.00382363423705101013
-0.0564999990165233612 -0.0201635397970676422 -0.00865168869495391846
-0.0564999990165233612 -0.0152359334751963615 -0.027905704453587532
-0.0564999990165233612 -0.0238598436117172241 0.00579738989472389221
-0.0564999990165233612 -0.0160935185849666595 -0.0138888787478208542
-0.0564999990165233612 -0.0161376968026161194 -0.0313888974487781525
-0.0564999990165233612 -0.0157653335481882095 -0.0210120547562837601
-0.0564999990165233612 -0.0150076849386096001 -0.0170159358531236649
-0.0564999990165233612 -0.01172637939453125 -0.0347682014107704163
-0.0564999990165233612 -0.0183689873665571213 -0.0218302756547927856
-0.0564999990165233612 -0.0134541755542159081 -0.0369110740721225739
-0.0564999990165233612 -0.0143641922622919083 -0.0355498790740966797
-0.0564999990165233612 -0.0251964107155799866 0.0111217983067035675
-0.0564999990165233612 -0.0124505180865526199 -0.0300495624542236328
-0.0564999990165233612 -0.0180944353342056274 -0.0249617584049701691
-0.0564999990165233612 -0.0132265966385602951 -0.0214196536689996719
-0.0564999990165233612 -0.00636955583468079567 -0.0382922478020191193
-0.0564999990165233612 -0.0226027388125658035 -0.00553403794765472412
-0.0564999990165233612 -0.0273173265159130096 0.0161980427801609039
-0.0564999990165233612 -0.0265986435115337372 0.00965386629104614258
-0.0564999990165233612 -0.0179590955376625061 -0.00376999005675315857
-0.0564999990165233612 -0.00476516829803586006 -0.0347856767475605011
-0.0564999990165233612 -0.0149852018803358078 -0.006040181964635849
-0.0564999990165233612 -0.00673699053004384041 -0.0264668688178062439
-0.0564999990165233612 -0.0159601904451847076 -0.0103486739099025726
-0.0564999990165233612 -0.000845838687382638454 -0.0388475991785526276
-0.0564999990165233612 -0.0253401435911655426 0.0145206637680530548
-0.0564999990165233612 -0.00329818716272711754 -0.0327476821839809418
-0.0564999990165233612 -0.00242247944697737694 -0.0387827567756175995
-0.0564999990165233612 -0.00788690615445375443 -0.0334272980690002441
-0.0564999990165233612 -0.0219566691666841507 0.00711605697870254517
-0.0564999990165233612 -0.00726760132238268852 -0.0323021113872528076
-0.0564999990165233612 -0.00147143285721540451 -0.0300160590559244156
-0.0564999990165233612 -0.00946979224681854248 -0.0149522162973880768
-0.0564999990165233612 -0.0279405955225229263 0.0207699500024318695
-0.0564999990165233612 -0.0130083430558443069 -0.0148570705205202103
-0.0564999990165233612 -0.0115771694108843803 -0.0233505889773368835
-0.0564999990165233612 -0.00506720924749970436 -0.0324217639863491058
-0.0564999990165233612 -0.010683918371796608 -0.0205225292593240738
-0.0564999990165233612 -0.00289681344293057919 -0.0327738597989082336
-0.0564999990165233612 -0.0146389668807387352 -0.00708933547139167786
-0.0564999990165233612 -0.0114613678306341171 -0.012066347524523735
-0.0564999990165233612 -0.0147641925141215324 -0.012213604524731636
-0.0564999990165233612 -0.00120016466826200485 -0.0310845524072647095
-0.0564999990165233612 -0.0213896855711936951 0.00314369425177574158
-0.0564999990165233612 -0.027895510196685791 0.0200631916522979736
-0.0564999990165233612 -0.0151059785857796669 -0.00860385224223136902
-0.0564999990165233612 -0.0068986332044005394 -0.0217305552214384079
-0.0564999990165233612 -0.0143373794853687286 -0.0158065091818571091
-0.0564999990165233612 -0.00919267814606428146 -0.0157558340579271317
-0.0564999990165233612 -0.0111305620521306992 -0.022471163421869278
-0.0564999990165233612 0.00765431718900799751 -0.0297357887029647827
-0.0564999990165233612 0.0102198179811239243 -0.0374519750475883484
-0.0564999990165233612 -0.00525921862572431564 -0.0154386721551418304
-0.0564999990165233612 -0.0163193400949239731 0.000520993024110794067
-0.0564999990165233612 -0.00126894842833280563 -0.0184533577412366867
-0.0564999990165233612 -0.0192146375775337219 0.00907786190509796143
-0.0564999990165233612 -0.0158779211342334747 0.000320620834827423096
-0.0564999990165233612 -0.0206043478101491928 0.0102197416126728058
-0.0564999990165233612 0.00255344156175851822 -0.0285734310746192932
-0.0564999990165233612 -0.0147886574268341064 -0.00254715234041213989
-0.0564999990165233612 0.0120281632989645004 -0.0351172760128974915
-0.0564999990165233612 0.00145318359136581421 -0.0204812362790107727
-0.0564999990165233612 0.0010341918095946312 -0.0206215772777795792
-0.0564999990165233612 0.00421033985912799835 -0.0259758941829204559
-0.0564999990165233612 -0.0045549469068646431 -0.012493818998336792
-0.0564999990165233612 -0.0025977063924074173 -0.0158779919147491455
-0.0564999990165233612 -0.00195594504475593567 -0.0200539082288742065
-0.0564999990165233612 -0.0276894327253103256 0.0214243084192276001
-0.0564999990165233612 -0.00821004807949066162 -0.0098295360803604126
-0.0564999990165233612 0.00174622610211372375 -0.0311248674988746643
-0.0564999990165233612 0.00720839947462081909 -0.037118520587682724
-0.0564999990165233612 -0.00682497397065162659 -0.00986926816403865814
-0.0564999990165233612 -0.00171561259776353836 -0.0277642179280519485
-0.0564999990165233612 0.0122120380401611328 -0.0390257760882377625
-0.0564999990165233612 -0.00900562945753335953 -0.00842698104679584503
-0.0564999990165233612 -0.00478610489517450333 -0.0167789123952388763
-0.0564999990165233612 -0.0120308306068181992 -0.0088521912693977356
-0.0564999990165233612 -0.000806316733360290527 -0.0295195877552032471
-0.0564999990165233612 -0.000561759341508150101 -0.0290478058159351349
-0.0564999990165233612 0.0049842149019241333 -0.0263868868350982666
-0.0564999990165233612 -0.0164092294871807098 0.0044955126941204071
-0.0564999990165233612 -0.00137563608586788177 -0.016048092395067215
-0.0564999990165233612 -0.0146792847663164139 -0.00145638734102249146
-0.0564999990165233612 0.0108337821438908577 -0.035211469978094101
-0.0564999990165233612 -0.000362139195203781128 -0.0139672271907329559
-0.0564999990165233612 0.00533438287675380707 -0.0164368040859699249
-0.0564999990165233612 0.0104429572820663452 -0.022678472101688385
-0.0564999990165233612 0.0126891173422336578 -0.0257708095014095306
-0.0564999990165233612 -0.0262315087020397186 0.0210386626422405243
-0.0564999990165233612 0.00426445063203573227 -0.019178370013833046
-0.0564999990165233612 0.00372953712940216064 -0.0119153261184692383
-0.0564999990165233612 0.0119534879922866821 -0.0236918181180953979
-0.0564999990165233612 0.0146696474403142929 -0.0304281804710626602
-0.0564999990165233612 0.00561043061316013336 -0.0154381599277257919
-0.0564999990165233612 -0.00592089630663394928 -0.00325954332947731018
-0.0564999990165233612 0.00790771562606096268 -0.0199132375419139862
-0.0564999990165233612 -0.0205047298222780228 0.014850180596113205
-0.0564999990165233612 -0.00505175627768039703 -0.00307745859026908875
-0.0564999990165233612 0.00797410216182470322 -0.0239348877221345901
-0.0564999990165233612 0.0202917307615280151 -0.035619046539068222
-0.0564999990165233612 0.0012320447713136673 -0.0192360430955886841
-0.0564999990165233612 0.013409031555056572 -0.0330469720065593719
-0.0564999990165233612 0.0067076636478304863 -0.0213154740631580353
-0.0564999990165233612 -0.00150332972407341003 -0.0109061244875192642
-0.0564999990165233612 -0.00664822570979595184 -0.00134897977113723755
-0.0564999990165233612 -0.0199087895452976227 0.0125360488891601562
-0.0564999990165233612 0.00747269485145807266 -0.0236503966152667999
-0.0564999990165233612 0.01831853948533535 -0.0293965935707092285
-0.0564999990165233612 0.0163548346608877182 -0.0264061596244573593
-0.0564999990165233612 0.00561795011162757874 -0.0253353603184223175
-0.0564999990165233612 0.00254145264625549316 -0.0105041619390249252
-0.0564999990165233612 -0.0310869645327329636 0.0274790190160274506
-0.0564999990165233612 -0.0155915804207324982 0.00731054693460464478
-0.0564999990165233612 0.0188943184912204742 -0.0324125476181507111
-0.0564999990165233612 0.00830527395009994507 -0.0209944769740104675
-0.0564999990165233612 0.0117604443803429604 -0.0299163591116666794
-0.0564999990165233612 0.0164833497256040573 -0.0380729250609874725
-0.0564999990165233612 0.00378209352493286133 -0.0171062927693128586
-0.0564999990165233612 0.0148272868245840073 -0.0368227362632751465
-0.0564999990165233612 0.0182985719293355942 -0.0305634159594774246
-0.0564999990165233612 -0.00656942650675773621 0.00431283377110958099
-0.0564999990165233612 0.00956175290048122406 -0.0142890624701976776
-0.0564999990165233612 -0.00158502534031867981 -0.00560252182185649872
-0.0564999990165233612 0.00903164781630039215 -0.0173535235226154327
-0.0564999990165233612 0.0182826630771160126 -0.0220105275511741638
-0.0564999990165233612 0.013300430029630661 -0.0177953355014324188
-0.0564999990165233612 0.0272182021290063858 -0.0264562740921974182
-0.0564999990165233612 0.0278487913310527802 -0.0246971901506185532
-0.0564999990165233612 0.0108158327639102936 -0.0118967443704605103
-0.0564999990165233612 0.00926699116826057434 -0.0082312505692243576
-0.0564999990165233612 -0.00413984805345535278 0.00139498524367809296
-0.0564999990165233612 0.0128845348954200745 -0.014480864629149437
-0.0564999990165233612 0.0083656013011932373 -0.00860278122127056122
-0.0564999990165233612 0.0010195467621088028 -0.0072476658970117569
-0.0564999990165233612 0.0214354507625102997 -0.0249782875180244446
-0.0564999990165233612 -0.0223057325929403305 0.0194368809461593628
-0.0564999990165233612 -0.0095121040940284729 0.00346787460148334503
-0.0564999990165233612 0.0116871073842048645 -0.0189503338187932968
-0.0564999990165233612 -0.00440709106624126434 0.00187921524047851562
-0.0564999990165233612 0.0179349891841411591 -0.0177369415760040283
-0.0564999990165233612 0.0181389376521110535 -0.0276354569941759109
-0.0564999990165233612 0.00517020933330059052 -0.00970674492418766022
-0.0564999990165233612 -0.00120898708701133728 0.000793347135186195374
-0.0564999990165233612 0.0110402237623929977 -0.0196441337466239929
-0.0564999990165233612 0.00420158915221691132 -0.0104760080575942993
-0.0564999990165233612 0.0133989602327346802 -0.01967582106590271
-0.0564999990165233612 0.0107724592089653015 -0.0118712913244962692
-0.0564999990165233612 -0.00274109840393066406 0.000399574637413024902
-0.0564999990165233612 0.016852138563990593 -0.0149710522964596748
-0.0564999990165233612 0.00945871323347091675 -0.0141823682934045792
-0.0564999990165233612 0.025661170482635498 -0.029269196093082428
-0.0564999990165233612 0.011948462575674057 -0.0193147175014019012
-0.0564999990165233612 -0.0111295226961374283 0.00825454667210578918
-0.0564999990165233612 0.00128756649792194366 -0.00308335758745670319
-0.0564999990165233612 0.0230670459568500519 -0.020948091521859169
-0.0564999990165233612 0.0181753356009721756 -0.027564171701669693
-0.0564999990165233612 0.0128496754914522171 -0.0127730760723352432
-0.0564999990165233612 -0.0142726600170135498 0.0141188707202672958
-0.0564999990165233612 -0.00455688312649726868 0.00737709365785121918
-0.0564999990165233612 0.00527586601674556732 -0.00262444652616977692
-0.0564999990165233612 0.0133178718388080597 -0.00586455781012773514
-0.0564999990165233612 0.0321101918816566467 -0.0206523444503545761
-0.0564999990165233612 0.0298339091241359711 -0.0235010460019111633
-0.0564999990165233612 0.0166126061230897903 -0.0143811954185366631
-0.0564999990165233612 0.0310519784688949585 -0.0159591846168041229
-0.0564999990165233612 -0.0120215043425559998 0.0109979845583438873
-0.0564999990165233612 -0.00395757704973220825 0.00834341347217559814
-0.0564999990165233612 0.0309898853302001953 -0.0175364166498184204
-0.0564999990165233612 0.0164256468415260315 -0.0132948793470859528
-0.0564999990165233612 0.0205775592476129532 -0.0141493454575538635
-0.0564999990165233612 -0.00319705158472061157 0.00741447694599628448
-0.0564999990165233612 0.00854546390473842621 -0.00148715823888778687
-0.0564999990165233612 0.0351944752037525177 -0.0212600473314523697
-0.0564999990165233612 0.0324506871402263641 -0.016749037429690361
-0.0564999990165233612 0.0329594723880290985 -0.0233910530805587769
-0.0564999990165233612 0.0208727866411209106 -0.0171067379415035248
-0.0564999990165233612 0.0172620397061109543 -0.00697319116443395615
-0.0564999990165233612 0.0208941865712404251 -0.0159865058958530426
-0.0564999990165233612 0.0129279382526874542 -0.00889731477946043015
-0.0564999990165233612 0.00152259320020675659 0.00387988798320293427
-0.0564999990165233612 0.0234588272869586945 -0.0197429582476615906
-0.0564999990165233612 0.0225475132465362549 -0.0189918708056211472
-0.0564999990165233612 0.010355629026889801 -0.00119405798614025116
-0.0564999990165233612 0.0327796414494514465 -0.0254340507090091705
-0.0564999990165233612 0.00333490967750549316 -0.000406840816140174866
-0.0564999990165233612 0.0278782639652490616 -0.019306553527712822
-0.0564999990165233612 0.029201701283454895 -0.0168061945587396622
-0.0564999990165233612 0.0197615288197994232 -0.00762441195547580719
-0.0564999990165233612 0.025349743664264679 -0.020211242139339447
-0.0564999990165233612 0.0252739451825618744 -0.0155091835185885429
-0.0564999990165233612 0.0101512689143419266 -0.00351671129465103149
-0.0564999990165233612 -0.00929619744420051575 0.0111903194338083267
-0.0564999990165233612 0.0178535152226686478 -0.00767508614808320999
-0.0564999990165233612 0.00388009659945964813 -0.00214619189500808716
-0.0564999990165233612 0.0318032391369342804 -0.00960803031921386719
-0.0564999990165233612 0.0299030318856239319 -0.00494947610422968864
-0.0564999990165233612 0.00832022726535797119 0.00118456967175006866
-0.0564999990165233612 0.0207178834825754166 -0.00318638607859611511
-0.0564999990165233612 0.0183331817388534546 -0.00187953468412160873
-0.0564999990165233612 -0.0137459486722946167 0.0167527738958597183
-0.0564999990165233612 0.00593474134802818298 0.00210277549922466278
-0.0564999990165233612 0.0146119184792041779 0.00269267521798610687
-0.0564999990165233612 -0.0273928269743919373 0.0254588834941387177
-0.0564999990165233612 0.0118010081350803375 -0.000967813655734062195
-0.0564999990165233612 0.0189094580709934235 -0.00330546032637357712
-0.0564999990165233612 -0.00174529477953910828 0.00827459432184696198
-0.0564999990165233612 0.0282817427068948746 -0.0129782166332006454
-0.0564999990165233612 0.00463597476482391357 0.00485442858189344406
-0.0564999990165233612 0.0257366709411144257 -0.0113681452348828316
-0.0564999990165233612 0.0143377501517534256 0.002086651511490345
-0.0564999990165233612 0.0221866574138402939 -0.000635766424238681793
-0.0564999990165233612 0.0216960851103067398 -0.00740374252200126648
-0.0564999990165233612 -0.0142276473343372345 0.017757093533873558
-0.0564999990165233612 -0.0277639478445053101 0.0256757345050573349
-0.0564999990165233612 0.0348067469894886017 -0.0166603941470384598
-0.0564999990165233612 0.0380354747176170349 -0.0154199991375207901
-0.0564999990165233612 0.0231572017073631287 -0.00426289532333612442
-0.0564999990165233612 0.0321783162653446198 -0.0159486699849367142
-0.0564999990165233612 0.0220375731587409973 -0.00656340178102254868
-0.0564999990165233612 -0.00804899632930755615 0.0146372606977820396
-0.0564999990165233612 0.0230527054518461227 -0.00247579999268054962
-0.0564999990165233612 0.0148190353065729141 -0.00287398137152194977
-0.0564999990165233612 0.0127141103148460388 0.00347215030342340469
-0.0564999990165233612 0.0240591857582330704 -0.00913589075207710266
-0.0564999990165233612 0.0303809195756912231 -0.00924989301711320877
-0.0564999990165233612 -0.00337112322449684143 0.0121022602543234825
-0.0564999990165233612 0.0113249924033880234 -0.000282554887235164642
-0.0564999990165233612 -0.00122833624482154846 0.00850893463939428329
-0.0564999990165233612 -0.00878475233912467957 0.0151681751012802124
-0.0564999990165233612 0.0168238338083028793 0.00156596489250659943
-0.0564999990165233612 0.01843290776014328 0.00509452354162931442
-0.0564999990165233612 0.000352535396814346313 0.0137290246784687042
-0.0564999990165233612 0.0381659679114818573 -0.0058407345786690712
-0.0564999990165233612 0.0246300715953111649 -0.000767995137721300125
-0.0564999990165233612 0.0082624778151512146 0.0100027266889810562
-0.0564999990165233612 0.00529964268207550049 0.0103493630886077881
-0.0564999990165233612 -0.0128952488303184509 0.0185858681797981262
-0.0564999990165233612 -0.00296182557940483093 0.0131389591842889786
-0.0564999990165233612 0.0209261644631624222 0.00134735554456710815
-0.0564999990165233612 0.0109167397022247314 0.0107483845204114914
-0.0564999990165233612 -0.010493449866771698 0.0176468435674905777
-0.0564999990165233612 0.000164359807968139648 0.0115326773375272751
-0.0564999990165233612 0.00543982908129692078 0.00886893086135387421
-0.0564999990165233612 0.0272818133234977722 0.00456000166013836861
-0.0564999990165233612 0.00813039392232894897 0.0106721445918083191
-0.0564999990165233612 0.0321768634021282196 0.00156693719327449799
-0.0564999990165233612 0.0251808259636163712 0.00372917531058192253
-0.0564999990165233612 -0.0230525918304920197 0.0244714897125959396
-0.0564999990165233612 0.00285746902227401733 0.0121405981481075287
-0.0564999990165233612 0.0383089631795883179 -0.00743920216336846352
-0.0564999990165233612 0.0350867919623851776 0.00237541855312883854
-0.0564999990165233612 0.0232737734913825989 0.00167316896840929985
-0.0564999990165233612 0.0102582313120365143 0.00869673490524291992
-0.0564999990165233612 0.0187428556382656097 0.00777715537697076797
-0.0564999990165233612 0.0319368243217468262 -0.00504519743844866753
-0.0564999990165233612 -0.00833826512098312378 0.0176208652555942535
-0.0564999990165233612 0.0088506452739238739 0.011348554864525795
-0.0564999990165233612 0.0243676137179136276 0.00279051833786070347
-0.0564999990165233612 0.0265055447816848755 -0.00158164883032441139
-0.0564999990165233612 0.00903530418872833252 0.0115301040932536125
-0.0564999990165233612 0.0102869719266891479 0.00995092093944549561
-0.0564999990165233612 -0.0149275027215480804 0.0208659656345844269
-0.0564999990165233612 0.0255738198757171631 0.0048321383073925972
-0.0564999990165233612 0.0327912718057632446 -0.00249179033562541008
-0.0564999990165233612 -0.0198694281280040741 0.0243232809007167816
-0.0564999990165233612 -0.0120325386524200439 0.0220028385519981384
-0.0564999990165233612 -0.0201508142054080963 0.0238885842263698578
-0.0564999990165233612 0.00300570577383041382 0.0174817591905593872
-0.0564999990165233612 0.0407835319638252258 0.00479344138875603676
-0.0564999990165233612 0.0276618637144565582 0.0100277476012706757
-0.0564999990165233612 0.0338745377957820892 0.00580173404887318611
-0.0564999990165233612 0.019797326996922493 0.00963764544576406479
-0.0564999990165233612 0.0188843309879302979 0.010902763344347477
-0.0564999990165233612 0.0402166694402694702 0.00691556744277477264
-0.0564999990165233612 0.0354714393615722656 0.0110971387475728989
-0.0564999990165233612 0.0356615930795669556 0.00243973941542208195
-0.0564999990165233612 0.0241720601916313171 0.00722570484504103661
-0.0564999990165233612 0.00689142197370529175 0.0165702104568481445
-0.0564999990165233612 -0.0112994462251663208 0.0223349519073963165
-0.0564999990165233612 0.00521131232380867004 0.0147741939872503281
-0.0564999990165233612 0.00594419240951538086 0.0172648169100284576
-0.0564999990165233612 0.033813081681728363 0.00679243123158812523
-0.0564999990165233612 0.0284998640418052673 0.00520482053980231285
-0.0564999990165233612 0.00178692489862442017 0.0174402147531509399
-0.0564999990165233612 -0.00719337165355682373 0.0191304534673690796
-0.0564999990165233612 0.0372973792254924774 0.00519373267889022827
-0.0564999990165233612 -0.000922024250030517578 0.0172216221690177917
-0.0564999990165233612 0.0081806667149066925 0.0153738986700773239
-0.0564999990165233612 0.0241888798773288727 0.0121637191623449326
-0.0564999990165233612 0.00069914013147354126 0.0188767723739147186
-0.0564999990165233612 -0.0157338082790374756 0.0235758256167173386
-0.0564999990165233612 0.0380959846079349518 0.00508318794891238213
-0.0564999990165233612 0.0147388596087694168 0.0135626774281263351
-0.0564999990165233612 0.0387191958725452423 0.00270297843962907791
-0.0564999990165233612 0.0179815273731946945 0.014160466380417347
-0.0564999990165233612 0.0382717251777648926 0.0153269479051232338
-0.0564999990165233612 0.0284555219113826752 0.0160078741610050201
-0.0564999990165233612 0.0297352559864521027 0.0135649014264345169
-0.0564999990165233612 -0.0208631530404090881 0.0258022062480449677
-0.0564999990165233612 -0.00821968540549278259 0.0239323005080223083
-0.0564999990165233612 0.0305320415645837784 0.015687163919210434
-0.0564999990165233612 -0.0017152540385723114 0.0240186117589473724
-0.0564999990165233612 0.0233983546495437622 0.0199633147567510605
-0.0564999990165233612 0.0283732358366250992 0.0172805227339267731
-0.0564999990165233612 0.0358254164457321167 0.0175071638077497482
-0.0564999990165233612 0.0262242145836353302 0.0150868147611618042
-0.0564999990165233612 0.0085452105849981308 0.0185578987002372742
-0.0564999990165233612 0.0164797343313694 0.0173937380313873291
