ply
format ascii 1.0
element vertex 705
property float x
property float y
property float z
end_header
-0.01486237533390522 0.0204130541533231735 0.00524420617148280144
0.0326400995254516602 0.0201395824551582336 0.00596528872847557068
-0.00415086932480335236 0.0198554936796426773 0.00671437010169029236
0.0340111143887042999 0.0202509798109531403 0.00567155657336115837
0.0155611168593168259 0.0195297412574291229 0.00757330842316150665
0.0359406396746635437 0.0197441261261701584 0.00700802076607942581
0.0468889474868774414 0.0201380793005228043 0.00596925290301442146
0.0184493549168109894 0.0202575176954269409 0.00565432058647274971
0.00312421657145023346 0.0196833964437246323 0.00716815516352653503
0.00974854454398155212 0.0203479956835508347 0.00541574740782380104
-0.00398736447095870972 0.0203707050532102585 0.00535586755722761154
0.0319654606282711029 0.0193136110901832581 0.00814319774508476257
0.0053163040429353714 0.019852103665471077 0.00672331079840660095
0.0122584905475378036 0.0199204795062541962 0.00654301838949322701
0.0386912263929843903 0.0191455278545618057 0.00858639553189277649
-0.001340523362159729 0.0200103018432855606 0.00630617234855890274
-0.0332308113574981689 0.0202920027077198029 0.00556338950991630554
0.0223386473953723907 0.0194531623274087906 0.00777523219585418701
-0.00331946462392807007 0.0204546339809894562 0.00513456575572490692
0.00140011869370937347 0.0200634114444255829 0.00616613775491714478
0.0339697301387786865 0.0198115892708301544 0.00683013629168272018
-0.0360701456665992737 0.0203850511461496353 0.00531804235652089119
0.0452644713222980499 0.0189165398478507996 0.00919019058346748352
-0.0199796445667743683 0.0201848633587360382 0.00584589503705501556
0.00654377788305282593 0.0203498993068933487 0.00541073037311434746
0.00317427050322294235 0.0196452494710683823 0.00726873986423015594
0.0234938226640224457 0.0193076115101575851 0.00815901719033718109
0.0209750104695558548 0.0200353581458330154 0.00624010432511568069
-0.0408166199922561646 0.0204634405672550201 0.00511134741827845573
0.0278057418763637543 0.0202840380370616913 0.00558439083397388458
0.0376061946153640747 0.0200633294880390167 0.00616635242477059364
0.0174228493124246597 0.0195958726108074188 0.00739893410354852676
-0.00750220194458961487 0.0201416704803705215 0.00595978368073701859
0.0371459648013114929 0.0204615984112024307 0.00511620193719863892
0.0010367613285779953 0.0201451387256383896 0.00595064135268330574
-0.00899545289576053619 0.0202101767063140869 0.00577914714813232422
0.0176181290298700333 0.0200609546154737473 0.00617261370643973351
-0.0310185141861438751 0.0203647073358297348 0.00537168607115745544
0.0113122668117284775 0.0198477096855640411 0.00673489551991224289
0.0134351626038551331 0.0195327680557966232 0.00756532978266477585
0.0120384097099304199 0.0194758716970682144 0.00771534861996769905
0.0218368545174598694 0.0203130431473255157 0.00550791248679161072
0.0216747671365737915 0.0198781192302703857 0.0066547091118991375
-0.0219174847006797791 0.0204062163829803467 0.00526223285123705864
0.0389996692538261414 0.0200659986585378647 0.00615931442007422447
0.0251555368304252625 0.0191767420619726181 0.00850409176200628281
0.0185592900961637497 0.0201185531914234161 0.0060207415372133255
0.00661153066903352737 0.0195081979036331177 0.00763011164963245392
0.015816880390048027 0.0198492687195539474 0.00673078419640660286
0.00552056357264518738 0.0199515074491500854 0.00646120170131325722
0.040259823203086853 0.0195435155183076859 0.00753699010238051414
-0.0124064534902572632 0.0204485673457384109 0.005150563083589077
0.0228762049227952957 0.0200824234634637833 0.00611600372940301895
-0.0188804958015680313 0.0202502850443124771 0.00567338941618800163
-0.0421868413686752319 0.0204696133732795715 0.00509506743401288986
-0.0234112385660409927 0.0203084945678710938 0.00551990559324622154
0.0214608702808618546 0.0199204795062541962 0.00654301419854164124
-0.0393704138696193695 0.0203416347503662109 0.00543252332136034966
0.0188172720372676849 0.019525524228811264 0.00758442934602499008
0.0428674295544624329 0.0199472289532423019 0.00647248420864343643
0.00452480092644691467 0.0198511593043804169 0.00672580068930983543
0.00384025834500789642 0.0198478158563375473 0.00673461519181728363
-0.0216204188764095306 0.0204296726733446121 0.00520038371905684471
-0.0245866980403661728 0.0203606300055980682 0.00538243679329752922
0.0218992326408624649 0.0195676404982805252 0.00747337518259882927
-0.0157910585403442383 0.0202203076332807541 0.00575243262574076653
0.0216100756078958511 0.0192288607358932495 0.00836666394025087357
-0.0121617782860994339 0.0200497899204492569 0.0062020542100071907
0.039075702428817749 0.01945512555539608 0.00777005404233932495
0.0328822135925292969 0.0204741377383470535 0.00508314091712236404
0.000725904479622840881 0.0200164634734392166 0.00628992822021245956
0.00749015435576438904 0.0203398372977972031 0.00543726095929741859
0.0205703005194664001 0.02022571861743927 0.00573816848918795586
0.0473037809133529663 0.0204393360763788223 0.00517490226775407791
0.0339584909379482269 0.0195993166416883469 0.00738985463976860046
0.0155747085809707642 0.0201890375465154648 0.00583488587290048599
0.000540476292371749878 0.0202909801155328751 0.00556608475744724274
0.0184648409485816956 0.0196272153407335281 0.0073162885382771492
0.0375822633504867554 0.0192014593631029129 0.00843891594558954239
0.0198364406824111938 0.0199773702770471573 0.00639300886541604996
0.0314005538821220398 0.0201392602175474167 0.00596613762900233269
0.0339915305376052856 0.0202544517815113068 0.00566240493208169937
-0.0151773085817694664 0.0199882332235574722 0.00636436603963375092
-0.00988952815532684326 0.0203724335879087448 0.00535130966454744339
0.0117115899920463562 0.0198018085211515427 0.00685592740774154663
-0.0146790910512208939 0.0203552450984716415 0.00539663201197981834
0.0342839248478412628 0.0197720043361186981 0.00693451147526502609
-0.0224473848938941956 0.0202793832868337631 0.00559666426852345467
-0.0111985243856906891 0.0203975625336170197 0.00528505071997642517
0.0394707880914211273 0.018845120444893837 0.00937850587069988251
0.0358078256249427795 0.0196944121271371841 0.00713910628110170364
0.0303705334663391113 0.0202124360948801041 0.00577319180592894554
0.0363722890615463257 0.0189282447099685669 0.00915932655334472656
0.0261682756245136261 0.0193439740687608719 0.00806313380599021912
0.0337714105844497681 0.0190836489200592041 0.00874955952167510986
0.0340305045247077942 0.0201224815100431442 0.00601038290187716484
0.0443885251879692078 0.0201781075447797775 0.0058637070469558239
0.00407680962234735489 0.0197383631020784378 0.00702321901917457581
0.0444844141602516174 0.0199088733643293381 0.0065736197866499424
0.0281101502478122711 0.019793972373008728 0.00687658833339810371
0.0212118662893772125 0.0204087328165769577 0.00525559857487678528
-0.00356582179665565491 0.0204191505908966064 0.00522812735289335251
0.0234510153532028198 0.0193333905190229416 0.00809104274958372116
0.030015287920832634 0.0193436220288276672 0.00806406512856483459
0.00360605865716934204 0.0202628485858440399 0.00564026413485407829
0.0315997004508972168 0.0194877516478300095 0.00768402405083179474
0.0250392220914363861 0.0193039737641811371 0.00816860981285572052
0.0369091741740703583 0.0200796555727720261 0.0061233052983880043
-0.022084726020693779 0.0203183647245168686 0.00549387885257601738
-0.0112325102090835571 0.0204030107706785202 0.00527068553492426872
-0.0225396137684583664 0.0203110389411449432 0.00551319587975740433
-0.0063904784619808197 0.0204535573720932007 0.00513740768656134605
0.0357505679130554199 0.0189381930977106094 0.00913309305906295776
0.0178562551736831665 0.0203757043927907944 0.00534268654882907867
0.0110830441117286682 0.020109228789806366 0.00604532426223158836
0.00503483414649963379 0.0196901038289070129 0.00715046795085072517
0.0139543581753969193 0.0197569150477647781 0.00697430223226547241
0.0353370159864425659 0.0199844222515821457 0.0063744131475687027
0.04197663813829422 0.0199553463608026505 0.00645107962191104889
0.0447517894208431244 0.0203849785029888153 0.00531823141500353813
-0.0110429245978593826 0.0202104561030864716 0.00577841140329837799
0.024632476270198822 0.0202136151492595673 0.00577008351683616638
0.013157745823264122 0.0196823123842477798 0.00717101246118545532
0.00400538183748722076 0.0201478637754917145 0.00594345107674598694
-0.0156786590814590454 0.01979047991335392 0.00688579678535461426
0.00202695652842521667 0.0186927616596221924 0.00978024303913116455
-0.0440393686294555664 0.0198233276605606079 0.00679918378591537476
-0.0409689173102378845 0.0190564766526222229 0.00882120337337255478
-0.0108645074069499969 0.0196340065449476242 0.00729838572442531586
-0.0320491641759872437 0.0196071751415729523 0.00736913131549954414
-0.0177602730691432953 0.0195657797157764435 0.00747828558087348938
-0.0354525148868560791 0.0193752441555261612 0.00798068568110466003
-0.0438821949064731598 0.0199224818497896194 0.00653773359954357147
-0.00501882284879684448 0.0192405544221401215 0.00833583064377307892
0.0134039744734764099 0.0190332457423210144 0.00888246204704046249
0.00934100523591041565 0.0190732441842556 0.00877699442207813263
0.00394503772258758545 0.0193907506763935089 0.00793980062007904053
-0.00667846947908401489 0.0195201188325881958 0.00759868184104561806
0.0130143798887729645 0.018766455352306366 0.00958592817187309265
-0.0358045473694801331 0.0195046775043010712 0.00763939693570137024
0.0150700584053993225 0.0187280159443616867 0.00968728214502334595
-0.0350555740296840668 0.0190591029822826385 0.00881428178399801254
-0.0216818712651729584 0.019495869055390358 0.00766262318938970566
-0.00487709790468215942 0.0196074135601520538 0.00736850127577781677
0.0372178629040718079 0.0187260061502456665 0.00969258509576320648
-0.0202118344604969025 0.0187769830226898193 0.00955816451460123062
0.000578675419092178345 0.0190526451915502548 0.00883130449801683426
-0.00965655595064163208 0.0195711627602577209 0.00746408896520733833
0.025841057300567627 0.0186851788312196732 0.00980023760348558426
-0.040410265326499939 0.0190019216388463974 0.00896505638957023621
-0.0263522397726774216 0.0193900726735591888 0.00794158689677715302
-0.0421715900301933289 0.0202888771891593933 0.00557163311168551445
-0.0172716919332742691 0.0195701271295547485 0.00746681820601224899
-0.0471554957330226898 0.0195150226354598999 0.00761211803182959557
-0.0326753966510295868 0.0189018100500106812 0.00922902766615152359
-0.00272858515381813049 0.019543234258890152 0.00753773003816604614
0.000192958861589431763 0.0187786649912595749 0.00955373141914606094
-0.0354407057166099548 0.0201226361095905304 0.00600997498258948326
-0.0132816731929779053 0.0187759865075349808 0.00956079643219709396
-0.0335173197090625763 0.0198144912719726562 0.00682248407974839211
-0.00926345586776733398 0.0195931028574705124 0.00740624126046895981
-0.00881617516279220581 0.0195716973394155502 0.00746268080547451973
-0.0221973918378353119 0.0193410292267799377 0.00807090196758508682
-0.0364189520478248596 0.0189131554216146469 0.00919911079108715057
-0.0391146503388881683 0.020231315866112709 0.00572340935468673706
-0.0072545073926448822 0.0187119767069816589 0.00972957722842693329
-0.0118823014199733734 0.0189172849059104919 0.00918822549283504486
-0.020709354430437088 0.0197247061878442764 0.0070592295378446579
-0.0310616716742515564 0.0190305598080158234 0.00888953916728496552
-0.041780427098274231 0.0201307144016027451 0.00598867191001772881
-0.00473677366971969604 0.0195943713188171387 0.00740289362147450447
-0.0301557742059230804 0.0192350540310144424 0.00835033506155014038
-0.0185674186795949936 0.0188371185213327408 0.0093996068462729454
-0.0390381515026092529 0.0191741585731506348 0.00851090345531702042
0.0104875415563583374 0.0187511704862117767 0.00962623301893472672
-0.0111855603754520416 0.0187530387192964554 0.00962130539119243622
-0.0461339429020881653 0.0188622418791055679 0.0093333609402179718
-0.0395800694823265076 0.0202681683003902435 0.00562623888254165649
0.0130421556532382965 0.0188814625144004822 0.00928267650306224823
-0.041579321026802063 0.0195425879210233688 0.00753943528980016708
-0.0163745209574699402 0.0193991400301456451 0.00791767612099647522
-0.0420753993093967438 0.0193610768765211105 0.00801804102957248688
0.0264367237687110901 0.0187730696052312851 0.00956848356872797012
-0.0351885296404361725 0.0187289658933877945 0.009684782475233078
0.00346869975328445435 0.0190847311168909073 0.00874670688062906265
-0.0439586341381072998 0.0193675290793180466 0.00800103135406970978
0.0334552973508834839 0.0189318917691707611 0.00914971064776182175
-0.0339804664254188538 0.0196349602192640305 0.00729587022215127945
-0.0151425190269947052 0.0194191876798868179 0.00786481611430644989
-0.0266661215573549271 0.0198875535279512405 0.00662983488291501999
0.00113898888230323792 0.0188670717179775238 0.00932062231004238129
-0.0346016809344291687 0.0189193319529294968 0.00918282661586999893
-0.0160761140286922455 0.0194704756140708923 0.00772958109155297279
0.0319569483399391174 0.0189085826277732849 0.00921116769313812256
-0.0352910980582237244 0.0195631794631481171 0.00748513592407107353
-0.033790145069360733 0.0201199296861886978 0.00601711217314004898
-0.0288307908922433853 0.0200130585581064224 0.00629890616983175278
0.0182559192180633545 0.0187239311635494232 0.00969805847853422165
0.0298390090465545654 0.0189517792314291 0.00909726507961750031
-0.0455827973783016205 0.0187672413885593414 0.00958385877311229706
0.025556907057762146 0.0189353600144386292 0.0091405622661113739
-0.0347545482218265533 0.019505595788359642 0.00763697410002350807
0.00240416452288627625 0.018884662538766861 0.00927424337714910507
-0.035227116197347641 0.0193654075264930725 0.00800662022083997726
-0.0263486895710229874 0.0199574101716279984 0.00644563976675271988
0.0330635532736778259 0.0188090689480304718 0.0094735659658908844
0.00327353551983833313 0.0191699117422103882 0.00852209795266389847
-0.0475701428949832916 0.0199634339660406113 0.0064297565259039402
-0.0114023312926292419 0.0189889967441558838 0.00899913161993026733
-0.0362731516361236572 0.0187878366559743881 0.00952954962849617004
-0.0369700640439987183 0.0188452489674091339 0.00937816780060529709
-0.0356787890195846558 0.0197461526840925217 0.00700267963111400604
-0.0357550382614135742 0.0188062191009521484 0.00948107894510030746
-0.0349088944494724274 0.0187964662909507751 0.00950679462403059006
-0.0186222866177558899 0.0197990965098142624 0.00686307763680815697
-0.0477226078510284424 0.020053153857588768 0.00619318475946784019
-0.0462458096444606781 0.01891331747174263 0.00919868238270282745
-0.0216520726680755615 0.0190144926309585571 0.00893190409988164902
-0.0470476150512695312 0.0188564900308847427 0.00934852566570043564
-0.0402676872909069061 0.020209750160574913 0.00578027451410889626
-0.0215673632919788361 0.0188762601464986801 0.00929639488458633423
-0.0414283350110054016 0.0188562013208866119 0.00934929121285676956
0.0080938972532749176 0.0187061801552772522 0.00974486116319894791
-0.0213173925876617432 0.0191595517098903656 0.00854942016303539276
-0.0282817818224430084 0.0201163534075021744 0.00602653948590159416
-0.0417210608720779419 0.0196650456637144089 0.00721653923392295837
-0.0343682393431663513 0.0194955971091985703 0.00766333937644958496
-0.0217243228107690811 0.0193130820989608765 0.00814459100365638733
-0.0433195903897285461 0.0188167430460453033 0.00945332739502191544
0.0181613117456436157 0.0188498720526695251 0.00936597492545843124
0.00538330525159835815 0.0190979223698377609 0.00871191918849945068
0.020570509135723114 0.019124940037727356 0.00864068325608968735
-0.0293786842375993729 0.01874576136469841 0.00964049343019723892
0.0403669029474258423 0.0187508538365364075 0.00962706468999385834
-0.023762870579957962 0.0195187907665967941 0.00760218407958745956
-0.0280322488397359848 0.0188275855034589767 0.00942474231123924255
-0.0327275842428207397 0.0191727988421916962 0.00851448904722929001
-0.0337361469864845276 0.0187020730227231979 0.00975568871945142746
-0.0385010130703449249 0.0187047235667705536 0.00974870380014181137
-0.0352314375340938568 0.018945697695016861 0.00911330524832010269
0.00271405279636383057 0.0187288839370012283 0.00968499761074781418
0.00167764723300933838 0.0191689878702163696 0.00852453894913196564
-0.00830296427011489868 0.0194157250225543976 0.00787394493818283081
-0.00357996672391891479 0.019323861226439476 0.00811617262661457062
-0.0284225419163703918 0.019519144669175148 0.00760124949738383293
0.000271704047918319702 0.0191494431346654892 0.00857607647776603699
0.0139644742012023926 0.0187724009156227112 0.00957025494426488876
0.0236129462718963623 0.018749631941318512 0.00963028706610202789
0.0283279567956924438 0.0206652991473674774 0.00358008663170039654
0.0458271987736225128 0.0207312833517789841 0.00303665921092033386
-0.0129935108125209808 0.0209524519741535187 0.00121516105718910694
0.00323269516229629517 0.0210937950760126114 5.10919489897787571e-05
0.0227028690278530121 0.0209511741995811462 0.00122568698134273291
0.0387931913137435913 0.0206709317862987518 0.00353370304219424725
0.0133323706686496735 0.0210072528570890427 0.000763836666010320187
0.0401919335126876831 0.0205626636743545532 0.00442536314949393272
-0.0167197901755571365 0.0210698787122964859 0.000248070631641894579
0.0342806801199913025 0.0209268610924482346 0.00142592168413102627
0.0236995555460453033 0.02098890021443367 0.000914980657398700714
-0.00563351064920425415 0.0209414605051279068 0.00130568083841353655
0.000807770062237977982 0.020830078050494194 0.00222300039604306221
0.0476570501923561096 0.0209024231880903244 0.00162718852516263723
-0.0384759604930877686 0.0210672132670879364 0.00027001849957741797
-0.00671018380671739578 0.0208940058946609497 0.00169651315081864595
0.0307926535606384277 0.0210644565522670746 0.000292723503662273288
-0.0127072818577289581 0.0208961218595504761 0.00167908542789518833
0.0460062436759471893 0.020923832431435585 0.00145087135024368763
0.0250818319618701935 0.0208047386258840561 0.00243170070461928844
0.0247324910014867783 0.0206469669938087463 0.00373107055202126503
0.0344654843211174011 0.0209539607167243958 0.001202745595946908
0.0333008617162704468 0.02085842564702034 0.00198954693041741848
0.0166777614504098892 0.020986875519156456 0.000931668386328965425
-0.0215350016951560974 0.0210238713771104813 0.00062697060639038682
0.012963050976395607 0.0209364555776119232 0.00134690431877970695
0.0469677485525608063 0.0206620674580335617 0.00360669707879424095
0.0472448356449604034 0.0210427846759557724 0.000471211824333295226
-0.0268534049391746521 0.0210631787776947021 0.000303239503409713507
0.0474191531538963318 0.0210027452558279037 0.000800961744971573353
-0.0124608604237437248 0.0209305640310049057 0.00139542366378009319
0.00790465809404850006 0.020865539088845253 0.0019309616181999445
0.00970771163702011108 0.0208900962024927139 0.0017287109512835741
-0.00650986656546592712 0.0208657253533601761 0.001929430291056633
0.00618355721235275269 0.0210645832121372223 0.000291679520159959793
0.0170279890298843384 0.020891580730676651 0.00171649199910461903
0.00697482749819755554 0.0210554543882608414 0.000366858323104679585
-0.00904699601233005524 0.0210347864776849747 0.000537072482984513044
0.0367360487580299377 0.0206430926918983459 0.00376296672038733959
0.0112673137336969376 0.0207345001399517059 0.00301016820594668388
0.0235038101673126221 0.0207951962947845459 0.00251029129140079021
0.00252212956547737122 0.0210382565855979919 0.000508500495925545692
0.0351640991866588593 0.0208367891609668732 0.00216773059219121933
0.0196287911385297775 0.020852208137512207 0.00204074522480368614
-0.0364355742931365967 0.0210268814116716385 0.000602182815782725811
-0.0031270347535610199 0.0210091192275285721 0.000748467049561440945
-0.00857675820589065552 0.0210330188274383545 0.000551642675418406725
-0.0439997017383575439 0.0210941880941390991 4.78556175949051976e-05
0.00528306141495704651 0.0210165455937385559 0.000687312684021890163
0.0359845757484436035 0.0206065326929092407 0.00406406726688146591
0.0137647278606891632 0.0210106261074542999 0.000736054731532931328
0.0287280343472957611 0.0208512414246797562 0.00204870360903441906
0.0451745651662349701 0.0210764091461896896 0.00019428251835051924
0.0249902904033660889 0.0210052505135536194 0.000780330738052725792
-0.0217829383909702301 0.0210726261138916016 0.000225443000090308487
0.0413475334644317627 0.0206050779670476913 0.00407604407519102097
0.0358056202530860901 0.020930873230099678 0.00139288138598203659
0.0427217483520507812 0.0207311064004898071 0.00303811579942703247
0.0388742983341217041 0.0206552520394325256 0.00366283254697918892
-0.0254743769764900208 0.0210573151707649231 0.000351545255398377776
0.0275470949709415436 0.0208612121641635895 0.00196658936329185963
0.0316682010889053345 0.0206215549260377884 0.00394035689532756805
0.0183323044329881668 0.0208287127315998077 0.00223424774594604969
0.029546692967414856 0.0210376232862472534 0.000513715320266783237
-0.00760007835924625397 0.0209220945835113525 0.00146518531255424023
-0.00194738432765007019 0.0210521873086690903 0.0003937663568649441
0.0403203628957271576 0.0206340588629245758 0.00383736658841371536
0.0315967127680778503 0.0208833962678909302 0.00178389239590615034
0.0322420448064804077 0.020631132647395134 0.00386147364042699337
0.047434728592634201 0.0206405296921730042 0.00378407980315387249
0.036162644624710083 0.0209833495318889618 0.0009606960229575634
0.0417176485061645508 0.0205315891653299332 0.00468128593638539314
-0.00209718849509954453 0.0208652876317501068 0.00193302519619464874
0.0258322581648826599 0.0210207030177116394 0.000653069349937140942
0.0331843458116054535 0.0207903254777193069 0.00255040521733462811
0.0371158458292484283 0.0210394915193319321 0.000498326553497463465
0.0352356210350990295 0.0206910949200391769 0.00336763286031782627
-0.0256362929940223694 0.0210271198302507401 0.000600219646003097296
0.0156752206385135651 0.0208398792892694473 0.00214228010736405849
0.0447222404181957245 0.0210076794028282166 0.000760328432079404593
0.0370847992599010468 0.0207149572670459747 0.00317110796459019184
0.0192962735891342163 0.02067585289478302 0.0034931614063680172
0.028515918180346489 0.0206251740455627441 0.0039105517789721489
0.0222060997039079666 0.0209369976073503494 0.00134244782384485006
0.0390322282910346985 0.0210292711853981018 0.000582501234021037817
0.0474997237324714661 0.0207994952797889709 0.00247487961314618587
0.0296289250254631042 0.0209939070045948029 0.000873745535500347614
0.0359817445278167725 0.0209926702082157135 0.000883940723724663258
0.0262706279754638672 0.0210919883102178574 6.59857032587751746e-05
-0.00142426788806915283 0.0209928397089242935 0.000882548629306256771
0.0379021987318992615 0.0207505896687507629 0.00287764798849821091
0.0229944642633199692 0.020654456689953804 0.003669386962428689
0.0461278334259986877 0.0207014698535203934 0.00328219286166131496
-0.00566243380308151245 0.0210811328142881393 0.000155379108036868274
0.0387145727872848511 0.0205822456628084183 0.00426408974453806877
0.00944130122661590576 0.0210298243910074234 0.00057795247994363308
0.0366456583142280579 0.0210871770977973938 0.000105595245258882642
0.0183048862963914871 0.0209242608398199081 0.00144733383785933256
0.0173543728888034821 0.0208490490913391113 0.00206677126698195934
0.0378354489803314209 0.0209980905055999756 0.000839296611957252026
-0.0233205389231443405 0.0209459066390991211 0.00126906391233205795
0.0275878645479679108 0.0209620743989944458 0.00113591970875859261
-0.00281692668795585632 0.0210190992802381516 0.000666277250275015831
-0.00741935893893241882 0.0209774449467658997 0.00100932491477578878
-0.0233088750392198563 0.0209915004670619965 0.00089356530224904418
0.0464303940534591675 0.0206285044550895691 0.00388312153518199921
-0.015256635844707489 0.0209174752235412598 0.00150322809349745512
0.0307021532207727432 0.0206055138260126114 0.00407246081158518791
0.027303474023938179 0.0206825379282236099 0.00343811395578086376
-0.000541264191269874573 0.0209371130913496017 0.00134148926008492708
-0.00545015931129455566 0.0209461096674203873 0.00126739824190735817
0.0153188146650791168 0.0210793707519769669 0.000169893770362250507
0.0127093642950057983 0.0208335109055042267 0.00219473522156476974
-0.0189839508384466171 0.0209674779325723648 0.00109141343273222446
-0.00413496885448694229 0.020854143425822258 0.00202480796724557877
0.0414538830518722534 0.0207534413784742355 0.00285416236147284508
0.028847958892583847 0.0208673030138015747 0.00191642646677792072
0.0183430351316928864 0.0210511591285467148 0.000402233825298026204
-0.00752433855086565018 0.0209256019443273544 0.00143628986552357674
0.0396835431456565857 0.0209854859858751297 0.000943104678299278021
0.0372955799102783203 0.0206458941102027893 0.00373989250510931015
0.0105443056672811508 0.0208738483488559723 0.00186252361163496971
0.0103732198476791382 0.0210285186767578125 0.000588705530390143394
-0.0231348760426044464 0.0209763757884502411 0.00101813138462603092
0.00807227194309234619 0.0207269769161939621 0.00307212257757782936
-0.0340112447738647461 0.0204884279519319534 0.00503676524385809898
0.0173700451850891113 0.0204887371510267258 0.00503421435132622719
-0.0286160986870527267 0.0205451697111129761 0.00456942850723862648
-0.024081820622086525 0.0208371095359325409 0.00216509215533733368
-0.00708717480301856995 0.0206604152917861938 0.00362030440010130405
-0.0276916660368442535 0.0208154395222663879 0.0023435631301254034
-0.0452097319066524506 0.0209572240710258484 0.00117586506530642509
0.0253445282578468323 0.0205015446990728378 0.00492872344329953194
-0.00417748093605041504 0.0207526739686727524 0.0028604904655367136
-0.0292356107383966446 0.0208765752613544464 0.00184007012285292149
-0.0367577634751796722 0.0208203606307506561 0.00230303150601685047
-0.0433912463486194611 0.0207990147173404694 0.00247883796691894531
-0.0268308129161596298 0.0208711382001638412 0.00188484741374850273
-0.00957126915454864502 0.0207322519272565842 0.00302866660058498383
-0.0138178505003452301 0.0205827523022890091 0.00425992067903280258
-0.0127821564674377441 0.0205078665167093277 0.00487665506079792976
0.00568473711609840393 0.0205415431410074234 0.00459930626675486565
-0.000426139682531356812 0.0205657146871089935 0.00440024165436625481
-0.0448765642940998077 0.0206290371716022491 0.00387873360887169838
-0.0278312228620052338 0.0208716206252574921 0.00188086577691137791
-0.0445282980799674988 0.0210660304874181747 0.000279760512057691813
0.0210061967372894287 0.0205557886511087418 0.00448199314996600151
0.00126380473375320435 0.0204909946769475937 0.00501562608405947685
-0.00500689446926116943 0.0205013863742351532 0.00493003381416201591
-0.0464891716837882996 0.02089715376496315 0.00167059886734932661
0.000791445374488830566 0.0205653831362724304 0.00440296158194541931
-0.00865098461508750916 0.0207377057522535324 0.00298376870341598988
-0.0206334404647350311 0.0205795224756002426 0.00428651738911867142
-0.00313333049416542053 0.0205108653753995895 0.00485197361558675766
-0.0341842770576477051 0.020769849419593811 0.00271903234533965588
-0.0223550517112016678 0.0208923015743494034 0.00171054375823587179
-0.0447214245796203613 0.0210232436656951904 0.000632144336123019457
-0.0450283549726009369 0.0208306051790714264 0.00221866974607110023
-0.00767678022384643555 0.0206411704421043396 0.00377881666645407677
-0.0412908084690570831 0.0206650979816913605 0.00358173227868974209
-0.0452261306345462799 0.0207177922129631042 0.00314777204766869545
-0.0156062468886375427 0.0207511819899082184 0.00287278741598129272
-0.00519479438662528992 0.0205288641154766083 0.00470373267307877541
-0.0348987281322479248 0.0207210425287485123 0.00312100700102746487
0.000793155282735824585 0.0205434337258338928 0.00458373874425888062
-0.0354174748063087463 0.0206958930939435959 0.00332811241969466209
-0.0345665439963340759 0.0205259677022695541 0.00472759641706943512
-0.0221191924065351486 0.0205504000186920166 0.00452635576948523521
-0.0149312876164913177 0.0205220524221658707 0.00475982064381241798
0.0245478227734565735 0.020518667995929718 0.00478770304471254349
-0.0173565465956926346 0.0206642709672451019 0.00358855538070201874
-0.0323804020881652832 0.0208890810608863831 0.00173707236535847187
-0.0460234470665454865 0.0205412004142999649 0.00460213609039783478
-0.00238249450922012329 0.020630180835723877 0.00386930583044886589
0.0114598497748374939 0.0206270571798086166 0.00389504502527415752
-0.00886755064129829407 0.0205870680510997772 0.00422438699752092361
-0.0278623476624488831 0.0207319334149360657 0.00303130131214857101
0.0198966041207313538 0.0206515155732631683 0.00369360204786062241
-0.0417297855019569397 0.0209563206881284714 0.00118330447003245354
-0.00746542960405349731 0.0208202563226222992 0.0023038964718580246
-0.0358213745057582855 0.0205717012286186218 0.00435093604028224945
-0.0382480844855308533 0.0207107421010732651 0.00320582534186542034
-0.0437731072306632996 0.0209819748997688293 0.000972023990470916033
0.00435535237193107605 0.0205616075545549393 0.00443406496196985245
-0.0161208361387252808 0.0206187628209590912 0.00396333867684006691
-0.00611452758312225342 0.0206607505679130554 0.00361754279583692551
-0.00722898542881011963 0.0205274093896150589 0.00471571460366249084
-0.00861109420657157898 0.0208411384373903275 0.00213190820068120956
-0.039401177316904068 0.0210437681525945663 0.000463109900010749698
-0.0415652766823768616 0.0209713447839021683 0.0010595591738820076
-0.0192106254398822784 0.0208459999412298203 0.00209186552092432976
-0.0206366665661334991 0.020823286846280098 0.00227893795818090439
-0.0373447053134441376 0.0205225143581628799 0.00475602690130472183
-0.00312304496765136719 0.0207761581987142563 0.00266706245020031929
-0.021928783506155014 0.0205127615481615067 0.00483635859563946724
0.0322239324450492859 0.0205508042126893997 0.00452304352074861526
-0.0232848562300205231 0.0209203269332647324 0.00147973420098423958
-0.0408830195665359497 0.0205300077795982361 0.00469430489465594292
0.0194275006651878357 0.0206145867705345154 0.00399773800745606422
0.015315420925617218 0.0205971319228410721 0.00414149463176727295
0.029084622859954834 0.020532337948679924 0.00467511359602212906
-0.0166966021060943604 0.0208400599658489227 0.00214078696444630623
-0.0441629588603973389 0.0205462127923965454 0.00456084171310067177
0.042011648416519165 0.0204999223351478577 0.00494208605960011482
0.0422128587961196899 0.0204967446625232697 0.00496825762093067169
-0.0329582132399082184 0.020781148225069046 0.00262597901746630669
-0.0055598132312297821 0.0205313786864280701 0.00468302145600318909
-0.01195540651679039 0.0205890648066997528 0.00420792773365974426
-0.0290831848978996277 0.0207119565457105637 0.00319582014344632626
-0.0291713941842317581 0.0205197334289550781 0.00477892253547906876
-0.018065938726067543 0.0207921378314495087 0.00253547029569745064
0.0126773007214069366 0.0205818898975849152 0.00426702201366424561
-0.00461414828896522522 0.0207536574453115463 0.00285238958895206451
-0.0452427752315998077 0.0205386709421873093 0.00462296977639198303
-0.0290188882499933243 0.0207774676382541656 0.00265630148351192474
0.00319252535700798035 0.0207009632140398026 0.00328635866753757
-0.0381926149129867554 0.0210309475660324097 0.000568700605072081089
-0.0467995889484882355 0.0210558082908391953 0.000363956001820042729
0.0390430837869644165 0.0205089077353477478 0.0048680892214179039
-0.0467329099774360657 0.0206676032394170761 0.00356110325083136559
-0.0192586816847324371 0.0209057014435529709 0.00160019041504710913
-0.0268197022378444672 0.0206702444702386856 0.00353935151360929012
-0.0221519339829683304 0.0205313432961702347 0.00468331575393676758
0.00135967135429382324 0.0205630436539649963 0.00442224321886897087
-0.0435130931437015533 0.0208767447620630264 0.00183867523446679115
-0.0319581069052219391 0.0208215489983558655 0.00229325750842690468
-0.0144989714026451111 0.0208482462912797928 0.00207337434403598309
-0.0151354186236858368 0.0204968973994255066 0.00496698915958404541
-0.0322600752115249634 0.0206689778715372086 0.00354978861287236214
-0.0140393637120723724 0.0207192599773406982 0.00313568231649696827
0.0163118764758110046 0.0206562168896198273 0.00365488161332905293
0.0235192775726318359 0.0205395277589559555 0.00461590569466352463
-0.0112119130790233612 0.0205007661134004593 0.00493513606488704681
0.0242947861552238464 0.0206121299415826797 0.00401797425001859665
0.0023591555655002594 0.020697861909866333 0.00331190810538828373
0.0121253468096256256 0.0207036156207323074 0.00326451752334833145
-0.0399829968810081482 0.0205741245299577713 0.00433097174391150475
-0.0318099483847618103 0.0205418597906827927 0.00459669996052980423
-0.0469264611601829529 0.0209729410707950592 0.00104642380028963089
0.00883213058114051819 0.0204913672059774399 0.00501254154369235039
0.00940423831343650818 0.0205829311162233353 0.00425844918936491013
-0.0428408272564411163 0.0205928366631269455 0.00417686998844146729
-0.0163695365190505981 0.0204918887466192245 0.00500824861228466034
-0.00547966733574867249 0.0205561462789773941 0.00447904272004961967
-0.045222848653793335 0.0208729449659585953 0.00186997384298592806
-0.0404604896903038025 0.0210029054433107376 0.000799641362391412258
0.00185941904783248901 0.0205135457217693329 0.00482987705618143082
-0.0229625795036554337 0.0208757296204566956 0.00184701895341277122
-0.0393107011914253235 0.0206054933369159698 0.00407263915985822678
0.0323744900524616241 -0.00277834944427013397 0.0208196472376585007
0.0260409247130155563 -0.00241817370988428593 0.0208440292626619339
0.00528742466121912003 -0.00237233447842299938 0.0207354743033647537
0.008046712726354599 -0.0055154021829366684 0.0202287528663873672
0.0448309257626533508 -0.00256511662155389786 0.0209247972816228867
0.0275262743234634399 -0.00330648059025406837 0.0207047685980796814
0.0100992675870656967 -0.00525671429932117462 0.0202832184731960297
0.0148587962612509727 -0.00142371887341141701 0.020946647971868515
0.00364133622497320175 -0.00102331582456827164 0.0209503751248121262
0.00697383889928460121 -0.00209141126833856106 0.0207915846258401871
0.0160896070301532745 -0.00321345962584018707 0.0206562038511037827
0.0100296586751937866 -0.00537517061457037926 0.0202631503343582153
0.0405858345329761505 -0.00295901740901172161 0.0208355952054262161
0.0395763590931892395 -0.00247104349546134472 0.0209110137075185776
0.00880993250757455826 -0.00385008216835558414 0.0205096881836652756
0.034119725227355957 -0.00232936860993504524 0.0209040064364671707
0.0360553339123725891 -0.00250411964952945709 0.0208858102560043335
0.0257168672978878021 -0.00367928994819521904 0.0206327028572559357
0.00315941404551267624 -0.000480350252473726869 0.0210378840565681458
0.0109162377193570137 -0.00276954378932714462 0.0207009930163621902
0.00221951561979949474 -0.000883150554727762938 0.0209657028317451477
0.00792283099144697189 -0.00224438239820301533 0.0207714829593896866
0.012028123252093792 -0.00155907822772860527 0.0209083147346973419
0.0118344258517026901 -0.000689070147927850485 0.0210517663508653641
0.0370083414018154144 -0.00249004876241087914 0.0208934824913740158
0.0353976748883724213 -0.00308464141562581062 0.0207856837660074234
0.0352136045694351196 -0.00330660725012421608 0.0207477770745754242
0.0266917068511247635 -0.00181123497895896435 0.0209485050290822983
0.0406276360154151917 -0.002277398481965065 0.0209490694105625153
0.0259440280497074127 -0.00398265058174729347 0.0205835774540901184
0.0145833771675825119 -0.00463199568912386894 0.020412106066942215
0.00562935089692473412 -0.00145479605998843908 0.020889822393655777
0.040099017322063446 -0.00255456636659801006 0.0209000632166862488
0.0198504962027072906 -0.00503090862184762955 0.0203753169625997543
0.0288656130433082581 -0.00399595918133854866 0.0205977205187082291
0.0416293181478977203 -0.00273779197596013546 0.0208781883120536804
0.0116179473698139191 -0.00161470891907811165 0.0208967756479978561
0.0209436509758234024 -0.00179471541196107864 0.0209190752357244492
0.0307281035929918289 -0.00281504448503255844 0.020804334431886673
0.0176910031586885452 -0.00332976062782108784 0.0206458438187837601
0.00679310550913214684 -0.00282628205604851246 0.0206684861332178116
0.00278289569541811943 -0.00273462221957743168 0.0206612665206193924
0.0200557373464107513 -0.00194308685604482889 0.0208894535899162292
0.0336912013590335846 -0.00307055609300732613 0.0207784716039896011
0.0138364098966121674 -0.00232062814757227898 0.0207919180393218994
0.0120610781013965607 -0.00383374560624361038 0.0205306019634008408
0.0194817632436752319 -0.00399612169712781906 0.0205451641231775284
0.00909531582146883011 -0.00510777952149510384 0.0203023422509431839
0.0360016636550426483 -0.00226756837218999863 0.020924808457493782
0.0157420523464679718 -0.00245699426159262657 0.020779930055141449
0.0213156323879957199 -0.00288437400013208389 0.0207401271909475327
0.00847540143877267838 -0.00228538364171981812 0.0207677651196718216
0.013386748731136322 -0.00417336262762546539 0.020481601357460022
0.0130239110440015793 -0.00526457605883479118 0.0202982835471630096
0.00948645081371068954 -0.000567975570447742939 0.021058741956949234
0.0385241769254207611 -0.00213007489219307899 0.0209617689251899719
0.0124858776107430458 -0.00196256767958402634 0.02084384486079216
0.0100691011175513268 -0.00135190354194492102 0.0209317672997713089
0.0283675510436296463 -0.00177706289105117321 0.0209635645151138306
0.0272639170289039612 -0.0024142309557646513 0.020851530134677887
0.0338139533996582031 -0.00348173012025654316 0.0207108482718467712
0.0361746586859226227 -0.00224125897511839867 0.020930146798491478
0.00836549047380685806 -0.00596738280728459358 0.0201554466038942337
0.0131945572793483734 -0.00595538085326552391 0.0201844740658998489
0.00891862623393535614 -0.00411504786461591721 0.0204662773758172989
0.00913265906274318695 -0.00336339068599045277 0.0205923505127429962
0.00570854172110557556 -0.00524081755429506302 0.0202612821012735367
0.00738279707729816437 -0.00291444198228418827 0.0206571407616138458
0.0210765600204467773 -0.00121566862799227238 0.0210160166025161743
0.0235951934009790421 -0.00438455957919359207 0.0205036569386720657
0.0174223631620407104 -0.000933030794840306044 0.0210425183176994324
0.0174584910273551941 -0.00373188452795147896 0.0205777361989021301
0.0231471266597509384 -0.00179855967871844769 0.0209307689219713211
0.012774166651070118 -0.00182675686664879322 0.0208680219948291779
0.0220834538340568542 -0.00196902267634868622 0.0208964962512254715
0.0462907105684280396 -0.00265237106941640377 0.0209184736013412476
0.0107090827077627182 -0.00585363106802105904 0.0201874654740095139
0.037656199187040329 -0.0032462079543620348 0.0207714848220348358
-0.0113212354481220245 0.0209234338253736496 -0.00145414972212165594
-0.0355730950832366943 0.0209177657961845398 -0.00150082516483962536
-0.00845231115818023682 0.020819077268242836 -0.00231359479948878288
-0.0461503341794013977 0.0206922423094511032 -0.00335818063467741013
-0.0417760834097862244 0.0210190191864967346 -0.000666938023641705513
0.0121962428092956543 0.0209287591278553009 -0.00141028803773224354
-0.0317589640617370605 0.0208377130329608917 -0.00216011726297438145
-0.0233548488467931747 0.0209243651479482651 -0.00144648854620754719
-0.0366871953010559082 0.0206299144774675369 -0.00387150631286203861
-0.0471096150577068329 0.020501062273979187 -0.00493270531296730042
-0.0108667202293872833 0.020756671205163002 -0.00282756984233856201
0.0256239026784896851 0.0210442431271076202 -0.000459203962236642838
-0.010323110967874527 0.0210804864764213562 -0.000160705065354704857
-0.046534024178981781 0.0205517429858446121 -0.00451531261205673218
-0.0290610473603010178 0.0209579374641180038 -0.00116998387966305017
0.0141383297741413116 0.0209897793829441071 -0.000907739391550421715
0.0362170860171318054 0.021092412993311882 -6.2474515289068222e-05
-0.0112155377864837646 0.0208694040775299072 -0.00189913157373666763
0.0122413113713264465 0.0209698081016540527 -0.0010722246952354908
-0.0359023995697498322 0.020786607638001442 -0.00258101988583803177
-0.0307012032717466354 0.0210138056427240372 -0.000709866348188370466
-0.00183757394552230835 0.0210625454783439636 -0.000308462418615818024
-0.0445209406316280365 0.0208227820694446564 -0.00228308746591210365
-0.0367736443877220154 0.0206426437944173813 -0.00376666802912950516
-0.0305695049464702606 0.0208593066781759262 -0.00198229681700468063
-0.0182270370423793793 0.020853780210018158 -0.00202779960818588734
-0.0250377394258975983 0.0208167023956775665 -0.00233316654339432716
-0.045569244772195816 0.0208010077476501465 -0.00246242247521877289
0.00315667688846588135 0.0209074225276708603 -0.00158602301962673664
-0.00108040869235992432 0.0209010690450668335 -0.00163833796977996826
0.00216120481491088867 0.0209943149238824844 -0.000870384275913238525
-0.00449065119028091431 0.021067887544631958 -0.000264466507360339165
0.00813057646155357361 0.0210343804210424423 -0.000540424603968858719
-0.0367737188935279846 0.0206072572618722916 -0.00405810540542006493
-0.0218535885214805603 0.0206826422363519669 -0.00343725131824612617
0.00670168176293373108 0.0208990965038537979 -0.00165458535775542259
0.0257540121674537659 0.0210135560482740402 -0.000711926491931080818
-0.00499891489744186401 0.0207646246999502182 -0.00276205409318208694
0.0057454332709312439 0.0210444331169128418 -0.000457633286714553833
-0.0241009853780269623 0.0207995884120464325 -0.00247410126030445099
-0.0389985628426074982 0.0210178270936012268 -0.000676751718856394291
-0.0264839380979537964 0.0208970457315444946 -0.00167146895546466112
-0.0285212844610214233 0.0210397057235240936 -0.000496574211865663528
-0.0185011252760887146 0.0210218001157045364 -0.000644020852632820606
-0.0186322350054979324 0.0208986587822437286 -0.00165820133406668901
-0.0364337339997291565 0.0206562783569097519 -0.00365437800064682961
0.00363760069012641907 0.0208760835230350494 -0.00184412254020571709
-0.0333744324743747711 0.0209585502743721008 -0.00116493506357073784
-0.0458252504467964172 0.0207960959523916245 -0.00250287726521492004
-0.0475592426955699921 0.020502949133515358 -0.00491715315729379654
0.0424041450023651123 0.0210876930505037308 -0.000101364217698574066
-0.0421771332621574402 0.0207586176693439484 -0.00281153339892625809
0.0415172874927520752 0.021062169224023819 -0.000311568379402160645
-0.0419838987290859222 0.0208915211260318756 -0.00171696720644831657
0.015147574245929718 0.0209934469312429428 -0.000877549406141042709
-0.0248682219535112381 0.0209374520927667618 -0.00133869622368365526
-0.0248798113316297531 0.0206990763545036316 -0.00330191035754978657
-0.0333861485123634338 0.020903371274471283 -0.00161937775555998087
0.0291266217827796936 0.0210835039615631104 -0.00013585435226559639
-0.00148050859570503235 0.0209996327757835388 -0.000826599542051553726
-0.0239153914153575897 0.0210645236074924469 -0.000292177777737379074
-0.0150990374386310577 0.0207405611872673035 -0.00296025210991501808
-0.0429506264626979828 0.021086694672703743 -0.000109583721496164799
-0.0368174351751804352 0.0210047643631696701 -0.000784331059549003839
-0.00514896586537361145 0.0208349134773015976 -0.00218318775296211243
0.00627411529421806335 0.0209230426698923111 -0.00145737547427415848
-0.0366419963538646698 0.0206085778772830963 -0.00404723407700657845
0.0278796255588531494 0.0209799762815237045 -0.000988479238003492355
-0.0424538068473339081 0.021082855761051178 -0.000141184777021408081
0.0100063122808933258 0.0210261624306440353 -0.000608104979619383812
0.0259152576327323914 0.0210270658135414124 -0.000600670697167515755
-0.0141815170645713806 0.0210881959646940231 -9.7215874120593071e-05
-0.0323853641748428345 0.020683707669377327 -0.00342846708372235298
-0.0352782979607582092 0.0209526009857654572 -0.00121393287554383278
9.11578536033630371e-05 0.020886935293674469 -0.00175475538708269596
-0.0445689037442207336 0.0205490943044424057 -0.00453712698072195053
-0.0393907204270362854 0.0208746958523988724 -0.00185554916970431805
0.00465986132621765137 0.0209738388657569885 -0.00103902746923267841
-0.0444917380809783936 0.0208866838365793228 -0.00175680452957749367
-0.0472462847828865051 0.0209524743258953094 -0.00121497537475079298
-0.0459249094128608704 0.0205786470323801041 -0.00429372861981391907
-0.0476159080862998962 0.0210120901465415955 -0.000724001438356935978
0.0128621309995651245 0.0208929665386676788 -0.00170507002621889114
0.0221231952309608459 0.0210276190191507339 -0.000596102094277739525
0.0220733731985092163 0.02109571173787117 -3.5300152376294136e-05
-0.0336891487240791321 0.0205809269100427628 -0.00427495082840323448
-0.0342516228556632996 0.0208631306886672974 -0.00195078994147479534
-0.0446369349956512451 0.0210528336465358734 -0.000388438347727060318
-0.0272801518440246582 0.0209730882197618484 -0.00104521238245069981
0.0124414488673210144 0.0209683496505022049 -0.00108424411155283451
-0.0419418178498744965 0.0208876337856054306 -0.00174900318961590528
0.00496531277894973755 0.0210980828851461411 -1.57840549945831299e-05
-0.0298453979194164276 0.0206497553735971451 -0.00370809389278292656
0.0261050313711166382 0.0209891349077224731 -0.000913055380806326866
-0.0311756469309329987 0.0206335093826055527 -0.00384188559837639332
-0.0380143932998180389 0.0208019297569990158 -0.00245482590980827808
0.000481911003589630127 0.0210321880877017975 -0.000558471539989113808
-0.026271989569067955 0.0207253433763980865 -0.00308557227253913879
-0.00792160257697105408 0.0209749676287174225 -0.00102973496541380882
-0.0267224628478288651 0.0210868511348962784 -0.000108299893327057362
0.0067059248685836792 0.0210948903113603592 -4.20862343162298203e-05
-0.0298607815057039261 0.0210803896188735962 -0.000161503267008811235
0.00587820634245872498 0.021040765568614006 -0.000487837707623839378
0.000483062118291854858 0.0209346972405910492 -0.00136138987727463245
-0.0193709935992956161 0.0209556575864553452 -0.00118876190390437841
-0.0457573309540748596 0.0207477342337369919 -0.00290117249824106693
-0.0455381162464618683 0.0209544394165277481 -0.00119879771955311298
-0.0136626362800598145 0.0209354851394891739 -0.00135489588137716055
-0.0191869977861642838 0.0207451581954956055 -0.00292238546535372734
0.00866327434778213501 0.0210696645081043243 -0.000249826814979314804
-0.00335966423153877258 0.0209478512406349182 -0.00125305610708892345
-0.0251331813633441925 0.020744597539305687 -0.00292699923738837242
0.00772215798497200012 0.0209624767303466797 -0.00113259418867528439
-0.014049191027879715 0.020947067067027092 -0.00125951506197452545
-0.0476087145507335663 0.0206878278404474258 -0.00339455273933708668
-0.0406305640935897827 0.0210858508944511414 -0.000116522220196202397
0.0194382965564727783 0.0210871808230876923 -0.000105578219518065453
-0.00970430672168731689 0.0209890119731426239 -0.000914056552574038506
-0.0394531562924385071 0.0208710003644227982 -0.00188597675878554583
-0.0284338667988777161 0.0209261178970336914 -0.00143204489722847939
-0.0438332706689834595 0.0209805183112621307 -0.000984015758149325848
-0.0392110832035541534 0.0208324715495109558 -0.00220330222509801388
-0.00114789232611656189 0.0209172610193490982 -0.00150498724542558193
-0.0452646724879741669 0.0207171104848384857 -0.00315337209030985832
0.0434927493333816528 0.0209485683590173721 -0.00124715128913521767
0.0204551145434379578 0.0205175355076789856 -0.00479702232405543327
0.0252107270061969757 0.0209151916205883026 -0.00152202951721847057
0.0150338113307952881 0.0206155627965927124 -0.00398969743400812149
0.0449885427951812744 0.0207957830280065536 -0.00250545749440789223
-0.0239368528127670288 0.0206013564020395279 -0.00410670693963766098
