ply
format ascii 1.0
element vertex 713
property float x
property float y
property float z
end_header
0.111201144754886627 0.000614790944382548332 0.000361308455467224121
0.00230542197823524475 1.01676778285764158e-05 0.0342432036995887756
0.0776062160730361938 0.000428261351771652699 0.0303853675723075867
0.0325211435556411743 0.000177934853127226233 0.0440367236733436584
0.00416959403082728386 2.05181477213045582e-05 0.0156533718109130859
0.00351961259730160236 1.69092454598285258e-05 0.104118272662162781
0.0566834881901741028 0.000312091782689094543 0.0581997111439704895
0.0640669539570808411 0.000353087118128314614 0.0318632647395133972
0.0776928886771202087 0.00042874258360825479 0.033031955361366272
0.00484267203137278557 2.42552887357305735e-05 0.0500026531517505646
0.0421668291091918945 0.000231490732403472066 0.0174988321959972382
0.0230066161602735519 0.000125107209896668792 0.0955261886119842529
0.0104543436318635941 5.54130456293933094e-05 0.0518271327018737793
0.0373493283987045288 0.00020474246412049979 0.0562846101820468903
0.00870608817785978317 4.57061869383323938e-05 0.0557976812124252319
0.0191365014761686325 0.000103619116998743266 0.0726677402853965759
0.0270196348428726196 0.000147388753248378634 0.0928586646914482117
0.0867737606167793274 0.000479162408737465739 0.0232280120253562927
0.000987389590591192245 2.84954853668750729e-06 0.0168181806802749634
0.0628927871584892273 0.000346567772794514894 0.0515018105506896973
0.0578579194843769073 0.000318612612318247557 0.00691934674978256226
0.0382216647267341614 0.000209585938137024641 0.0179109722375869751
0.0383489318192005157 0.000210292564588598907 0.0273700542747974396
0.0646942108869552612 0.000356569827999919653 0.00647502392530441284
0.0454352013766765594 0.000249637785600498319 0.0143951103091239929
0.101145431399345398 0.000558958505280315876 0.0156321227550506592
0.00711391028016805649 3.68659166269935668e-05 0.0266004987061023712
0.0851616114377975464 0.000470211263746023178 0.00849585235118865967
0.0280200466513633728 0.000152943350258283317 0.071651950478553772
0.0300030726939439774 0.000163953736773692071 0.0563345775008201599
0.00882080476731061935 4.6343127905856818e-05 0.0162513069808483124
0.0126328440383076668 6.75087649142369628e-05 0.0602867268025875092
0.00434913719072937965 2.15150284930132329e-05 0.0664741471409797668
0.054671071469783783 0.000300918210996314883 0.0520205274224281311
0.0198456216603517532 0.000107556370494421571 0.0390651673078536987
0.0115975840017199516 6.17606783634983003e-05 0.0143547197803854942
0.00651074247434735298 3.35169388563372195e-05 0.00253389542922377586
0.09301033616065979 0.000513789826072752476 0.00423920899629592896
0.0189188942313194275 0.000102410900581162423 0.0338234454393386841
0.000482211064081639051 4.46385790553449624e-08 0.0619292184710502625
0.0174937713891267776 9.44981657085008919e-05 0.0725228637456893921
0.0107397977262735367 5.69979783904273063e-05 0.00494726654142141342
0.00609625549986958504 3.12155789288226515e-05 0.0734910741448402405
0.0360544174909591675 0.000197552712052129209 0.0807747244834899902
0.0526328161358833313 0.000289601186523213983 0.0414619222283363342
0.0918966829776763916 0.00050760654266923666 0.0502439886331558228
0.0614768043160438538 0.000338705780450254679 0.10869646817445755
0.111818999052047729 0.000618221471086144447 0.0508629605174064636
0.0927744880318641663 0.000512480328325182199 0.0889139473438262939
0.0902922004461288452 0.000498697918374091387 0.0726875960826873779
0.0334764271974563599 0.000183238880708813667 0.0896745398640632629
0.0783140957355499268 0.000432191765867173672 0.0917927250266075134
0.101175069808959961 0.000559123058337718248 0.10796055942773819
0.0858045667409896851 0.000473781197797507048 0.106454849243164062
0.0437455996870994568 0.000240256573306396604 0.106392666697502136
0.111233294010162354 0.000614969409070909023 0.0952353924512863159
0.102560162544250488 0.000566813454497605562 0.0789771750569343567
0.016860276460647583 9.09807858988642693e-05 0.107149377465248108
0.0599451214075088501 0.000330201408360153437 0.11455419659614563
0.0867303460836410522 0.000478921341709792614 0.100064858794212341
0.0719974786043167114 0.000397119874833151698 0.0979009121656417847
0.0894454121589660645 0.00049399625277146697 0.032349318265914917
0.120201960206031799 0.000664766295813024044 0.033916763961315155
0.01413717120885849 7.58612877689301968e-05 0.109787940979003906
0.0665731802582740784 0.000367002474376931787 0.0822808295488357544
0.116973884403705597 0.00064684299286454916 0.0278334692120552063
0.0355354249477386475 0.00019467109814286232 0.108055561780929565
0.096438966691493988 0.000532826699782162905 0.0644060149788856506
0.101650387048721313 0.000561762135475873947 0.104947358369827271
0.0166954472661018372 9.00656450539827347e-05 0.108589261770248413
0.0729108750820159912 0.00040219136280938983 0.053861670196056366
0.0420176461338996887 0.000230662437388673425 0.090462319552898407
0.104575052857398987 0.000578000792302191257 0.0937661975622177124
0.0670364424586296082 0.000369574641808867455 0.0839712917804718018
0.11464354395866394 0.00063390418654307723 0.0416327342391014099
0.103967495262622833 0.000574627425521612167 0.091997683048248291
0.102074012160301208 0.000564114248845726252 0.0572416409850120544
0.0951812416315078735 0.000525843352079391479 0.0897229760885238647
0.105573087930679321 0.000583542219828814268 0.0856027975678443909
0.0166124776005744934 8.96049896255135536e-05 0.119832582771778107
0.0951564982533454895 0.000525705981999635696 0.0478358045220375061
0.110634863376617432 0.000611646799370646477 0.0594239458441734314
0.0769650489091873169 0.000424701371230185032 0.0892896056175231934
0.0609573312103748322 0.000335821503540500998 0.0812049508094787598
0.0860140770673751831 0.000474944477900862694 0.107908427715301514
0.119920536875724792 0.000663203769363462925 0.068632468581199646
0.0462109148502349854 0.000253944774158298969 0.0930871963500976562
0.0735875368118286133 0.000405948376283049583 0.0481598526239395142
0.0770307332277297974 0.000425066071329638362 0.0876577198505401611
0.115930579602718353 0.000641050282865762711 0.0671842694282531738
0.0632317066192626953 0.000348449539160355926 0.0770593881607055664
0.0521748587489128113 0.000287058472167700529 0.0789137035608291626
0.0161453559994697571 8.70113144628703594e-05 0.106679454445838928
0.0198518037796020508 0.000107590691186487675 0.106753610074520111
0.0895319879055023193 0.000494476989842951298 0.0586153268814086914
0.0785162299871444702 0.00043331403867341578 0.0604239702224731445
0.111372679471969604 0.000615743338130414486 0.0240478962659835815
0.105729259550571442 0.000584409339353442192 0.119070962071418762
0.120023146271705627 0.000663773505948483944 0.0822537243366241455
0.0693303421139717102 0.000382311089197173715 0.069976411759853363
0.0759256631135940552 0.000418930372688919306 0.0963958799839019775
0.0910428464412689209 0.00050286570331081748 0.0633967667818069458
0.0942537635564804077 0.000520693720318377018 0.0353685542941093445
0.0972914025187492371 0.000537559681106358767 0.112341783940792084
0.0986417979001998901 0.000545057468116283417 0.0394614487886428833
0.0667156726121902466 0.000367793632904067636 0.0582013316452503204
0.014657139778137207 7.87483295425772667e-05 0.114368543028831482
0.109571553766727448 0.000605742912739515305 0.0146698653697967529
0.0521351024508476257 0.000286837719613686204 0.069719657301902771
0.105295002460479736 0.000581998145207762718 0.0533825233578681946
0.0820949822664260864 0.000453184358775615692 0.11208459734916687
0.0244256779551506042 0.00013298628618940711 0.114561885595321655
0.0627940073609352112 0.000346019311109557748 0.0816235840320587158
0.102745667099952698 0.000567843497265130281 0.0552780032157897949
0.0677108913660049438 0.000373319373466074467 0.0708345919847488403
0.0818482264876365662 0.00045181432506069541 0.0637137293815612793
0.0799298286437988281 0.000441162730567157269 0.10510215163230896
0.0978013128042221069 0.000540390843525528908 0.0990473330020904541
0.116267770528793335 0.000642922415863722563 0.0375645235180854797
0.110535472631454468 0.000611094932537525892 0.0707740336656570435
0.0778076797723770142 0.000429379928391426802 0.110312767326831818
0.106303118169307709 0.000587595568504184484 0.0952340587973594666
0.111652657389640808 0.00061729789013043046 0.053771093487739563
0.0773995369672775269 0.000427113787736743689 0.0832313075661659241
0.0422161668539047241 0.000231764657655730844 0.0835801735520362854
0.0737758278846740723 0.000406993814976885915 0.0773394852876663208
0.109787128865718842 0.000606939895078539848 0.101929984986782074
0.106321871280670166 0.000587699702009558678 0.0617422796785831451
0.0955374538898468018 0.000527821190189570189 0.0755986720323562622
0.00950368493795394897 5.01347240060567856e-05 0.118960820138454437
0.0843396782875061035 0.000465647666715085506 0.0746339932084083557
0.071967393159866333 0.00039695278974249959 0.0751434266567230225
0.0987766236066818237 0.000545806076843291521 0.113084539771080017
0.118657305836677551 0.000656189862638711929 0.0998844876885414124
0.0758684128522872925 0.000418612529756501317 0.0860520750284194946
0.086838938295841217 0.000479524314869195223 0.0933692678809165955
0.0965750515460968018 0.000533582293428480625 0.0895541086792945862
0.103825680911540985 0.000573840050492435694 0.0947096273303031921
0.074785187840461731 0.000412598135881125927 0.0990838930010795593
0.0987066552042961121 0.00054541759891435504 0.0913247987627983093
0.0558124706149101257 0.000307255657389760017 0.111267872154712677
0.0727253779768943787 0.000401161407353356481 0.0888824015855789185
0.0830136090517044067 0.000458284892374649644 0.0722052901983261108
0.0186428353190422058 0.0001008781255222857 0.107462979853153229
0.0712198615074157715 0.000392802321584895253 0.083525538444519043
0.109890230000019073 0.0006075123674236238 0.0129376575350761414
0.10194108635187149 0.000563376233913004398 0.0559181571006774902
0.0590103603899478912 0.000325011322274804115 0.102821461856365204
0.0622268356382846832 0.000342870189342647791 0.0849675536155700684
0.0884010940790176392 0.000488197896629571915 0.0800076872110366821
0.0597546510398387909 0.000329143862472847104 0.113366782665252686
0.0844636037945747375 0.000466335710370913148 0.0374413803219795227
0.102094948291778564 0.000564230489544570446 0.0460722446441650391
0.102401852607727051 0.000565934518817812204 0.114164739847183228
0.109108701348304749 0.000603173044510185719 0.0519133508205413818
0.0936640575528144836 0.000517419539391994476 0.0889931023120880127
0.108326472342014313 0.000598829879891127348 0.0199000909924507141
0.0681639760732650757 0.000375835079466924071 0.0963193625211715698
0.119726821780204773 0.000662128149997442961 0.0989141166210174561
0.0186422094702720642 0.000100874633062630892 0.117169365286827087
0.0577296838164329529 0.000317900587106123567 0.0723367631435394287
0.114991359412670135 0.000635835400316864252 0.0349200591444969177
0.0949591100215911865 0.000524610048159956932 0.0966537371277809143
0.0999582111835479736 0.000552366604097187519 0.110852614045143127
0.0749992430210113525 0.000413786590797826648 0.104590117931365967
0.0874630063772201538 0.000482989358715713024 0.104790866374969482
0.04883614182472229 0.00026852084556594491 0.0775988027453422546
0.104220487177371979 0.000576032151002436876 0.0499157831072807312
0.10225098580121994 0.000565096852369606495 0.0652736425399780273
0.085376054048538208 0.000471401959657669067 0.109514862298965454
0.0822196081280708313 0.000453876331448554993 0.077661953866481781
0.0642055422067642212 0.000353856594301760197 0.0955110862851142883
0.112102113664150238 0.000619793427176773548 0.119861237704753876
0.044840104877948761 0.000246333598624914885 0.0865858197212219238
0.114466190338134766 0.000632919487543404102 0.0741330608725547791
0.113565728068351746 0.000627919856924563646 0.0565521866083145142
0.0870706886053085327 0.00048081108252517879 0.0998458117246627808
0.104278191924095154 0.000576352525968104601 0.0992062091827392578
0.0435818582773208618 0.000239347427850589156 0.0774171650409698486
0.0999607965350151062 0.000552380981389433146 0.0664174705743789673
0.0515426099300384521 0.000283547997241839767 0.111973211169242859
0.0956302136182785034 0.000528336269780993462 0.0805707946419715881
0.0928114056587219238 0.000512685335706919432 0.09735870361328125
0.0497764274477958679 0.000273741636192426085 0.112198926508426666
0.0814270824193954468 0.000449476006906479597 0.0406165793538093567
0.049930572509765625 0.000274597492534667253 0.119246505200862885
0.118597529828548431 0.000655858020763844252 0.0308389365673065186
0.0453199222683906555 0.000248997675953432918 0.112425714731216431
0.0400492921471595764 0.000219733483390882611 0.106520257890224457
0.0637742131948471069 0.000351461698301136494 0.0740086212754249573
0.0300140604376792908 0.000164014752954244614 0.100918680429458618
0.070839226245880127 0.000390688888728618622 0.100481219589710236
0.0878154933452606201 0.000484946474898606539 0.0392242744565010071
0.0887077301740646362 0.000489900470711290836 0.0686101913452148438
0.0988278388977050781 0.000546090479474514723 0.101684972643852234
0.111006468534469604 0.000613710028119385242 0.0493023097515106201
0.0773672312498092651 0.000426934391725808382 0.115845568478107452
0.0820695757865905762 0.000453043321613222361 0.0974768325686454773
0.112036064267158508 0.000619426718913018703 0.115492485463619232
0.0673633068799972534 0.000371389527572318912 0.0635843276977539062
0.0877732634544372559 0.000484711956232786179 0.10646326094865799
0.0681379660964012146 0.000375690666260197759 0.0553184971213340759
0.0730393677949905396 0.000402904785005375743 0.082304053008556366
0.0920229032635688782 0.000508307362906634808 0.113564424216747284
0.0802816003561019897 0.000443115946836769581 0.0925140082836151123
0.0683329477906227112 0.000376773241441696882 0.115614220499992371
0.0700688883662223816 0.000386411731597036123 0.0629492849111557007
0.0507569238543510437 0.000279185653198510408 0.0921783074736595154
0.10075000673532486 0.000556762912310659885 0.115940265357494354
0.0736603811383247375 0.000406352832214906812 0.0527986809611320496
0.0490377470850944519 0.000269640237092971802 0.0832512527704238892
0.108609907329082489 0.000600403582211583853 0.101984031498432159
0.0912910401821136475 0.000504243769682943821 0.0657410472631454468
0.0385860204696655273 0.000211608974495902658 0.106940656900405884
0.0858813747763633728 0.00047420762712135911 0.106260381639003754
0.106031246483325958 0.000586086011026054621 0.074609801173210144
0.0467657819390296936 0.000257025560131296515 0.11084786057472229
0.0534513294696807861 0.000294145836960524321 0.0860653817653656006
0.0779634937644004822 0.000430245068855583668 0.0705159902572631836
0.0818523764610290527 0.000451837346190586686 0.113672591745853424
0.0443915128707885742 0.000243842863710597157 0.0898461788892745972
0.0670236051082611084 0.000369503366528078914 0.0940025970339775085
0.114354811608791351 0.000632301089353859425 0.0310729071497917175
0.0629308223724365234 0.000346778979292139411 0.117437317967414856
0.0754006356000900269 0.000416015274822711945 0.0548724904656410217
0.116794571280479431 0.000645847409032285213 0.00425923615694046021
0.0719251334667205811 0.00039671818376518786 0.0779840052127838135
0.0708932280540466309 0.000390988716389983892 0.0556619912385940552
0.0555334910750389099 0.000305706664221361279 0.0949781686067581177
0.0643125772476196289 0.000354450923623517156 0.0582347102463245392
0.0856331884860992432 0.000472829618956893682 0.0640432462096214294
0.115433670580387115 0.000638291297946125269 0.0242584794759750366
0.0857838839292526245 0.00047366632497869432 0.0722783803939819336
0.0884351581335067749 0.000488387071527540684 0.0373418182134628296
0.119725652039051056 0.000662121688947081566 0.106800183653831482
0.118229739367961884 0.000653815921396017075 0.115629240870475769
0.022066555917263031 0.000119887699838727713 0.111347123980522156
0.115801006555557251 0.000640330836176872253 0.084728538990020752
0.0848833471536636353 0.000468666257802397013 0.115480802953243256
0.0513603612780570984 0.000282536115264520049 0.0903964489698410034
0.0439632683992385864 0.000241465109866112471 0.0997146666049957275
0.119964167475700378 0.000663445971440523863 0.0887546241283416748
0.0356987416744232178 0.000195577886188402772 0.110760100185871124
0.117299504578113556 0.000648650981020182371 0.0217755064368247986
0.0608224421739578247 0.000335072545567527413 0.0885612964630126953
0.055520273745059967 0.000305633264360949397 0.0904712378978729248
0.102153748273849487 0.000564556918106973171 0.0956682115793228149
0.0903988927602767944 0.000499290297739207745 0.0614605173468589783
0.0417203381657600403 0.000229011668125167489 0.104273572564125061
0.0315670818090438843 0.000172637577634304762 0.114025600254535675
0.0487119928002357483 0.000267831521341577172 0.0880548432469367981
0.0181683972477912903 9.82438796199858189e-05 0.102516993880271912
0.0803070515394210815 0.000443257216829806566 0.0902395620942115784
0.0958773791790008545 0.000529708573594689369 0.0799532532691955566
0.0843336731195449829 0.00046561431372538209 0.0636227577924728394
0.092744581401348114 0.000512314261868596077 0.0604070350527763367
0.0415011793375015259 0.000227794836973771453 0.0959457755088806152
0.049834325909614563 0.000274063058895990252 0.116228245198726654
0.0775548145174980164 0.000427975959610193968 0.107968591153621674
0.0814075618982315063 0.000449367624241858721 0.0586630776524543762
0.077862858772277832 0.000429686333518475294 0.0688876360654830933
0.0964667797088623047 0.000532981124706566334 0.0942450389266014099
0.0741118937730789185 0.000408859807066619396 0.0955987274646759033
0.0654575824737548828 0.000360808306140825152 0.0657703131437301636
0.0648985952138900757 0.00035770467366091907 0.0670182406902313232
0.0648366361856460571 0.000357360637281090021 0.0651065260171890259
0.0286362022161483765 0.000156364461872726679 0.108049549162387848
0.0663175284862518311 0.00036558302235789597 0.111292228102684021
0.0970427840948104858 0.000536179286427795887 0.0600827261805534363
0.0781039968132972717 0.000431025167927145958 0.100487701594829559
0.117395639419555664 0.000649184687063097954 0.0346375927329063416
0.0967534556984901428 0.000534572871401906013 0.0643262267112731934
0.103902719914913177 0.000574267818592488766 0.0894431322813034058
0.11414743959903717 0.000631149683613330126 0.0970991328358650208
0.0852880552411079407 0.000470913335448130965 0.102569900453090668
0.0785731896758079529 0.000433630309998989105 0.0502306818962097168
0.0519092530012130737 0.000285583751974627376 0.113727696239948273
0.113223642110824585 0.000626020482741296291 0.0800669863820075989
0.119197510182857513 0.000659189245197921991 0.0344223678112030029
0.072343088686466217 0.000399038806790485978 0.0562933385372161865
0.109024576842784882 0.000602705928031355143 0.119195148348808289
0.0257125794887542725 0.000140131567604839802 0.108912393450737
0.0606977455317974091 0.000334380194544792175 0.0821383297443389893
0.109093368053436279 0.000603087886702269316 0.0293944701552391052
0.106293849647045135 0.000587544112931936979 0.0384874641895294189
0.0718456357717514038 0.000396276824176311493 0.0804387703537940979
0.0961398705840110779 0.000531165977008640766 0.0678434371948242188
0.0484743937849998474 0.000266512302914634347 0.0841338485479354858
0.103201515972614288 0.000570374482776969671 0.0981503501534461975
0.102108657360076904 0.000564306625165045261 0.0583346746861934662
0.0687335878610610962 0.000378997734514996409 0.0525927618145942688
0.114669740200042725 0.000634049647487699986 0.0158209726214408875
0.0537152513861656189 0.000295611185720190406 0.110208503901958466
0.0873060822486877441 0.000482118048239499331 0.0622055158019065857
0.111692376434803009 0.000617518438957631588 0.100169122219085693
0.0481995642185211182 0.000264986389083787799 0.0868284329771995544
0.113933034241199493 0.00062995922053232789 0.0429301038384437561
0.102117687463760376 0.000564356741961091757 0.102227069437503815
0.0468895435333251953 0.000257712759776040912 0.107288897037506104
0.0216073542833328247 0.000117338087875396013 0.107502765953540802
0.102993294596672058 0.000569218362215906382 0.0572796538472175598
0.117223598062992096 0.000648229499347507954 0.00981515645980834961
0.103908926248550415 0.000574302277527749538 0.048535369336605072
0.0174702927470207214 9.43678314797580242e-05 0.104065470397472382
0.0662812143564224243 0.000365381391020491719 0.0721302628517150879
0.00769466906785964966 4.00905264541506767e-05 0.116580136120319366
0.103873133659362793 0.000574103498365730047 0.0865535512566566467
0.0319131016731262207 0.000174558837898075581 0.117376349866390228
0.0689993128180503845 0.000380473124096170068 0.117364630103111267
0.107667505741119385 0.000595171120949089527 0.0680357515811920166
0.0783628970384597778 0.000432462664321064949 0.0517228022217750549
0.098051019012928009 0.000541777350008487701 0.036323152482509613
0.095666147768497467 0.000528535747434943914 0.0422083660960197449
0.0840480625629425049 0.000464028504211455584 0.065570831298828125
0.0689624547958374023 0.00038026843685656786 0.0591425411403179169
0.0880066007375717163 0.000486007542349398136 0.0676499158143997192
0.118588142096996307 0.000655805866699665785 0.0197451189160346985
0.0727116093039512634 0.000401084951590746641 0.0544011667370796204
0.0249482095241546631 0.000135887530632317066 0.11320234090089798
0.0983618497848510742 0.000543503148946911097 0.0813361480832099915
0.0602034032344818115 0.000331635470502078533 0.103938810527324677
0.114965453743934631 0.000635691569186747074 0.106545932590961456
0.0711036175489425659 0.00039215688593685627 0.104608640074729919
0.0688001140952110291 0.000379367091227322817 0.068928055465221405
0.0785196498036384583 0.000433332985267043114 0.0872442722320556641
0.119396708905696869 0.000660295307170599699 0.0150166526436805725
0.0607505552470684052 0.000334673415636643767 0.0991937816143035889
0.0488955602049827576 0.000268850737484171987 0.117634333670139313
0.0390996187925338745 0.000214460596907883883 0.0915146768093109131
0.0307895764708518982 0.000168320664670318365 0.111586526036262512
0.0477589964866638184 0.000262540212133899331 0.073703959584236145
0.0283785387873649597 0.000154933833982795477 0.106217503547668457
0.109016045928001404 0.000602658605203032494 0.0804241597652435303
0.0800877809524536133 0.000442039803601801395 0.0905055999755859375
0.0994047075510025024 0.00054929341422393918 0.0630728155374526978
0.0636053532361984253 0.000350524147506803274 0.0719517916440963745
0.113953165709972382 0.000630071037448942661 0.0670209825038909912
0.116525270044803619 0.000644352170638740063 0.0751054883003234863
0.0475536584854125977 0.000261400098679587245 0.0932833403348922729
0.0960285216569900513 0.000530547753442078829 0.0295394584536552429
0.0728283971548080444 0.000401733384933322668 0.0671686753630638123
0.0981347113847732544 0.000542241963557898998 0.0226564034819602966
0.072969779372215271 0.00040251837344840169 0.079440772533416748
0.0461393967270851135 0.000253547681495547295 0.0861644595861434937
0.113402217626571655 0.000627011992037296295 0.0400967448949813843
0.0996830686926841736 0.000550838944036513567 0.110721714794635773
0.0514862015843391418 0.000283234810922294855 0.101661249995231628
0.0760162770748138428 0.000419433490606024861 0.114310935139656067
0.0705387890338897705 0.000389020744478330016 0.101741939783096313
0.0911793708801269531 0.00050362379988655448 0.0774007663130760193
0.0522959679365158081 0.000287730887066572905 0.101676508784294128
0.109625622630119324 0.000606043147854506969 0.0216661021113395691
0.00843080878257751465 4.41777519881725311e-05 0.113703891634941101
0.06185884028673172 0.000340826984029263258 0.0639529973268508911
0.0659957081079483032 0.000363796134479343891 0.0821709334850311279
0.0261508524417877197 0.00014256499707698822 0.114659734070301056
0.0869178399443626404 0.000479962414829060435 0.043043866753578186
0.0459732785820960999 0.000252625352004542947 0.074750162661075592
0.10208207368850708 0.000564159010536968708 0.0816616639494895935
0.0976702868938446045 0.000539663364179432392 0.0849152207374572754
0.108664236962795258 0.000600705214310437441 0.118451841175556183
0.105385236442089081 0.000582499196752905846 0.0874643176794052124
0.0477248728275299072 0.000262350746197625995 0.0976331084966659546
0.118010483682155609 0.000652598508168011904 0.10735514760017395
0.0930986106395721436 0.000514279992785304785 0.0368414297699928284
0.0545547753572463989 0.000300272484309971333 0.102058447897434235
0.112816222012042999 0.000623758358415216208 0.110848620533943176
0.114437662065029144 0.000632761104498058558 0.113659538328647614
0.0426248982548713684 0.000234034087043255568 0.0843940824270248413
0.0658998340368270874 0.000363263825420290232 0.106440603733062744
0.0518371984362602234 0.000285183690721169114 0.0962489545345306396
0.0807132124900817871 0.000445512356236577034 0.101098775863647461
0.0681112483143806458 0.000375542324036359787 0.0658327937126159668
0.034540519118309021 0.000189147045603021979 0.108427152037620544
0.0474000126123428345 0.000260547036305069923 0.0874060168862342834
0.114485815167427063 0.000633028452284634113 0.0470974594354629517
0.118575945496559143 0.000655738171190023422 0.0937146097421646118
0.105118036270141602 0.000581015599891543388 0.0219487026333808899
0.0937285423278808594 0.000517777574714273214 0.0333287939429283142
0.106615297496318817 0.000589328876230865717 0.0405044630169868469
0.0683291256427764893 0.000376752024749293923 0.106676533818244934
0.0978481173515319824 0.00054065074073150754 0.0757558494806289673
0.0224602147936820984 0.000122073397506028414 0.119484305381774902
0.0996127873659133911 0.000550448719877749681 0.113237053155899048
0.1071634441614151 0.000592372321989387274 0.0151216760277748108
0.0733027532696723938 0.000404367165174335241 0.0672297403216362
0.0876932889223098755 0.000484267948195338249 0.115169435739517212
0.119767613708972931 0.000662354694213718176 0.116875104606151581
0.0372418910264968872 0.000204145937459543347 0.0900369137525558472
0.101312771439552307 0.000559887615963816643 0.109270915389060974
0.10372471809387207 0.000573279452510178089 0.105606041848659515
0.0408179163932800293 0.000224001181777566671 0.113997742533683777
0.0915997475385665894 0.000505957810673862696 0.112180784344673157
0.0352019369602203369 0.000192819483345374465 0.104282781481742859
0.0777625739574432373 0.000429129489930346608 0.108118854463100433
0.118042506277561188 0.000652776332572102547 0.0571124255657196045
0.0895567908883094788 0.000494614709168672562 0.0920373499393463135
0.119084559381008148 0.000658562174066901207 0.028218783438205719
0.0746958106756210327 0.000412101886468008161 0.0537458285689353943
0.0901579558849334717 0.000497952511068433523 0.0421287044882774353
0.0150709226727485657 8.10457277111709118e-05 0.118100769817829132
0.0943312197923660278 0.000521123816724866629 0.0339098572731018066
0.110544905066490173 0.000611147319432348013 0.0830449312925338745
0.0761382430791854858 0.000420110736740753055 0.0940444692969322205
0.0814182162284851074 0.00044942679232917726 0.116433382034301758
0.0521320328116416931 0.000286820664769038558 0.108639858663082123
0.0489085465669631958 0.000268922856776043773 0.100520044565200806
0.11389605700969696 0.000629753922112286091 0.0905810743570327759
0.00752843916416168213 3.91675275750458241e-05 0.116046488285064697
0.100211814045906067 0.000553774705622345209 0.0344167202711105347
0.119249686598777771 0.000659479002933949232 0.111332081258296967
0.0857563167810440063 0.000473513267934322357 0.103277206420898438
0.0644830688834190369 0.000355397496605291963 0.0969058424234390259
0.0831318274140357971 0.000458941271062940359 0.0926356092095375061
0.0386539772152900696 0.000211986276553943753 0.0860676467418670654
0.0328712090849876404 0.000179878523340448737 0.11463388055562973
0.0870223343372344971 0.000480542599689215422 0.0499146506190299988
0.0569340437650680542 0.000313482945784926414 0.0801765024662017822
0.0791770666837692261 0.000436983187682926655 0.0898575708270072937
0.0174671858549118042 9.43505438044667244e-05 0.107232168316841125
0.0763214752078056335 0.000421128061134368181 0.0922016650438308716
0.08503752201795578 0.000469522288767620921 0.0972422957420349121
0.0971361398696899414 0.000536697625648230314 0.02609967440366745
0.103522777557373047 0.00057215825654566288 0.0945409387350082397
0.108116313815116882 0.000597662990912795067 0.0401933342218399048
0.0575279667973518372 0.00031678061350248754 0.0747466832399368286
0.103487938642501831 0.000571964774280786514 0.0852817893028259277
0.0704551786184310913 0.00038855656748637557 0.0502991080284118652
0.0624550990760326385 0.000344137573847547174 0.0739515423774719238
0.102535150945186615 0.000566674629226326942 0.111650139093399048
0.0647447258234024048 0.000356850301614031196 0.0660114660859107971
0.0878499299287796021 0.000485137657960876822 0.0802341699600219727
0.0796603858470916748 0.000439666735474020243 0.0727927014231681824
0.0363286510109901428 0.000199075322598218918 0.105472475290298462
0.0743092596530914307 0.000409955624490976334 0.0713965222239494324
0.0978444591164588928 0.00054063042625784874 0.0517546907067298889
0.103974379599094391 0.000574665667954832315 0.108568847179412842
0.115921713411808014 0.000641000980976969004 0.0191328898072242737
0.0954272821545600891 0.00052720948588103056 0.0994889289140701294
0.0587143488228321075 0.00032336777076125145 0.0986540019512176514
0.11834871768951416 0.000654476461932063103 0.00437147915363311768
0.0962974578142166138 0.000532041012775152922 0.0821827054023742676
0.118772886693477631 0.000656831602100282907 0.0975421518087387085
0.079081311821937561 0.000436451518908143044 0.0800194740295410156
0.036178290843963623 0.000198240508325397968 0.0913322046399116516
0.0796666592359542847 0.00043970160186290741 0.0425593107938766479
0.0948857963085174561 0.000524203060194849968 0.0499037131667137146
0.107314616441726685 0.000593211676459759474 0.104222662746906281
0.112340718507766724 0.000621118175331503153 0.0117447599768638611
0.10093795508146286 0.000557806517463177443 0.0759774148464202881
0.0780693367123603821 0.000430832733400166035 0.103083238005638123
0.11618998646736145 0.000642490573227405548 0.0501215830445289612
0.0415681228041648865 0.000228166551096364856 0.11073930561542511
0.0973632559180259705 0.000537958636414259672 0.105364397168159485
0.0870515257120132446 0.000480704678921028972 0.0979067832231521606
0.118092693388462067 0.000653054972644895315 0.0350016728043556213
0.104087501764297485 0.000575293728616088629 0.034566141664981842
0.0531074777245521545 0.000292236654786393046 0.118301749229431152
0.0813815072178840637 0.000449222949100658298 0.0965658277273178101
0.00765938311815261841 3.9894541259855032e-05 0.113518074154853821
0.109172925353050232 0.00060352962464094162 0.0909156575798988342
0.102539166808128357 0.0005666969227604568 0.0644262731075286865
0.0849173367023468018 0.000468854967039078474 0.0848938822746276855
0.112043775618076324 0.000619469501543790102 0.0544190406799316406
0.0889434367418289185 0.000491209153551608324 0.0452361404895782471
0.081652715802192688 0.000450728810392320156 0.0602178946137428284
0.0989593937993049622 0.000546820869203656912 0.0839571505784988403
0.0707330554723739624 0.000390099390642717481 0.100234769284725189
0.112104848027229309 0.000619808619376271963 0.0798543840646743774
0.0664740502834320068 0.000366452091839164495 0.0561118796467781067
0.0531849563121795654 0.000292666838504374027 0.0881132781505584717
0.0712315589189529419 0.000392867252230644226 0.100190915167331696
0.0118116363883018494 6.29491405561566353e-05 0.109062992036342621
0.030844472348690033 0.00016862543998286128 0.09201011061668396
0.0728160813450813293 0.000401664990931749344 0.119550824165344238
0.108353406190872192 0.000598979415372014046 0.0202860385179519653
0.088790595531463623 0.000490360485855489969 0.0986604094505310059
0.092057548463344574 0.000508499681018292904 0.0521769523620605469
0.10661064088344574 0.000589303032029420137 0.104708477854728699
0.0564085394144058228 0.000310565170366317034 0.0668748170137405396
0.107646778225898743 0.000595055986195802689 0.0930514931678771973
0.0758192017674446106 0.000418339273892343044 0.0974462628364562988
0.0464358925819396973 0.000255193939665332437 0.107532799243927002
0.0825900062918663025 0.000455932924523949623 0.0660451650619506836
0.119383521378040314 0.000660222081933170557 0.0769774839282035828
0.0788059160113334656 0.000434922461863607168 0.0897839441895484924
0.0904014110565185547 0.000499304267577826977 0.0969241857528686523
0.0686900168657302856 0.000378755765268579125 0.0611642636358737946
0.0383729413151741028 0.000210425874684005976 0.0948092341423034668
0.0961640030145645142 0.000531299971044063568 0.0815063416957855225
0.0774205327033996582 0.000427230377681553364 0.105706378817558289
0.073055952787399292 0.000402996811317279935 0.0544955730438232422
0.102280318737030029 0.000565259717404842377 0.11790698766708374
0.109938696026802063 0.000607781403232365847 0.117041245102882385
0.102504268288612366 0.000566503149457275867 0.0695986747741699219
0.11380545049905777 0.000629250833299010992 0.0615084059536457062
0.0529006123542785645 0.000291088072117418051 0.115847930312156677
0.119108222424983978 0.000658693548757582903 0.0966035723686218262
0.0954839363694190979 0.000527524040080606937 0.0265525132417678833
0.0956373214721679688 0.000528375734575092793 0.0321849361062049866
0.0767297223210334778 0.000423394783865660429 0.102784357964992523
0.0806424319744110107 0.000445119338110089302 0.0533657073974609375
0.103272944688796997 0.000570771109778434038 0.0382152199745178223
0.0145708620548248291 7.82692804932594299e-05 0.106987550854682922
0.0278022885322570801 0.000151734275277704 0.0999879613518714905
0.0877317339181900024 0.000484481395687907934 0.0946468859910964966
0.108339399099349976 0.000598901649937033653 0.0773021727800369263
0.070100054144859314 0.000386584753869101405 0.0798529908061027527
0.0847003534436225891 0.000467650243081152439 0.0614776015281677246
0.116287253797054291 0.000643030623905360699 0.0685071498155593872
0.110258758068084717 0.000609558483120054007 0.0421518683433532715
0.116777271032333374 0.000645751366391777992 0.0503644272685050964
0.0777725726366043091 0.000429185020038858056 0.081212654709815979
0.0615516975522041321 0.00033912161597982049 0.11554543673992157
0.0906323418021202087 0.000500586465932428837 0.114162884652614594
0.116426445543766022 0.000643803447019308805 0.0553250908851623535
0.033221513032913208 0.000181823532329872251 0.113669306039810181
0.0581380352377891541 0.000320167891914024949 0.112534791231155396
0.0998980775475502014 0.00055203272495418787 0.0587054863572120667
0.115229398012161255 0.000637157063465565443 0.0306624248623847961
0.0555935278534889221 0.000306039990391582251 0.0988901033997535706
0.00178287923336029053 7.26635335013270378e-06 0.119459204375743866
0.0935897603631019592 0.000517006963491439819 0.0399011224508285522
0.098651692271232605 0.00054511241614818573 0.0860857069492340088
0.0419403314590454102 0.000230233155889436603 0.100926861166954041
0.111009940505027771 0.0006137292948551476 0.0551454499363899231
0.0942932292819023132 0.000520912872161716223 0.0397310331463813782
0.0920315533876419067 0.000508355326019227505 0.0321617200970649719
0.0709590613842010498 0.000391354260500520468 0.0806409716606140137
0.012179836630821228 6.49935100227594376e-05 0.117557361721992493
0.116781994700431824 0.000645777559839189053 0.112079441547393799
0.120203398168087006 0.000664774270262569189 0.0467431321740150452
0.0699147209525108337 0.000385555758839473128 0.108601175248622894
0.0979532748460769653 0.000541234621778130531 0.116925895214080811
0.0778404176235198975 0.000429561681812629104 0.0963526219129562378
0.106252342462539673 0.000587313610594719648 0.0702080056071281433
0.0202938616275787354 0.000110045133624225855 0.110567308962345123
0.0659295767545700073 0.000363428960554301739 0.103217184543609619
0.0294091254472732544 0.00016065593808889389 0.108399704098701477
0.099237494170665741 0.000548365002032369375 0.0618238821625709534
0.0757158473134040833 0.000417765404563397169 0.112118452787399292
0.0700613632798194885 0.00038636996760033071 0.0541575998067855835
0.0567833185195922852 0.000312646065140143037 0.108356110751628876
0.0546068623661994934 0.000300561718177050352 0.0993337184190750122
0.0769909918308258057 0.000424845435190945864 0.112693242728710175
0.0863472819328308105 0.000476794491987675428 0.0837246328592300415
0.105257779359817505 0.000581791508011519909 0.105990827083587646
0.0601965226233005524 0.000331597257172688842 0.0699885785579681396
0.117620095610618591 0.000650430971290916204 0.0890126898884773254
0.0315563008189201355 0.000172577740158885717 0.104500100016593933
0.0787251219153404236 0.000434473855420947075 0.0709832534193992615
0.0939745381474494934 0.000519143417477607727 0.0788988769054412842
0.103141374886035919 0.000570040545426309109 0.045620553195476532
0.103230029344558716 0.000570532807614654303 0.100627467036247253
0.0842966437339782715 0.000465408724267035723 0.083445325493812561
0.0624533891677856445 0.000344128085998818278 0.0924067869782447815
0.0968893468379974365 0.000535327359102666378 0.0670309066772460938
0.102826803922653198 0.000568293966352939606 0.0259628817439079285
0.102127432823181152 0.000564410816878080368 0.0849074125289916992
0.117890968918800354 0.000651934940833598375 0.0438065603375434875
0.0876884013414382935 0.000484240794321522117 0.0428158268332481384
0.0590895973145961761 0.000325451255775988102 0.11411760002374649
0.0441431775689125061 0.000242464040638878942 0.116905756294727325
0.0920731127262115479 0.000508586119394749403 0.0933666080236434937
0.0530475601553916931 0.000291903968900442123 0.0831078290939331055
0.086176455020904541 0.00047584596904926002 0.0412421673536300659
0.067198827862739563 0.000370476220268756151 0.0877174586057662964
0.0982051864266395569 0.00054263329366222024 0.0421476066112518311
0.0617884136736392975 0.000340435944963246584 0.0745808333158493042
0.0889341309666633606 0.000491157465148717165 0.0478171408176422119
0.0709481090307235718 0.000391293404391035438 0.0768715590238571167
0.0362735763192176819 0.000198769557755440474 0.102128699421882629
0.0308269113302230835 0.000168527942150831223 0.113719172775745392
0.105797015130519867 0.000584785535465925932 0.0162863433361053467
0.0332879796624183655 0.000182192568900063634 0.101151458919048309
0.106846354901790619 0.000590611773077398539 0.108187966048717499
0.071859508752822876 0.000396353803807869554 0.119431667029857635
0.0811012014746665955 0.000447666621766984463 0.086971968412399292
0.0374480411410331726 0.000205290562007576227 0.093007892370223999
0.0961253941059112549 0.000531085650436580181 0.0383162051439285278
0.0415343567728996277 0.000227979064220562577 0.114710532128810883
0.0796380192041397095 0.000439542520325630903 0.0549879223108291626
0.0767223536968231201 0.000423353863880038261 0.0745959281921386719
0.0724372640252113342 0.000399561715312302113 0.065994560718536377
0.0755117833614349365 0.000416632392443716526 0.119151748716831207
0.0994825512170791626 0.000549725606106221676 0.0238951295614242554
0.065208733081817627 0.00035942660178989172 0.0593980550765991211
0.0809748023748397827 0.000446964811999350786 0.109663963317871094
0.11141534149646759 0.000615980243310332298 0.0508016347885131836
0.0683285295963287354 0.000376748706912621856 0.0568422228097915649
0.045769914984703064 0.000251496210694313049 0.0935842320322990417
0.0839957371354103088 0.000463737989775836468 0.0464738085865974426
0.0441965460777282715 0.000242760375840589404 0.0948677211999893188
0.103319898247718811 0.000571031763684004545 0.103815317153930664
0.118129096925258636 0.000653257127851247787 0.0470613017678260803
0.0447614118456840515 0.000245896691922098398 0.0890010744333267212
0.0816898345947265625 0.000450934865511953831 0.113057196140289307
0.096903778612613678 0.000535407452844083309 0.0285007432103157043
0.111462906002998352 0.0006162443314678967 0.119148530066013336
0.100355587899684906 0.000554573023691773415 0.0512514412403106689
0.111770950257778168 0.000617954647168517113 0.0136608332395553589
0.0391389951109886169 0.000214679253986105323 0.105228312313556671
0.0963188484311103821 0.000532159756403416395 0.0781828612089157104
0.0595690980553627014 0.000328113586874678731 0.0892392992973327637
0.0917429700493812561 0.000506753043737262487 0.058374401181936264
0.0847436562180519104 0.00046789064072072506 0.0714042633771896362
0.0298262014985084534 0.000162971729878336191 0.115999527275562286
0.117807954549789429 0.00065147405257448554 0.102136977016925812
0.0936461985111236572 0.000517320353537797928 0.0777790844440460205
0.0887277573347091675 0.000490011647343635559 0.0648528337478637695
0.104239419102668762 0.000576137274038046598 0.110610894858837128
0.05663318932056427 0.000311812502332031727 0.0933630168437957764
0.0493957921862602234 0.000271628203336149454 0.0775561556220054626
0.0594833679497241974 0.000327637593727558851 0.0755029916763305664
0.0628096163272857666 0.000346105982316657901 0.101496778428554535
0.102308318018913269 0.000565415190067142248 0.0449969097971916199
0.112046763300895691 0.00061948609072715044 0.0847787782549858093
0.104133248329162598 0.000575547746848315001 0.110132113099098206
0.115807481110095978 0.000640366808511316776 0.0453807935118675232
0.0694107413291931152 0.000382757512852549553 0.107927814126014709
0.0420752540230751038 0.000230982288485392928 0.0985735878348350525
0.0856566876173019409 0.000472960062325000763 0.101892925798892975
0.0798431262373924255 0.000440681353211402893 0.0545126199722290039
0.0786207914352416992 0.000433894601883366704 0.0721409469842910767
0.0315548926591873169 0.000172569940332323313 0.0950868278741836548
0.0960079357028007507 0.000530433491803705692 0.0787281468510627747
0.104897402226924896 0.000579790561459958553 0.0968077853322029114
0.0794088467955589294 0.000438270100858062506 0.105287879705429077
0.119055315852165222 0.000658399774692952633 0.0671577602624893188
0.00604130327701568604 3.0910479836165905e-05 0.116685166954994202
0.114671334624290466 0.000634058495052158833 0.101073555648326874
0.104462474584579468 0.000577375758439302444 0.0454317256808280945
0.113333530724048615 0.000626630615442991257 0.0754593908786773682
0.0984588116407394409 0.000544041511602699757 0.0236941352486610413
0.120400674641132355 0.000665869622025638819 0.031371191143989563
0.0552199855446815491 0.000303965964121744037 0.0919857621192932129
0.0553428158164024353 0.000304647954180836678 0.076488591730594635
0.0569227412343025208 0.000313420197926461697 0.0739455968141555786
0.110053703188896179 0.000608419999480247498 0.0162842720746994019
0.0586748421192169189 0.000323148415191099048 0.116115733981132507
0.0548037290573120117 0.0003016547707375139 0.111045181751251221
0.110974185168743134 0.000613530806731432676 0.0471868515014648438
0.118494734168052673 0.00065528723644092679 0.0147803425788879395
0.0370831713080406189 0.000203264673473313451 0.10518907755613327
0.120244942605495453 0.00066500494722276926 0.0107924342155456543
0.100184664130210876 0.000553623947780579329 0.0479939356446266174
0.108934961259365082 0.000602208368945866823 0.062309902161359787
0.109565801918506622 0.000605711014941334724 0.0585455112159252167
0.0543577596545219421 0.000299178616842254996 0.0779297053813934326
0.0284560620784759521 0.000155364221427589655 0.109712347388267517
0.0570627301931381226 0.000314197444822639227 0.110288955271244049
0.0855968296527862549 0.000472627754788845778 0.091452278196811676
0.0436656326055526733 0.000239812565268948674 0.107542403042316437
0.0133500322699546814 7.149082375690341e-05 0.11478869616985321
0.0792721360921859741 0.000437511014752089977 0.117972522974014282
0.103864952921867371 0.000574058096390217543 0.110462836921215057
0.116289041936397552 0.000643040519207715988 0.0550036802887916565
0.0244688168168067932 0.000133225810714066029 0.118621371686458588
0.0705308318138122559 0.000388976593967527151 0.113032907247543335
0.112019918859004974 0.00061933702090755105 0.0129173398017883301
0.101537078619003296 0.000561133027076721191 0.0695924907922744751
0.0763963088393211365 0.000421543547417968512 0.0731313154101371765
0.0647406727075576782 0.000356827833456918597 0.114039450883865356
0.106271699070930481 0.000587421120144426823 0.0362096428871154785
0.0215017497539520264 0.000116751703899353743 0.114420846104621887
0.0771844610571861267 0.000425919628469273448 0.111345589160919189
0.0919491350650787354 0.000507897697389125824 0.0502911806106567383
0.040297389030456543 0.000221110996790230274 0.119765467941761017
0.0990527570247650146 0.000547339266631752253 0.065751291811466217
0.0592603683471679688 0.000326399429468438029 0.107189707458019257
0.100814454257488251 0.000557120773009955883 0.103596195578575134
0.082950882613658905 0.000457936606835573912 0.0438717976212501526
0.0942618623375892639 0.000520738714840263128 0.10917847603559494
0.0634727627038955688 0.000349787995219230652 0.065370805561542511
0.098990708589553833 0.000546994793694466352 0.105503201484680176
0.0951649099588394165 0.000525752722751349211 0.0869525820016860962
0.047667481005191803 0.000262032088357955217 0.107156381011009216
0.0868738442659378052 0.000479718146380037069 0.0343868285417556763
0.110207617282867432 0.000609274546150118113 0.0758660435676574707
0.0429562702775001526 0.000235873972997069359 0.104399040341377258
0.0982705205678939819 0.000542996043805032969 0.108293101191520691
0.103543125092983246 0.00057227123761549592 0.0773115232586860657
0.0564717873930931091 0.000310916366288438439 0.114347182214260101
0.103584200143814087 0.000572499295230954885 0.101479172706604004
0.069324299693107605 0.000382277561584487557 0.0952096432447433472
0.0808169543743133545 0.000446088379248976707 0.0666253939270973206
0.0970074012875556946 0.000535982835572212934 0.0261464118957519531
0.073054194450378418 0.000402987119741737843 0.108180955052375793
0.0743742361664772034 0.000410316366469487548 0.0482485964894294739
0.0516862496733665466 0.000284345558611676097 0.103984512388706207
0.105824597179889679 0.000584938621614128351 0.11778944730758667
0.0884761214256286621 0.000488614430651068687 0.0894942730665206909
0.0485086515545845032 0.000266702525550499558 0.105130739510059357
0.110298514366149902 0.000609779264777898788 0.0190358906984329224
0.077768176794052124 0.000429160601925104856 0.0470581129193305969
0.0978446602821350098 0.000540631532203406096 0.0532561466097831726
0.0455438196659088135 0.000250240846071392298 0.119085200130939484
0.0559002012014389038 0.000307742709992453456 0.106101959943771362
0.118046537041664124 0.000652798684313893318 0.0432813540101051331
0.0256241634488105774 0.000139640644192695618 0.0988198667764663696
0.116171322762966156 0.000642386963590979576 0.0764893144369125366
0.0612255707383155823 0.000337310862960293889 0.0617759339511394501
0.0995891541242599487 0.000550317519810050726 0.0306581556797027588
0.104234658181667328 0.000576110789552330971 0.0986370891332626343
0.0329889878630638123 0.000180532486410811543 0.119334585964679718
0.115278743207454681 0.000637431046925485134 0.0317680016160011292
0.0698561742901802063 0.00038523069815710187 0.105999737977981567
0.1089167520403862 0.00060210726223886013 0.0232215598225593567
0.111196763813495636 0.000614766613580286503 0.093610808253288269
0.106205664575099945 0.000587054470088332891 0.0184756815433502197
0.0935177206993103027 0.000516607018653303385 0.0981615632772445679
0.0670074671506881714 0.000369413726730272174 0.115370526909828186
0.0715493112802505493 0.000394631526432931423 0.103750057518482208
