ply
format ascii 1.0
element vertex 714
property float x
property float y
property float z
end_header
0.0132424384355545044 0.0177987013012170792 -0.0137942275032401085
0.0139376446604728699 0.0243919901549816132 -0.0130091449245810509
0.0153461908921599388 0.0340821035206317902 -0.0114187011495232582
0.0132318641990423203 0.0183157585561275482 -0.0138061363250017166
0.0129649145528674126 0.030542418360710144 -0.0141067979857325554
0.014382828027009964 0.0333200767636299133 -0.012506154365837574
0.0138016808778047562 0.0359526574611663818 -0.013161991722881794
0.013034389354288578 0.0300411172211170197 -0.0140284039080142975
0.0129652470350265503 0.0332199744880199432 -0.01410627830773592
0.0133137349039316177 0.0347445942461490631 -0.0137128345668315887
0.0129325129091739655 0.0228880476206541061 -0.0141437863931059837
0.0128122800961136818 0.0249835699796676636 -0.014279387891292572
0.0136366738006472588 0.0168128367513418198 -0.0133492806926369667
0.0135718025267124176 0.0138064427301287651 -0.0134226679801940918
0.013449554331600666 0.0167433395981788635 -0.0135604990646243095
0.0131253944709897041 0.0086196213960647583 -0.0139268385246396065
0.0131143201142549515 0.0205120518803596497 -0.0139386961236596107
0.0136064654216170311 0.0168152954429388046 -0.0133833792060613632
0.0127981109544634819 0.0116146514192223549 -0.0142961042001843452
0.0141357826068997383 0.0210254043340682983 -0.0127856750041246414
0.0127659887075424194 0.0216300413012504578 -0.0143318204209208488
0.0143127478659152985 0.0284897685050964355 -0.0125855198130011559
0.0128640467301011086 0.026029365137219429 -0.0142208971083164215
0.0132287880405783653 0.0354228951036930084 -0.0138086825609207153
0.014985707588493824 0.0279722679406404495 -0.0118259331211447716
0.0149338021874427795 0.0300539657473564148 -0.0118844090029597282
0.0152547629550099373 0.0343555174767971039 -0.0115218870341777802
0.012805599719285965 0.0211901646107435226 -0.014287133701145649
0.0137782683596014977 0.0309625286608934402 -0.0131886880844831467
0.0135789802297949791 0.0168582890182733536 -0.0134144006296992302
0.0149157335981726646 0.0357003733515739441 -0.0119044994935393333
0.0142466733232140541 0.0310594979673624039 -0.0126599632203578949
0.0147849461063742638 0.0248735006898641586 -0.0120527138933539391
0.013798852451145649 0.022153608500957489 -0.0131659312173724174
0.0140025243163108826 0.0228870268911123276 -0.0129359923303127289
0.0130080413073301315 0.00519269471988081932 -0.0140594895929098129
0.0132860895246267319 0.0222523640841245651 -0.0137447146698832512
0.0145132467150688171 0.0222578942775726318 -0.0123595399782061577
0.0128218550235033035 0.0349553488194942474 -0.014268040657043457
0.014873056672513485 0.0324319824576377869 -0.0119528481736779213
0.0142632471397519112 0.0345709547400474548 -0.0126410657539963722
0.0145918028429150581 0.0292781759053468704 -0.0122704897075891495
0.0138658322393894196 0.0315547138452529907 -0.0130898170173168182
0.0144679881632328033 0.020566944032907486 -0.0124107170850038528
0.0143576730042695999 0.0196665599942207336 -0.0125352870672941208
0.0178993958979845047 0.0016463500214740634 -0.00690908683463931084
0.0167829804122447968 0.0121930493041872978 -0.00903527252376079559
0.0165197961032390594 0.00168288324493914843 -0.00953769125044345856
0.0177455861121416092 0.00618620635941624641 -0.00720173120498657227
0.0167943611741065979 0.00735847745090723038 -0.00901403184980154037
0.0179372858256101608 0.00632745260372757912 -0.00683646369725465775
0.0172363743185997009 0.0164105258882045746 -0.00817102007567882538
0.0162016302347183228 0.000972433539573103189 -0.0101439701393246651
0.0178347546607255936 0.0319925509393215179 -0.00702948076650500298
0.0171233657747507095 0.00432412233203649521 -0.00838744640350341797
0.0171693060547113419 0.00946885347366333008 -0.00829944107681512833
0.0174620989710092545 0.0242494195699691772 -0.00774022098630666733
0.0176647137850522995 0.013022606261074543 -0.00735519593581557274
0.0161369424313306808 0.00485519086942076683 -0.0102668693289160728
0.0173237919807434082 0.0231869164854288101 -0.00800384115427732468
0.0165921133011579514 0.000544641749002039433 -0.00940000545233488083
0.0179278720170259476 0.00434212572872638702 -0.00685458304360508919
0.0176581405103206635 0.0110489856451749802 -0.0073679010383784771
0.0173653792589902878 0.00530621781945228577 -0.00792623776942491531
0.0175671707838773727 0.0218803156167268753 -0.00754023948684334755
0.0169311352074146271 0.0152939269319176674 -0.00875270925462245941
0.0169174578040838242 0.0053318636491894722 -0.00877967663109302521
0.0171493533998727798 0.0212786514312028885 -0.00833638105541467667
0.0169824790209531784 0.0168958697468042374 -0.00865473132580518723
0.0174155589193105698 0.00220696046017110348 -0.00783090759068727493
0.0171926263719797134 0.0214020591229200363 -0.00825392268598079681
0.0167051572352647781 0.00115086592268198729 -0.0091845635324716568
0.0175535771995782852 0.0172624476253986359 -0.00756656192243099213
0.0175321772694587708 0.00760217942297458649 -0.00760821672156453133
0.0172999054193496704 0.0166283100843429565 -0.00804995093494653702
0.0163187775760889053 0.00398655561730265617 -0.00992048624902963638
0.017338138073682785 0.00406584236770868301 -0.0079782530665397644
0.017077835276722908 0.0022954156156629324 -0.0084743797779083252
0.0178868323564529419 0.00137158948928117752 -0.00693305069580674171
0.0174209624528884888 0.00365044106729328632 -0.00782048143446445465
0.0171391796320676804 0.00602689292281866074 -0.00835715606808662415
0.0167917273938655853 0.00112670764792710543 -0.00901962164789438248
0.0177123788744211197 0.00776228494942188263 -0.00726485718041658401
0.0163615159690380096 0.00113681948278099298 -0.00983931869268417358
0.0169684235006570816 0.00670294929295778275 -0.00868244469165802002
0.0171424858272075653 0.000522207119502127171 -0.00835136324167251587
0.0178698785603046417 0.00689860433340072632 -0.00696484837681055069
0.0169064607471227646 0.00874562002718448639 -0.00880031660199165344
0.0174468234181404114 0.0224050749093294144 -0.00776949804276227951
0.0160634592175483704 0.000518929213285446167 -0.010407276451587677
0.0179444421082735062 0.0278553646057844162 -0.00682086590677499771
0.0174701157957315445 0.0171861592680215836 -0.00772559130564332008
0.0176970362663269043 0.0197550579905509949 -0.00729299802333116531
0.0169795174151659012 0.0326400026679039001 -0.00865893717855215073
0.0174099747091531754 0.0271014124155044556 -0.00783927552402019501
0.0162587668746709824 0.0236277133226394653 -0.0100330393761396408
0.0158020425587892532 0.0359937436878681183 -0.0109021244570612907
0.0161666683852672577 0.0294136106967926025 -0.0102079873904585838
0.0161108821630477905 0.0167380999773740768 -0.0103154359385371208
0.0158853698521852493 0.0325560569763183594 -0.0107436701655387878
0.0163627248257398605 0.0249335877597332001 -0.00983484368771314621
0.0158632658421993256 0.0184778124094009399 -0.0107870716601610184
0.0160049851983785629 0.0138023495674133301 -0.0105174751952290535
0.0167750287801027298 0.033747255802154541 -0.00904845818877220154
0.01583058200776577 0.0131805967539548874 -0.0108498288318514824
0.0158360376954078674 0.0180428158491849899 -0.0108389891684055328
0.0162315592169761658 0.0216638743877410889 -0.0100850546732544899
0.0172365941107273102 0.0316252447664737701 -0.00816921330988407135
0.0176784731447696686 0.0357233099639415741 -0.00732691027224063873
0.0177944488823413849 0.0352727659046649933 -0.00710597541183233261
0.01654842309653759 0.0216400735080242157 -0.0094813220202922821
0.0167498216032981873 0.0267000235617160797 -0.00909712910652160645
0.0160751882940530777 0.0111921830102801323 -0.0103839496150612831
0.01765439473092556 0.0318721756339073181 -0.00737313739955425262
0.0171037819236516953 0.028704274445772171 -0.00842253305017948151
0.0166895464062690735 0.0302188098430633545 -0.00921165384352207184
0.0173471458256244659 0.0354336351156234741 -0.00795822683721780777
0.0166605859994888306 0.0330293215811252594 -0.00926657486706972122
0.0159278027713298798 0.00629450287669897079 -0.0106652211397886276
0.0158345848321914673 0.0115614579990506172 -0.0108423512428998947
0.0160912573337554932 0.0244294703006744385 -0.0103521253913640976
0.0160542931407690048 0.0150515185669064522 -0.0104234134778380394
0.0167289189994335175 0.0257859323173761368 -0.00913704279810190201
0.0164119414985179901 0.0218747444450855255 -0.00974134914577007294
0.0177672170102596283 0.0349457263946533203 -0.00715789198875427246
0.0162431038916110992 0.0165758971124887466 -0.0100635234266519547
0.0163743197917938232 0.0337509550154209137 -0.00981194432824850082
0.0158234946429729462 0.0324226468801498413 -0.0108615774661302567
0.0161885488778352737 0.0202901959419250488 -0.0101671293377876282
0.0163390301167964935 0.0133301187306642532 -0.00988104939460754395
0.0169619210064411163 0.0322956293821334839 -0.00869250018149614334
0.0161301307380199432 0.0125517621636390686 -0.0102791432291269302
0.0159507878124713898 0.0181638412177562714 -0.0106203444302082062
0.0167069248855113983 0.0186995826661586761 -0.00917959399521350861
0.0160087272524833679 0.0104526877403259277 -0.0105106532573699951
0.01592240110039711 0.0200758296996355057 -0.0106742531061172485
0.016729302704334259 0.0295747015625238419 -0.00913596060127019882
0.0165953207761049271 0.0330350175499916077 -0.00939093064516782761
0.0165072642266750336 0.017334815114736557 -0.00956013798713684082
0.0169564038515090942 0.0259952135384082794 -0.00870358292013406754
0.0186122916638851166 0.0112631246447563171 -0.00412857905030250549
0.0184376798570156097 0.000667265732772648335 -0.00483906781300902367
0.0189485084265470505 0.000553128775209188461 -0.00276657706126570702
0.0189870521426200867 0.00976385269314050674 -0.00260840682312846184
0.0184460002928972244 0.0156247867271304131 -0.00480240490287542343
0.0187240391969680786 0.00491185951977968216 -0.00367644103243947029
0.0190431419759988785 0.000686175073496997356 -0.00238260626792907715
0.018772052600979805 0.0170074999332427979 -0.00347929331474006176
0.0189287513494491577 0.017461700364947319 -0.00284344819374382496
0.0186943486332893372 0.0050822901539504528 -0.00379686476662755013
0.0186871960759162903 0.0190902557224035263 -0.0038231599610298872
0.0189085565507411957 0.0159889534115791321 -0.00292566604912281036
0.0189536064863204956 0.0139504345133900642 -0.00274328840896487236
0.018621319904923439 0.00239076185971498489 -0.00409367773681879044
0.0188245717436075211 0.0176717229187488556 -0.00326607655733823776
0.0189284384250640869 0.00987867265939712524 -0.00284619070589542389
0.0189548954367637634 0.032183770090341568 -0.00273451162502169609
0.0183075014501810074 0.0112984376028180122 -0.00536515004932880402
0.0189309064298868179 0.00638027722015976906 -0.00283685699105262756
0.0190502721816301346 0.0139185599982738495 -0.00235110963694751263
0.0188155677169561386 0.0161741171032190323 -0.00330290524289011955
0.0188097134232521057 0.0159152261912822723 -0.00332671054638922215
0.0189712941646575928 0.0192331895232200623 -0.00267050089314579964
0.0189688466489315033 0.0114036900922656059 -0.00268195103853940964
0.0182677991688251495 0.00214437488466501236 -0.00552801508456468582
0.0180635079741477966 0.00127662741579115391 -0.00635702162981033325
0.0190211758017539978 0.0292265359312295914 -0.00246617686934769154
0.0188606027513742447 0.0140605419874191284 -0.00312059419229626656
0.0190119668841362 0.0333592705428600311 -0.00250273756682872772
0.0189983341842889786 0.00849170796573162079 -0.00256288633681833744
0.0186470430344343185 0.0027911611832678318 -0.00398923596367239952
0.018902244046330452 0.00882241502404212952 -0.00295267114415764809
0.0188260190188884735 0.00457108393311500549 -0.00326275266706943512
0.0188987106084823608 0.00379915861412882805 -0.00296798092313110828
0.0188973303884267807 0.0113953249529004097 -0.00297210575081408024
0.0183264967054128647 0.0113380346447229385 -0.00528807798400521278
0.0188755672425031662 0.00309897284023463726 -0.00306201470084488392
0.0189897380769252777 0.00809397362172603607 -0.00259783957153558731
0.0188286956399679184 0.00959976110607385635 -0.00325091485865414143
0.0182804428040981293 0.00835251156240701675 -0.0054755108430981636
0.0190264564007520676 0.0264262650161981583 -0.00244529475457966328
0.0188108328729867935 0.00435328669846057892 -0.00332441134378314018
0.0183282829821109772 0.00761323841288685799 -0.00528155360370874405
0.0188561063259840012 0.0272353272885084152 -0.00313627906143665314
0.0186970941722393036 0.00562373455613851547 -0.00378561369143426418
0.0188974887132644653 0.0226797889918088913 -0.00296927522867918015
0.0184311028569936752 0.00765058211982250214 -0.0048643946647644043
0.0184140373021364212 0.0132243568077683449 -0.00493255024775862694
0.0181921105831861496 0.0138872535899281502 -0.00583281554281711578
0.0181798525154590607 0.0233199708163738251 -0.00588070880621671677
0.0189748071134090424 0.0338107049465179443 -0.00265341298654675484
0.0180200878530740738 0.00476258806884288788 -0.00653250981122255325
0.0180242452770471573 0.0297644622623920441 -0.00651078205555677414
0.0179922375828027725 0.0156463347375392914 -0.00664338888600468636
0.0180049668997526169 0.0312253702431917191 -0.0065887165255844593
0.0181173458695411682 0.0219551548361778259 -0.00613457383587956429
0.0187429022043943405 0.027630046010017395 -0.00359548884443938732
0.0183914490044116974 0.0347342155873775482 -0.00502001214772462845
0.0179860461503267288 0.0165490303188562393 -0.00666833296418190002
0.018232664093375206 0.011336163617670536 -0.00566877331584692001
0.0186692997813224792 0.0312458574771881104 -0.00389340263791382313
0.0180234964936971664 0.0282914265990257263 -0.00651410827413201332
0.0180160868912935257 0.00981293059885501862 -0.00654775602743029594
0.0179738849401473999 0.0261083375662565231 -0.00671581830829381943
0.0179682131856679916 0.0228808410465717316 -0.0067394566722214222
0.0181998983025550842 0.0279374681413173676 -0.00579849258065223694
0.0185040105134248734 0.025206640362739563 -0.00456518866121768951
0.0181024018675088882 0.0326810106635093689 -0.00619311956688761711
0.0187831241637468338 0.0302156824618577957 -0.00343180331401526928
0.0180667378008365631 0.0245329216122627258 -0.00633940007537603378
0.0185556765645742416 0.0313570834696292877 -0.00435437075793743134
0.0186598561704158783 0.0353309884667396545 -0.00393092166632413864
0.0185389202088117599 0.0259386319667100906 -0.00442340318113565445
0.0181724000722169876 0.0345290489494800568 -0.00590877002105116844
0.0182181224226951599 0.032971605658531189 -0.00572356302291154861
0.0186067856848239899 0.0311992354691028595 -0.00414704112336039543
0.0183662343770265579 0.0258662067353725433 -0.0051240408793091774
0.0186997763812541962 0.0291471295058727264 -0.00377016142010688782
0.0184209272265434265 0.0245025660842657089 -0.00490240054205060005
0.0180890168994665146 0.00647376943379640579 -0.00625252025201916695
0.0184297487139701843 0.0227445922791957855 -0.00486695533618330956
0.0183927342295646667 0.0189482010900974274 -0.00501787150278687477
0.0182455610483884811 0.0181914027780294418 -0.00561511842533946037
0.0180446617305278778 0.0132125522941350937 -0.00643116794526576996
0.0185255073010921478 0.0261924155056476593 -0.00447778310626745224
0.0184347499161958694 0.0245085172355175018 -0.00484632328152656555
0.0186149552464485168 0.0234963912516832352 -0.0041153966449201107
0.0183346234261989594 0.0314255952835083008 -0.00525121204555034637
0.0182434003800153732 0.0131554342806339264 -0.00562486471608281136
0.0185213331133127213 0.022047700360417366 -0.00449551735073328018
0.018131256103515625 0.00668487092480063438 -0.00608111266046762466
0.0186633672565221786 0.0242150425910949707 -0.00391884613782167435
0.0179910119622945786 0.00504873786121606827 -0.00665042130276560783
0.0180633570998907089 0.0194709226489067078 -0.00635410519316792488
0.0188201349228620529 0.032006390392780304 -0.0032812983263283968
0.0190592296421527863 0.0162719916552305222 0.000943447230383753777
0.0190599095076322556 0.00211008521728217602 0.000622688792645931244
0.0190594866871833801 0.0109192905947566032 0.0013791513629257679
0.019059259444475174 0.0156834721565246582 0.0020573674701154232
0.019059816375374794 0.00402748538181185722 -0.000639364356175065041
0.0190593916922807693 0.0128961335867643356 -0.000320282066240906715
0.0190597940236330032 0.00452773412689566612 -0.00105921505019068718
0.0190599188208580017 0.0019166839774698019 -6.72989990562200546e-05
0.0190599672496318817 0.000903492444194853306 -0.000177157344296574593
0.0190590377897024155 0.0203130282461643219 0.00103498308453708887
0.019059477373957634 0.0111246928572654724 0.000764081254601478577
0.0190596077591180801 0.00840703956782817841 -0.000976823503151535988
0.0190585833042860031 0.0297736413776874542 0.00170772394631057978
0.0190594438463449478 0.0118027050048112869 -0.000759077491238713264
0.0190593134611845016 0.0145314596593379974 0.00192878721281886101
0.0190599784255027771 0.000674610724672675133 -0.000614206306636333466
0.0190596133470535278 0.00826689135283231735 -0.000770836137235164642
0.0190600063651800156 9.64114078669808805e-05 -0.00200233957730233669
0.0190587881952524185 0.0254960153251886368 0.00175565038807690144
0.0190593432635068893 0.0139353815466165543 0.00225224276073276997
0.0190587751567363739 0.0257607791572809219 0.00112756271846592426
0.0190588254481554031 0.024732319638133049 0.00207839393988251686
0.0190598107874393463 0.00415993854403495789 -0.00131361838430166245
0.0190591569989919662 0.0178185254335403442 0.00226309988647699356
0.0190585535019636154 0.0304195601493120193 0.00191334029659628868
0.0190589409321546555 0.0223070885986089706 0.00156769284512847662
0.0190588925033807755 0.0233201645314693451 0.00126587890554219484
0.0190594196319580078 0.0123326843604445457 0.000788516947068274021
0.01905856654047966 0.0301420297473669052 0.0020532817579805851
0.0190591942518949509 0.0170434359461069107 0.000505454954691231251
0.0190597977489233017 0.00444020982831716537 0.0011352467117831111
0.0190592911094427109 0.0150168193504214287 0.00133649120107293129
0.0190597884356975555 0.00462159374728798866 0.000879180268384516239
0.0190596804022789001 0.00686350790783762932 0.000237182481214404106
0.0190599430352449417 0.00140760268550366163 0.00124333298299461603
0.0190591719001531601 0.017487943172454834 0.000342170475050806999
0.0190599281340837479 0.00169476005248725414 -0.000547645613551139832
0.0190599653869867325 0.000934920040890574455 -0.000836452469229698181
0.0190599951893091202 0.000307348731439560652 0.00227958569303154945
0.0190592426806688309 0.01599913090467453 0.000696563511155545712
0.019059767946600914 0.00507127819582819939 0.00213817181065678596
0.0190589837729930878 0.0214218664914369583 0.0013198027154430747
0.0190597660839557648 0.00507518602535128593 0.00134881003759801388
0.0190596152096986771 0.008254271000623703 0.00079359870869666338
0.0190594401210546494 0.0118829868733882904 -0.000237945001572370529
0.0190588198602199554 0.024856148287653923 0.00182649667840451002
0.0190590452402830124 0.0201252922415733337 0.00211651879362761974
0.0190584119409322739 0.033388577401638031 -0.00151749211363494396
0.0190583094954490662 0.0354927331209182739 0.000775572843849658966
0.0190595574676990509 0.00941869243979454041 -0.00164089957252144814
0.0190583691000938416 0.0342445299029350281 0.00135974143631756306
0.0190585274249315262 0.0309543628245592117 -0.00125224550720304251
0.0190593991428613663 0.0127497110515832901 -0.00228073913604021072
0.0190587267279624939 0.0267917625606060028 0.000156335998326539993
0.0190593302249908447 0.0141902519389986992 -0.00101055146660655737
0.019059646874666214 0.00757294241338968277 -0.001603731419891119
0.0190583672374486923 0.0342984609305858612 0.000965078826993703842
0.019059445708990097 0.0117982123047113419 -0.000864835688844323158
0.0190589837729930878 0.0214170664548873901 -0.000305359950289130211
0.0190588068217039108 0.0251463092863559723 -0.00116773159243166447
0.0190589576959609985 0.0219652317464351654 -0.000658458564430475235
0.019059937447309494 0.0015100422315299511 -0.00215360731817781925
0.0190585535019636154 0.0304110199213027954 -0.00190717773512005806
0.01905830018222332 0.0356755591928958893 0.000517657259479165077
0.0190598480403423309 0.00338556268252432346 -0.00197892263531684875
0.0190583914518356323 0.0337516181170940399 -0.000576738151721656322
0.0190592464059591293 0.0159511007368564606 -0.00141820358112454414
0.0190588999539613724 0.0231615118682384491 -7.57984817028045654e-05
0.0190586596727371216 0.0281731709837913513 -0.000690557877533137798
0.0190584249794483185 0.0330993346869945526 0.00047442922368645668
0.0190591197460889816 0.0185905322432518005 -0.000359692377969622612
0.0190592072904109955 0.0167292505502700806 -0.0010309446370229125
0.0190587397664785385 0.0265100002288818359 -0.000808434444479644299
0.0190586093813180923 0.0292264446616172791 3.85816674679517746e-05
0.0190583132207393646 0.0354343093931674957 -0.00177941261790692806
0.0190589521080255508 0.0221066847443580627 0.000350929098203778267
0.0190583989024162292 0.033639863133430481 -0.00219350005500018597
0.0190586671233177185 0.028035750612616539 0.00106986053287982941
0.0190587267279624939 0.0267725382000207901 -0.00170991872437298298
0.0190587360411882401 0.0265915840864181519 0.000248571624979376793
0.019059203565120697 0.0168512593954801559 -0.000194793101400136948
0.0190583840012550354 0.0339134931564331055 -0.00187653792090713978
0.0190588254481554031 0.0247379392385482788 -0.00106950663030147552
0.0190595760941505432 0.00908362492918968201 -0.00158247677609324455
0.0190587062388658524 0.0272322818636894226 -0.00025256606750190258
0.0190591234713792801 0.0185070764273405075 -0.00228835828602313995
0.019059058278799057 0.0198493078351020813 -0.00151948444545269012
0.0190596934407949448 0.00660334574058651924 -0.00148301874287426472
0.0190583374351263046 0.0349042117595672607 -0.0012556625297293067
0.0190592613071203232 0.0155977541580796242 -0.00170618342235684395
0.0190588142722845078 0.0249548871070146561 -0.000963575788773596287
0.0190590042620897293 0.0209867246448993683 -0.000984836951829493046
0.0190597493201494217 0.00543591892346739769 -0.00228604255244135857
0.019059332087635994 0.0141520397737622261 -0.000527365831658244133
0.0186037346720695496 0.0096294451504945755 0.00416361261159181595
0.0184615366160869598 0.00641775317490100861 0.00474116252735257149
0.0185274668037891388 0.00183460896369069815 0.00447455979883670807
0.0180986374616622925 0.0230187512934207916 0.00621027220040559769
0.0183143038302659988 0.0161050688475370407 0.00533662457019090652
0.0187231935560703278 0.0008908070158213377 0.00368065270595252514
0.0182028971612453461 0.0174446664750576019 0.00578835653141140938
0.0181461665779352188 0.00648970948532223701 0.00602065026760101318
0.0182594731450080872 0.0167526043951511383 0.00555895548313856125
0.0183934047818183899 0.0101680848747491837 0.00501684844493865967
0.0180226247757673264 0.029037797823548317 0.0065175006166100502
0.0182558745145797729 0.0143160820007324219 0.00557402987033128738
0.0181349813938140869 0.0105561520904302597 0.00606523780152201653
0.0180530883371829987 0.00774319004267454147 0.00639804406091570854
0.0179942380636930466 0.0332973115146160126 0.00663184328004717827
0.0186645667999982834 0.00681355595588684082 0.00391735648736357689
0.0183130819350481033 0.0118498113006353378 0.00534240389242768288
0.01821894571185112 0.0182745419442653656 0.00572308572009205818
0.0182891432195901871 0.0219706110656261444 0.00543756131082773209
0.0182629823684692383 0.0251942109316587448 0.00554307550191879272
0.0184075869619846344 0.0186425019055604935 0.00495766196399927139
0.0183455292135477066 0.0209638215601444244 0.00520899286493659019
0.0179776083678007126 0.0304908901453018188 0.0066998596303164959
0.0187394972890615463 0.00121647433843463659 0.00361443962901830673
0.0183098260313272476 0.0242827534675598145 0.00535319605842232704
0.0184089168906211853 0.0085341697558760643 0.00495423562824726105
0.0188652705401182175 0.00417346414178609848 0.00310358335264027119
0.0182259399443864822 0.0057041277177631855 0.00569714652374386787
0.0179866775870323181 0.0297703705728054047 0.00666320091113448143
0.0184924732893705368 0.0183196887373924255 0.00461332919076085091
0.0186487454921007156 0.0098419608548283577 0.00398095883429050446
0.0182443000376224518 0.000277670478681102395 0.00562372058629989624
0.0186582636088132858 0.00455485982820391655 0.00394337158650159836
0.0182448513805866241 0.0090296231210231781 0.00561977783218026161
0.0180244725197553635 0.0259452275931835175 0.0065106051042675972
0.0182978957891464233 0.0157754290848970413 0.00540325837209820747
0.0189798101782798767 0.000616934848949313164 0.00263956561684608459
0.0183560736477375031 0.000132300745462998748 0.00517026707530021667
0.0183632764965295792 0.0202113185077905655 0.00513713201507925987
0.0182587653398513794 0.012200159952044487 0.00556270778179168701
0.0182799380272626877 0.021811777725815773 0.00547494320198893547
0.0186464022845029831 0.00788493454456329346 0.00399084575474262238
0.0183317363262176514 0.0212491322308778763 0.00526489410549402237
0.0181861203163862228 0.00777435861527919769 0.00585830165073275566
0.0182079914957284927 0.00934250839054584503 0.00576926488429307938
0.017995879054069519 0.0302200186997652054 0.00662578316405415535
0.0179731715470552444 0.013365267775952816 0.00672118552029132843
0.0185336750000715256 0.00843295175582170486 0.00444809254258871078
0.0186849366873502731 0.0322335734963417053 0.00382977374829351902
0.018214348703622818 0.034184582531452179 0.00573864206671714783
0.0187034346163272858 0.0236629173159599304 0.00375638715922832489
0.0188200455158948898 0.0146859642118215561 0.00328502594493329525
0.0187022741883993149 0.0303590595722198486 0.00375979463569819927
0.0188574753701686859 0.0216749943792819977 0.00313180498778820038
0.0183833707123994827 0.0351165980100631714 0.00505271134898066521
0.0187090002000331879 0.0128742130473256111 0.00373590365052223206
0.0188477896153926849 0.0324352793395519257 0.00316900992766022682
0.0190439429134130478 0.0299610942602157593 0.00237367348745465279
0.0190575569868087769 0.0116290021687746048 0.00232199253514409065
0.0189428012818098068 0.0206202492117881775 0.00278583355247974396
0.0189273133873939514 0.0328264273703098297 0.0028462936170399189
0.018969804048538208 0.033685583621263504 0.00267373956739902496
0.0188345052301883698 0.029291987419128418 0.00322352070361375809
0.0185565166175365448 0.0331059545278549194 0.00435062311589717865
0.0189862046390771866 0.0281479991972446442 0.00260827480815351009
0.0184550676494836807 0.0235788766294717789 0.00476406421512365341
0.0186228435486555099 0.0167011376470327377 0.00408471282571554184
0.0187461543828248978 0.0331928208470344543 0.00358121143653988838
0.0188906919211149216 0.0316679514944553375 0.00299509940668940544
0.0185109619051218033 0.0183455720543861389 0.00453831488266587257
0.0188558585941791534 0.00764315342530608177 0.00314109260216355324
0.0187435261905193329 0.0126515328884124756 0.00359587604179978371
0.0187997594475746155 0.0240885857492685318 0.00336550339125096798
0.0180427879095077515 0.0346694886684417725 0.00643460080027580261
0.019041968509554863 0.0271908175200223923 0.00238221720792353153
0.0187204256653785706 0.012507924810051918 0.00368962576612830162
0.0184056553989648819 0.0236122347414493561 0.00496453838422894478
0.0186253376305103302 0.0358835905790328979 0.00407086592167615891
0.0183324441313743591 0.0280837416648864746 0.0052607022225856781
0.0190497636795043945 0.00650742417201399803 0.00235461071133613586
0.0190081782639026642 0.0163445547223091125 0.00252141477540135384
0.0185546595603227615 0.0253214370459318161 0.00435966998338699341
0.0188148785382509232 0.0288868695497512817 0.00330323120579123497
0.0182100981473922729 0.0338052213191986084 0.00575596187263727188
0.0190045107156038284 0.027626577764749527 0.00253410567529499531
0.0180576276034116745 0.0345617756247520447 0.00637441221624612808
0.0184974353760480881 0.0197771936655044556 0.00459291972219944
0.0184728056192398071 0.0270221084356307983 0.0046914396807551384
0.0187342893332242966 0.0155024118721485138 0.00363279040902853012
0.0188648905605077744 0.026951126754283905 0.00310069764964282513
0.0184535440057516098 0.0200155898928642273 0.00477093737572431564
0.0190048106014728546 0.0319960117340087891 0.00253204233013093472
0.0188296046108007431 0.0133969821035861969 0.00324648665264248848
0.0188075210899114609 0.0254254713654518127 0.00333374855108559132
0.0183906368911266327 0.0275476109236478806 0.00502470508217811584
0.0184904839843511581 0.0331669077277183533 0.0046185152605175972
0.0159904360771179199 0.0279272757470607758 0.0105439089238643646
0.0169849935919046402 0.005023944191634655 0.00865102559328079224
0.0159403663128614426 0.0272749066352844238 0.0106393638998270035
0.0168255548924207687 0.00349306315183639526 0.00895494967699050903
0.0168759413063526154 0.00918046664446592331 0.00885842926800251007
0.0170216057449579239 0.000936787982936948538 0.00858164206147193909
0.0164963323622941971 0.00843528471887111664 0.00958177912980318069
0.0166208148002624512 0.0157073326408863068 0.00934393424540758133
0.0168513357639312744 0.00747696822509169579 0.00890546757727861404
0.0160772167146205902 0.0203869510442018509 0.010379251092672348
0.0160828642547130585 0.0183558203279972076 0.0103686731308698654
0.0162904560565948486 0.0273858495056629181 0.00997231714427471161
0.0158050060272216797 0.0120055489242076874 0.0108986664563417435
0.0160579420626163483 0.0295793376863002777 0.0104151330888271332
0.0160853546112775803 0.0287091434001922607 0.0103629836812615395
0.0172467511147260666 0.00656856456771492958 0.00815214961767196655
0.0158110521733760834 0.0132671790197491646 0.0108870351687073708
0.0163012705743312836 0.0233089104294776917 0.00995207950472831726
0.0159882493317127228 0.00394888827577233315 0.0105502605438232422
0.0158204659819602966 0.0194593537598848343 0.0108685288578271866
0.0164706893265247345 0.0102336332201957703 0.00963047705590724945
0.0162114128470420837 0.0284043755382299423 0.0101228244602680206
0.0171729810535907745 0.00194758980069309473 0.00829312764108181
0.0174308549612760544 0.00124720484018325806 0.00780185218900442123
0.0176444705575704575 0.000270901742624118924 0.00739493127912282944
0.016131451353430748 0.0112158562988042831 0.0102767497301101685
0.0167040117084980011 0.00296621699817478657 0.00918658077716827393
0.0163918100297451019 0.0235594958066940308 0.00977955106645822525
0.0159408692270517349 0.0325941666960716248 0.0106379250064492226
0.0158711653202772141 0.00817052833735942841 0.0107729621231555939
0.0171465743333101273 0.0117117427289485931 0.00834255106747150421
0.0163878332823514938 0.00168688350822776556 0.00978912506252527237
0.0159329921007156372 0.0328528024256229401 0.0106529062613844872
0.016739577054977417 0.0186740215867757797 0.00911738444119691849
0.0165065843611955643 0.0101654147729277611 0.00956209190189838409
0.0159902628511190414 0.0202223416417837143 0.010544939897954464
0.0161547679454088211 0.00516489986330270767 0.0102328760549426079
0.016893656924366951 0.0056828521192073822 0.00882499292492866516
0.0163178257644176483 0.023711133748292923 0.00992050115019083023
0.0173930656164884567 0.00806924514472484589 0.00787322968244552612
0.0167557541280984879 0.00571141345426440239 0.00908774137496948242
0.0165687128901481628 0.00456044171005487442 0.0094442274421453476
0.0166932921856641769 0.00938299112021923065 0.00920641981065273285
0.0164464842528104782 0.0210290476679801941 0.00967560987919569016
0.015852067619562149 0.00148422480560839176 0.0108099617063999176
0.0159041397273540497 0.011019781231880188 0.010709875263273716
0.016230851411819458 0.0136991618201136589 0.010087132453918457
0.0160185787826776505 0.00296684610657393932 0.0104925651103258133
0.0176372174173593521 0.0341732800006866455 0.00740565545856952667
0.0170301869511604309 0.0254378952085971832 0.00856305193156003952
0.0172066465020179749 0.020665021613240242 0.0082272728905081749
0.0176018886268138885 0.0133434608578681946 0.00747487088665366173
0.0166200324892997742 0.026370542123913765 0.00934445485472679138
0.0171781647950410843 0.0146237313747406006 0.00828209239989519119
0.0168797764927148819 0.0201721321791410446 0.00885011535137891769
0.0177180599421262741 0.0334061793982982635 0.00725169526413083076
0.0170034412294626236 0.0195217803120613098 0.0086145550012588501
0.017748221755027771 0.0123329013586044312 0.00719614885747432709
0.016863921657204628 0.0254390835762023926 0.00887984596192836761
0.0178196672350168228 0.0218580160290002823 0.00705914897844195366
0.0172726456075906754 0.0195065028965473175 0.00810162723064422607
0.0173364169895648956 0.0264553911983966827 0.0079794861376285553
0.0178259536623954773 0.0265822131186723709 0.00704674050211906433
0.0170253273099660873 0.0172725412994623184 0.00857305712997913361
0.0166427977383136749 0.0271928515285253525 0.00930100400000810623
0.0178698413074016571 0.0152144161984324455 0.00696416106075048447
0.0173627007752656937 0.0202545803040266037 0.00792997144162654877
0.0164353922009468079 0.0277030263096094131 0.0096961362287402153
0.0174681711941957474 0.0349574573338031769 0.00772767886519432068
0.0175247564911842346 0.0252079740166664124 0.00762075046077370644
0.0171949993818998337 0.0345026664435863495 0.00824820250272750854
0.0166169404983520508 0.0287789963185787201 0.00935012195259332657
0.0162712018936872482 0.0323962122201919556 0.0100085455924272537
0.0173557307571172714 0.030554506927728653 0.00794231332838535309
0.0170739050954580307 0.0252787955105304718 0.00847976841032505035
0.0167669262737035751 0.0210123565047979355 0.00906505808234214783
0.0179269891232252121 0.0138901248574256897 0.00685539422556757927
0.017687750980257988 0.00743403565138578415 0.00731181353330612183
0.0175133161246776581 0.0219216514378786087 0.00764285027980804443
0.0178273040801286697 0.0242023225873708725 0.00704438844695687294
0.0166745521128177643 0.0349718034267425537 0.00923979096114635468
0.0162651874125003815 0.0289108045399188995 0.0100203193724155426
0.0166361872106790543 0.0286571159958839417 0.00931346602737903595
0.017114659771323204 0.0166702717542648315 0.00840290356427431107
0.0165391061455011368 0.0271667130291461945 0.00949857197701931
0.0167960003018379211 0.0310104861855506897 0.00900875311344861984
0.0174457710236310959 0.0104661472141742706 0.00777259329333901405
0.0159330852329730988 0.0353641211986541748 0.010652502067387104
0.0176243633031845093 0.00647975318133831024 0.00743267359212040901
0.0175329111516475677 0.0133484471589326859 0.00760629540309309959
0.016431175172328949 0.0284714289009571075 0.00970409996807575226
0.0179158225655555725 0.00765196466818451881 0.00687724025920033455
0.0162761230021715164 0.0306684654206037521 0.00999932549893856049
0.0176651552319526672 0.0316209308803081512 0.0073526604101061821
0.0168422292917966843 0.0253592915832996368 0.00892118550837039948
0.0134212495759129524 0.0218175351619720459 0.0135921742767095566
0.0153570109978318214 0.00234880903735756874 0.0114082032814621925
0.0135093880817294121 0.0107064917683601379 0.0134932873770594597
0.0127682248130440712 0.0221800301223993301 0.0143292676657438278
0.0144211389124393463 0.0120554855093359947 0.012464059516787529
0.0142423948273062706 0.00510788010433316231 0.0126661956310272217
0.0146699678152799606 0.00955607369542121887 0.0121833253651857376
0.0132873663678765297 0.0200102012604475021 0.0137433949857950211
0.0137193892151117325 0.00977813173085451126 0.0132562946528196335
0.0138860931620001793 0.0108921285718679428 0.0130680650472640991
0.0139768533408641815 0.018787577748298645 0.0129651911556720734
0.0140876453369855881 0.0198615808039903641 0.0128400735557079315
0.0143800592049956322 0.0152885355055332184 0.0125102559104561806
0.0127802165225148201 0.00847160723060369492 0.0143164722248911858
0.0149021400138735771 0.00256874621845781803 0.0119216348975896835
0.0132755246013402939 0.00690713990479707718 0.0137574700638651848
0.0131628662347793579 0.0264334175735712051 0.0138835785910487175
0.014433826319873333 0.00897128880023956299 0.0124499062076210976
0.0127535983920097351 0.0232133008539676666 0.0143457213416695595
0.0127952750772237778 0.00249444530345499516 0.0142997987568378448
0.013777581974864006 0.00160095351748168468 0.0131910517811775208
0.0146117014810442924 0.0019853662233799696 0.0122495051473379135
0.0128030991181731224 0.0251137763261795044 0.0142897432669997215
0.0127672180533409119 0.0235327016562223434 0.0143303303048014641
0.0150061137974262238 0.00652477145195007324 0.0118040591478347778
0.0128512978553771973 0.0345001406967639923 0.0142348306253552437
0.0151341129094362259 0.00693277129903435707 0.0116595551371574402
0.0132802873849868774 0.00781456846743822098 0.013752044178545475
0.0140830054879188538 0.00252091954462230206 0.0128462491557002068
0.0135627966374158859 0.0137377502396702766 0.0134328380227088928
0.0129031045362353325 0.00871926732361316681 0.0141777470707893372
0.0131381647661328316 0.0233247336000204086 0.0139116290956735611
0.0146199464797973633 0.0118390992283821106 0.0122396647930145264
0.0148051809519529343 0.00471432972699403763 0.0120309637859463692
0.0132023300975561142 0.0243066176772117615 0.0138391489163041115
0.0134224873036146164 0.00614468241110444069 0.0135916238650679588
0.0129975695163011551 0.0129465386271476746 0.014070889912545681
0.0129728168249130249 0.0243680737912654877 0.0140982111915946007
0.0139705343171954155 0.0151248443871736526 0.0129725215956568718
0.0130052771419286728 0.0185754373669624329 0.0140618849545717239
0.0136966826394200325 0.00087133550550788641 0.0132824070751667023
0.0133827272802591324 0.0178887248039245605 0.0136358700692653656
0.0132783232256770134 0.0220455527305603027 0.0137534914538264275
0.0143758440390229225 0.003511013463139534 0.0125156491994857788
0.0128647815436124802 0.00766020920127630234 0.0142210619524121284
0.0131135955452919006 0.0311349127441644669 0.0139389391988515854
0.013346109539270401 0.00370694580487906933 0.0136779686436057091
0.0128872692584991455 0.0212026089429855347 0.0141949467360973358
0.0141997057944536209 0.0338343046605587006 0.0127128278836607933
0.0128777511417865753 0.0358584560453891754 0.0142048979178071022
0.0153591372072696686 0.0349681973457336426 0.0114040393382310867
0.0144894951954483986 0.0347231775522232056 0.0123856756836175919
0.0141920112073421478 0.035442303866147995 0.0127214258536696434
0.0137972095981240273 0.0300491135567426682 0.0131673570722341537
0.0147904939949512482 0.0145398713648319244 0.0120470104739069939
0.0145727479830384254 0.0233919061720371246 0.0122923161834478378
0.0153638124465942383 0.00970490649342536926 0.0114001277834177017
0.0154839158058166504 0.00375479576177895069 0.0112648820504546165
0.0142534757032990456 0.0303341113030910492 0.0126523235812783241
0.0144228972494602203 0.0162628926336765289 0.0124618476256728172
0.0156139684841036797 0.00610841810703277588 0.0111179547384381294
0.0138054676353931427 0.0297876708209514618 0.0131580512970685959
0.015285419300198555 0.0139693021774291992 0.0114883854985237122
0.0155782122164964676 0.0331573300063610077 0.0111568532884120941
0.0148102603852748871 0.0334954969584941864 0.0120236733928322792
0.0148483579978346825 0.0334588587284088135 0.0119806714355945587
0.0143073583021759987 0.0276070982217788696 0.0125916507095098495
0.0149887371808290482 0.0157470814883708954 0.0118231745436787605
0.0150880375877022743 0.0317701511085033417 0.0117102218791842461
0.0152670862153172493 0.0350564941763877869 0.0115079395473003387
0.0152610596269369125 0.0288861729204654694 0.0115150762721896172
0.0156503766775131226 0.0218063145875930786 0.0110760107636451721
0.0151295550167560577 0.0284262225031852722 0.011663537472486496
0.0143818967044353485 0.0274246037006378174 0.0125075224786996841
0.0150195574387907982 0.0157465506345033646 0.0117883868515491486
0.0140922106802463531 0.0248509012162685394 0.0128346513956785202
0.0141168208792805672 0.0301636047661304474 0.0128065859898924828
0.015089087188243866 0.0234773643314838409 0.0117094852030277252
0.014546574093401432 0.0212900731712579727 0.0123219750821590424
0.0152641758322715759 0.027424398809671402 0.0115116359665989876
0.015556657686829567 0.0109802456572651863 0.011182381771504879
0.014485667459666729 0.0184431280940771103 0.0123908761888742447
0.0144805442541837692 0.0302086919546127319 0.0123960245400667191
0.0154967131093144417 0.0285065695643424988 0.0112490979954600334
0.015714230015873909 0.0305646583437919617 0.0110034625977277756
0.0154948765411973 0.024897892028093338 0.0112513676285743713
0.0141746494919061661 0.035274997353553772 0.0127410339191555977
0.0136349042877554893 0.0313625633716583252 0.0133504904806613922
0.0135927284136414528 0.0312821418046951294 0.0133981015533208847
0.0156318284571170807 0.0185009017586708069 0.0110971247777342796
0.0148749537765979767 0.0233528614044189453 0.0119511969387531281
0.0157376732677221298 0.0214056447148323059 0.010977492667734623
0.0144714275375008583 0.0198817010968923569 0.0124068735167384148
0.0147188287228345871 0.0248886942863464355 0.0121273435652256012
0.0146905146539211273 0.021786816418170929 0.0121594704687595367
0.0147218946367502213 0.0144232548773288727 0.0121244490146636963
0.0104220276698470116 0.0211234148591756821 0.0159651357680559158
0.0100175552070140839 0.0184453502297401428 0.0162444114685058594
0.00928239151835441589 0.0251114591956138611 0.0167516376823186874
0.0123023418709635735 0.00248576956801116467 0.0146678648889064789
0.00941963493824005127 0.0119688259437680244 0.016657339408993721
0.0123126069083809853 0.000885487068444490433 0.0146608324721455574
0.0105550670996308327 0.00307859317399561405 0.0158739015460014343
0.00982242263853549957 0.00957768410444259644 0.0163793936371803284
0.0107578253373503685 0.010674700140953064 0.0157336965203285217
0.0117169842123985291 0.00602339347824454308 0.0150717906653881073
0.0118818478658795357 0.000207852281164377928 0.014958186075091362
0.0105829695239663124 0.0105658946558833122 0.0158543940633535385
0.00969370175153017044 0.0148692885413765907 0.0164680685847997665
0.0110570359975099564 0.00524869747459888458 0.0155273452401161194
0.0100418385118246078 0.0200775042176246643 0.0162275955080986023
0.011238965205848217 0.00961929094046354294 0.0154016241431236267
0.00933827459812164307 0.0315151102840900421 0.0167128518223762512
0.00919655989855527878 0.00792661216109991074 0.0168114509433507919
0.009426141157746315 0.0244563836604356766 0.0166524350643157959
0.0105466078966856003 0.00538242515176534653 0.0158796645700931549
0.0109011763706803322 0.0143702048808336258 0.0156346261501312256
0.0101151410490274429 0.0028327528852969408 0.0161775685846805573
0.0115912323817610741 0.00677741924300789833 0.0151585666462779045
0.0116936592385172844 0.00420853868126869202 0.0150879509747028351
0.0107200108468532562 0.00739283813163638115 0.0157599076628684998
0.0103125898167490959 0.00885868072509765625 0.0160410813987255096
0.0104246344417333603 0.00598036590963602066 0.0159638375043869019
0.0090673426166176796 0.0256739147007465363 0.0169000551104545593
0.00900487881153821945 0.0132396435365080833 0.0169435832649469376
0.0110148768872022629 0.00279344827868044376 0.0155565273016691208
0.0104218609631061554 0.0161843448877334595 0.0159654133021831512
0.0102417320013046265 0.0202836263924837112 0.0160896126180887222
0.00937525089830160141 0.0123180719092488289 0.0166879650205373764
0.0105347707867622375 0.00521389907225966454 0.0158878415822982788
0.0102253779768943787 0.0236426219344139099 0.0161007903516292572
0.00892703235149383545 0.0303304214030504227 0.0169967524707317352
0.0116841429844498634 0.00212182686664164066 0.0150945885106921196
0.0109130935743451118 0.011627810075879097 0.015626491978764534
0.00961667485535144806 0.0122970510274171829 0.0165213216096162796
0.00936075765639543533 0.0208614114671945572 0.0166976861655712128
0.0117699364200234413 0.000623887812253087759 0.0150354187935590744
0.0106903323903679848 0.00359048624522984028 0.0157805178314447403
0.00932424701750278473 0.0132542597129940987 0.0167231392115354538
0.00979664362967014313 0.0119466912001371384 0.016397109255194664
0.012281099334359169 0.000769804755691438913 0.0146825835108757019
0.0117522887885570526 0.00471106264740228653 0.0150474654510617256
0.0104806143790483475 0.0198992099612951279 0.0159247368574142456
0.0101358862593770027 0.00675007514655590057 0.0161631200462579727
0.0094709005206823349 0.0328185781836509705 0.0166212636977434158
0.0113113988190889359 0.0192400962114334106 0.0153513094410300255
0.0110708493739366531 0.0233964957296848297 0.0155172105878591537
0.0104834381490945816 0.0215565487742424011 0.0159227326512336731
0.0124381203204393387 0.0113512836396694183 0.0145738506689667702
0.0109917651861906052 0.0217772480100393295 0.0155718522146344185
0.00973435584455728531 0.0330498591065406799 0.0164394062012434006
0.0111117428168654442 0.0310230404138565063 0.0154887326061725616
0.0119029134511947632 0.029511086642742157 0.0149426767602562904
0.0124105969443917274 0.0184582583606243134 0.0145926130935549736
0.00935581140220165253 0.0326360389590263367 0.0167007111012935638
0.0122660528868436813 0.0356227904558181763 0.0146918166428804398
0.0111658070236444473 0.0228043645620346069 0.0154516864567995071
0.0118581494316458702 0.0283691491931676865 0.0149736125022172928
0.011510954238474369 0.0234344229102134705 0.0152134271338582039
0.0121996672824025154 0.0135244438424706459 0.0147383715957403183
0.0117153860628604889 0.0308882445096969604 0.0150720728561282158
0.0104677984490990639 0.0290768817067146301 0.0159332789480686188
0.0102192014455795288 0.0309818405658006668 0.0161048099398612976
0.0112196067348122597 0.0271233599632978439 0.0154144084081053734
0.0107356356456875801 0.0316689386963844299 0.0157483182847499847
0.0113855209201574326 0.0147579014301300049 0.0153002943843603134
0.0113091114908456802 0.0266925133764743805 0.0153526421636343002
0.0116441510617733002 0.0308098383247852325 0.0151212438941001892
0.0105577781796455383 0.0321005769073963165 0.0158710703253746033
0.0126252351328730583 0.0346944034099578857 0.0144439218565821648
0.011344066821038723 0.0234324503690004349 0.0153286214917898178
0.0101056694984436035 0.0319301970303058624 0.0161831434816122055
0.0112933358177542686 0.0255373455584049225 0.0153635693714022636
0.0125783532857894897 0.0128309996798634529 0.014477006159722805
0.00995142944157123566 0.033196374773979187 0.0162895657122135162
0.00962574034929275513 0.030308963730931282 0.0165144689381122589
0.0119128245860338211 0.0144259277731180191 0.014936334453523159
0.0114311343058943748 0.0236816033720970154 0.0152685157954692841
0.0115705337375402451 0.0234308131039142609 0.0151723027229309082
0.0106635214760899544 0.0210901927202939987 0.0157984457910060883
0.0121181951835751534 0.0331003814935684204 0.0147939594462513924
0.0120460288599133492 0.024692390114068985 0.0148440506309270859
0.0102554056793451309 0.0263462886214256287 0.016079973429441452
0.0112780863419175148 0.0309300385415554047 0.0153739163652062416
0.0121462903916835785 0.0353589542210102081 0.0147744929417967796
0.0116723338142037392 0.0220570489764213562 0.0151020810008049011
0.00999261811375617981 0.0334516353905200958 0.0162611287087202072
0.0107969176024198532 0.030161295086145401 0.0157060679048299789
0.0109987836331129074 0.0321587398648262024 0.0155666647478938103
0.00997579470276832581 0.035536549985408783 0.0162726715207099915
0.0122373104095458984 0.0184912197291851044 0.0147122237831354141
0.0076871868222951889 0.0122799845412373543 0.0174690950661897659
0.00845968257635831833 0.0225585624575614929 0.0171759389340877533
0.00832447409629821777 0.0162691324949264526 0.0172273311764001846
