ply
format ascii 1.0
element vertex 713
property float x
property float y
property float z
end_header
-0.12578834593296051 0.00674149394035339355 -0.0977871939539909363
-0.113935552537441254 0.0162763483822345734 -0.0968480929732322693
-0.122848249971866608 0.00700993184000253677 -0.0977607592940330505
-0.12179594486951828 0.000337905250489711761 -0.0984178930521011353
-0.123622022569179535 0.0046652844175696373 -0.0979916825890541077
-0.121594585478305817 0.00566780846565961838 -0.0978929400444030762
-0.126527592539787292 0.033290516585111618 -0.0922872349619865417
-0.126698389649391174 0.0281578078866004944 -0.0938442200422286987
-0.127168133854866028 0.026536945253610611 -0.0943359062075614929
-0.129334345459938049 0.0289382487535476685 -0.0936074778437614441
-0.124839097261428833 0.0364482849836349487 -0.0913293361663818359
-0.125425070524215698 0.0313127338886260986 -0.0928871855139732361
-0.127342283725738525 0.0369907543063163757 -0.0911647751927375793
-0.116442352533340454 0.0260353609919548035 -0.0944880545139312744
-0.115814454853534698 0.0223218109458684921 -0.0956145524978637695
-0.120072826743125916 0.0299941878765821457 -0.0932871624827384949
-0.11345779150724411 0.0340995043516159058 -0.0920418351888656616
-0.122167393565177917 0.0212860517203807831 -0.0959287434816360474
-0.120485410094261169 0.0198630280792713165 -0.0963604152202606201
-0.116079561412334442 0.0249368324875831604 -0.0948212966322898865
-0.126012057065963745 0.0484045632183551788 -0.085222288966178894
-0.133758753538131714 0.0468787923455238342 -0.0860378295183181763
-0.1248912513256073 0.0526184365153312683 -0.0829699262976646423
-0.133983895182609558 0.0444029383361339569 -0.0873612016439437866
-0.130832463502883911 0.0453490018844604492 -0.0868555232882499695
-0.134642943739891052 0.0514758005738258362 -0.0835806801915168762
-0.120707817375659943 0.053409971296787262 -0.0825468450784683228
-0.118080787360668182 0.0481878332793712616 -0.0853381305932998657
-0.116098575294017792 0.0502601005136966705 -0.0842304825782775879
-0.121726237237453461 0.0452786237001419067 -0.086893133819103241
-0.113307684659957886 0.0527936778962612152 -0.082876257598400116
-0.11366727203130722 0.0407316088676452637 -0.0893235728144645691
-0.118191994726657867 0.0408112853765487671 -0.0892809852957725525
-0.120622746646404266 0.0477708354592323303 -0.085561022162437439
-0.127936005592346191 0.0600305125117301941 -0.0774816796183586121
-0.11798037588596344 0.0674949139356613159 -0.0713558048009872437
-0.126488253474235535 0.0656494572758674622 -0.0728703290224075317
-0.13228742778301239 0.0575753301382064819 -0.0794965922832489014
-0.114203713834285736 0.0689349174499511719 -0.0701740235090255737
-0.132557675242424011 0.0627396330237388611 -0.0752583593130111694
-0.132905364036560059 0.0648740679025650024 -0.073506675660610199
-0.117475748062133789 0.0654827728867530823 -0.0730071291327476501
-0.11664755642414093 0.0647575706243515015 -0.0736022815108299255
-0.117294006049633026 0.0662106722593307495 -0.0724097490310668945
-0.130916818976402283 0.0547862760722637177 -0.0817855149507522583
-0.113947160542011261 0.0620549358427524567 -0.0758202746510505676
-0.113043196499347687 0.055280882865190506 -0.0813795998692512512
-0.117754548788070679 0.0577807910740375519 -0.0793279781937599182
-0.1334209144115448 0.0817359238862991333 -0.0548467040061950684
-0.124800190329551697 0.0794271975755691528 -0.0576598905026912689
-0.132733330130577087 0.0739254802465438843 -0.0643637552857398987
-0.123410925269126892 0.0780860185623168945 -0.0592941269278526306
-0.13287980854511261 0.0753203481435775757 -0.0626641064882278442
-0.129560336470603943 0.0743825361132621765 -0.0638068318367004395
-0.133131504058837891 0.077352479100227356 -0.0601879432797431946
-0.115452781319618225 0.071021735668182373 -0.0679019689559936523
-0.112258478999137878 0.0717546269297599792 -0.0670089498162269592
-0.116208553314208984 0.0728714019060134888 -0.0656481459736824036
-0.115055292844772339 0.0785384103655815125 -0.0587428808212280273
-0.12068447470664978 0.0716959089040756226 -0.0670804977416992188
-0.122710131108760834 0.0737150534987449646 -0.0646201521158218384
-0.121764570474624634 0.0739868134260177612 -0.0642890185117721558
-0.133544445037841797 0.0891499444842338562 -0.0410564430058002472
-0.131921276450157166 0.0899357348680496216 -0.0395863279700279236
-0.13286493718624115 0.0870615243911743164 -0.0449635982513427734
-0.126059055328369141 0.0897736921906471252 -0.0398894920945167542
-0.118837215006351471 0.089771367609500885 -0.0398938469588756561
-0.126802831888198853 0.0884108245372772217 -0.0424392372369766235
-0.118928521871566772 0.0907750725746154785 -0.0380160436034202576
-0.132894024252891541 0.0820849165320396423 -0.0542741790413856506
-0.112386956810951233 0.0846327468752861023 -0.0495075322687625885
-0.116240501403808594 0.088468894362449646 -0.0423305965960025787
-0.124715611338615417 0.0855175405740737915 -0.0478521808981895447
-0.112295873463153839 0.0821841731667518616 -0.0540884733200073242
-0.116585180163383484 0.0835156217217445374 -0.0515975244343280792
-0.126963302493095398 0.0843909382820129395 -0.0499599091708660126
-0.133824869990348816 0.0925444290041923523 -0.0324426479637622833
-0.126437366008758545 0.0943066030740737915 -0.0266335289925336838
-0.125333264470100403 0.0959321707487106323 -0.021274760365486145
-0.123918764293193817 0.0949797481298446655 -0.024414481595158577
-0.132943153381347656 0.0944752171635627747 -0.0260776914656162262
-0.128904402256011963 0.0933249741792678833 -0.0298695415258407593
-0.13365250825881958 0.093390733003616333 -0.0296527575701475143
-0.129803404211997986 0.0912833288311958313 -0.0365999341011047363
-0.1171845942735672 0.0946840718388557434 -0.0253891907632350922
-0.116639144718647003 0.0928518399596214294 -0.0314292721450328827
-0.12157265841960907 0.0932953953742980957 -0.0299670714884996414
-0.123578600585460663 0.0934250429272651672 -0.0295396409928798676
-0.113790839910507202 0.0909779965877532959 -0.037606511265039444
-0.123416483402252197 0.0972256287932395935 -0.0124431569129228592
-0.115833818912506104 0.0976406708359718323 -0.00822920538485050201
-0.129094764590263367 0.0966105014085769653 -0.0186886116862297058
-0.114014476537704468 0.0970886200666427612 -0.0138341933488845825
-0.113419808447360992 0.0980886295437812805 -0.00368092954158782959
-0.132166773080825806 0.0966807827353477478 -0.0179750937968492508
-0.115424305200576782 0.0966467112302780151 -0.0183209776878356934
-0.12305082380771637 0.0980354398488998413 -0.00422102445736527443
-0.126118019223213196 0.097960934042930603 -0.00497745303437113762
-0.133895277976989746 0.0975576639175415039 -0.00907191261649131775
-0.132573530077934265 0.0981086269021034241 -0.00347792846150696278
-0.125576585531234741 0.0983008444309234619 -0.00152630859520286322
-0.133486256003379822 0.0976665541529655457 -0.00796634983271360397
-0.126123994588851929 0.0977169051766395569 -0.00745511148124933243
-0.111402340233325958 0.0197784639894962311 0.0386400595307350159
-0.111402340233325958 -0.00323771126568317413 0.0403609834611415863
-0.111402340233325958 -0.0175347477197647095 0.0456580929458141327
-0.111402340233325958 0.0158573128283023834 0.0391619503498077393
-0.111402340233325958 0.0383340492844581604 0.025374148041009903
-0.111402340233325958 0.0884850025177001953 0.0121320784091949463
-0.111402340233325958 0.0701588988304138184 0.0107880802825093269
-0.111402340233325958 0.0109338946640491486 0.0376161485910415649
-0.111402340233325958 0.0527288615703582764 0.0254418812692165375
-0.111402340233325958 0.0534941218793392181 0.0206998959183692932
-0.111402340233325958 0.0522425584495067596 0.0165332425385713577
-0.111402340233325958 0.0277850329875946045 0.0348352417349815369
-0.111402340233325958 0.0285735279321670532 0.0315783023834228516
-0.111402340233325958 -0.0017502959817647934 0.0419839657843112946
-0.111402340233325958 0.0500110648572444916 0.0247209705412387848
-0.111402340233325958 0.0805146992206573486 0.00537738529965281487
-0.111402340233325958 0.0379050746560096741 0.027695048600435257
-0.111402340233325958 0.0512499548494815826 0.0254753194749355316
-0.111402340233325958 0.0509258769452571869 0.0222267583012580872
-0.111402340233325958 -0.00127569213509559631 0.0432061143219470978
-0.111402340233325958 -0.00230438262224197388 0.0457393527030944824
-0.111402340233325958 0.0696778073906898499 0.0168665237724781036
-0.111402340233325958 0.00881419330835342407 0.0382141023874282837
-0.111402340233325958 0.0644982010126113892 0.0139592215418815613
-0.111402340233325958 0.0816273316740989685 0.0180731751024723053
-0.111402340233325958 -0.0348221659660339355 0.0531977936625480652
-0.111402340233325958 0.0628320202231407166 0.013806457631289959
-0.111402340233325958 0.0317040756344795227 0.0274222902953624725
-0.111402340233325958 0.0699600130319595337 0.0137179130688309669
-0.111402340233325958 0.0189530812203884125 0.0372954532504081726
-0.111402340233325958 0.031888231635093689 0.0290244873613119125
-0.111402340233325958 0.0543053150177001953 0.0177023354917764664
-0.111402340233325958 0.065914444625377655 0.0155707607045769691
-0.111402340233325958 0.0601169876754283905 0.0226166713982820511
-0.111402340233325958 0.0522006787359714508 0.0255173146724700928
-0.111402340233325958 0.0301978215575218201 0.026775553822517395
-0.111402340233325958 0.0850500911474227905 0.00371860340237617493
-0.111402340233325958 0.0418667085468769073 0.0285469312220811844
-0.111402340233325958 0.0091597139835357666 0.0345326438546180725
-0.111402340233325958 0.0707198381423950195 0.0138087738305330276
-0.111402340233325958 0.0465968847274780273 0.0251726359128952026
-0.111402340233325958 0.000570714473724365234 0.0447530746459960938
-0.111402340233325958 0.0140348188579082489 0.0354169495403766632
-0.111402340233325958 0.0620798617601394653 0.0297580324113368988
-0.111402340233325958 0.0789062827825546265 0.0272311680018901825
-0.111402340233325958 -0.0457097813487052917 0.0600559338927268982
-0.111402340233325958 -0.00508443638682365417 0.0506707504391670227
-0.111402340233325958 0.0354552790522575378 0.0412052161991596222
-0.111402340233325958 0.0622393712401390076 0.0366567894816398621
-0.111402340233325958 0.0283968597650527954 0.0419900417327880859
-0.111402340233325958 0.0261675417423248291 0.0443933978676795959
-0.111402340233325958 0.0286268889904022217 0.0415285415947437286
-0.111402340233325958 0.0364664234220981598 0.0377282127737998962
-0.111402340233325958 0.0359536856412887573 0.0422327853739261627
-0.111402340233325958 0.0473875850439071655 0.0407270416617393494
-0.111402340233325958 0.0215912535786628723 0.043832145631313324
-0.111402340233325958 0.053850129246711731 0.0349185578525066376
-0.111402340233325958 -0.0157572329044342041 0.0542720258235931396
-0.111402340233325958 0.0830890387296676636 0.0247702151536941528
-0.111402340233325958 0.0744935870170593262 0.0229574348777532578
-0.111402340233325958 0.0494074821472167969 0.0304311271756887436
-0.111402340233325958 0.039064459502696991 0.033886786550283432
-0.111402340233325958 0.0828933492302894592 0.0201126504689455032
-0.111402340233325958 0.0631886348128318787 0.0289905443787574768
-0.111402340233325958 -0.044032953679561615 0.0590252429246902466
-0.111402340233325958 0.0661791637539863586 0.0353273898363113403
-0.111402340233325958 0.0821407884359359741 0.0353149920701980591
-0.111402340233325958 0.0711829885840415955 0.0349963679909706116
-0.111402340233325958 -0.0120200514793395996 0.050676099956035614
-0.111402340233325958 0.0432056374847888947 0.039590541273355484
-0.111402340233325958 0.0509837865829467773 0.0389620512723922729
-0.111402340233325958 -0.00843308493494987488 0.0526020154356956482
-0.111402340233325958 0.0857158005237579346 0.0286037512123584747
-0.111402340233325958 -0.0354883968830108643 0.0575381368398666382
-0.111402340233325958 0.0353822298347949982 0.0388954132795333862
-0.111402340233325958 0.0700705349445343018 0.0367481112480163574
-0.111402340233325958 0.0222256705164909363 0.0430073291063308716
-0.111402340233325958 0.0765753313899040222 0.0305130574852228165
-0.111402340233325958 0.0696529895067214966 0.0313484743237495422
-0.111402340233325958 0.0104553960263729095 0.046983279287815094
-0.111402340233325958 0.0850427374243736267 0.0271138455718755722
-0.111402340233325958 -0.0514694526791572571 0.0629517138004302979
-0.111402340233325958 -0.0328232832252979279 0.0585792548954486847
-0.111402340233325958 0.0747614800930023193 0.0377381332218647003
-0.111402340233325958 0.0556157566606998444 0.0486763156950473785
-0.111402340233325958 0.0535308383405208588 0.0493510589003562927
-0.111402340233325958 0.0607049502432346344 0.0450113303959369659
-0.111402340233325958 0.033390287309885025 0.0543795451521873474
-0.111402340233325958 0.0710340961813926697 0.04424314945936203
-0.111402340233325958 0.000636819750070571899 0.0537920184433460236
-0.111402340233325958 0.00751497596502304077 0.0538190193474292755
-0.111402340233325958 0.0308999605476856232 0.0489101037383079529
-0.111402340233325958 0.00470949802547693253 0.0517455488443374634
-0.111402340233325958 0.0551463216543197632 0.0508971922099590302
-0.111402340233325958 -0.0400761812925338745 0.0622456111013889313
-0.111402340233325958 0.0713351815938949585 0.0391458570957183838
-0.111402340233325958 0.0831976160407066345 0.035592544823884964
-0.111402340233325958 0.00720271840691566467 0.0542930029332637787
-0.111402340233325958 0.0283790193498134613 0.0497263669967651367
-0.111402340233325958 -0.0256075523793697357 0.0597015954554080963
-0.111402340233325958 0.0578233785927295685 0.041309744119644165
-0.111402340233325958 0.0522864982485771179 0.045113682746887207
-0.111402340233325958 -0.000256914645433425903 0.0563556477427482605
-0.111402340233325958 0.0275373701006174088 0.0488717593252658844
-0.111402340233325958 -0.0489784218370914459 0.0632544457912445068
-0.111402340233325958 0.038762211799621582 0.0543441697955131531
-0.111402340233325958 0.00270368345081806183 0.0536275655031204224
-0.111402340233325958 0.0130420578643679619 0.0505859218537807465
-0.111402340233325958 0.0542889758944511414 0.0419609174132347107
-0.111402340233325958 0.0136677287518978119 0.0499164722859859467
-0.111402340233325958 0.022321011871099472 0.0480183474719524384
-0.111402340233325958 0.0719021409749984741 0.041913595050573349
-0.111402340233325958 0.0758871883153915405 0.0397885851562023163
-0.111402340233325958 0.0451136231422424316 0.0447195842862129211
-0.111402340233325958 -0.0612413100898265839 0.064204193651676178
-0.111402340233325958 -0.0388076752424240112 0.064355798065662384
-0.111402340233325958 0.0688986927270889282 0.0583059340715408325
-0.111402340233325958 -0.0239301584661006927 0.0630049258470535278
-0.111402340233325958 -0.0212569832801818848 0.061794579029083252
-0.111402340233325958 0.0205666292458772659 0.0582906603813171387
-0.111402340233325958 0.0297133028507232666 0.0611652284860610962
-0.111402340233325958 -0.0141880549490451813 0.0647796541452407837
-0.111402340233325958 0.0331738293170928955 0.0624597221612930298
-0.111402340233325958 0.0401016212999820709 0.0616370439529418945
-0.111402340233325958 0.0285061672329902649 0.0580280907452106476
-0.111402340233325958 0.0332774259150028229 0.0582204945385456085
-0.111402340233325958 -0.0387163236737251282 0.0640018060803413391
-0.111402340233325958 0.0227155163884162903 0.0566284134984016418
-0.111402340233325958 0.0124622434377670288 0.0615107528865337372
-0.111402340233325958 0.0265978649258613586 0.0639656335115432739
-0.111402340233325958 0.075186997652053833 0.0519518963992595673
-0.111402340233325958 0.0306975282728672028 0.0625288709998130798
-0.111402340233325958 -0.0278616417199373245 0.0619302541017532349
-0.111402340233325958 0.0206399541348218918 0.0586490891873836517
-0.111402340233325958 -0.0109759867191314697 0.062749229371547699
-0.111402340233325958 0.00434962287545204163 0.0612696632742881775
-0.111402340233325958 0.0302250497043132782 0.0590718649327754974
-0.111402340233325958 0.0664439946413040161 0.0591351799666881561
-0.111402340233325958 -0.0238617490977048874 0.0609916821122169495
-0.111402340233325958 -0.0538813062012195587 0.064516216516494751
-0.111402340233325958 -0.0122263301163911819 0.0619384013116359711
-0.111402340233325958 -0.00575701938942074776 0.0595762096345424652
-0.111402340233325958 0.0216787420213222504 0.0632958561182022095
-0.111402340233325958 0.0454584099352359772 0.0752960816025733948
-0.111402340233325958 0.0403710417449474335 0.0712339729070663452
-0.111402340233325958 0.0616301745176315308 0.0653935894370079041
-0.111402340233325958 0.0294889621436595917 0.0659616813063621521
-0.111402340233325958 -0.0342090576887130737 0.0651776343584060669
-0.111402340233325958 0.0404277630150318146 0.065684974193572998
-0.111402340233325958 0.0160754173994064331 0.0649174824357032776
-0.111402340233325958 0.0468107238411903381 0.0755101293325424194
-0.111402340233325958 -0.00572511926293373108 0.0692814663052558899
-0.111402340233325958 0.0322807095944881439 0.0691033750772476196
-0.111402340233325958 -0.0173683874309062958 0.0669884681701660156
-0.111402340233325958 0.0413690730929374695 0.0693069323897361755
-0.111402340233325958 -0.0456137284636497498 0.0663609802722930908
-0.111402340233325958 0.00385111197829246521 0.0700919702649116516
-0.111402340233325958 0.0154272057116031647 0.0714633539319038391
-0.111402340233325958 0.0210354551672935486 0.0720860883593559265
-0.111402340233325958 0.0150364348664879799 0.0660055801272392273
-0.111402340233325958 -0.0136313680559396744 0.065259590744972229
-0.111402340233325958 -0.0343829728662967682 0.0664149373769760132
-0.111402340233325958 -0.00145206600427627563 0.0697456896305084229
-0.111402340233325958 -0.002122463658452034 0.0675396174192428589
-0.111402340233325958 0.0354979708790779114 0.066477358341217041
-0.111402340233325958 0.035886961966753006 0.0719652026891708374
-0.111402340233325958 -0.0170843116939067841 0.0735281780362129211
-0.111402340233325958 0.0115897580981254578 0.0798720791935920715
-0.111402340233325958 0.0456145070493221283 0.0772341415286064148
-0.111402340233325958 -0.0259268376976251602 0.0696529150009155273
-0.111402340233325958 0.0090887024998664856 0.0767614766955375671
-0.111402340233325958 0.00357533618807792664 0.0776275694370269775
-0.111402340233325958 -0.0499994121491909027 0.0670598149299621582
-0.111402340233325958 0.0302579775452613831 0.0756189301609992981
-0.111402340233325958 0.0131250843405723572 0.0776546970009803772
-0.111402340233325958 -0.00429172534495592117 0.0710132122039794922
-0.111402340233325958 0.00645589642226696014 0.0720602124929428101
-0.111402340233325958 0.033885221928358078 0.0749690309166908264
-0.111402340233325958 -0.00326154008507728577 0.0745580270886421204
-0.111402340233325958 0.0267367586493492126 0.0830817967653274536
-0.111402340233325958 0.0370647013187408447 0.0757618620991706848
-0.111402340233325958 0.00648119300603866577 0.0783659368753433228
-0.111402340233325958 0.00695983320474624634 0.0757256299257278442
-0.111402340233325958 -0.0255430899560451508 0.0709341168403625488
-0.111402340233325958 -0.0129080414772033691 0.0790308788418769836
-0.111402340233325958 0.0216747336089611053 0.0873443260788917542
-0.111402340233325958 -0.00569519028067588806 0.0794084072113037109
-0.111402340233325958 -0.0138596687465906143 0.075897708535194397
-0.111402340233325958 -0.00982921384274959564 0.0789005756378173828
-0.111402340233325958 0.0168253667652606964 0.0872403606772422791
-0.111402340233325958 -0.0122966393828392029 0.0787661746144294739
-0.111402340233325958 0.0266794972121715546 0.0841490849852561951
-0.111402340233325958 0.0168148335069417953 0.08229876309633255
-0.111402340233325958 -0.00933587737381458282 0.0782024189829826355
-0.111402340233325958 -0.0509551875293254852 0.0687856078147888184
-0.111402340233325958 0.0127298068255186081 0.0821801871061325073
-0.111402340233325958 0.0155804120004177094 0.083052314817905426
-0.111402340233325958 0.000920176506042480469 0.0831458792090415955
-0.111402340233325958 0.00762065546587109566 0.0875904113054275513
-0.111402340233325958 0.00772043969482183456 0.0884632989764213562
-0.111402340233325958 -0.00360077992081642151 0.089062325656414032
-0.111402340233325958 -0.0421753451228141785 0.0741689428687095642
-0.111402340233325958 -0.00766821205615997314 0.0831784605979919434
-0.111402340233325958 -0.0322060100734233856 0.0752319991588592529
-0.111402340233325958 -0.0271569006145000458 0.0780461281538009644
-0.111402340233325958 -0.016198229044675827 0.08348054438829422
-0.111402340233325958 -0.00881762150675058365 0.0829074904322624207
-0.111402340233325958 -0.00571588706225156784 0.0907692760229110718
-0.111402340233325958 -0.0570646785199642181 0.0689335688948631287
-0.111402340233325958 -0.0457177162170410156 0.0747858509421348572
-0.111402340233325958 -0.0125086717307567596 0.088552623987197876
-0.111402340233325958 -0.0323483273386955261 0.0802019983530044556
-0.111402340233325958 -0.0365228839218616486 0.0766410976648330688
-0.111402340233325958 -0.0368219129741191864 0.0823200494050979614
-0.111402340233325958 -0.0475438684225082397 0.0748769491910934448
-0.111402340233325958 -0.022263064980506897 0.0882919430732727051
-0.111402340233325958 -0.0444417595863342285 0.0795384123921394348
-0.111402340233325958 -0.0668705776333808899 0.0620986074209213257
-0.111402340233325958 -0.0671907290816307068 0.0612036734819412231
-0.111402340233325958 -0.0852496996521949768 0.0335179455578327179
-0.111402340233325958 -0.0812930390238761902 0.0400675460696220398
-0.111402340233325958 -0.0840174406766891479 0.0270045846700668335
-0.111402340233325958 -0.0795022547245025635 0.0357940085232257843
-0.111402340233325958 -0.0837103426456451416 0.0197572819888591766
-0.111402340233325958 -0.0803714990615844727 0.0279764719307422638
-0.111402340233325958 -0.0750205814838409424 0.0407171621918678284
-0.111402340233325958 -0.0684901326894760132 0.0576920658349990845
-0.111402340233325958 -0.0788917988538742065 0.0273468326777219772
-0.111402340233325958 -0.0862440764904022217 0.00048366934061050415
-0.111402340233325958 -0.0855239033699035645 0.0129662118852138519
-0.111402340233325958 -0.0783489644527435303 0.0297835655510425568
-0.111402340233325958 -0.0853235349059104919 0.0116223795339465141
-0.111402340233325958 -0.0814931020140647888 0.0141712166368961334
-0.111402340233325958 -0.0718023031949996948 0.0437840372323989868
-0.111402340233325958 -0.0892285183072090149 -0.00802890211343765259
-0.111402340233325958 -0.0869821161031723022 -0.00626573339104652405
-0.111402340233325958 -0.0854397192597389221 -0.0307981520891189575
-0.111402340233325958 -0.078592546284198761 0.00160833075642585754
-0.111402340233325958 -0.082517474889755249 0.00383366178721189499
-0.111402340233325958 -0.0856511890888214111 -0.0120241027325391769
-0.111402340233325958 -0.0701418966054916382 0.0412078611552715302
-0.111402340233325958 -0.0728851184248924255 0.0334307625889778137
-0.111402340233325958 -0.0740169435739517212 0.0336590148508548737
-0.111402340233325958 -0.068787701427936554 0.0485410839319229126
-0.111402340233325958 -0.0850437358021736145 -0.0137912482023239136
-0.111402340233325958 -0.0770698785781860352 0.00746461376547813416
-0.111402340233325958 -0.0827514082193374634 -0.00958885625004768372
-0.111402340233325958 -0.0791518241167068481 0.00899341143667697906
-0.111402340233325958 -0.0738210007548332214 0.0250572375953197479
-0.111402340233325958 -0.0857209786772727966 -0.0282838977873325348
-0.111402340233325958 -0.0794580727815628052 -0.0151954693719744682
-0.111402340233325958 -0.0708125904202461243 0.0263681970536708832
-0.111402340233325958 -0.0758118182420730591 0.00961009971797466278
-0.111402340233325958 -0.0761104971170425415 -0.000301383435726165771
-0.111402340233325958 -0.0758994892239570618 -0.0173555910587310791
-0.111402340233325958 -0.0743351727724075317 0.00341633148491382599
-0.111402340233325958 -0.0759210884571075439 0.00767995882779359818
-0.111402340233325958 -0.0829164013266563416 -0.0331013239920139313
-0.111402340233325958 -0.0758560895919799805 -0.0353758782148361206
-0.111402340233325958 -0.0805052369832992554 -0.0197384748607873917
-0.111402340233325958 -0.0769541189074516296 -0.0132350549101829529
-0.111402340233325958 -0.0810597613453865051 -0.03234085813164711
-0.111402340233325958 -0.0689200013875961304 0.028868967667222023
-0.111402340233325958 -0.0758100375533103943 0.00686438241973519325
-0.111402340233325958 -0.0730882585048675537 0.0155182778835296631
-0.111402340233325958 -0.0794164910912513733 -0.0390333272516727448
-0.111402340233325958 -0.0752899050712585449 -0.0276327207684516907
-0.111402340233325958 -0.0818354859948158264 -0.029939018189907074
-0.111402340233325958 -0.0705597847700119019 -0.0347084850072860718
-0.111402340233325958 -0.0681314915418624878 -0.00628237426280975342
-0.111402340233325958 -0.0651168599724769592 0.00594962388277053833
-0.111402340233325958 -0.0654050558805465698 -0.0256478749215602875
-0.111402340233325958 -0.0692465156316757202 -0.00140725448727607727
-0.111402340233325958 -0.0740914270281791687 -0.0435052700340747833
-0.111402340233325958 -0.065371982753276825 -0.0282353907823562622
-0.111402340233325958 -0.0719990134239196777 -0.0153449801728129387
-0.111402340233325958 -0.0724610760807991028 -0.0473501943051815033
-0.111402340233325958 -0.0693365558981895447 -0.030602235347032547
-0.111402340233325958 -0.0712384209036827087 -0.023393755778670311
-0.111402340233325958 -0.0668443366885185242 -0.0343897230923175812
-0.111402340233325958 -0.0661144256591796875 0.00194085389375686646
-0.111402340233325958 -0.0679238513112068176 0.0243322700262069702
-0.111402340233325958 -0.0681257620453834534 -0.0397143140435218811
-0.111402340233325958 -0.066542893648147583 -0.0142680779099464417
-0.111402340233325958 -0.067719481885433197 0.0231683552265167236
-0.111402340233325958 -0.0654628798365592957 0.0150493346154689789
-0.111402340233325958 -0.065333634614944458 0.0293719843029975891
-0.111402340233325958 -0.0657667592167854309 -0.0193813815712928772
-0.111402340233325958 -0.0703697055578231812 -0.0117766596376895905
-0.111402340233325958 -0.0727032870054244995 -0.0353354401886463165
-0.111402340233325958 -0.0743075311183929443 -0.0451092012226581573
-0.111402340233325958 -0.0676238611340522766 -0.0371750220656394958
-0.111402340233325958 -0.0585605576634407043 -0.0615527890622615814
-0.111402340233325958 -0.0539812333881855011 -0.0466573834419250488
-0.111402340233325958 -0.0635005757212638855 -0.0525131672620773315
-0.111402340233325958 -0.057643447071313858 -0.0173479095101356506
-0.111402340233325958 -0.063956432044506073 -0.0580525621771812439
-0.111402340233325958 -0.0623964704573154449 0.015265241265296936
-0.111402340233325958 -0.0537391118705272675 -0.0683423876762390137
-0.111402340233325958 -0.0628691539168357849 -0.0154162608087062836
-0.111402340233325958 -0.057501915842294693 -0.0541489496827125549
-0.111402340233325958 -0.0539285838603973389 -0.0656440705060958862
-0.111402340233325958 -0.0579121671617031097 -0.0661001354455947876
-0.111402340233325958 -0.0574409328401088715 -0.0212114006280899048
-0.111402340233325958 -0.0557108521461486816 -0.0637383162975311279
-0.111402340233325958 -0.05940265953540802 -0.0390728935599327087
-0.111402340233325958 -0.0647430568933486938 0.0390769354999065399
-0.111402340233325958 -0.0543703734874725342 -0.0658799260854721069
-0.111402340233325958 -0.0530118942260742188 -0.0729807019233703613
-0.111402340233325958 -0.0631899237632751465 -0.0422938242554664612
-0.111402340233325958 -0.0568412467837333679 -0.0352418571710586548
-0.111402340233325958 -0.0627585425972938538 -0.0552131347358226776
-0.111402340233325958 -0.0643995627760887146 0.0422803983092308044
-0.111402340233325958 -0.0582991987466812134 -0.0581781007349491119
-0.111402340233325958 -0.0618785284459590912 -0.00282542407512664795
-0.111402340233325958 -0.0567310303449630737 -0.0680414736270904541
-0.111402340233325958 -0.0597953647375106812 -0.0371949411928653717
-0.111402340233325958 -0.0635029971599578857 -0.0279279723763465881
-0.111402340233325958 -0.0623472221195697784 -0.0630889534950256348
-0.111402340233325958 -0.0647852346301078796 -0.0429691635072231293
-0.111402340233325958 -0.0600105859339237213 -0.0104991309344768524
-0.111402340233325958 -0.0545752234756946564 -0.00762806087732315063
-0.111402340233325958 -0.0502281486988067627 -0.0403503105044364929
-0.111402340233325958 -0.0551055334508419037 -0.0143042802810668945
-0.111402340233325958 -0.0494432821869850159 -0.0307523608207702637
-0.111402340233325958 -0.0555246956646442413 -0.0301517751067876816
-0.111402340233325958 -0.039453454315662384 -0.0686175450682640076
-0.111402340233325958 -0.0514464862644672394 -0.0213696658611297607
-0.111402340233325958 -0.0471668951213359833 -0.0518347695469856262
-0.111402340233325958 -0.0479774586856365204 -0.0469422005116939545
-0.111402340233325958 -0.0539836734533309937 -0.0260831061750650406
-0.111402340233325958 -0.0574489980936050415 -0.0100215710699558258
-0.111402340233325958 -0.0513177625834941864 -0.0449419915676116943
-0.111402340233325958 -0.0538660697638988495 -0.0188847742974758148
-0.111402340233325958 -0.049769233912229538 -0.0384030751883983612
-0.111402340233325958 -0.0472592711448669434 -0.071795046329498291
-0.111402340233325958 -0.0627206712961196899 0.0499991178512573242
-0.111402340233325958 -0.0477470606565475464 -0.0543910451233386993
-0.111402340233325958 -0.0435237623751163483 -0.0458426997065544128
-0.111402340233325958 -0.0597256720066070557 0.0218728333711624146
-0.111402340233325958 -0.0512099005281925201 -0.0531709939241409302
-0.111402340233325958 -0.0585463754832744598 0.00974332727491855621
-0.111402340233325958 -0.054220687597990036 -0.0346942618489265442
-0.111402340233325958 -0.0589515790343284607 0.0158099830150604248
-0.111402340233325958 -0.0474977120757102966 -0.0572975911200046539
-0.111402340233325958 -0.0511308051645755768 -0.0197335444390773773
-0.111402340233325958 -0.0417882204055786133 -0.0564996711909770966
-0.111402340233325958 -0.0450674034655094147 -0.0792403146624565125
-0.111402340233325958 -0.045736607164144516 -0.0422301217913627625
-0.111402340233325958 -0.0489219576120376587 -0.0396365821361541748
-0.111402340233325958 -0.0363319292664527893 -0.0821788012981414795
-0.111402340233325958 -0.0451847389340400696 -0.0525950193405151367
-0.111402340233325958 -0.044666774570941925 -0.0781525447964668274
-0.111402340233325958 -0.0499977804720401764 -0.0498079545795917511
-0.111402340233325958 -0.0495432540774345398 -0.0338565148413181305
-0.111402340233325958 -0.0237814672291278839 -0.0721079111099243164
-0.111402340233325958 -0.0334526151418685913 -0.0712653025984764099
-0.111402340233325958 -0.0284945089370012283 -0.0736579149961471558
-0.111402340233325958 -0.0464739538729190826 -0.00665569305419921875
-0.111402340233325958 -0.0291332900524139404 -0.0556359216570854187
-0.111402340233325958 -0.0594054795801639557 0.0404294542968273163
-0.111402340233325958 -0.0376664623618125916 -0.0345955044031143188
-0.111402340233325958 -0.0421510487794876099 -0.015207238495349884
-0.111402340233325958 -0.0270674936473369598 -0.0864932984113693237
-0.111402340233325958 -0.0364546142518520355 -0.0437916330993175507
-0.111402340233325958 -0.0592663697898387909 0.0440153852105140686
-0.111402340233325958 -0.0317751765251159668 -0.0592246465384960175
-0.111402340233325958 -0.0259082764387130737 -0.0794352665543556213
-0.111402340233325958 -0.0563226081430912018 0.0242223218083381653
-0.111402340233325958 -0.0422761328518390656 -0.0380752012133598328
-0.111402340233325958 -0.0384755581617355347 -0.047565460205078125
-0.111402340233325958 -0.0358816906809806824 -0.0569562092423439026
-0.111402340233325958 -0.0292994976043701172 -0.0779962912201881409
-0.111402340233325958 -0.0318953469395637512 -0.0534345842897891998
-0.111402340233325958 -0.0293429475277662277 -0.0653125271201133728
-0.111402340233325958 -0.036761157214641571 -0.0653924942016601562
-0.111402340233325958 -0.0588917173445224762 0.0383223854005336761
-0.111402340233325958 -0.0617256723344326019 0.0533324964344501495
-0.111402340233325958 -0.0530346669256687164 0.0139892790466547012
-0.111402340233325958 -0.0376914031803607941 -0.0623495504260063171
-0.111402340233325958 -0.0345009155571460724 -0.0377676486968994141
-0.111402340233325958 -0.0277143102139234543 -0.0757896378636360168
-0.111402340233325958 -0.0491215549409389496 -0.00962492451071739197
-0.111402340233325958 -0.0377147123217582703 -0.0633795559406280518
-0.111402340233325958 -0.037372104823589325 -0.0614343881607055664
-0.111402340233325958 -0.0456546321511268616 -0.00143519416451454163
-0.111402340233325958 -0.0464613959193229675 -0.00928856059908866882
-0.111402340233325958 -0.0362982377409934998 -0.0559066794812679291
-0.111402340233325958 -0.0344132184982299805 -0.0503700710833072662
-0.111402340233325958 -0.0200394317507743835 -0.0889182165265083313
-0.111402340233325958 -0.0503076165914535522 0.0168272256851196289
-0.111402340233325958 -0.0215901955962181091 -0.0887296423316001892
-0.111402340233325958 -0.0348653160035610199 -0.0671787112951278687
-0.111402340233325958 -0.0214622765779495239 -0.0752637609839439392
-0.111402340233325958 -0.0277587100863456726 -0.0483655780553817749
-0.111402340233325958 -0.0464773476123809814 0.00554951000958681107
-0.111402340233325958 -0.0348101593554019928 -0.023054853081703186
-0.111402340233325958 -0.0226656161248683929 -0.0464695878326892853
-0.111402340233325958 -0.044794619083404541 0.0149330981075763702
-0.111402340233325958 -0.0517835542559623718 0.0256242938339710236
-0.111402340233325958 -0.0367572754621505737 -0.0149442702531814575
-0.111402340233325958 -0.00947473198175430298 -0.0722269788384437561
-0.111402340233325958 -0.0350937843322753906 -0.0210121795535087585
-0.111402340233325958 -0.0102338120341300964 -0.0681007057428359985
-0.111402340233325958 -0.0406521707773208618 -0.00352159515023231506
-0.111402340233325958 -0.0358933582901954651 -0.00736647471785545349
-0.111402340233325958 -0.0431952886283397675 -0.00528758671134710312
-0.111402340233325958 -0.0163711998611688614 -0.0721472054719924927
-0.111402340233325958 -0.0409140549600124359 -0.00374805927276611328
-0.111402340233325958 -0.0539080388844013214 0.0349286608397960663
-0.111402340233325958 -0.00797148048877716064 -0.0843503475189208984
-0.111402340233325958 -0.0523355305194854736 0.03138713538646698
-0.111402340233325958 -0.051535632461309433 0.0255398973822593689
-0.111402340233325958 -0.0247455742210149765 -0.0419615432620048523
-0.111402340233325958 -0.0406625270843505859 -0.0120341349393129349
-0.111402340233325958 -0.012468704953789711 -0.0841338261961936951
-0.111402340233325958 -0.0140219591557979584 -0.0747338533401489258
-0.111402340233325958 -0.0466756299138069153 0.00550248008221387863
-0.111402340233325958 -0.00719397887587547302 -0.0763158798217773438
-0.111402340233325958 -0.0293223559856414795 -0.0323898717761039734
-0.111402340233325958 -0.0558215118944644928 0.0402804017066955566
-0.111402340233325958 -0.00906713679432868958 -0.088978983461856842
-0.111402340233325958 -0.0121847391128540039 -0.0831379145383834839
-0.111402340233325958 -0.0555729977786540985 0.0388056784868240356
-0.111402340233325958 -0.0578495673835277557 0.0447188280522823334
-0.111402340233325958 -0.00509238243103027344 -0.0840981975197792053
-0.111402340233325958 -0.0232221558690071106 -0.0365032032132148743
-0.111402340233325958 -0.0193198155611753464 -0.058517996221780777
-0.111402340233325958 -0.0217618290334939957 -0.0742643401026725769
-0.111402340233325958 -0.031727079302072525 -0.0286900624632835388
-0.111402340233325958 -0.0390924364328384399 -0.00741458311676979065
-0.111402340233325958 -0.0071974433958530426 -0.0834043920040130615
-0.111402340233325958 -0.0422985590994358063 -0.00721299974247813225
-0.111402340233325958 -0.0158825404942035675 -0.0579493418335914612
-0.111402340233325958 -0.0435970760881900787 -0.00211203377693891525
-0.111402340233325958 -0.036839410662651062 -0.00191474356688559055
-0.111402340233325958 0.00460159033536911011 -0.0774853527545928955
-0.111402340233325958 -0.026923133060336113 -0.0121390484273433685
-0.111402340233325958 -0.0388649404048919678 0.0118841677904129028
-0.111402340233325958 -0.00778020918369293213 -0.0589739345014095306
-0.111402340233325958 -0.0282452404499053955 -0.00606215372681617737
-0.111402340233325958 0.00664475560188293457 -0.0849578306078910828
-0.111402340233325958 -0.0286632776260375977 -0.0144406929612159729
-0.111402340233325958 -0.0057724975049495697 -0.0539944544434547424
-0.111402340233325958 -0.0372375883162021637 0.00254986714571714401
-0.111402340233325958 -0.0237368457019329071 -0.029382757842540741
-0.111402340233325958 -0.00114373117685317993 -0.0560388155281543732
-0.111402340233325958 0.010970238596200943 -0.08641805499792099
-0.111402340233325958 -0.0187120325863361359 -0.0221903994679450989
-0.111402340233325958 -0.0383933335542678833 0.0117837302386760712
-0.111402340233325958 -0.0181004386395215988 -0.0478882975876331329
-0.111402340233325958 -0.00227398425340652466 -0.0525996088981628418
-0.111402340233325958 -0.0448420122265815735 0.0219386201351881027
-0.111402340233325958 -0.000316817313432693481 -0.0586895830929279327
-0.111402340233325958 -0.0506742149591445923 0.0357708632946014404
-0.111402340233325958 -0.00112991780042648315 -0.0685963630676269531
-0.111402340233325958 0.00324257463216781616 -0.0753950029611587524
-0.111402340233325958 -0.0026953334454447031 -0.084027506411075592
-0.111402340233325958 -0.0194592326879501343 -0.0289746224880218506
-0.111402340233325958 -0.0397556200623512268 0.0154260136187076569
-0.111402340233325958 -0.0282261371612548828 -0.0136091485619544983
-0.111402340233325958 -0.0525490716099739075 0.0351884178817272186
-0.111402340233325958 -0.0290840715169906616 -0.0107345394790172577
-0.111402340233325958 -0.0164259597659111023 -0.035343073308467865
-0.111402340233325958 -0.0475583262741565704 0.0244867503643035889
-0.111402340233325958 0.00263930857181549072 -0.0641915574669837952
-0.111402340233325958 -0.0419591255486011505 0.0112878326326608658
-0.111402340233325958 0.00170635059475898743 -0.0687466785311698914
-0.111402340233325958 -0.00202465616166591644 -0.074465528130531311
-0.111402340233325958 -0.00698693469166755676 -0.0450636968016624451
-0.111402340233325958 -0.0287987291812896729 -0.0112927742302417755
-0.111402340233325958 -0.0230322666466236115 -0.0157407373189926147
-0.111402340233325958 -0.0049515310674905777 -0.0782707333564758301
-0.111402340233325958 -0.0367277935147285461 -0.00270036095753312111
-0.111402340233325958 -0.0422258153557777405 0.0169759932905435562
-0.111402340233325958 -8.37445259094238281e-05 -0.0871133804321289062
-0.111402340233325958 0.00446090102195739746 -0.0800953507423400879
-0.111402340233325958 -0.00105021893978118896 -0.054661288857460022
-0.111402340233325958 -0.0319835841655731201 -0.0100880684331059456
-0.111402340233325958 -0.027258310467004776 -0.015822187066078186
-0.111402340233325958 -0.00649547390639781952 -0.0596885532140731812
-0.111402340233325958 0.00976224988698959351 -0.0512272082269191742
-0.111402340233325958 0.0206515006721019745 -0.0651696249842643738
-0.111402340233325958 -0.0208714436739683151 -0.00950407981872558594
-0.111402340233325958 0.0314910709857940674 -0.0834290757775306702
-0.111402340233325958 0.0232508368790149689 -0.0821668133139610291
-0.111402340233325958 -0.00920961052179336548 -0.0317638404667377472
-0.111402340233325958 0.0252021551132202148 -0.0820404738187789917
-0.111402340233325958 -0.0154230864718556404 -0.0231745243072509766
-0.111402340233325958 -0.0075069209560751915 -0.0413495451211929321
-0.111402340233325958 -0.00413373485207557678 -0.0361801013350486755
-0.111402340233325958 -0.00465459004044532776 -0.0285310447216033936
-0.111402340233325958 -0.0140481572598218918 -0.0218170583248138428
-0.111402340233325958 0.00945728644728660583 -0.0489718392491340637
-0.111402340233325958 0.00436172075569629669 -0.0543892234563827515
-0.111402340233325958 -0.00485333241522312164 -0.035810224711894989
-0.111402340233325958 -0.00590974092483520508 -0.0344717986881732941
-0.111402340233325958 0.0231123790144920349 -0.0730005353689193726
-0.111402340233325958 0.0227620936930179596 -0.0831041038036346436
-0.111402340233325958 -0.0161480419337749481 -0.0231325551867485046
-0.111402340233325958 0.000704873353242874146 -0.0403273068368434906
-0.111402340233325958 -0.0222892425954341888 -0.0132277254015207291
-0.111402340233325958 0.0197524465620517731 -0.0802387073636054993
-0.111402340233325958 -0.0166822727769613266 -0.0167508721351623535
-0.111402340233325958 0.0110336579382419586 -0.0707748383283615112
-0.111402340233325958 0.0150419929996132851 -0.0815431475639343262
-0.111402340233325958 -0.0220893882215023041 -0.00434517115354537964
-0.111402340233325958 -0.000119250267744064331 -0.054591890424489975
-0.111402340233325958 -0.0298119131475687027 0.00976190716028213501
-0.111402340233325958 -0.0282693579792976379 0.00575035437941551208
-0.111402340233325958 0.00329175591468811035 -0.0477501414716243744
-0.111402340233325958 -0.000635726377367973328 -0.0528984107077121735
-0.111402340233325958 -0.0136634595692157745 -0.0265672095119953156
-0.111402340233325958 -0.0164530295878648758 -0.0249944385141134262
-0.111402340233325958 -0.00806826725602149963 -0.0212131589651107788
-0.111402340233325958 0.00303808227181434631 -0.0413777977228164673
-0.111402340233325958 0.0236480683088302612 -0.0768798291683197021
-0.111402340233325958 0.0182906165719032288 -0.0655792504549026489
-0.111402340233325958 0.00708344578742980957 -0.0503144003450870514
-0.111402340233325958 -0.000187341123819351196 -0.0350682996213436127
-0.111402340233325958 0.0196944698691368103 -0.0737882107496261597
-0.111402340233325958 -0.0213644392788410187 -0.011532370001077652
-0.111402340233325958 -0.00562287494540214539 -0.0350412949919700623
-0.111402340233325958 -0.000938914716243743896 -0.0335061587393283844
-0.111402340233325958 -0.0195593871176242828 -0.00564702600240707397
-0.111402340233325958 -0.0304906070232391357 0.00502859614789485931
-0.111402340233325958 0.0278269760310649872 -0.0860588625073432922
-0.111402340233325958 -0.00187352299690246582 -0.0318361036479473114
-0.111402340233325958 0.0186834409832954407 -0.0784063190221786499
-0.111402340233325958 0.0220255851745605469 -0.0817924067378044128
-0.111402340233325958 0.028760123997926712 -0.0549520775675773621
-0.111402340233325958 0.0153967393562197685 -0.0527402088046073914
-0.111402340233325958 -0.0410539545118808746 0.0343039631843566895
-0.111402340233325958 0.00793254002928733826 -0.0330260954797267914
-0.111402340233325958 0.00831117480993270874 -0.0247251614928245544
-0.111402340233325958 0.0054555889219045639 -0.0323577709496021271
-0.111402340233325958 0.00452484190464019775 -0.0222643837332725525
-0.111402340233325958 0.00129977148026227951 -0.0301293618977069855
-0.111402340233325958 -0.0135771222412586212 -0.00282864272594451904
-0.111402340233325958 0.0371121242642402649 -0.0670108720660209656
-0.111402340233325958 0.022686690092086792 -0.0442335754632949829
-0.111402340233325958 0.0321842208504676819 -0.0705640465021133423
-0.111402340233325958 -0.0499010048806667328 0.0435445569455623627
-0.111402340233325958 0.0102258538827300072 -0.0469126924872398376
-0.111402340233325958 0.0313144326210021973 -0.0790265128016471863
-0.111402340233325958 0.0184611007571220398 -0.0463490933179855347
-0.111402340233325958 -0.0306610316038131714 0.0195378046482801437
-0.111402340233325958 -0.0271144676953554153 0.013864884153008461
-0.111402340233325958 0.0181589890271425247 -0.0530877858400344849
-0.111402340233325958 0.027097923681139946 -0.0662029236555099487
-0.111402340233325958 0.00636095553636550903 -0.0237366855144500732
-0.111402340233325958 0.0486409775912761688 -0.0760788992047309875
-0.111402340233325958 -0.0164212435483932495 0.00544246658682823181
-0.111402340233325958 0.0262587256729602814 -0.0677897036075592041
-0.111402340233325958 -0.0494661442935466766 0.0427823886275291443
-0.111402340233325958 -0.0211326591670513153 0.00883566588163375854
-0.111402340233325958 0.0100446157157421112 -0.0272259339690208435
-0.111402340233325958 -0.00550144165754318237 -0.0109124146401882172
-0.111402340233325958 0.00820800289511680603 -0.0320300646126270294
-0.111402340233325958 -0.0337827354669570923 0.0212261006236076355
-0.111402340233325958 0.00662549585103988647 -0.0314159169793128967
-0.111402340233325958 -0.00054016895592212677 -0.0267895981669425964
-0.111402340233325958 0.0391255021095275879 -0.0692903846502304077
-0.111402340233325958 -0.0296803675591945648 0.017027607187628746
-0.111402340233325958 0.00919137522578239441 -0.0341303162276744843
-0.111402340233325958 0.0284478366374969482 -0.0494543798267841339
-0.111402340233325958 -0.0291064344346523285 0.011670880950987339
-0.111402340233325958 0.00775413960218429565 -0.0342648066580295563
-0.111402340233325958 0.0118810646235942841 -0.0344159752130508423
-0.111402340233325958 0.03461441770195961 -0.0694501623511314392
-0.111402340233325958 -0.0125519782304763794 -0.00808739103376865387
-0.111402340233325958 0.0261877626180648804 -0.0666231215000152588
-0.111402340233325958 0.0379086807370185852 -0.0605757161974906921
-0.111402340233325958 0.0355154946446418762 -0.078703172504901886
-0.111402340233325958 -0.0100539401173591614 -0.00667088478803634644
-0.111402340233325958 0.0382221825420856476 -0.082472577691078186
-0.111402340233325958 -0.0118815675377845764 -0.00329619646072387695
-0.111402340233325958 0.0414684675633907318 -0.0775571614503860474
-0.111402340233325958 0.021557588130235672 -0.0507569313049316406
-0.111402340233325958 0.0329758971929550171 -0.0561020746827125549
-0.111402340233325958 0.0430910438299179077 -0.0741285085678100586
-0.111402340233325958 0.0404831916093826294 -0.0712644234299659729
-0.111402340233325958 0.0468837060034275055 -0.0636782944202423096
-0.111402340233325958 0.0237759985029697418 -0.034319702535867691
-0.111402340233325958 0.061602327972650528 -0.0666879713535308838
-0.111402340233325958 0.0107900723814964294 -0.0183070190250873566
-0.111402340233325958 -0.00349564524367451668 -0.00894642621278762817
-0.111402340233325958 -0.00510280579328536987 -0.00349535420536994934
-0.111402340233325958 -0.00728914793580770493 -0.00257647503167390823
-0.111402340233325958 0.00356515124440193176 -0.00749683380126953125
-0.111402340233325958 -0.0175259411334991455 0.014853842556476593
-0.111402340233325958 0.0544764958322048187 -0.0551962926983833313
-0.111402340233325958 0.0381364822387695312 -0.0503753945231437683
-0.111402340233325958 0.0209990330040454865 -0.0316266678273677826
-0.111402340233325958 -0.0273728705942630768 0.0269079022109508514
-0.111402340233325958 0.00662463158369064331 -0.0128869488835334778
-0.111402340233325958 0.0365945398807525635 -0.0378867685794830322
-0.111402340233325958 -0.0392342507839202881 0.0367822721600532532
-0.111402340233325958 0.0379134118556976318 -0.0590565577149391174
-0.111402340233325958 0.0255224332213401794 -0.028361983597278595
-0.111402340233325958 -0.0311209037899971008 0.025158315896987915
-0.111402340233325958 0.0157128758728504181 -0.0243557505309581757
-0.111402340233325958 -0.00875756517052650452 -0.000807147473096847534
-0.111402340233325958 -0.0479774996638298035 0.0458324961364269257
-0.111402340233325958 0.0350268185138702393 -0.0486268214881420135
-0.111402340233325958 -0.00379244051873683929 -0.00420177541673183441
-0.111402340233325958 -0.0259844549000263214 0.0225164070725440979
-0.111402340233325958 -0.0549570880830287933 0.0548381470143795013
-0.111402340233325958 0.0308208353817462921 -0.0401323176920413971
-0.111402340233325958 0.0624901168048381805 -0.0651397109031677246
