ply
format ascii 1.0
element vertex 1014
property float x
property float y
property float z
end_header
1.25 6.79242992401123047 0.376614689826965332
1.25 8.02952480316162109 0.183737501502037048
1.25 5.28077411651611328 0.246266826987266541
1.25 5.70513916015625 0.159604355692863464
1.25 6.68731021881103516 0.173565372824668884
1.25 2.91888713836669922 0.288909405469894409
1.25 7.86348247528076172 0.0630089640617370605
1.25 4.13325977325439453 0.319457679986953735
1.25 4.36862945556640625 0.36932826042175293
1.25 4.66824913024902344 0.182435259222984314
1.25 7.45339107513427734 0.247943386435508728
1.25 8.23828315734863281 0.0281702578067779541
1.25 7.02759170532226562 0.123297452926635742
1.25 8.13181304931640625 0.0657539963722229004
1.25 5.75085353851318359 0.354157477617263794
1.25 7.92072820663452148 0.106144368648529053
1.25 8.48231029510498047 0.273811638355255127
1.25 6.76938486099243164 0.131628423929214478
1.25 4.10355663299560547 0.217042982578277588
1.25 5.19950962066650391 0.321977049112319946
1.25 6.99102783203125 0.172269940376281738
1.25 3.90435457229614258 0.398749679327011108
1.25 6.48158550262451172 0.107709884643554688
1.25 6.65486049652099609 0.357356667518615723
1.25 7.17887115478515625 0.262301921844482422
1.25 4.93652820587158203 0.318480193614959717
1.25 4.10216093063354492 0.306368529796600342
1.25 8.22779941558837891 0.0939365029335021973
1.25 6.80393838882446289 0.203160554170608521
1.25 4.14339065551757812 0.295680373907089233
1.25 8.43102550506591797 0.0471838116645812988
1.25 3.15327215194702148 0.325513333082199097
1.25 6.74049997329711914 0.118404924869537354
1.25 1.95998764038085938 0.315666735172271729
1.25 6.91748285293579102 0.0987235903739929199
1.25 4.574432373046875 0.261621236801147461
1.25 7.57896327972412109 0.143068641424179077
1.25 6.87529277801513672 0.218817710876464844
1.25 3.8235020637512207 0.235652357339859009
1.25 7.61298656463623047 0.194459483027458191
1.25 8.35982799530029297 0.0362554788589477539
1.25 6.72007560729980469 0.114755600690841675
1.25 7.43083858489990234 0.182783827185630798
1.25 8.04670238494873047 0.0888894200325012207
1.25 5.43904972076416016 0.206932634115219116
1.25 7.76682567596435547 0.379752606153488159
1.25 4.13994693756103516 0.238693416118621826
1.25 6.68700885772705078 0.150643825531005859
1.25 7.52613925933837891 0.23950447142124176
1.25 5.37807464599609375 0.267638027667999268
1.25 2.12395668029785156 0.388032823801040649
1.25 1.6034235954284668 0.374746382236480713
1.25 1.58260059356689453 0.395638257265090942
1.25 3.98075151443481445 0.356946945190429688
1.25 6.23331165313720703 0.312044829130172729
1.25 3.24964809417724609 0.319994628429412842
1.25 4.03835821151733398 0.321778416633605957
1.25 6.05094623565673828 0.395690798759460449
1.25 4.32629537582397461 0.293131172657012939
1.25 5.67012119293212891 0.352215230464935303
1.25 7.29355525970458984 0.262450546026229858
1.25 6.32634258270263672 0.206520065665245056
1.25 6.72902202606201172 0.390894889831542969
1.25 5.07775592803955078 0.338238507509231567
1.25 7.93391799926757812 0.175676926970481873
1.25 5.56161642074584961 0.194892361760139465
1.25 8.14456844329833984 0.277993977069854736
1.25 3.78920269012451172 0.35143551230430603
1.25 2.94379377365112305 0.399714350700378418
1.25 3.70413684844970703 0.299879938364028931
1.25 6.68452072143554688 0.269716471433639526
1.25 4.28966951370239258 0.216918244957923889
1.25 1.76250171661376953 0.340472400188446045
1.25 8.12508678436279297 0.16876983642578125
1.25 6.22844076156616211 0.171543344855308533
1.25 5.55397891998291016 0.305317968130111694
1.25 7.47872304916381836 0.0984265506267547607
1.25 4.89480209350585938 0.391685664653778076
1.25 6.94248294830322266 0.17810194194316864
1.25 8.06709957122802734 0.0315952599048614502
1.25 8.02570438385009766 0.210694536566734314
1.25 6.75524044036865234 0.171837255358695984
1.25 4.35611772537231445 0.204527214169502258
1.25 3.32819414138793945 0.270560860633850098
1.25 5.10840082168579102 0.200247853994369507
1.25 4.02995967864990234 0.220550760626792908
1.25 7.00949430465698242 0.352104663848876953
1.25 4.60326576232910156 0.393547862768173218
1.25 2.78017663955688477 0.309505283832550049
1.25 7.23790311813354492 0.309095859527587891
1.25 6.61206722259521484 0.116373956203460693
1.25 5.24374055862426758 0.33605879545211792
1.25 7.75936555862426758 0.102161645889282227
1.25 4.51986455917358398 0.273537874221801758
1.25 6.6422877311706543 0.102544844150543213
1.25 2.13463783264160156 0.369460999965667725
1.25 7.15220022201538086 0.143881291151046753
1.25 8.21005821228027344 0.169213727116584778
1.25 7.88124942779541016 0.0411978662014007568
1.25 4.48824548721313477 0.274728953838348389
1.25 5.24671363830566406 0.347010374069213867
1.25 8.29010391235351562 0.202516928315162659
1.25 4.26594686508178711 0.311466097831726074
1.25 8.34711456298828125 0.341874152421951294
1.25 1.22767543792724609 0.346226900815963745
1.25 6.39951848983764648 0.388095051050186157
1.25 7.58736705780029297 0.0601628422737121582
1.25 7.22924184799194336 0.33854791522026062
1.25 6.33492898941040039 0.174608543515205383
1.25 3.90365982055664062 0.261277377605438232
1.25 8.34734821319580078 0.0237186551094055176
1.25 8.24013328552246094 0.30987885594367981
1.25 7.39846420288085938 0.229554459452629089
1.25 4.11541461944580078 0.378702819347381592
1.25 5.06601095199584961 0.320131838321685791
1.25 6.76278781890869141 0.334550738334655762
1.25 6.90497827529907227 0.137009680271148682
1.25 3.85975074768066406 0.302919089794158936
1.25 5.38637924194335938 0.256736665964126587
1.25 4.86519336700439453 0.179516226053237915
1.25 3.07231044769287109 0.315126031637191772
1.25 4.0330510139465332 0.26779472827911377
1.25 3.42157983779907227 0.267363071441650391
1.25 5.95960664749145508 0.23937658965587616
1.25 2.72668838500976562 0.347531795501708984
1.25 2.29303693771362305 0.353186905384063721
1.25 8.04722309112548828 0.331809759140014648
1.25 7.27963113784790039 0.253115713596343994
1.25 7.59438133239746094 0.369292885065078735
1.25 8.10777950286865234 0.394196778535842896
1.25 7.2290806770324707 0.336018919944763184
1.25 6.76928472518920898 0.288353919982910156
1.25 5.34389305114746094 0.28971487283706665
1.25 8.46699714660644531 0.190221339464187622
1.25 6.17954206466674805 0.258535504341125488
1.25 2.12944602966308594 0.362343072891235352
1.25 7.31752109527587891 0.308467328548431396
1.25 6.10242080688476562 0.25457531213760376
1.25 7.826690673828125 0.0353496074676513672
1.25 7.13978385925292969 0.108255773782730103
1.25 2.57636260986328125 0.330063045024871826
1.25 5.69459438323974609 0.282861590385437012
1.25 7.72514009475708008 0.367532044649124146
1.25 7.96811771392822266 0.170388445258140564
1.25 8.34638118743896484 0.262858211994171143
1.25 5.72604036331176758 0.326539725065231323
1.25 3.89621162414550781 0.279068976640701294
1.25 7.48606109619140625 0.396329253911972046
1.25 3.79856491088867188 0.242591246962547302
1.25 5.23648834228515625 0.319803595542907715
1.25 6.38129806518554688 0.329450875520706177
1.25 7.0947566032409668 0.107536882162094116
1.25 6.43610668182373047 0.255588263273239136
1.25 7.77856874465942383 0.307382076978683472
1.25 4.74500131607055664 0.302070707082748413
1.25 7.32648038864135742 0.181145593523979187
1.25 6.88738536834716797 0.0999673306941986084
1.25 6.92392349243164062 0.129232227802276611
1.25 6.72553873062133789 0.381886005401611328
1.25 5.26585674285888672 0.246148422360420227
1.25 5.54498195648193359 0.391532033681869507
1.25 7.66545295715332031 0.137178301811218262
1.25 6.58798503875732422 0.379186004400253296
1.25 6.26938533782958984 0.128411322832107544
1.25 3.52429771423339844 0.282842636108398438
1.25 4.94239568710327148 0.196036919951438904
1.25 1.68248462677001953 0.32520410418510437
1.25 8.48393058776855469 0.11399117112159729
1.25 7.54052305221557617 0.0942705869674682617
1.25 2.27063131332397461 0.32411801815032959
1.25 8.39739036560058594 0.217394590377807617
1.25 6.066497802734375 0.326180338859558105
1.25 6.2325139045715332 0.138416439294815063
1.25 8.23674964904785156 0.12981531023979187
1.25 6.91099739074707031 0.127919256687164307
1.25 4.77362918853759766 0.184779837727546692
1.25 7.56068849563598633 0.127811133861541748
1.25 3.66253376007080078 0.284866392612457275
1.25 0.380205154418945312 0.39690592885017395
1.25 7.33951997756958008 0.299773126840591431
1.25 4.44077205657958984 0.322262048721313477
1.25 5.78699636459350586 0.196386247873306274
1.25 2.81184720993041992 0.362616240978240967
1.25 7.81032943725585938 0.201378956437110901
1.25 5.58959579467773438 0.317104250192642212
1.25 5.16594123840332031 0.324856489896774292
1.25 8.50251388549804688 0.0766389071941375732
1.25 4.70004653930664062 0.287774413824081421
1.25 0.721936702728271484 0.388729006052017212
1.25 8.34159755706787109 0.0634216368198394775
1.25 4.738067626953125 0.381003856658935547
1.25 7.26063919067382812 0.0801422595977783203
1.25 3.01520061492919922 0.267896533012390137
1.25 8.20254230499267578 0.121016710996627808
1.25 4.9116058349609375 0.286410301923751831
1.25 5.75556373596191406 0.29431113600730896
1.25 3.20597124099731445 0.369782954454421997
1.25 4.24092340469360352 0.214466273784637451
1.25 5.72587203979492188 0.254899680614471436
1.25 7.15498256683349609 0.37769007682800293
1.25 7.5056920051574707 0.290558904409408569
1.25 1.82904338836669922 0.329301923513412476
1.25 5.94636249542236328 0.191287308931350708
1.25 2.12139225006103516 0.368089735507965088
1.25 8.36835670471191406 0.3189658522605896
1.25 6.16432571411132812 0.225430071353912354
1.25 5.07338714599609375 0.268411159515380859
1.25 6.31059646606445312 0.164872691035270691
1.25 7.39317989349365234 0.105583846569061279
1.25 5.69669103622436523 0.304597735404968262
1.25 6.96462011337280273 0.173125371336936951
1.25 7.29321670532226562 0.0834255218505859375
1.25 7.66071701049804688 0.219293832778930664
1.25 8.20899295806884766 0.0522885918617248535
1.25 6.75054740905761719 0.116110950708389282
1.25 7.01422405242919922 0.320643067359924316
1.25 3.62402677536010742 0.357138007879257202
1.25 5.38466167449951172 0.367652773857116699
1.25 0.948210716247558594 0.378101319074630737
1.25 3.73730754852294922 0.348489761352539062
1.25 6.38450765609741211 0.228064239025115967
1.25 6.13153076171875 0.1358967125415802
1.25 7.20001077651977539 0.178848892450332642
1.25 6.55927848815917969 0.109589427709579468
1.25 6.25532722473144531 0.198782831430435181
1.25 2.40303802490234375 0.290690481662750244
1.25 7.59490633010864258 0.26253211498260498
1.25 6.89285945892333984 0.362636178731918335
1.25 4.21971702575683594 0.376540958881378174
1.25 5.51506423950195312 0.235951945185661316
1.25 5.80302524566650391 0.387169837951660156
1.25 7.918701171875 0.293683111667633057
1.25 6.96123456954956055 0.215970739722251892
1.25 4.44855785369873047 0.346979886293411255
1.25 7.69732761383056641 0.0932738184928894043
1.25 7.22414159774780273 0.0910001695156097412
1.25 7.70752954483032227 0.219765365123748779
1.25 4.45474863052368164 0.197255596518516541
1.25 4.24280500411987305 0.233163043856620789
1.25 6.2413330078125 0.3637276291847229
1.25 7.5731964111328125 0.145303398370742798
1.25 5.79886341094970703 0.300949215888977051
1.25 6.00210666656494141 0.301055729389190674
1.25 6.5658411979675293 0.210317790508270264
1.25 4.66945886611938477 0.375361889600753784
1.25 5.51296615600585938 0.182313010096549988
1.25 6.5510258674621582 0.191102132201194763
1.25 2.47901439666748047 0.295009881258010864
1.25 4.43388080596923828 0.291289329528808594
1.25 8.35077190399169922 0.179994568228721619
1.25 7.38088798522949219 0.0780704617500305176
1.25 7.58844661712646484 0.153264209628105164
1.25 3.53812360763549805 0.378915965557098389
1.25 3.95978069305419922 0.223297014832496643
1.25 8.28530502319335938 0.292620301246643066
1.25 3.89602184295654297 0.23688100278377533
1.25 8.08886146545410156 0.369720488786697388
1.25 5.68896341323852539 0.138024717569351196
1.25 0.777315616607666016 0.3834725022315979
1.25 2.67439794540405273 0.396522432565689087
1.25 5.323760986328125 0.393582403659820557
1.25 5.06190395355224609 0.26494067907333374
1.25 4.95604562759399414 0.174189329147338867
1.25 6.10775470733642578 0.201646283268928528
1.25 6.57573270797729492 0.37231096625328064
1.25 1.78061389923095703 0.331088334321975708
1.25 7.58900260925292969 0.122554600238800049
1.25 3.81096124649047852 0.351469218730926514
1.25 7.96015071868896484 0.370442450046539307
1.25 4.7825617790222168 0.251506388187408447
1.25 6.11493396759033203 0.283191978931427002
1.25 4.4757075309753418 0.33643728494644165
1.25 3.09583091735839844 0.328576624393463135
1.25 8.46650791168212891 0.180927708745002747
1.25 7.71476268768310547 0.0748464763164520264
1.25 7.44425201416015625 0.0862799286842346191
1.25 3.6892247200012207 0.375816524028778076
1.25 1.32397365570068359 0.397691160440444946
1.25 5.71361112594604492 0.278456240892410278
1.25 8.17999839782714844 0.0601284801959991455
1.25 4.47153568267822266 0.310265958309173584
1.25 2.61231613159179688 0.296157985925674438
1.25 5.33362197875976562 0.168089181184768677
1.25 3.81835126876831055 0.385756134986877441
1.25 6.42421531677246094 0.321614950895309448
1.25 5.07857131958007812 0.26885870099067688
1.25 8.25592041015625 0.0865541696548461914
1.25 7.07825946807861328 0.242795035243034363
1.25 4.37400579452514648 0.303248465061187744
1.25 6.31354427337646484 0.39865344762802124
1.25 7.85481071472167969 0.295530587434768677
1.25 2.8419184684753418 0.278255641460418701
1.25 8.45311069488525391 0.391170650720596313
1.25 7.92879104614257812 0.301192194223403931
1.25 7.44943046569824219 0.218279480934143066
1.25 4.11771392822265625 0.24007628858089447
0.71752697229385376 8.51849842071533203 0.0732555240392684937
1.15757894515991211 8.51849842071533203 0.275189101696014404
0.997254729270935059 8.51849842071533203 0.0632077008485794067
1.08641397953033447 8.51849842071533203 0.174382999539375305
1.13059401512145996 8.51849842071533203 0.243084505200386047
0.419955253601074219 8.51849842071533203 0.0738183259963989258
0.767533242702484131 8.51849842071533203 0.0687344223260879517
0.636661529541015625 8.51849842071533203 0.121258094906806946
0.807806849479675293 8.51849842071533203 0.135710909962654114
1.20815157890319824 8.51849842071533203 0.016588941216468811
0.396933555603027344 8.51849842071533203 0.0387651622295379639
1.22530412673950195 8.51849842071533203 0.0206721853464841843
0.430798888206481934 8.51849842071533203 0.108260631561279297
0.78977048397064209 8.51849842071533203 0.153328284621238708
0.394608914852142334 8.51849842071533203 0.0572297871112823486
0.860077857971191406 8.51849842071533203 0.167481809854507446
1.09920740127563477 8.51849842071533203 0.202602624893188477
1.14574074745178223 8.51849842071533203 0.144264400005340576
0.657347440719604492 8.51849842071533203 0.140863165259361267
0.823649227619171143 8.51849842071533203 0.00475870072841644287
0.615330398082733154 8.51849842071533203 0.0546332895755767822
0.914514422416687012 8.51849842071533203 0.236365050077438354
1.04134190082550049 8.51849842071533203 0.0542507320642471313
1.12057125568389893 8.51849842071533203 0.0847151875495910645
0.891252517700195312 8.51849842071533203 0.087130419909954071
0.822007179260253906 8.51849842071533203 0.257117867469787598
0.818576216697692871 8.51849842071533203 0.219443783164024353
1.14790189266204834 8.51849842071533203 0.146002978086471558
0.268404722213745117 8.51849842071533203 0.0202701389789581299
0.901362895965576172 8.51849842071533203 0.287155807018280029
1.11329209804534912 8.51849842071533203 0.11206422746181488
1.12583863735198975 8.51849842071533203 0.25457763671875
1.11611950397491455 8.51849842071533203 0.325518518686294556
0.309736430644989014 8.51849842071533203 0.0406486392021179199
0.639842391014099121 8.51849842071533203 0.160451039671897888
0.517055988311767578 8.51849842071533203 0.133703455328941345
1.15239095687866211 8.51849842071533203 0.300524622201919556
0.908187627792358398 8.51849842071533203 0.0545721724629402161
1.10606968402862549 8.51849842071533203 0.317034274339675903
0.991016209125518799 8.51849842071533203 0.2576180100440979
1.03497648239135742 8.51849842071533203 0.140220984816551208
0.963242590427398682 8.51849842071533203 0.213888451457023621
0.765158951282501221 8.51849842071533203 0.104717984795570374
0.743673622608184814 8.51849842071533203 0.0457205027341842651
0.829001247882843018 8.51849842071533203 0.15503557026386261
1.06870651245117188 8.51849842071533203 0.242116078734397888
0.971067428588867188 8.51849842071533203 0.0554528310894966125
1.12224161624908447 8.51849842071533203 0.319497168064117432
1.17394232749938965 8.51849842071533203 0.140539571642875671
1.01401960849761963 8.51849842071533203 0.151632308959960938
0.789694428443908691 8.51849842071533203 0.135066822171211243
0.614153265953063965 8.51849842071533203 0.00429356098175048828
0.772192478179931641 8.51849842071533203 0.112416565418243408
1.17028820514678955 8.51849842071533203 0.327971667051315308
1.08703863620758057 8.51849842071533203 0.319386929273605347
0.299878418445587158 8.51849842071533203 0.0713594257831573486
1.22179496288299561 8.51849842071533203 0.0192336142063140869
1.24283123016357422 8.51849842071533203 0.211607649922370911
1.04567337036132812 8.51849842071533203 0.197251886129379272
1.21519637107849121 8.51849842071533203 0.209381863474845886
0.527420103549957275 8.51849842071533203 0.0111771523952484131
1.21596741676330566 8.51849842071533203 0.0614597722887992859
0.777775347232818604 8.51849842071533203 0.157542183995246887
0.245736360549926758 8.51849842071533203 0.050613701343536377
1.14352810382843018 8.51849842071533203 0.0612660311162471771
1.07063078880310059 8.51849842071533203 0.155581846833229065
0.720882296562194824 8.51849842071533203 0.0441877692937850952
0.176910281181335449 8.51849842071533203 0.000818431377410888672
1.09281551837921143 8.51849842071533203 0.044345758855342865
1.21813976764678955 8.51849842071533203 0.22702324390411377
0.714465618133544922 8.51849842071533203 0.185036897659301758
0.766754150390625 8.51849842071533203 0.0961156189441680908
0.462173342704772949 8.51849842071533203 0.00837588310241699219
0.812290191650390625 8.51849842071533203 0.125236347317695618
1.07468605041503906 8.51849842071533203 0.142104059457778931
0.6998710036277771 8.51849842071533203 0.071748882532119751
0.347854256629943848 8.51849842071533203 0.105377376079559326
0.736290276050567627 8.51849842071533203 0.230068564414978027
0.909832298755645752 8.51849842071533203 0.265611976385116577
0.69275212287902832 8.51849842071533203 0.111685022711753845
0.547174692153930664 8.51849842071533203 0.173679307103157043
1.1128000020980835 8.51849842071533203 0.0191768594086170197
0.976156651973724365 8.51849842071533203 0.178960070013999939
0.973007798194885254 8.51849842071533203 0.105187423527240753
0.952612340450286865 8.51849842071533203 0.18903687596321106
0.857303321361541748 8.51849842071533203 0.182712599635124207
0.709311425685882568 8.51849842071533203 0.328946739435195923
0.578170359134674072 8.51849842071533203 0.264396190643310547
0.556339085102081299 8.51849842071533203 0.206120282411575317
0.139893054962158203 8.51849842071533203 0.0872148871421813965
0.316813945770263672 8.51849842071533203 0.186395764350891113
0.357438206672668457 8.51849842071533203 0.147635996341705322
0.399788320064544678 8.51849842071533203 0.186984807252883911
0.0358188338577747345 8.51849842071533203 0.167207404971122742
0.2278423011302948 8.51849842071533203 0.219654232263565063
0.0486913286149501801 8.51849842071533203 0.253520309925079346
0.285782337188720703 8.51849842071533203 0.384341537952423096
0.465412676334381104 8.51849842071533203 0.342428654432296753
0.298589020967483521 8.51849842071533203 0.182409554719924927
0.0931049734354019165 8.51849842071533203 0.31582680344581604
0.727560222148895264 8.51849842071533203 0.296784102916717529
0.0391232557594776154 8.51849842071533203 0.207985520362854004
0.524677753448486328 8.51849842071533203 0.177219465374946594
0.802686512470245361 8.51849842071533203 0.357685238122940063
0.821299433708190918 8.51849842071533203 0.372659921646118164
0.0993192866444587708 8.51849842071533203 0.217784151434898376
0.514852523803710938 8.51849842071533203 0.326435655355453491
0.764222025871276855 8.51849842071533203 0.328890413045883179
1.10457038879394531 8.51849842071533203 0.364072084426879883
0.986063241958618164 8.51849842071533203 0.381224155426025391
0.993854522705078125 8.51849842071533203 0.397454291582107544
0.562375843524932861 8.51849842071533203 0.25737452507019043
0.673602521419525146 8.51849842071533203 0.3235054612159729
0.413595497608184814 8.51849842071533203 0.293437004089355469
0.355330407619476318 8.51849842071533203 0.275799959897994995
0.152336835861206055 8.51849842071533203 0.154782041907310486
0.412161022424697876 8.51849842071533203 0.396280556917190552
0.434323519468307495 8.51849842071533203 0.159355640411376953
0.0185151845216751099 8.51849842071533203 0.394400626420974731
0.253029495477676392 8.51849842071533203 0.242322608828544617
0.911414504051208496 8.51849842071533203 0.309713393449783325
0.664688289165496826 8.51849842071533203 0.293454289436340332
0.869978666305541992 8.51849842071533203 0.373756229877471924
0.430781841278076172 8.51849842071533203 0.348089009523391724
0.826719939708709717 8.51849842071533203 0.311024516820907593
0.204166769981384277 8.51849842071533203 0.078502357006072998
0.0560148395597934723 8.51849842071533203 0.118983596563339233
0.600325107574462891 8.51849842071533203 0.31271827220916748
0.863381743431091309 8.51849842071533203 0.352237880229949951
0.877920925617218018 8.51849842071533203 0.376409411430358887
0.524343371391296387 8.51849842071533203 0.335600733757019043
0.273221343755722046 8.51849842071533203 0.152980923652648926
0.467227160930633545 8.51849842071533203 0.174388840794563293
0.132828608155250549 8.51849842071533203 0.101641863584518433
0.377023100852966309 8.51849842071533203 0.12930750846862793
0.128960862755775452 8.51849842071533203 0.073159337043762207
0.424593627452850342 8.51849842071533203 0.172201871871948242
0.872390031814575195 8.51849842071533203 0.305969387292861938
0.913417041301727295 8.51849842071533203 0.305826663970947266
0.947117328643798828 8.51849842071533203 0.353041350841522217
0.179929062724113464 8.51849842071533203 0.0910428166389465332
0.0933979526162147522 8.51849842071533203 0.185811668634414673
0.304063379764556885 8.51849842071533203 0.0976088643074035645
0.00900029484182596207 8.51849842071533203 0.0302728712558746338
0.161635592579841614 8.51849842071533203 0.0757522284984588623
0.214282840490341187 8.51849842071533203 0.0878034234046936035
0.700041711330413818 8.51849842071533203 0.382098644971847534
0.323380053043365479 8.51849842071533203 0.232086047530174255
0.582728087902069092 8.51849842071533203 0.338873922824859619
0.428865551948547363 8.51849842071533203 0.148073375225067139
0.134307488799095154 8.51849842071533203 0.156188473105430603
0.486572504043579102 8.51849842071533203 0.399082362651824951
0.206258207559585571 8.51849842071533203 0.0703634321689605713
0.452812671661376953 8.51849842071533203 0.349685847759246826
0.277267903089523315 8.51849842071533203 0.285293400287628174
0.562836170196533203 8.51849842071533203 0.320514798164367676
0.424433112144470215 8.51849842071533203 0.167089805006980896
0.0818373933434486389 8.51849842071533203 0.137101262807846069
0.249001532793045044 8.51849842071533203 0.298604667186737061
0.308622032403945923 8.51849842071533203 0.234360560774803162
0.04044322669506073 8.51849842071533203 0.362498432397842407
0.372993797063827515 8.51849842071533203 0.292867869138717651
0.498310685157775879 8.51849842071533203 0.186733126640319824
0.0878758057951927185 8.51849842071533203 0.126389414072036743
0.343924880027770996 8.51849842071533203 0.371436029672622681
0.319071382284164429 8.51849842071533203 0.17894291877746582
0.632424890995025635 8.51849842071533203 0.370072335004806519
0.820535182952880859 8.51849842071533203 0.344955474138259888
0.272594243288040161 8.51849842071533203 0.197950348258018494
0.246149897575378418 8.51849842071533203 0.359049320220947266
0.755348920822143555 8.51849842071533203 0.353269755840301514
0.0422495417296886444 8.51849842071533203 0.294242262840270996
0 7.28028440475463867 0.0899248719215393066
0 7.75009250640869141 0.00479704514145851135
0 6.21873950958251953 0.0459640547633171082
0 4.77462244033813477 0.12316468358039856
0 4.96867895126342773 0.126044958829879761
0 3.8249669075012207 0.059235498309135437
0 6.87658214569091797 0.225409150123596191
0 5.57585430145263672 0.0879903286695480347
0 0.7301025390625 0.00264284014701843262
0 5.79217147827148438 0.0789306759834289551
0 4.33838891983032227 0.198681458830833435
0 5.32986354827880859 0.0422414541244506836
0 7.07301712036132812 0.154413878917694092
0 5.71961116790771484 0.138423308730125427
0 7.96283531188964844 0.0783231258392333984
0 6.01025581359863281 0.248033702373504639
0 7.81843233108520508 0.132325008511543274
0 8.35519599914550781 0.373625218868255615
0 7.41563034057617188 0.197020873427391052
0 3.81246852874755859 0.143935695290565491
0 2.74324655532836914 0.0951169133186340332
0 2.35455703735351562 0.0706726908683776855
0 5.25586128234863281 0.13697071373462677
0 5.67553377151489258 0.0413510799407958984
0 4.72778415679931641 0.185941025614738464
0 8.04648113250732422 0.149622321128845215
0 7.42038583755493164 0.0165655650198459625
0 6.51584339141845703 0.0726347118616104126
0 3.86053752899169922 0.0193457752466201782
0 4.83399009704589844 0.0468342602252960205
0 6.7077484130859375 0.0951698347926139832
0 8.00084114074707031 0.0429769754409790039
0 6.88739204406738281 0.0879477858543395996
0 3.8458714485168457 0.0969382673501968384
0 7.35591602325439453 0.30919310450553894
0 4.57447195053100586 0.148211553692817688
0 8.13614749908447266 0.185514345765113831
0 6.99400091171264648 0.125401407480239868
0 0.624257087707519531 0.0128446817398071289
0 3.43034744262695312 0.0104645490646362305
0 6.54178094863891602 0.261450678110122681
0 7.56368350982666016 0.000307787209749221802
0 4.58579826354980469 0.177531719207763672
0 3.69956445693969727 0.0841567665338516235
0 4.22271728515625 0.0532775372266769409
0 7.09403467178344727 0.325286686420440674
0 7.54672050476074219 0.334218353033065796
0 5.43372631072998047 0.124920293688774109
0 6.19529867172241211 0.0093855932354927063
0 6.77533531188964844 0.0973082259297370911
0 3.80312776565551758 0.0524214804172515869
0 5.24546337127685547 0.0436200499534606934
0 8.13691616058349609 0.156872376799583435
0 1.09403562545776367 0.00196811556816101074
0 1.70726680755615234 0.0460851192474365234
0 6.16197538375854492 0.154963523149490356
0 6.08099079132080078 0.114757932722568512
0 6.45795440673828125 0.19488215446472168
0 4.87827014923095703 0.0694569945335388184
0 8.36108303070068359 0.121588394045829773
0 4.93694114685058594 0.195317566394805908
0 6.22451257705688477 0.187962204217910767
0 6.19974040985107422 0.0792663544416427612
0 7.52742481231689453 0.309357374906539917
0 6.87923908233642578 0.0296766236424446106
0 6.1027984619140625 0.100057177245616913
0 6.73880672454833984 0.0352850481867790222
0 7.11478805541992188 0.079802878201007843
0 3.92952060699462891 0.132872819900512695
0 7.07596731185913086 0.0581140965223312378
0 0.883560657501220703 0.020393669605255127
0 6.18103265762329102 0.269474208354949951
0 4.43044614791870117 0.0626459717750549316
0 7.12691402435302734 0.232041031122207642
0 8.27876758575439453 0.249420151114463806
0 7.39290714263916016 0.138789966702461243
0 8.29137706756591797 0.141714766621589661
0 6.72753190994262695 0.20079822838306427
0 3.67350482940673828 0.0967216044664382935
0 3.32243061065673828 0.0271978080272674561
0 6.72945070266723633 0.235406249761581421
0 1.60988044738769531 0.0134237408638000488
0 8.42093849182128906 0.112440943717956543
0 4.26559925079345703 0.166167959570884705
0 5.99631500244140625 0.0316254496574401855
0 6.25682783126831055 0.115321464836597443
0 5.20055675506591797 0.0569267570972442627
0 6.52248048782348633 0.00119470804929733276
0 5.56235647201538086 0.205887094140052795
0 7.8280177116394043 0.0113289989531040192
0 7.47533750534057617 0.00133602693676948547
0 3.20369672775268555 0.134657338261604309
0 6.78045940399169922 0.00470151007175445557
0 5.04874849319458008 0.184092074632644653
0 8.09785842895507812 0.0586236491799354553
0 8.30001354217529297 0.144484922289848328
0 8.22986030578613281 0.0452557280659675598
0 3.33888769149780273 0.123636797070503235
0 7.61783599853515625 0.0615325160324573517
0 7.39131402969360352 0.12074512243270874
0 5.7728123664855957 0.146700695157051086
0 6.36490631103515625 0.0656242668628692627
0 6.22633171081542969 0.2462330162525177
0 5.94700145721435547 0.0298956111073493958
0 2.65715694427490234 0.0364981293678283691
0 3.99588298797607422 0.0593385845422744751
0 5.55791378021240234 0.0671117156744003296
0 2.88695240020751953 0.0890660285949707031
0 6.34809589385986328 0.0390390381217002869
0 5.13336896896362305 0.00198954343795776367
0 7.65195989608764648 0.0481886602938175201
0 5.95524358749389648 0.0289302617311477661
0 6.80665874481201172 0.111192606389522552
0 6.86347484588623047 0.113388054072856903
0 4.22339391708374023 0.161851853132247925
0 6.07975530624389648 0.207477867603302002
0 1.47663688659667969 0.00798767805099487305
0 7.20555925369262695 0.0653605759143829346
0 7.19680213928222656 0.134517103433609009
0 4.81662750244140625 0.171653762459754944
0 7.47064399719238281 0.309863477945327759
0 0.956532955169677734 0.0219314694404602051
0 5.5532374382019043 0.154227271676063538
0 6.55703306198120117 0.292505860328674316
0 7.34679698944091797 0.311244696378707886
0 5.65742063522338867 0.0569679886102676392
0 6.61054658889770508 0.266477406024932861
0 4.75201845169067383 0.0515486598014831543
0 7.94386005401611328 0.0605593882501125336
0 3.29082965850830078 0.0251156240701675415
0 6.71321868896484375 0.293397963047027588
0 7.41225385665893555 0.0249548144638538361
0 7.32145595550537109 0.292165040969848633
0 6.42205381393432617 0.0931047424674034119
0 2.96759319305419922 0.020353466272354126
0 5.58426046371459961 0.0909361094236373901
0 8.36687946319580078 0.175420477986335754
0 7.187408447265625 0.0626286342740058899
0 2.19180727005004883 0.0970499813556671143
0 6.76570415496826172 0.292033731937408447
0 3.74868869781494141 0.126774206757545471
0 6.12309932708740234 0.17178751528263092
0 7.10223722457885742 0.156748861074447632
0 6.68387651443481445 0.109798960387706757
0 8.45804119110107422 0.248314663767814636
0 5.91546964645385742 0.127584591507911682
0 7.12206172943115234 0.141030251979827881
0 6.06654739379882812 0.171718835830688477
0 5.36780071258544922 0.143100306391716003
0 8.21825408935546875 0.310210049152374268
0 2.09258127212524414 0.0153115391731262207
0 7.11081981658935547 0.062474079430103302
0 6.82581806182861328 0.0781029611825942993
0 8.46286106109619141 0.095365375280380249
0 8.19620037078857422 0.277156919240951538
0 8.00824069976806641 0.0242292657494544983
0 8.35522365570068359 0.224432051181793213
0 5.44018840789794922 0.0845477133989334106
0 4.22905778884887695 0.106431394815444946
0 7.89873313903808594 0.28933638334274292
0 5.594573974609375 0.222083136439323425
0 7.11082839965820312 0.267739355564117432
0 4.88376998901367188 0.0010728687047958374
0 0.998920440673828125 0.000397980213165283203
0 6.90779256820678711 0.150041118264198303
0 5.52580022811889648 0.242539674043655396
0 7.48575210571289062 0.311583131551742554
0 6.39301013946533203 0.280728787183761597
0 5.84242486953735352 0.0164427757263183594
0 4.64708423614501953 0.0176915377378463745
0 5.18092823028564453 0.210312262177467346
0 4.48426198959350586 0.11746351420879364
0 5.16059207916259766 0.15924757719039917
0 8.44823932647705078 0.204388409852981567
0 6.45183563232421875 0.0378382280468940735
0 2.16773319244384766 0.0277677178382873535
0 3.55306386947631836 0.0157164931297302246
0 8.46725749969482422 0.286626666784286499
0 5.33151531219482422 0.0302502810955047607
0 5.11917638778686523 0.0484809577465057373
0 7.58566617965698242 0.0528886094689369202
0 1.57423019409179688 0.0467528998851776123
0 8.38702106475830078 0.354389488697052002
0 7.98487281799316406 0.275508463382720947
0 5.87354373931884766 0.102603442966938019
0 6.30764484405517578 0.0738002508878707886
0 2.74247598648071289 0.0599258542060852051
0 6.74468278884887695 0.023219279944896698
0 5.90571355819702148 0.186733007431030273
0 8.13535881042480469 0.0577813833951950073
0 3.28736352920532227 0.14350089430809021
0 4.10992956161499023 0.181298419833183289
0 7.68973541259765625 0.0787331759929656982
0 4.8378753662109375 0.205146864056587219
0 5.71444225311279297 0.126690879464149475
0 7.55668926239013672 0.189558118581771851
0 6.38982820510864258 0.260754585266113281
0 5.86206817626953125 0.121793322265148163
0 1.20807075500488281 0.0500078499317169189
0 0.779603004455566406 0.00150877237319946289
0 3.60910749435424805 0.00491146743297576904
0 4.05961322784423828 0.0875990837812423706
0 7.28761625289916992 0.277299612760543823
0 4.83084249496459961 0.0910160094499588013
0 2.45318317413330078 0.0262911319732666016
0 2.75259637832641602 0.0985229611396789551
0 6.96361207962036133 0.23545074462890625
0 5.60405921936035156 0.0877438187599182129
0 6.3801274299621582 0.0742901861667633057
0 6.13222599029541016 0.270245790481567383
0 5.30387735366821289 0.162786856293678284
0 6.10096454620361328 0.263321608304977417
0 2.44955015182495117 0.0459353923797607422
0 7.44490194320678711 0.203854203224182129
0 2.71016359329223633 0.0707659125328063965
0 7.45031642913818359 0.267086714506149292
0 6.46788692474365234 0.275228232145309448
0 3.68959569931030273 0.132433995604515076
0 6.17748165130615234 0.19560280442237854
0 8.16190719604492188 0.0352440662682056427
0 3.56568288803100586 0.0430321991443634033
0 7.51510238647460938 0.0403728596866130829
0 8.36604595184326172 0.262449920177459717
0 6.92842388153076172 0.28255075216293335
0 1.55620336532592773 0.0102071762084960938
0 5.39562320709228516 0.151564434170722961
0 3.6937565803527832 0.0724567621946334839
0 5.65628671646118164 0.253251254558563232
0 5.62438774108886719 0.206606864929199219
0 1.73930835723876953 0.0595088601112365723
0 5.35812664031982422 0.0992074757814407349
0 0.46060943603515625 0.0155584812164306641
0 8.45272064208984375 0.0153821511194109917
0 6.68557643890380859 0.188041582703590393
0 7.22501182556152344 0.130151703953742981
0 5.31210756301879883 0.00434014201164245605
0 5.94240570068359375 0.0583478957414627075
0 1.40532684326171875 0.028107374906539917
0 6.99828577041625977 0.0562943220138549805
0 8.27344608306884766 0.00347572285681962967
0 4.60720062255859375 0.0591582357883453369
0 6.43694877624511719 0.171704798936843872
0 3.57065296173095703 0.00378616154193878174
0 8.45388507843017578 0.211775392293930054
0 5.55487203598022461 0.253215253353118896
0 2.22954416275024414 0.0451796352863311768
0 4.62878513336181641 0.133856788277626038
0 4.72469329833984375 0.149319812655448914
0 8.03818416595458984 0.208310455083847046
0 3.84279489517211914 0.0259656161069869995
0 1.16947269439697266 0.0147216320037841797
0 6.92543411254882812 0.0443755984306335449
0 7.66034030914306641 0.333855181932449341
0 2.78427743911743164 0.0713855326175689697
0 5.71693325042724609 0.252933919429779053
0 8.50790882110595703 0.200783640146255493
0 7.60760402679443359 0.017398882657289505
0 5.74106264114379883 0.0185821503400802612
0 5.94972801208496094 0.257584869861602783
0 4.44062614440917969 0.0246991664171218872
0 3.67859649658203125 0.0859889090061187744
0 5.69215488433837891 0.00983761250972747803
0 8.36629676818847656 0.0916590616106987
0 4.53825044631958008 0.120643451809883118
0 6.60213756561279297 0.189594089984893799
0 3.55471134185791016 0.165952160954475403
0 4.16923284530639648 0.128209441900253296
0 3.99985027313232422 0.171765267848968506
0 2.44073677062988281 0.00476333498954772949
0 8.24326419830322266 0.224841952323913574
0 1.84056377410888672 0.0166110992431640625
0 8.07412147521972656 0.0610750764608383179
0 4.99377584457397461 0.00427456200122833252
0 1.43898630142211914 0.0662743449211120605
0 3.23328542709350586 0.00450469553470611572
0 3.62357807159423828 0.169189631938934326
0 7.73562526702880859 0.280490398406982422
0 1.20360946655273438 0.0228062570095062256
0 8.29534626007080078 0.154764533042907715
0 0.478444099426269531 0.00570151209831237793
0 6.563720703125 0.203985750675201416
0 2.30909633636474609 0.0938673317432403564
0 1.34969234466552734 0.000786751508712768555
0 3.51528835296630859 0.0646117180585861206
0 7.9550323486328125 0.120630882680416107
0 3.31689357757568359 0.052369534969329834
0 3.54377269744873047 0.135608121752738953
0 7.37090539932250977 0.0109755098819732666
0 2.03216075897216797 0.081911623477935791
0 7.56406784057617188 0.193065524101257324
0 8.17574310302734375 0.300403296947479248
0 8.25173091888427734 0.00229278206825256348
0 7.95843791961669922 0.219800546765327454
0 6.18402481079101562 0.236384391784667969
0 2.56757259368896484 0.11958429217338562
0 8.46050262451171875 0.274516791105270386
0 2.89397954940795898 0.105921506881713867
0 7.5778045654296875 0.0727510899305343628
0 5.37724161148071289 0.248434603214263916
0 5.62163066864013672 0.181201577186584473
0 4.91303825378417969 0.100808590650558472
0 1.00792217254638672 0.0404367148876190186
0 8.00939846038818359 0.151743605732917786
0 6.26793003082275391 0.146082058548927307
0 6.09151744842529297 0.00821655243635177612
0 6.0804743766784668 0.187417462468147278
0 5.42293739318847656 0.0894110053777694702
0 8.12189292907714844 0.0131172183901071548
0 2.04478073120117188 0.0823633968830108643
0 8.36076545715332031 0.100133448839187622
0 7.60845232009887695 0.354423850774765015
0 7.03429126739501953 0.195217221975326538
0 5.41093730926513672 0.139888137578964233
0 7.06042337417602539 0.0810337737202644348
0 6.36486196517944336 0.201850250363349915
0 6.38039207458496094 0.245777308940887451
0 2.85622167587280273 0.108031868934631348
0 6.24887752532958984 0.282728999853134155
0 8.44073867797851562 0.310135900974273682
0 7.05025434494018555 0.324444949626922607
0 4.69139289855957031 0.0140483975410461426
0 5.60303020477294922 0.252512276172637939
0 6.52997446060180664 0.146308809518814087
0 4.43025636672973633 0.100183382630348206
0 5.30456447601318359 0.0808140337467193604
0 5.37526321411132812 0.140002414584159851
0 7.22931528091430664 0.0566992387175559998
0 4.26994991302490234 0.149500295519828796
0 3.7177271842956543 0.160908475518226624
0 5.12770223617553711 0.210684522986412048
0 5.27734088897705078 0.02465800940990448
0 7.956329345703125 0.103077426552772522
0 2.46857070922851562 0.0718494653701782227
0 6.93525886535644531 0.100031882524490356
0 7.01663112640380859 0.201692372560501099
0 1.52224636077880859 0.0285078883171081543
0 7.65959930419921875 0.122165441513061523
0 6.71620607376098633 0.141508221626281738
0 7.62004995346069336 0.33837580680847168
0 8.40261745452880859 0.115623451769351959
0 6.02423572540283203 0.0844133347272872925
0 6.63549518585205078 0.140362083911895752
0 7.61215114593505859 0.292078137397766113
0 0.387015342712402344 0.00352019071578979492
0 7.31317424774169922 0.24197755753993988
0 3.94612312316894531 0.0229630470275878906
0 8.42589473724365234 0.190016046166419983
0 6.47340822219848633 0.150211244821548462
0 3.85727500915527344 0.00954569876194000244
0 5.01323747634887695 0.215288430452346802
0 6.86899328231811523 0.244578376412391663
0 4.79318332672119141 0.120380356907844543
0 8.07868194580078125 0.11265641450881958
0 4.57353687286376953 0.163734793663024902
0 7.8339691162109375 0.184821024537086487
0 5.67646408081054688 0.113621950149536133
0 5.45615863800048828 0.112485483288764954
0 6.90786647796630859 0.0371158495545387268
0 7.58751678466796875 0.320907533168792725
0 5.41905689239501953 0.0597230046987533569
0 5.60934829711914062 0.0741636455059051514
0 6.97266721725463867 0.1947440505027771
0 5.34618186950683594 0.104280337691307068
0 6.20060920715332031 0.052017994225025177
0 8.34074687957763672 0.0576192513108253479
0 6.77884531021118164 0.0921416506171226501
0 2.26890993118286133 0.0656930506229400635
0 6.10396957397460938 0.181365698575973511
0 8.50292873382568359 0.11139775812625885
0 6.30590057373046875 0.0805080458521842957
0 8.00666236877441406 0.265230238437652588
0 4.27463626861572266 0.145287230610847473
0 6.92210865020751953 0.29448777437210083
0 3.69470357894897461 0.0636134892702102661
0 4.3923640251159668 0.14861239492893219
0 0.811083793640136719 0.0225651562213897705
0 7.8975071907043457 0.287881195545196533
0 6.98556280136108398 0.0975980162620544434
0 6.67899036407470703 0.196857839822769165
0 3.40207529067993164 0.128134489059448242
0 6.83424615859985352 0.301942825317382812
0 4.84099388122558594 0.0113428235054016113
0 7.63773632049560547 0.299817144870758057
0 5.0511469841003418 0.207036271691322327
0 7.3569483757019043 0.232875406742095947
0 7.09023761749267578 0.258610397577285767
0 5.40214681625366211 0.162975713610649109
0 7.79917621612548828 0.0177583955228328705
0 7.53706264495849609 0.191792190074920654
0 6.325225830078125 0.148691058158874512
0 5.57899951934814453 0.161940857768058777
0 8.23651027679443359 0.298085719347000122
0 5.04383230209350586 0.206564098596572876
0 6.70840358734130859 0.221200630068778992
0 1.75050115585327148 0.0270651876926422119
0 7.46359872817993164 0.0811328589916229248
0 6.04262638092041016 0.13171917200088501
0 1.80251693725585938 0.0585259199142456055
0 6.30049228668212891 0.0532162562012672424
0 6.86011219024658203 0.138561159372329712
0 7.14562416076660156 0.205553740262985229
0 7.20797538757324219 0.0170540101826190948
0 2.73436355590820312 0.058574974536895752
0 1.16280555725097656 0.0284697413444519043
0 3.16335344314575195 0.0149042904376983643
0 7.40251350402832031 0.222977176308631897
0 6.21769332885742188 0.0862504467368125916
0 2.70609951019287109 0.105270445346832275
0 6.99112367630004883 0.211775436997413635
0 5.22691583633422852 0.0356268435716629028
0 8.03790473937988281 0.300821274518966675
0 6.58418035507202148 0.217424646019935608
0 3.04270172119140625 0.049232184886932373
0 3.27498865127563477 0.0548900514841079712
0 6.4197840690612793 0.201395422220230103
0 3.46247959136962891 0.0874383300542831421
0 4.06797456741333008 0.108787313103675842
0 0.0811662673950195312 0.0011577904224395752
0 6.95232677459716797 0.190974980592727661
0 5.0779423713684082 0.146982282400131226
0 2.31842565536499023 0.0192487239837646484
0 7.98210859298706055 0.114273771643638611
0 7.35907745361328125 0.234859317541122437
0 1.16928243637084961 0.00633084774017333984
0 4.52174091339111328 0.069027140736579895
0 5.8166050910949707 0.168226376175880432
0 4.96906709671020508 0.22027866542339325
0 6.84251642227172852 0.110000684857368469
0 3.85431671142578125 0.17283843457698822
0 1.81244468688964844 0.0656494796276092529
0 8.07402706146240234 0.0284467991441488266
0 4.56048488616943359 0.071793287992477417
0 4.98125743865966797 0.178004100918769836
0 1.21901798248291016 0.018950045108795166
0 1.09466266632080078 0.0171075165271759033
0 6.94015741348266602 0.0893508493900299072
0 7.75662851333618164 0.168787911534309387
0 7.12788772583007812 0.0291823819279670715
0 4.92040252685546875 0.0463490188121795654
0 6.43174219131469727 0.0627116784453392029
0 8.39922046661376953 0.24876973032951355
0 5.14362335205078125 0.0498029738664627075
0 7.78566837310791016 0.0841884836554527283
0 4.57390213012695312 0.138491272926330566
0 7.75137948989868164 0.127803385257720947
0 5.49462413787841797 0.155657976865768433
0 3.63493728637695312 0.168918058276176453
0 7.61669206619262695 0.198735147714614868
0 8.42051982879638672 0.344659298658370972
0 1.60453510284423828 0.048884958028793335
0 5.45969295501708984 0.182240217924118042
0 4.80414485931396484 0.0679766088724136353
0 2.47004270553588867 0.0822910666465759277
0 8.39409065246582031 0.247248291969299316
0 7.45327091217041016 0.10885562002658844
0 3.67171049118041992 0.0297802239656448364
0 5.5253758430480957 0.160626336932182312
0 8.00375938415527344 0.210398480296134949
0 6.19213294982910156 0.255303531885147095
0 2.40028524398803711 0.0458472371101379395
0 7.69567012786865234 0.181611239910125732
0 7.56490945816040039 0.0908746719360351562
0 5.92215824127197266 0.210636913776397705
0 4.87865066528320312 0.0289321243762969971
0 2.26317834854125977 0.105566352605819702
0 8.02967071533203125 0.0469219684600830078
0 8.08092117309570312 0.0234941150993108749
0 4.58826637268066406 0.166824817657470703
0 3.29430866241455078 0.112607315182685852
0 4.09851646423339844 0.147595390677452087
0 5.52074813842773438 0.208146631717681885
0 7.42393827438354492 0.0124336667358875275
0 8.18099689483642578 0.245917782187461853
0 5.35929679870605469 0.0270293503999710083
0 1.82049465179443359 0.0204347968101501465
0 7.78931474685668945 0.197425588965415955
0 8.11088371276855469 0.0950152724981307983
0 6.45032215118408203 0.29139593243598938
0 2.57079505920410156 0.0891781449317932129
0 4.09930706024169922 0.00873972475528717041
0 7.64378595352172852 0.145485535264015198
0 3.17035913467407227 0.121716886758804321
0 4.54022693634033203 0.0365077406167984009
0 3.82383632659912109 0.0888679921627044678
0 7.20529937744140625 0.121370702981948853
0 3.76239871978759766 0.0516908913850784302
0 5.95998239517211914 0.0683554857969284058
0 6.52408933639526367 0.275322198867797852
0 6.45038795471191406 0.0311026647686958313
0 4.19168949127197266 0.0176636278629302979
0 2.22113275527954102 0.0647943615913391113
0 8.34032917022705078 0.368377119302749634
0 1.77621364593505859 0.00826850533485412598
0 6.20780563354492188 0.262584120035171509
0 5.29706668853759766 0.211704403162002563
0 2.32008600234985352 0.049511253833770752
0 3.22733831405639648 0.0472160279750823975
0 3.00652599334716797 0.0184566676616668701
0 8.07561016082763672 0.266937494277954102
0 5.45720005035400391 0.139292627573013306
0 2.40853786468505859 0.0051116645336151123
0 3.04844236373901367 0.13347095251083374
0 2.92863559722900391 0.0842972397804260254
0 8.11990165710449219 0.00549640879034996033
0 7.69789266586303711 0.114898800849914551
0 8.01809978485107422 0.0346157141029834747
0 7.12446260452270508 0.00615578144788742065
0 8.1414642333984375 0.246840879321098328
0 4.25292682647705078 0.0793974399566650391
0 5.67108058929443359 0.11193498969078064
0 8.47847270965576172 0.0483974218368530273
0 7.74248218536376953 0.12771916389465332
0 5.59911918640136719 0.0935178101062774658
0 1.17939138412475586 0.0408664047718048096
0 6.46259975433349609 0.191358447074890137
0 4.69548416137695312 0.204370632767677307
0 4.30126619338989258 0.152536883950233459
0 2.55578708648681641 0.000655233860015869141
0 8.50986194610595703 0.328863859176635742
0 1.51552534103393555 0.0140466690063476562
0 0.997648239135742188 0.0307343602180480957
0 6.21616077423095703 0.164245158433914185
0 5.84524345397949219 0.141369238495826721
0 4.90200138092041016 0.0433195531368255615
0 3.37808084487915039 0.144935920834541321
0 6.50811862945556641 0.0595898851752281189
0 7.79192066192626953 0.153755798935890198
0 4.09778928756713867 0.0961617380380630493
0 7.20189762115478516 0.0928925573825836182
0 7.05466604232788086 0.208907246589660645
0 4.22444391250610352 0.0409315377473831177
0 7.97807407379150391 0.143683567643165588
0 2.56892490386962891 0.105449974536895752
0 6.10564422607421875 0.274224162101745605
0 5.6668705940246582 0.014182552695274353
0 7.06791925430297852 0.221674591302871704
0 2.38671064376831055 0.0471736788749694824
0 4.14571046829223633 0.18901468813419342
0 5.64273357391357422 0.0376092046499252319
0 7.04796838760375977 0.302688419818878174
0 7.50567436218261719 0.323524534702301025
0 1.52245092391967773 0.00048306584358215332
0 5.23300409317016602 0.0632750391960144043
0 6.76663827896118164 0.0847503021359443665
0 5.62255716323852539 0.105443283915519714
0 7.11680126190185547 0.068613395094871521
