ply
format ascii 1.0
element vertex 695
property float x
property float y
property float z
end_header
0.000483754294691607356 -0.00704707717522978783 -0.000333015690557658672
-0.00180088472552597523 -0.00823391228914260864 -0.00209019612520933151
-0.0043601687066257 -0.0101355565711855888 -4.4994056224822998e-05
-0.000885879620909690857 -0.00792407616972923279 -0.000225462717935442924
-0.00131098204292356968 -0.00795739423483610153 -0.00186788046266883612
-0.00115840707439929247 -0.00780243799090385437 -0.00228154915384948254
-0.00355812930501997471 -0.00938681606203317642 -0.0017578082624822855
0.0020527886226773262 -0.00500293541699647903 -0.00321241747587919235
0.00655618775635957718 -0.000939270481467247009 -0.000596021534875035286
0.00499252369627356529 -0.00195635762065649033 -0.00381107116118073463
0.00157997757196426392 -0.00537797901779413223 -0.00378927751444280148
0.00578240305185317993 -0.00156432529911398888 -0.00147407548502087593
0.00674816546961665154 -0.000730535015463829041 -0.000692391069605946541
0.00597920641303062439 -0.0010295036481693387 -0.00345166143961250782
0.00621263682842254639 -0.00091067084576934576 -0.00277844630181789398
0.00540039408951997757 -0.00162994582206010818 -0.00333031383343040943
0.00339774624444544315 -0.00358152738772332668 -0.0036477500107139349
0.00448532635346055031 -0.00267642829567193985 -0.00256917392835021019
0.00497305020689964294 -0.00199699983932077885 -0.0036872930359095335
0.00475978897884488106 -0.00220799120143055916 -0.00370254414156079292
0.00384574825875461102 -0.00346521381288766861 -0.00170130783226341009
0.00482262903824448586 -0.00273238844238221645 -0.000263173831626772881
0.00633335951715707779 -0.00125029077753424644 -8.1626581959426403e-05
0.00489732855930924416 -0.00252025132067501545 -0.00106730591505765915
0.00105744658503681421 -0.00630665384232997894 -0.0014157493133097887
0.00364718632772564888 -0.00378645374439656734 -0.000984743237495422363
0.00524211954325437546 -0.00225288071669638157 -0.000610773568041622639
0.00346074765548110008 -0.00388969876803457737 -0.00147362786810845137
0.00491207046434283257 -0.00261772843077778816 -0.000410030246712267399
0.00573308905586600304 -0.00180283491499722004 -0.000366620224667713046
0.00227976241149008274 -0.00493271881714463234 -0.00229238485917448997
0.001304990379139781 -0.00579972332343459129 -0.00293241278268396854
0.00237124948762357235 -0.00518061500042676926 -0.000304156914353370667
-0.0039784163236618042 -0.00948564056307077408 -0.0029194285161793232
-0.00403144629672169685 -0.00957632716745138168 -0.00251729274168610573
-0.00500367255881428719 -0.0101936850696802139 -0.00247724493965506554
-0.000883624190464615822 -0.00744367996230721474 -0.00358556280843913555
-0.00723286019638180733 -0.0116814477369189262 -0.00187864468898624182
-0.00435429438948631287 -0.0097153540700674057 -0.00296685355715453625
-0.00397924520075321198 -0.00947661511600017548 -0.00298640155233442783
-0.00406198017299175262 -0.009707670658826828 -0.00173065229319036007
-0.00393440620973706245 -0.00936687085777521133 -0.00355838099494576454
-0.00337462429888546467 -0.00923687499016523361 -0.0019997891504317522
-0.00387397874146699905 -0.00935443118214607239 -0.00337895448319613934
-0.00185904675163328648 -0.00815561972558498383 -0.00289611704647541046
-0.00493791885673999786 -0.0102741951122879982 -0.00162226217798888683
0.00385786127299070358 -0.00257985666394233704 -0.00478274654597043991
0.00103844725526869297 -0.00590154528617858887 -0.00385153619572520256
0.00482326699420809746 -0.00155129702761769295 -0.0048980414867401123
0.00325888907536864281 -0.00242348737083375454 -0.00619733752682805061
0.000623325351625680923 -0.00599826499819755554 -0.00444831186905503273
0.000750862061977386475 -0.00577893340960144997 -0.00461963564157485962
0.0045093572698533535 -0.00212323898449540138 -0.0044163241982460022
0.00394720956683158875 -0.00220739119686186314 -0.0053120441734790802
0.00335336197167634964 -0.003279087133705616 -0.00441999081522226334
0.00410046568140387535 -0.00192154524847865105 -0.00555959763005375862
0.00142056751064956188 -0.00399894639849662781 -0.00669440440833568573
0.00142102711834013462 -0.00536760594695806503 -0.00413352483883500099
0.00216219970025122166 -0.00336622213944792747 -0.00648852158337831497
0.00348352291621267796 -0.00225042738020420074 -0.0061002122238278389
0.00583766866475343704 -0.000784857664257287979 -0.00443126121535897255
0.00205826293677091599 -0.00370264938101172447 -0.00605396274477243423
-7.54453794797882438e-05 -0.00506903603672981262 -0.00750121939927339554
-0.000168678583577275276 -0.00512859225273132324 -0.00756505550816655159
-0.000333184376358985901 -0.00552399503067135811 -0.00713408691808581352
0.000456693174783140421 -0.00570555403828620911 -0.00530854146927595139
0.00706965429708361626 0.00121124146971851587 -0.00500886561349034309
0.00466433726251125336 0.00171684101223945618 -0.00918652769178152084
0.00542894704267382622 0.00209840666502714157 -0.00850507058203220367
0.00643886253237724304 0.00197446625679731369 -0.00685633439570665359
0.00816006306558847427 0.0040518585592508316 -0.00677503878250718117
0.00818926561623811722 0.00322611024603247643 -0.00574712641537189484
0.00543323718011379242 0.00204270076937973499 -0.00843227840960025787
0.00699485559016466141 0.00355732021853327751 -0.00791718438267707825
0.00677594216540455818 0.000868907314725220203 -0.0050372355617582798
0.00752251502126455307 0.00325761060230433941 -0.00677562784403562546
0.00539273209869861603 0.00119478779379278421 -0.00748153869062662125
0.00644220132380723953 0.00303354673087596893 -0.00811407808214426041
0.00442065438255667686 0.00195437506772577763 -0.0098319007083773613
0.00596758490428328514 0.00157101277727633715 -0.00707573629915714264
0.0057979971170425415 0.00138825364410877228 -0.00710988510400056839
0.0086348140612244606 0.00395891768857836723 -0.00595864094793796539
0.00568496109917759895 0.00583980605006217957 -0.010869959369301796
0.0072823595255613327 0.00632724165916442871 -0.00953032355755567551
0.00504029449075460434 0.00416091689839959145 -0.0106301512569189072
0.00903001986443996429 0.00852014590054750443 -0.00893855653703212738
0.00777422543615102768 0.00860352534800767899 -0.0102373892441391945
0.00996449124068021774 0.00791713036596775055 -0.00768720638006925583
0.00568281114101409912 0.00691922195255756378 -0.011440482921898365
0.00527740595862269402 0.00354032125324010849 -0.0100664235651493073
0.0061784377321600914 0.00785138644278049469 -0.0114360349252820015
0.0056100236251950264 0.00409406004473567009 -0.0100256111472845078
0.00412887614220380783 0.00291932793334126472 -0.0108871739357709885
0.00452427472919225693 0.00406203744933009148 -0.0110937496647238731
0.00784825161099433899 0.00875733047723770142 -0.0102444011718034744
0.00663544703274965286 0.00669486494734883308 -0.0103703653439879417
0.0063200746662914753 0.00430938228964805603 -0.00942942779511213303
0.00919632613658905029 0.00778644485399127007 -0.00838602893054485321
0.00623007491230964661 0.00429200474172830582 -0.00951021537184715271
0.00603067874908447266 0.00537640368565917015 -0.0102804731577634811
0.00673748040571808815 0.00770980585366487503 -0.0108028268441557884
0.00603291019797325134 0.00977012701332569122 -0.0125917885452508926
0.0088200736790895462 0.00690876739099621773 -0.00829987507313489914
0.00513696111738681793 0.00657279230654239655 -0.0118035413324832916
0.00608412362635135651 0.00581317581236362457 -0.0104570500552654266
0.00907186046242713928 0.0066153286024928093 -0.00782274641096591949
0.00831436458975076675 0.0059853564016520977 -0.00827237498015165329
0.00965887121856212616 0.00717045227065682411 -0.00752747058868408203
0.00770211592316627502 0.00525713060051202774 -0.00846182927489280701
0.00996313616633415222 0.00770736578851938248 -0.00757230492308735847
0.00907776132225990295 0.00583188608288764954 -0.00719317095354199409
0.00873338710516691208 0.00592787051573395729 -0.00770125351846218109
0.00876879226416349411 0.00578622333705425262 -0.0075443643145263195
0.0114545896649360657 0.0121884606778621674 -0.00791874527931213379
0.0118075013160705566 0.0159850679337978363 -0.00881828367710113525
0.0118346689268946648 0.0143277188763022423 -0.00808838661760091782
0.0131076304242014885 0.0142020508646965027 -0.00566819310188293457
0.0124478060752153397 0.01486210897564888 -0.00716652814298868179
0.0116492984816431999 0.0156915150582790375 -0.0089923366904258728
0.0111858556047081947 0.0140427378937602043 -0.00917886104434728622
0.0127440774813294411 0.014088604599237442 -0.00629817787557840347
0.0126132573932409286 0.0148926712572574615 -0.00687118805944919586
0.0121080381795763969 0.0165367890149354935 -0.00848520547151565552
0.0118100102990865707 0.0132976202294230461 -0.00771203450858592987
0.0111904395744204521 0.0158321280032396317 -0.00990380067378282547
0.0125268884003162384 0.0146839553490281105 -0.00694634858518838882
0.0110426312312483788 0.0120351910591125488 -0.00862247589975595474
0.0130581464618444443 0.0148291215300559998 -0.006017305888235569
0.0111460424959659576 0.0137093821540474892 -0.00911630317568778992
0.00813682656735181808 0.0115194385871291161 -0.0113412225618958473
0.00986979063600301743 0.0122588071972131729 -0.00997597351670265198
0.0108437547460198402 0.0145042929798364639 -0.00990704912692308426
0.0082371709868311882 0.0126568879932165146 -0.0116799240931868553
0.00874917116016149521 0.0119932172819972038 -0.0109399165958166122
0.00859446078538894653 0.0118726398795843124 -0.0110409734770655632
0.00913371331989765167 0.0117664607241749763 -0.0104878172278404236
0.00904299598187208176 0.0115949828177690506 -0.0105086145922541618
0.00958160124719142914 0.0136230587959289551 -0.0107705863192677498
0.0105648767203092575 0.01309977937489748 -0.00963614694774150848
0.00821787863969802856 0.0111378654837608337 -0.0111185489222407341
0.0108340783044695854 0.0147191043943166733 -0.00999822840094566345
0.00762713188305497169 0.0113697722554206848 -0.011768639087677002
0.00885450560599565506 0.0140930134803056717 -0.0116411438211798668
0.0104130012914538383 0.0127835096791386604 -0.00965982396155595779
0.00877898186445236206 0.00934017263352870941 -0.00964859779924154282
0.00935730338096618652 0.00925779249519109726 -0.00903621409088373184
0.00979747157543897629 0.00945471785962581635 -0.00871868152171373367
0.00803119130432605743 0.0101777631789445877 -0.0108587583526968956
0.00800155848264694214 0.00940747279673814774 -0.010446951724588871
0.00829649996012449265 0.00958177819848060608 -0.0102584213018417358
0.00847053807228803635 0.00941282138228416443 -0.00999163743108510971
0.0098299691453576088 0.00909006968140602112 -0.00847826246172189713
0.0102807525545358658 0.00594441499561071396 -0.00485777948051691055
0.0093084089457988739 0.00446814065799117088 -0.00502251274883747101
0.00926157645881175995 0.00466067902743816376 -0.00561208324506878853
0.00989447347819805145 0.00543376617133617401 -0.00509050395339727402
0.0107536409050226212 0.00625752517953515053 -0.00388448894955217838
0.0105150742456316948 0.00596343539655208588 -0.00407518027350306511
0.00739920977503061295 0.00110096298158168793 -0.0043123587965965271
0.0111230993643403053 0.00691100861877202988 -0.00402606697753071785
0.00953848659992218018 0.00490428600460290909 -0.00517508573830127716
0.00762180564925074577 0.0011984650045633316 -0.00365965953096747398
0.0104218367487192154 0.00558184320107102394 -0.00329500925727188587
0.00725733721628785133 0.000637191347777843475 -0.00374802900478243828
0.00681918393820524216 -0.000141786877065896988 -0.00339540513232350349
0.00857988465577363968 0.00226083165034651756 -0.00160891725681722164
0.00766139104962348938 0.00117987021803855896 -0.00329982140101492405
0.00842859130352735519 0.00230350974015891552 -0.0028591998852789402
0.0104623846709728241 0.00569832324981689453 -0.00352306966669857502
0.00715499045327305794 -0.000330305629177019 -0.000207417877390980721
0.00908620189875364304 0.00318459421396255493 -0.00212029647082090378
0.00785422325134277344 0.00158102018758654594 -0.00371175841428339481
0.00978044141083955765 0.00435784552246332169 -0.00241040810942649841
0.00771304219961166382 0.00101369083859026432 -0.0022055385634303093
0.00991849880665540695 0.00435623154044151306 -0.00143385923001915216
0.00816134456545114517 0.00144121935591101646 -0.000939683523029088974
0.0108109749853610992 0.00571468425914645195 -0.0011472764890640974
0.0101923458278179169 0.00481447670608758926 -0.00152825936675071716
0.0114350179210305214 0.00662919925525784492 -0.00079126446507871151
0.0115183638408780098 0.00711833639070391655 -0.00235936767421662807
0.0100952479988336563 0.00446833018213510513 -0.000686215935274958611
0.00933282356709241867 0.0031016557477414608 -2.33734026551246643e-05
0.0106707215309143066 0.00565899442881345749 -0.00188697269186377525
0.0106360539793968201 0.00552674010396003723 -0.00154817732982337475
0.0104089761152863503 0.00484545528888702393 -0.000143455457873642445
0.00992618221789598465 0.00420810095965862274 -0.00072778074536472559
0.0103613743558526039 0.00515015656128525734 -0.00181912537664175034
0.0121505856513977051 0.00857154466211795807 -0.00188872439321130514
0.0127054667100310326 0.00957146752625703812 -0.000273585785180330276
0.0129225077107548714 0.0101215159520506859 -7.5345626100897789e-05
0.0118688773363828659 0.0080831749364733696 -0.00276130088604986668
0.0120475515723228455 0.00801055785268545151 -0.00116488127969205379
0.0123800504952669144 0.00869702920317649841 -0.000435162335634231567
0.0119302170351147652 0.00728662637993693352 -0.000108500942587852478
0.0119673088192939758 0.0084474002942442894 -0.00298445858061313629
0.0131859825924038887 0.0115550355985760689 -0.00192354002501815557
0.0131827201694250107 0.0109998499974608421 -0.000434692017734050751
0.0115659218281507492 0.00742623209953308105 -0.00334035512059926987
0.0117200473323464394 0.00768381962552666664 -0.00283676246181130409
0.0125810513272881508 0.00963293574750423431 -0.00141495198477059603
0.0143850613385438919 0.014542972669005394 -0.000689482316374778748
0.0142967663705348969 0.0153274191543459892 -0.00352022633887827396
0.0144705967977643013 0.0159382224082946777 -0.00382588268257677555
0.0135588804259896278 0.0131797054782509804 -0.00343677238561213017
0.0143150230869650841 0.0144454548135399818 -0.000971607631072402
0.0136077767238020897 0.0132286306470632553 -0.00318755442276597023
0.0142594492062926292 0.0145603418350219727 -0.00171992485411465168
0.0128593370318412781 0.0113106993958353996 -0.00381346303038299084
0.0141205834224820137 0.0145833492279052734 -0.00286947702988982201
0.0129338372498750687 0.0109612056985497475 -0.00227709440514445305
0.013306833803653717 0.012193828821182251 -0.00272017158567905426
0.0133673707023262978 0.0127078741788864136 -0.00364855746738612652
0.0128427920863032341 0.0109594268724322319 -0.00298478268086910248
0.0106092849746346474 0.00660666264593601227 -0.00501720281317830086
0.0102377524599432945 0.00732659688219428062 -0.00672216759994626045
0.010402236133813858 0.00721118878573179245 -0.00619946606457233429
0.0102802226319909096 0.00639220047742128372 -0.00555448979139328003
0.0127992052584886551 0.0118786636739969254 -0.00446924148127436638
0.0115517163649201393 0.0108359325677156448 -0.00667923642322421074
0.0115482611581683159 0.0118677318096160889 -0.00758685264736413956
0.0119258398190140724 0.0105182528495788574 -0.005467213224619627
0.0121234944090247154 0.0126194534823298454 -0.00680382410064339638
0.0120158838108181953 0.00906918663531541824 -0.00397959072142839432
0.0134342815726995468 0.0130574647337198257 -0.00390872033312916756
0.01438926812261343 0.0157188288867473602 -0.00384019524790346622
0.0121411681175231934 0.00927308201789855957 -0.00384404882788658142
0.0126774823293089867 0.0114570539444684982 -0.00440619047731161118
0.0120338350534439087 0.00967368204146623611 -0.00446139462292194366
0.0136020630598068237 0.013838854618370533 -0.00417009834200143814
0.0124246496707201004 0.0101631330326199532 -0.0039108707569539547
0.0129915447905659676 0.0118026584386825562 -0.00392220728099346161
0.0123059945181012154 0.0103517547249794006 -0.00437182886525988579
0.0113247008994221687 0.0103514576330780983 -0.00682462612167000771
0.0124769266694784164 0.0124970246106386185 -0.00581363961100578308
0.0106809074059128761 0.00809751730412244797 -0.00647545093670487404
0.0108373910188674927 0.00839902181178331375 -0.00634535588324069977
0.0103467917069792747 0.00813208520412445068 -0.0073432624340057373
0.0109214894473552704 0.00995456986129283905 -0.0074875829741358757
-0.0154999233782291412 0.0249757356941699982 -0.0019179079681634903
-0.0134000815451145172 0.0249790269881486893 0.00537176616489887238
-0.0140761183574795723 0.0249779671430587769 0.00276272604241967201
-0.0149272121489048004 0.0249766334891319275 0.000538297928869724274
-0.0133884493261575699 0.0249790437519550323 0.00691796932369470596
-0.0155558772385120392 0.0249756462872028351 -0.000545817427337169647
-0.0146030168980360031 0.0249771419912576675 0.00176988076418638229
-0.0143404863774776459 0.0249775536358356476 -0.0044632558710873127
-0.0135716637596487999 0.0249787587672472 0.00353425741195678711
-0.0139352995902299881 0.0249781887978315353 0.00265654688701033592
-0.0128611084073781967 0.0249798707664012909 0.00530882319435477257
-0.0144516201689839363 0.0249773785471916199 0.000121922232210636139
-0.0142745217308402061 0.0249776542186737061 -0.000184041447937488556
-0.0132063906639814377 0.0249793287366628647 0.00326533708721399307
-0.014179169200360775 0.0249778050929307938 -0.00305695272982120514
-0.0143912453204393387 0.0249774716794490814 -0.00610764790326356888
-0.0151093294844031334 0.0249763466417789459 -0.00249185017310082912
-0.0130913574248552322 0.0249795112758874893 0.00245193205773830414
-0.0147713078185915947 0.0249768756330013275 -0.0023885718546807766
-0.0132244639098644257 0.0249793007969856262 -0.00786517653614282608
-0.0128477085381746292 0.0249798912554979324 -0.00663448870182037354
-0.0126019660383462906 0.0249802768230438232 -0.00905939377844333649
-0.0128971245139837265 0.024979814887046814 -0.00523774418979883194
-0.012277127243578434 0.0249807871878147125 -0.00924989022314548492
-0.0122870691120624542 0.0249807704240083694 -0.00920626800507307053
-0.01209300197660923 0.0249810758978128433 -0.00766375474631786346
-0.0137522825971245766 0.0249784737825393677 -0.00681775575503706932
-0.0130089856684207916 0.0249796397984027863 -0.00896739866584539413
-0.012256452813744545 0.0249808188527822495 0.000712353736162185669
-0.0121010411530733109 0.0249810628592967987 1.06599181890487671e-05
-0.0127845639362931252 0.0249799918383359909 -0.00535371806472539902
-0.0134327607229351997 0.0249789748340845108 -0.00429898034781217575
-0.0127134919166564941 0.0249801017343997955 -0.000975778326392173767
-0.0122335711494088173 0.0249808542430400848 -0.0102357082068920135
-0.0121386516839265823 0.0249810032546520233 -0.00176584161818027496
-0.0124544538557529449 0.0249805077910423279 -0.00398766016587615013
-0.0102017167955636978 0.0249840393662452698 -0.010619322769343853
-0.0101707903668284416 0.0249840877950191498 -0.00513776019215583801
-0.0106548182666301727 0.0249833296984434128 -0.00428714882582426071
-0.0117737464606761932 0.0249815750867128372 -0.00458442931994795799
-0.0110078863799571991 0.0249827764928340912 -0.00340516306459903717
-0.0111864926293492317 0.0249824970960617065 -0.00101321376860141754
-0.0113507676869630814 0.0249822381883859634 0.000299887731671333313
-0.00996408239006996155 0.024984411895275116 -0.0114324577152729034
-0.0107127577066421509 0.0249832384288311005 -0.00927457213401794434
-0.0117685608565807343 0.0249815843999385834 0.00566200539469718933
-0.011534656397998333 0.0249819513410329819 0.00411727745085954666
-0.0119106145575642586 0.0249813627451658249 -0.00215019937604665756
-0.0103764431551098824 0.0249837674200534821 -0.0115173105150461197
-0.0105574904009699821 0.0249834824353456497 -0.00240116380155086517
-0.0107104387134313583 0.0249832421541213989 -0.0116464355960488319
-0.0115872165188193321 0.0249818693846464157 -0.00984330009669065475
-0.0114741427823901176 0.0249820444732904434 -0.00913402251899242401
-0.0103004490956664085 0.0249838847666978836 -0.00962308980524539948
-0.0110582951456308365 0.0249826982617378235 -0.00315254088491201401
-0.0118907904252409935 0.0249813906848430634 -0.00383410882204771042
-0.0111929532140493393 0.0249824859201908112 -0.00519273756071925163
-0.0114741362631320953 0.0249820463359355927 -0.00993569474667310715
-0.00958401430398225784 0.0249850079417228699 -0.00901220645755529404
-0.00981452967971563339 0.0249846465885639191 -0.00202954746782779694
-0.00922244414687156677 0.0249855741858482361 -0.00263101793825626373
-0.0106453206390142441 0.0249833427369594574 0.00482693221420049667
-0.00687487516552209854 0.0249892547726631165 -0.0105022024363279343
-0.00797478202730417252 0.0249875318259000778 -0.0120510421693325043
-0.00781599618494510651 0.0249877795577049255 -0.0111293308436870575
-0.00845040660351514816 0.0249867849051952362 -0.00769074540585279465
-0.0087964450940489769 0.02498624287545681 -0.00283921975642442703
-0.00861635617911815643 0.0249865259975194931 -0.00789924990385770798
-0.0095482412725687027 0.024985065683722496 -0.00775481713935732841
-0.00845777615904808044 0.0249867737293243408 -0.00547667406499385834
-0.00920660234987735748 0.0249856002628803253 -0.000878835096955299377
-0.00859031826257705688 0.0249865669757127762 -0.00710283545777201653
-0.0117675503715872765 0.0249815843999385834 0.00896272063255310059
-0.00979899242520332336 0.0249846726655960083 -0.00164974108338356018
-0.00777277210727334023 0.0249878466129302979 -0.0110596232116222382
-0.0093641970306634903 0.0249853525310754776 -0.00169484876096248627
-0.00846119597554206848 0.0249867681413888931 -0.00401517841964960098
-0.00712037133052945137 0.0249888710677623749 -0.0133303999900817871
-0.00809442810714244843 0.0249873436987400055 -0.0131003241986036301
-0.0086603257805109024 0.0249864552170038223 -0.0103890812024474144
-0.00763412564992904663 0.0249880664050579071 -0.0104704443365335464
-0.00805605016648769379 0.0249874033033847809 -0.0126118026673793793
-0.00725714443251490593 0.0249886550009250641 -0.0106628555804491043
-0.0099582914263010025 0.0249844212085008621 -0.001814279705286026
-0.00979241635650396347 0.0249846819788217545 -0.00610657595098018646
-0.0114175202324986458 0.0249821338802576065 0.00738288275897502899
-0.00757234031334519386 0.0249881613999605179 -0.00398140866309404373
-0.00765300216153264046 0.0249880347400903702 -0.00382392574101686478
-0.00486896466463804245 0.0249923970550298691 -0.0109569970518350601
-0.00383363151922821999 0.0249940212815999985 -0.011624511331319809
-0.0051558520644903183 0.0249919500201940536 -0.014776802621781826
-0.00976847019046545029 0.0249847173690795898 0.00250192172825336456
-0.0065430840477347374 0.0249897744506597519 -0.00461968965828418732
-0.0113703496754169464 0.0249822083860635757 0.00799601525068283081
-0.00942615047097206116 0.0249852556735277176 0.0026324056088924408
-0.00436962861567735672 0.0249931793659925461 -0.0106285233050584793
-0.00365129276178777218 0.0249943062663078308 -0.0133408298715949059
-0.0083309616893529892 0.0249869711697101593 -0.00357038155198097229
-0.00511717144399881363 0.024992009624838829 -0.00997819192707538605
-0.00529338093474507332 0.0249917339533567429 -0.00919209234416484833
-0.008773081935942173 0.0249862782657146454 -0.000172071158885955811
-0.00879165250808000565 0.0249862503260374069 -0.000897130928933620453
-0.00409669242799282074 0.0249936077743768692 -0.0106843365356326103
-0.00554279470816254616 0.0249913409352302551 -0.0107937753200531006
-0.00444650091230869293 0.0249930620193481445 -0.0105586759746074677
-0.00584749877452850342 0.0249908659607172012 -0.011966971680521965
-0.011274261400103569 0.0249823592603206635 0.00792604871094226837
-0.0054349387064576149 0.0249915122985839844 -0.00708001758903264999
-0.00949015934020280838 0.0249851550906896591 0.00336148589849472046
-0.00984673760831356049 0.0249845962971448898 0.00400187447667121887
-0.00645363004878163338 0.0249899160116910934 -0.0113200163468718529
-0.00450239982455968857 0.0249929726123809814 -0.0125269657000899315
-0.00632282672449946404 0.0249901209026575089 -0.0117522245272994041
-0.00757345464080572128 0.0249881595373153687 -0.0039003714919090271
-0.00532435206696391106 0.0249916855245828629 -0.0147118084132671356
-0.00715255457907915115 0.0249888207763433456 -0.00674445461481809616
-0.00748140737414360046 0.0249883048236370087 -0.0076212054118514061
-0.00765461847186088562 0.0249880328774452209 -0.00554009154438972473
-0.00494737550616264343 0.0249922759830951691 -0.00984199810773134232
-0.00509145576506853104 0.0249920506030321121 -0.00522999372333288193
-0.00496156094595789909 0.0249922536313533783 -0.00468362122774124146
-0.0040493975393474102 0.0249936822801828384 -0.0101138632744550705
-0.000928924535401165485 0.0249985735863447189 -0.0138121284544467926
-0.000919170677661895752 0.024998590350151062 -0.0127105377614498138
-0.00471631903201341629 0.0249926373362541199 -0.00789897236973047256
-0.000289209303446114063 0.0249995756894350052 -0.0148310717195272446
-0.00872064661234617233 0.0249863602221012115 0.00357465445995330811
0.000278207298833876848 0.0250004660338163376 -0.0144912032410502434
-0.0102566275745630264 0.0249839536845684052 0.00653709098696708679
-0.00697071198374032974 0.0249891038984060287 0.000754732638597488403
-0.0035010073333978653 0.0249945428222417831 -0.0057089654728770256
-0.00281953439116477966 0.0249956101179122925 -0.0104066133499145508
0.000385539140552282333 0.0250006336718797684 -0.0132058924064040184
-0.00438354350626468658 0.0249931588768959045 -0.00677614565938711166
-0.00432153698056936264 0.0249932575970888138 -0.00490544922649860382
-0.00713146757334470749 0.0249888524413108826 -0.00187745131552219391
-0.00220185401849448681 0.0249965786933898926 -0.0136458799242973328
-0.00561636872589588165 0.024991227313876152 -0.00454694591462612152
-0.00271741161122918129 0.0249957703053951263 -0.0116405226290225983
-0.00218096212483942509 0.0249966103583574295 -0.00920919328927993774
-3.56291420757770538e-05 0.0249999742954969406 -0.0142628336325287819
-0.00222911848686635494 0.0249965377151966095 -0.00940676312893629074
-0.00226675625890493393 0.0249964762479066849 -0.0132027333602309227
0.000874428485985845327 0.0250014010816812515 -0.0155585715547204018
-0.00375686120241880417 0.0249941404908895493 -0.0109814349561929703
-0.00692323967814445496 0.024989178404211998 -0.00189137179404497147
-0.00438335258513689041 0.0249931588768959045 -0.00659431144595146179
-0.00337916146963834763 0.0249947328120470047 -0.00893751438707113266
0.000380612560547888279 0.0250006280839443207 -0.0137561764568090439
-0.0105549627915024757 0.0249834861606359482 0.00769098848104476929
-0.0110892737284302711 0.0249826498329639435 0.00818786211311817169
-0.00112238549627363682 0.0249982718378305435 -0.0157057102769613266
-0.00806085672229528427 0.024987395852804184 0.00198164582252502441
-0.00304956501349806786 0.0249952506273984909 -0.0104468241333961487
-0.00585416238754987717 0.0249908547848463058 -0.00155922025442123413
-0.0035082818940281868 0.0249945316463708878 -0.0091155562549829483
-0.00175122858490794897 0.0249972864985466003 -0.0127600207924842834
-0.00218605529516935349 0.0249966047704219818 -0.00443786941468715668
-0.00303058139979839325 0.0249952804297208786 -0.00343442428857088089
-0.00324635300785303116 0.0249949414283037186 -0.0053292522206902504
-0.00227046385407447815 0.0249964706599712372 -0.00516521278768777847
-0.00292235706001520157 0.0249954499304294586 -0.00576094724237918854
0.0020919975358992815 0.025003308430314064 -0.014869379810988903
-0.00106344115920364857 0.0249983631074428558 -0.0100483037531375885
-0.00312482565641403198 0.0249951332807540894 -0.00248741544783115387
-0.000998342409729957581 0.0249984655529260635 -0.005575559101998806
0.0015025273896753788 0.0250023864209651947 -0.00947370752692222595
-0.00273476773872971535 0.0249957442283630371 -0.00384875386953353882
0.00180068728514015675 0.0250028539448976517 -0.0133300218731164932
0.00402628863230347633 0.0250063426792621613 -0.0141534227877855301
-0.000769874546676874161 0.0249988250434398651 -0.00616613030433654785
-0.00383233372122049332 0.0249940250068902969 -0.00375761184841394424
0.000124979298561811447 0.025000227615237236 -0.00855387281626462936
-0.00449224375188350677 0.0249929893761873245 -0.00115210749208927155
-0.00336785474792122841 0.0249947533011436462 -0.0037298053503036499
0.0051212850958108902 0.025008058175444603 -0.0146521516144275665
0.00362575286999344826 0.0250057149678468704 -0.0147098517045378685
0.00109573360532522202 0.0250017475336790085 -0.00873435288667678833
0.00446058390662074089 0.0250070225447416306 -0.0146353216841816902
0.00428342306986451149 0.0250067450106143951 -0.0150735089555382729
-0.00379509152844548225 0.0249940827488899231 -0.00148085970431566238
0.000916138757020235062 0.0250014681369066238 -0.0106170373037457466
-0.000254145590588450432 0.0249996315687894821 -0.0114557854831218719
-0.000516310334205627441 0.0249992199242115021 -0.00924297887831926346
-0.00333788106217980385 0.024994799867272377 -0.00270131323486566544
-0.00157597870565950871 0.0249975603073835373 -0.00806440692394971848
-0.00130562018603086472 0.0249979831278324127 -0.00614556297659873962
0.00173575163353234529 0.0250027496367692947 -0.0152207855135202408
-0.000887010246515274048 0.024998638778924942 -0.00633927527815103531
0.00105386041104793549 0.0250016823410987854 -0.00844019651412963867
0.0018662142101675272 0.0250029563903808594 -0.0125767551362514496
0.00146682746708393097 0.0250023305416107178 -0.0100620370358228683
0.00411631818860769272 0.0250064823776483536 -0.0139511497691273689
-0.00650487048551440239 0.0249898340553045273 0.00198601372539997101
-0.00179958483204245567 0.0249972101300954819 -0.00837963633239269257
0.00278222118504345417 0.0250043924897909164 -0.0113322753459215164
-0.00644370820373296738 0.0249899309128522873 7.86790624260902405e-05
-0.00224017654545605183 0.0249965190887451172 -0.00773261580616235733
0.00188401807099580765 0.0250029843300580978 -0.00824063457548618317
0.0056259925477206707 0.0250088497996330261 -0.0119272787123918533
-0.000119453296065330505 0.0249998439103364944 -0.00475187040865421295
0.00383116723969578743 0.0250060372054576874 -0.00740377511829137802
-0.00107662193477153778 0.0249983444809913635 -0.00268926750868558884
0.00666663702577352524 0.0250104796141386032 -0.0106188710778951645
0.0011441023088991642 0.025001823902130127 -0.00776107236742973328
0.00123044941574335098 0.0250019598752260208 -0.00723109394311904907
0.00430041830986738205 0.0250067710876464844 -0.00903711840510368347
-0.00175804924219846725 0.024997275322675705 -0.00388176459819078445
-0.004325072281062603 0.0249932501465082169 0.00192224141210317612
0.00441185897216200829 0.0250069461762905121 -0.0084324302151799202
-0.00816874857991933823 0.0249872263520956039 0.00604498852044343948
0.00743670901283621788 0.0250116866081953049 -0.0127434972673654556
-0.00796726346015930176 0.024987541139125824 0.00551819987595081329
0.00163591792806982994 0.0250025950372219086 -0.00895200669765472412
0.00696661835536360741 0.0250109508633613586 -0.0141783412545919418
0.000632882118225097656 0.0250010229647159576 -0.00421141739934682846
0.00686667254194617271 0.0250107944011688232 -0.0107841454446315765
0.0066933915950357914 0.0250105224549770355 -0.0135915689170360565
0.00023705093190073967 0.0250004027038812637 -0.00668638153001666069
-0.00501661654561758041 0.0249921679496765137 0.000813429243862628937
0.00197668466717004776 0.0250031277537345886 -0.00632271263748407364
-0.000409506261348724365 0.0249993894249200821 -0.00426930282264947891
0.00106508191674947739 0.0250017009675502777 -0.00574705377221107483
0.00555654335767030716 0.0250087417662143707 -0.011903681792318821
0.0058189835399389267 0.0250091515481472015 -0.0133155444636940956
0.006158449687063694 0.0250096842646598816 -0.0103704491630196571
-0.0017850436270236969 0.0249972324818372726 -0.0010671587660908699
0.00762911047786474228 0.0250119883567094803 -0.0126448879018425941
-0.00342478370293974876 0.0249946638941764832 -0.00130998250097036362
-0.00320687703788280487 0.0249950028955936432 -0.000819955021142959595
-0.00194793008267879486 0.024996977299451828 -0.00190124567598104477
0.000785830430686473846 0.0250012632459402084 -0.00606647459790110588
-0.00427927356213331223 0.0249933246523141861 0.000308696180582046509
0.0016928412951529026 0.0250026844441890717 -0.00549308210611343384
0.00129420589655637741 0.0250020604580640793 -0.00695852562785148621
-0.00399457290768623352 0.0249937698245048523 -0.000241216272115707397
-0.00592826306819915771 0.0249907374382019043 0.00285767670720815659
0.00440351758152246475 0.0250069331377744675 -0.0114080514758825302
0.00625491747632622719 0.0250098351389169693 -0.011135750450193882
0.00360180437564849854 0.0250056758522987366 -0.00986511912196874619
0.00264470465481281281 0.0250041764229536057 -0.00598138663917779922
-0.00312532112002372742 0.0249951314181089401 -0.000207099132239818573
0.00947732105851173401 0.0250148866325616837 -0.010941624641418457
-0.003174610435962677 0.0249950550496578217 0.00077924039214849472
0.00575033063068985939 0.0250090435147285461 -0.0071881595067679882
0.00707307877019047737 0.0250111185014247894 -0.00964164920151233673
0.00343075534328818321 0.0250054076313972473 -0.00639028241857886314
0.00737013481557369232 0.0250115823000669479 -0.00844113621860742569
-1.92178413271903992e-05 0.0250000003725290298 -0.00124698039144277573
0.00386441312730312347 0.0250060874968767166 -0.00357458135113120079
0.000318749807775020599 0.0250005293637514114 -0.0017827032133936882
0.0110492631793022156 0.025017349049448967 -0.00986782088875770569
0.000836261548101902008 0.0250013396143913269 -0.00233093928545713425
0.00555224763229489326 0.0250087324529886246 -0.00593195017427206039
0.0110017312690615654 0.0250172745436429977 -0.00990000739693641663
-0.00712045188993215561 0.0249888692051172256 0.00576421897858381271
0.00535749457776546478 0.0250084269791841507 -0.00542712211608886719
0.00606385152786970139 0.0250095352530479431 -0.00638830848038196564
0.00461169285699725151 0.0250072591006755829 -0.00515723181888461113
0.00891321338713169098 0.025014001876115799 -0.0115035176277160645
-0.00617735646665096283 0.024990348145365715 0.00455874763429164886
0.00342135503888130188 0.0250053927302360535 -0.00518427463248372078
0.00331894773989915848 0.0250052325427532196 -0.00392924482002854347
0.000101027078926563263 0.0250001884996891022 -0.000441345386207103729
0.0084573701024055481 0.0250132884830236435 -0.0117823882028460503
0.00919174123555421829 0.025014437735080719 -0.00835726037621498108
0.00991723593324422836 0.0250155739486217499 -0.0103999273851513863
0.00638132821768522263 0.0250100325793027878 -0.00752300862222909927
0.00895541161298751831 0.025014067068696022 -0.0108222030103206635
0.00473808962851762772 0.0250074565410614014 -0.00608697440475225449
2.52202153205871582e-05 0.0250000692903995514 -0.000627656467258930206
-0.00505484919995069504 0.0249921064823865891 0.00312290992587804794
0.00201237108558416367 0.0250031836330890656 -0.00491446396335959435
0.00629100948572158813 0.0250098910182714462 -0.00789470970630645752
0.00920274853706359863 0.0250144544988870621 -0.00833931379020214081
-0.00294100958853960037 0.0249954201281070709 0.00088971015065908432
0.00568391429260373116 0.0250089392066001892 -0.00594246527180075645
0.00889245979487895966 0.025013970211148262 -0.0119082722812891006
0.00502859940752387047 0.0250079110264778137 -0.00615681009367108345
0.00796404201537370682 0.0250125117599964142 -0.00862245168536901474
0.00600914051756262779 0.0250094495713710785 -0.00825425609946250916
0.00427812943235039711 0.025006735697388649 -0.00503790751099586487
0.0100717917084693909 0.0250158160924911499 -0.00902414228767156601
0.00719362683594226837 0.0250113066285848618 -0.0104394489899277687
0.00893397442996501923 0.0250140335410833359 -0.0112643763422966003
0.00875398702919483185 0.0250137504190206528 -0.00811404548585414886
-0.00749414507299661636 0.0249882843345403671 0.00594104453921318054
0.000912320800125598907 0.0250014588236808777 -0.00058239419013261795
0.00870273075997829437 0.0250136703252792358 -0.00426679756492376328
-0.00426466483622789383 0.0249933451414108276 0.00522479508072137833
0.000665408559143543243 0.0250010732561349869 0.00132958125323057175
0.00226356927305459976 0.0250035785138607025 -0.00143921608105301857
-0.0108579415827989578 0.0249830111861228943 0.00967385340481996536
0.00151009112596511841 0.0250023975968360901 5.12292608618736267e-05
0.0111596081405878067 0.0250175222754478455 -0.00937211513519287109
0.00635584676638245583 0.0250099934637546539 -0.00279054604470729828
0.00937192142009735107 0.0250147208571434021 -0.00667996052652597427
-0.00116718187928199768 0.0249982010573148727 0.00214930251240730286
0.0116174453869462013 0.0250182412564754486 -0.00796334631741046906
0.0124754011631011963 0.0250195842236280441 -0.00977753475308418274
0.00870895944535732269 0.025013679638504982 -0.00445169303566217422
0.0114568518474698067 0.0250179879367351532 -0.0101326024159789085
-0.0039971526712179184 0.0249937660992145538 0.0039256243035197258
0.00880117248743772507 0.025013824924826622 -0.00718866381794214249
0.00815570726990699768 0.0250128135085105896 -0.00612177606672048569
0.00174976326525211334 0.0250027738511562347 -0.000910448841750621796
-0.000179451890289783478 0.0249997489154338837 0.00176711101084947586
-0.00365344155579805374 0.0249943044036626816 0.00405698176473379135
0.00435941014438867569 0.0250068642199039459 -0.00358586851507425308
-0.00187330134212970734 0.0249970927834510803 0.00218930002301931381
0.00287533551454544067 0.0250045377761125565 -0.00204813247546553612
-0.00130799878388643265 0.0249979794025421143 0.00156795606017112732
0.0106260925531387329 0.0250166859477758408 -0.00724671594798564911
0.00462644360959529877 0.0250072814524173737 -0.00343837961554527283
0.00550846895202994347 0.025008663535118103 -0.00359011534601449966
0.00391582958400249481 0.0250061675906181335 -0.00337772583588957787
0.00312437023967504501 0.0250049270689487457 -0.00275032967329025269
-0.0068462323397397995 0.024989299476146698 0.00647491030395030975
0.00736202672123908997 0.0250115711241960526 -0.00421000085771083832
0.000399387441575527191 0.0250006560236215591 0.00173006905242800713
0.00208027102053165436 0.0250032916665077209 0.000508345197886228561
0.00576977338641881943 0.0250090751796960831 -0.00241926219314336777
0.00285933166742324829 0.0250045116990804672 -8.4921717643737793e-05
-0.0043635861948132515 0.0249931905418634415 0.00446431245654821396
0.0120039619505405426 0.0250188466161489487 -0.0100727947428822517
0.00971829146146774292 0.0250152628868818283 -0.00821781903505325317
-0.00933449435979127884 0.0249853990972042084 0.00836466997861862183
-0.000243012793362140656 0.0249996483325958252 0.000926522538065910339
0.00382083654403686523 0.0250060204416513443 -0.000344627536833286285
0.00824992731213569641 0.0250129606574773788 -0.00454162620007991791
-0.00140604842454195023 0.0249978266656398773 0.00248754024505615234
-0.00152781326323747635 0.0249976366758346558 0.00275999680161476135
1.30357220768928528e-05 0.0250000506639480591 0.00394370360299944878
-0.00116896443068981171 0.0249981973320245743 0.00488737784326076508
0.0138021707534790039 0.0250216647982597351 -0.00663881981745362282
0.00354505144059658051 0.0250055883079767227 -8.69822688400745392e-05
0.0142680751159787178 0.0250223949551582336 -0.00657883100211620331
-0.00789028219878673553 0.0249876640737056732 0.00786477420479059219
-0.000182566232979297638 0.0249997451901435852 0.00345923611894249916
0.0123478956520557404 0.0250193849205970764 -0.005093366838991642
0.0101227555423974991 0.0250158961862325668 -0.00251147779636085033
0.00859122537076473236 0.0250134952366352081 -0.00247332639992237091
0.0003381362184882164 0.0250005591660737991 0.003330218605697155
0.00112723279744386673 0.0250017978250980377 0.00249013211578130722
0.0134146846830844879 0.0250210557132959366 -0.00299478601664304733
0.00105386786162853241 0.0250016823410987854 0.00277450773864984512
-0.00246959924697875977 0.0249961595982313156 0.00407855212688446045
0.0150964008644223213 0.0250236932188272476 -0.004103886429220438
0.00974836759269237518 0.0250153094530105591 -0.00106404093094170094
0.00392035581171512604 0.0250061750411987305 0.00181382941082119942
0.00172533746808767319 0.0250027347356081009 0.00131752947345376015
-0.00842022523283958435 0.024986831471323967 0.00820407271385192871
0.00835367292165756226 0.0250131245702505112 -0.00111289252527058125
0.00476675201207399368 0.0250075012445449829 0.000642085913568735123
0.00373390130698680878 0.0250058826059103012 0.00145097728818655014
0.00979727879166603088 0.0250153858214616776 -0.00315556302666664124
0.00879074260592460632 0.0250138100236654282 -0.000869783805683255196
0.0145505256950855255 0.0250228364020586014 -0.00597353978082537651
0.0140209905803203583 0.0250220075249671936 -0.00487474352121353149
0.0134758912026882172 0.0250211525708436966 -0.00301414728164672852
0.00660214107483625412 0.0250103790313005447 -0.000818906351923942566
-0.0060077393427491188 0.0249906145036220551 0.00694824615493416786
0.010230163112282753 0.0250160656869411469 -0.00247218180447816849
0.00473452266305685043 0.0250074509531259537 -0.000901621300727128983
-0.00693587679415941238 0.0249891579151153564 0.00768220797181129456
0.00345260836184024811 0.0250054411590099335 0.00129046151414513588
0.00290648732334375381 0.0250045862048864365 0.000880796927958726883
0.0110464785248041153 0.0250173453241586685 -0.00466388324275612831
0.00869584549218416214 0.0250136591494083405 -0.00294917239807546139
0.00769309932366013527 0.0250120889395475388 -0.00111812190152704716
0.0148721570149064064 0.025023341178894043 -0.00432759290561079979
-0.0025019599124789238 0.0249961074441671371 0.00451682135462760925
0.0139881046488881111 0.0250219572335481644 -0.00537211215123534203
0.00928286183625459671 0.0250145811587572098 -0.00227514724247157574
-0.00211862102150917053 0.0249967090785503387 0.00398781895637512207
-0.0020852675661444664 0.0249967612326145172 0.00436854781582951546
-0.000216746702790260315 0.0249996911734342575 0.00449646962806582451
-0.00741572864353656769 0.0249884072691202164 0.00864915736019611359
-0.00706716254353523254 0.024988953024148941 0.00841614697128534317
0.00242516957223415375 0.0250038318336009979 0.00426898384466767311
0.00422922056168317795 0.0250066593289375305 0.00216201925650238991
-0.00192422419786453247 0.0249970145523548126 0.00586177874356508255
0.00642797257751226425 0.025010107085108757 0.00131453410722315311
-0.00847564078867435455 0.0249867457896471024 0.00904866401106119156
0.0144654968753457069 0.025022704154253006 -0.000738634320441633463
0.0107293510809540749 0.0250168479979038239 -0.001255560084246099
0.00769146252423524857 0.0250120870769023895 0.0027643770445138216
-0.00339378602802753448 0.0249947104603052139 0.00692348135635256767
0.00937360618263483047 0.0250147245824337006 0.00165565614588558674
0.0154712153598666191 0.0250242799520492554 -0.00320493127219378948
0.0105149876326322556 0.0250165127217769623 0.000835922430269420147
0.00862767361104488373 0.0250135548412799835 0.00166892935521900654
0.00918022636324167252 0.0250144209712743759 0.00185825908556580544
0.0125813325867056847 0.0250197518616914749 0.000416371156461536884
0.00467791780829429626 0.0250073615461587906 0.00222786515951156616
0.0147929973900318146 0.0250232182443141937 -0.000398728298023343086
0.000828555785119533539 0.0250013284385204315 0.00570167787373065948
0.00821721926331520081 0.0250129103660583496 0.00265213917009532452
-0.00874010846018791199 0.0249863304197788239 0.00914183724671602249
-0.000122630968689918518 0.0249998383224010468 0.0049790884368121624
0.0128314578905701637 0.0250201430171728134 -0.00186491641215980053
0.0140602095052599907 0.0250220689922571182 -0.00249752332456409931
0.0150889353826642036 0.0250236820429563522 -0.000182092422619462013
0.0154673904180526733 0.0250242743641138077 -0.0033350891899317503
0.00649196375161409378 0.0250102058053016663 0.00113578862510621548
0.0058146994560956955 0.0250091440975666046 0.00299335038289427757
0.00592796877026557922 0.0250093229115009308 0.00286019546911120415
-0.0035126861184835434 0.0249945241957902908 0.00735797407105565071
0.00229289662092924118 0.0250036250799894333 0.00398942455649375916
-0.00828370638191699982 0.0249870475381612778 0.00915059726685285568
0.012774905189871788 0.0250200536102056503 5.14124985784292221e-06
0.0145506523549556732 0.0250228382647037506 -0.00102112756576389074
0.00623239669948816299 0.0250097997486591339 0.00285822083242237568
0.00978970713913440704 0.0250153746455907822 -0.000410076696425676346
0.00574351567775011063 0.0250090323388576508 0.00360390939749777317
-0.00587182305753231049 0.0249908268451690674 0.00812709704041481018
0.0124613326042890549 0.0250195637345314026 -0.000390335102565586567
-0.00734992232173681259 0.0249885097146034241 0.00898714642971754074
0.008376292884349823 0.0250131599605083466 0.00322125712409615517
0.0127026364207267761 0.0250199399888515472 0.0025333829689770937
0.0153400925919413567 0.02502407506108284 0.00320422649383544922
-0.0021316036581993103 0.0249966904520988464 0.00699994340538978577
0.0142400292679667473 0.0250223521143198013 0.00226408662274479866
0.00633868668228387833 0.0250099655240774155 0.00455727893859148026
0.00671337265521287918 0.0250105541199445724 0.00559848640114068985
0.0146278161555528641 0.0250229593366384506 0.00256367377005517483
0.00723454728722572327 0.0250113699585199356 0.00335381808690726757
-0.00407032854855060577 0.0249936506152153015 0.00780791789293289185
0.00519515294581651688 0.0250081736594438553 0.00443659955635666847
0.0130139254033565521 0.025020429864525795 0.00197491026483476162
0.0152523498982191086 0.0250239372253417969 0.00350350374355912209
0.0124285453930497169 0.0250195115804672241 0.00454548653215169907
0.012144777923822403 0.0250190682709217072 0.00193561753258109093
0.0135109256953001022 0.0250212084501981735 0.00118056253995746374
0.0151333389803767204 0.0250237509608268738 0.00318879541009664536
0.0115007869899272919 0.025018058717250824 0.00375542859546840191
0.00830604135990142822 0.0250130500644445419 0.00330059509724378586
0.0145176127552986145 0.0250227861106395721 0.00208994024433195591
0.0146165480837225914 0.0250229407101869583 0.0034661067184060812
0.0152278570458292961 0.0250238999724388123 0.000343294959748163819
0.00831629149615764618 0.0250130649656057358 0.00472272373735904694
0.010100068524479866 0.0250158607959747314 0.00336523749865591526
0.0108337104320526123 0.0250170119106769562 0.00450422149151563644
0.00847301166504621506 0.0250133108347654343 0.00479850266128778458
0.0115400794893503189 0.0250181201845407486 0.0017102615674957633
0.00225271657109260559 0.0250035617500543594 0.00600009411573410034
0.00748537667095661163 0.0250117648392915726 0.00495488801971077919
0.0127334874123334885 0.0250199884176254272 0.0020418977364897728
0.00227662269026041031 0.0250035990029573441 0.00577064696699380875
0.0126977087929844856 0.0250199344009160995 0.00193373742513358593
0.0114732636138796806 0.0250180158764123917 0.00213334988802671432
0.0122172031551599503 0.0250191818922758102 0.00398782547563314438
0.00672357343137264252 0.0250105690211057663 0.00585949793457984924
-0.00128867197781801224 0.0249980110675096512 0.00766608398407697678
-0.00432888884097337723 0.0249932445585727692 0.00841309409588575363
0.00464723445475101471 0.0250073131173849106 0.00669343909248709679
0.00130375847220420837 0.0250020753592252731 0.00898777414113283157
