ply
format ascii 1.0
element vertex 713
property float x
property float y
property float z
end_header
0.018924228847026825 -0.00955079495906829834 0.0316815003752708435
0.028020443394780159 -0.0114777470007538795 0.0321709625422954559
0.019146384671330452 -0.0104378480464220047 0.0312889367341995239
0.0227164030075073242 -0.0152176925912499428 0.029543386772274971
0.0266489889472723007 -0.0112071400508284569 0.0320875681936740875
0.018884710967540741 -0.0157694313675165176 0.0286806058138608932
0.0205389037728309631 -0.0111089590936899185 0.0311827380210161209
0.0285405777394771576 -0.0118535123765468597 0.0320710539817810059
0.0185755975544452667 -0.0155113870278000832 0.028756704181432724
0.0247942842543125153 -0.0145517988130450249 0.0301878545433282852
0.0159009452909231186 -0.0123918661847710609 0.0298422053456306458
0.018395615741610527 -0.0178678575903177261 0.0275938417762517929
0.0201544575393199921 -0.0132839744910597801 0.0300753992050886154
0.0175838489085435867 -0.0171716939657926559 0.0278026033192873001
0.0167691633105278015 -0.0173980072140693665 0.0275666657835245132
0.0165649242699146271 -0.0141544826328754425 0.0290968380868434906
0.0271826852113008499 -0.0116968480870127678 0.0319349020719528198
0.0176487565040588379 -0.0178483892232179642 0.0274868365377187729
0.01898917555809021 -0.0118393860757350922 0.030589492991566658
0.0194909386336803436 -0.00927571952342987061 0.0319022797048091888
0.0229153037071228027 -0.00994053855538368225 0.0321157239377498627
0.0137259792536497116 -0.0250109396874904633 0.0202151238918304443
0.0143196564167737961 -0.026554696261882782 0.0182269439101219177
0.0134635539725422859 -0.027154160663485527 0.017550760880112648
0.0140610616654157639 -0.0264692194759845734 0.0183569397777318954
0.017084246501326561 -0.0308162644505500793 0.012080988846719265
0.0168742146342992783 -0.0300342869013547897 0.0139141855761408806
0.0184510312974452972 -0.0305736493319272995 0.0129956882447004318
0.0267858784645795822 -0.0307098571211099625 0.0146811027079820633
0.0206466447561979294 -0.0306046288460493088 0.0134514803066849709
0.0254490375518798828 -0.0304473266005516052 0.014990631490945816
0.0163971669971942902 -0.0301308613270521164 0.0135662676766514778
0.0163371153175830841 -0.0303643327206373215 0.0129892844706773758
0.0273509230464696884 -0.0304319150745868683 0.015487227588891983
0.0305067375302314758 -0.0277748797088861465 0.0199903808534145355
0.0170523803681135178 -0.0294087678194046021 0.0150932697579264641
0.0305606834590435028 -0.0289097335189580917 0.0183564089238643646
0.0255899503827095032 -0.0272503159940242767 0.0198257677257061005
0.0180887375026941299 -0.0292222443968057632 0.0155583750456571579
0.0266660843044519424 -0.0282762255519628525 0.0185418445616960526
0.0174125228077173233 -0.0291176103055477142 0.0155828045681118965
0.0300264991819858551 -0.0263526123017072678 0.0219605863094329834
0.027990538626909256 -0.0292786974459886551 0.0173385664820671082
0.0302184782922267914 -0.0296942554414272308 0.0171554815024137497
0.0299715083092451096 -0.0275300964713096619 0.0202443636953830719
0.0248501487076282501 -0.028031911700963974 0.0185543149709701538
0.0275395028293132782 -0.0285333767533302307 0.0183335375040769577
0.0186487268656492233 -0.0297473501414060593 0.0149029344320297241
0.0247633755207061768 -0.0297438707202672958 0.0160577986389398575
0.0167733840644359589 -0.029483448714017868 0.014932611957192421
0.030199563130736351 -0.0272324495017528534 0.0207184664905071259
0.0219971667975187302 -0.0280807018280029297 0.0179471448063850403
0.0151460291817784309 -0.0266789030283689499 0.0181255806237459183
0.0185401923954486847 -0.0238685347139835358 0.0224411748349666595
0.0208905339241027832 -0.0232722312211990356 0.0237370114773511887
0.0217488184571266174 -0.0248333290219306946 0.0219796057790517807
0.0149571085348725319 -0.0241703130304813385 0.0212271958589553833
0.0162700023502111435 -0.0233599394559860229 0.0225495360791683197
0.0172226820141077042 -0.02599378302693367 0.0194689594209194183
0.0180115047842264175 -0.0282824151217937469 0.0167830567806959152
0.015192241407930851 -0.0219982601702213287 0.0240056980401277542
0.0196040254086256027 -0.0238342098891735077 0.0227323025465011597
0.015860455110669136 -0.0209901537746191025 0.0254256464540958405
0.0164297707378864288 -0.0268737412989139557 0.0181806236505508423
0.0161432698369026184 -0.0215054471045732498 0.0248454418033361435
0.0167563352733850479 -0.0235601756721735001 0.0224118568003177643
0.0239370875060558319 -0.0244433432817459106 0.0229789279401302338
0.0189960338175296783 -0.0282696560025215149 0.0170286465436220169
0.0244596824049949646 -0.0265832878649234772 0.0204173903912305832
0.0234134718775749207 -0.0256776958703994751 0.0213089939206838608
0.0175679828971624374 -0.0280471257865428925 0.0169746745377779007
0.0193545930087566376 -0.0275229569524526596 0.0180485900491476059
0.0228203795850276947 -0.023874431848526001 0.0234319083392620087
0.0152652449905872345 -0.0247291550040245056 0.0205982867628335953
0.0211438760161399841 -0.0268682297319173813 0.0192868486046791077
0.0169316940009593964 -0.0247322283685207367 0.0209830440580844879
0.021917194128036499 -0.0278133489191532135 0.0182820428162813187
0.0216093957424163818 -0.0280233491212129593 0.017946932464838028
0.016331210732460022 -0.0257598087191581726 0.0195544697344303131
0.016389310359954834 -0.0246596317738294601 0.0209475941956043243
0.01582382433116436 -0.0216605290770530701 0.024576481431722641
0.0199886374175548553 -0.0271271001547574997 0.0186928361654281616
0.0166861340403556824 -0.0290319528430700302 0.015534096397459507
0.0311999991536140442 -0.0321253053843975067 0.00406093383207917213
0.0311999991536140442 0.00298071280121803284 0.0149433640763163567
0.0311999991536140442 -0.00051013752818107605 0.013082561083137989
0.0311999991536140442 -0.0234343446791172028 0.00920727290213108063
0.0311999991536140442 -0.00928029045462608337 0.0114896968007087708
0.0311999991536140442 0.00944817066192626953 0.0175116714090108871
0.0311999991536140442 -0.0337210781872272491 0.00400609802454710007
0.0311999991536140442 -0.033563658595085144 0.00793097168207168579
0.0311999991536140442 0.011501997709274292 0.0182395279407501221
0.0311999991536140442 -0.0299258232116699219 0.00588748883455991745
0.0311999991536140442 -0.0271658897399902344 0.0063935527577996254
0.0311999991536140442 -0.00377907790243625641 0.0139512401074171066
0.0311999991536140442 -0.000898331403732299805 0.0135894389823079109
0.0311999991536140442 -0.00232337042689323425 0.0153153147548437119
0.0311999991536140442 0.019079107791185379 0.0209456142038106918
0.0311999991536140442 -0.0313863307237625122 0.00311189750209450722
0.0311999991536140442 0.00452427193522453308 0.0152436532080173492
0.0311999991536140442 -0.0191651135683059692 0.00885073374956846237
0.0311999991536140442 -0.00712918490171432495 0.0107677420601248741
0.0311999991536140442 -0.0142068397253751755 0.00777473160997033119
0.0311999991536140442 -0.0163170956075191498 0.0115131568163633347
0.0311999991536140442 0.0108715780079364777 0.0181110687553882599
0.0311999991536140442 0.00224431604146957397 0.0141069367527961731
0.0311999991536140442 -0.002886185422539711 0.0152228344231843948
0.0311999991536140442 0.00239066034555435181 0.0149746164679527283
0.0311999991536140442 -0.0177493561059236526 0.00851259659975767136
0.0311999991536140442 -0.00849554315209388733 0.0133195985108613968
0.0311999991536140442 -0.0293166469782590866 0.00455603701993823051
0.0311999991536140442 -0.0204189736396074295 0.00757088791579008102
0.0311999991536140442 -0.0223842710256576538 0.00603669136762619019
0.0311999991536140442 0.0193487480282783508 0.0205101519823074341
0.0311999991536140442 -0.0331610292196273804 0.00441020028665661812
0.0311999991536140442 -0.0162096675485372543 0.00706494133919477463
0.0311999991536140442 -0.0201456304639577866 0.00957980193197727203
0.0311999991536140442 -0.0320499427616596222 0.00545269716531038284
0.0311999991536140442 0.00644598156213760376 0.0169740039855241776
0.0311999991536140442 0.0107204839587211609 0.0180412903428077698
0.0311999991536140442 -0.0252907201647758484 0.0102252122014760971
0.0311999991536140442 -0.00643326155841350555 0.0137533619999885559
0.0311999991536140442 -0.0260944999754428864 0.00567497778683900833
0.0311999991536140442 -0.00969538092613220215 0.0105046816170215607
0.0311999991536140442 -0.0229657590389251709 0.00891896896064281464
0.0311999991536140442 -0.010905364528298378 0.00999097432941198349
0.0311999991536140442 0.0204294584691524506 0.0209342706948518753
0.0311999991536140442 -0.025646556168794632 0.00796960573643445969
0.0311999991536140442 -0.00599324516952037811 0.0150398295372724533
0.0311999991536140442 -0.00633294694125652313 0.0147872073575854301
0.0311999991536140442 -0.0221547093242406845 0.00612756703048944473
0.0311999991536140442 -0.0106196757405996323 0.0106450337916612625
0.0311999991536140442 -0.00527287647128105164 0.0122103458270430565
0.0311999991536140442 0.0153106153011322021 0.0201245807111263275
0.0311999991536140442 -0.0141189415007829666 0.00978015922009944916
0.0311999991536140442 -0.0203676130622625351 0.00597153604030609131
0.0311999991536140442 -0.0168985314667224884 0.0085549578070640564
0.0311999991536140442 -0.00368553027510643005 0.0140200741589069366
0.0311999991536140442 0.00576339662075042725 0.0156093984842300415
0.0311999991536140442 -0.0311609860509634018 0.00810940470546483994
0.0311999991536140442 0.00554710254073143005 0.0168595146387815475
0.0311999991536140442 -0.0137657858431339264 0.0111487414687871933
0.0311999991536140442 -0.0238898284733295441 0.00955521687865257263
0.0311999991536140442 0.0126011669635772705 0.0183284487575292587
0.0311999991536140442 0.000962395220994949341 0.019194386899471283
0.0311999991536140442 0.00757207535207271576 0.019604930654168129
0.0311999991536140442 -0.00593731924891471863 0.0170355755835771561
0.0311999991536140442 -0.0204724818468093872 0.0158361755311489105
0.0311999991536140442 -0.00905906222760677338 0.0163586623966693878
0.0311999991536140442 -0.0281972382217645645 0.0130999982357025146
0.0311999991536140442 -0.00361024029552936554 0.0156560558825731277
0.0311999991536140442 -0.0205177254974842072 0.013426661491394043
0.0311999991536140442 -0.0120212417095899582 0.0146096311509609222
0.0311999991536140442 -0.027112254872918129 0.0151023827493190765
0.0311999991536140442 -0.0178828835487365723 0.0167082492262125015
0.0311999991536140442 -0.0222316384315490723 0.0138537473976612091
0.0311999991536140442 -0.0128501560539007187 0.016607377678155899
0.0311999991536140442 -0.0116285961121320724 0.0154589982703328133
0.0311999991536140442 -0.0281889550387859344 0.0109242042526602745
0.0311999991536140442 -0.0168829057365655899 0.0135947633534669876
0.0311999991536140442 -0.0276881884783506393 0.00978253874927759171
0.0311999991536140442 -0.0136579778045415878 0.0132695995271205902
0.0311999991536140442 -0.0137471109628677368 0.0177809186279773712
0.0311999991536140442 -0.0245571024715900421 0.0165840145200490952
0.0311999991536140442 -0.00786006264388561249 0.0159479156136512756
0.0311999991536140442 -0.0212731398642063141 0.0126249436289072037
0.0311999991536140442 -0.000998634845018386841 0.0187499169260263443
0.0311999991536140442 -0.016598263755440712 0.0158593617379665375
0.0311999991536140442 -0.0188389234244823456 0.0161901600658893585
0.0311999991536140442 -0.0319112092256546021 0.0100745996460318565
0.0311999991536140442 -0.0301133822649717331 0.00946139078587293625
0.0311999991536140442 -0.0216337703168392181 0.0138896629214286804
0.0311999991536140442 -0.0207810532301664352 0.0143925296142697334
0.0311999991536140442 -0.0274873599410057068 0.0135358432307839394
0.0311999991536140442 0.0078152678906917572 0.0201732292771339417
0.0311999991536140442 -0.00828078575432300568 0.0155884800478816032
0.0311999991536140442 0.0123560074716806412 0.0206561647355556488
0.0311999991536140442 -0.0279105063527822495 0.0160810761153697968
0.0311999991536140442 0.00231820344924926758 0.018735615536570549
0.0311999991536140442 -0.0253562852740287781 0.0128045249730348587
0.0311999991536140442 0.00184087455272674561 0.0194098539650440216
0.0311999991536140442 0.00634539313614368439 0.0198570713400840759
0.0311999991536140442 -0.0075618792325258255 0.0186793562024831772
0.0311999991536140442 -0.0210458431392908096 0.0138083770871162415
0.0311999991536140442 -0.0112185534089803696 0.0139957563951611519
0.0311999991536140442 -0.0133650675415992737 0.0168442893773317337
0.0311999991536140442 0.000969387590885162354 0.0172336306422948837
0.0311999991536140442 -0.00504022836685180664 0.0180904287844896317
0.0311999991536140442 -0.025730624794960022 0.0129602793604135513
0.0311999991536140442 -0.00120502151548862457 0.0187690574675798416
0.0311999991536140442 -0.0154548007994890213 0.0164474286139011383
0.0311999991536140442 -0.0191415064036846161 0.014985804446041584
0.0311999991536140442 -0.0208104774355888367 0.0166582614183425903
0.0311999991536140442 -0.0274769105017185211 0.00987792573869228363
0.0311999991536140442 -0.0261245779693126678 0.0131313074380159378
0.0311999991536140442 -0.0126859154552221298 0.0148188499733805656
0.0311999991536140442 -0.0085801929235458374 0.0166830588132143021
0.0311999991536140442 -0.00136089138686656952 0.0185842514038085938
0.0311999991536140442 -0.0122801400721073151 0.0155851198360323906
0.0311999991536140442 -0.026037922129034996 0.0172933153808116913
0.0311999991536140442 -0.0231390539556741714 0.0208329781889915466
0.0311999991536140442 -0.00586790964007377625 0.0216031558811664581
0.0311999991536140442 -0.00767656601965427399 0.0223850253969430923
0.0311999991536140442 -0.0202481169253587723 0.0225812047719955444
0.0311999991536140442 -0.0275015924125909805 0.019210033118724823
0.0311999991536140442 -0.020570807158946991 0.0207521766424179077
0.0311999991536140442 -0.0175636820495128632 0.0208791662007570267
0.0311999991536140442 -0.021052144467830658 0.0213343668729066849
0.0311999991536140442 -0.00495762564241886139 0.0207671504467725754
0.0311999991536140442 0.0115524288266897202 0.0219740476459264755
0.0311999991536140442 0.00631533749401569366 0.022165052592754364
0.0311999991536140442 0.0174326673150062561 0.022200683131814003
0.0311999991536140442 -0.0160244368016719818 0.0215219482779502869
0.0311999991536140442 -0.00251576676964759827 0.0209975708276033401
0.0311999991536140442 -0.0182947516441345215 0.0207449886947870255
0.0311999991536140442 -0.0192753635346889496 0.0212218426167964935
0.0311999991536140442 -0.0145790418609976768 0.0225926227867603302
0.0311999991536140442 -0.0265602432191371918 0.0172078516334295273
0.0311999991536140442 0.00599452480673789978 0.0226512905210256577
0.0311999991536140442 -0.0207744203507900238 0.0181615278124809265
0.0311999991536140442 -0.0196168534457683563 0.0198794938623905182
0.0311999991536140442 -0.0159269161522388458 0.0215475186705589294
0.0311999991536140442 -0.00712683051824569702 0.0189488176256418228
0.0311999991536140442 -0.00116530433297157288 0.0196717381477355957
0.0311999991536140442 -0.00648315809667110443 0.0216949060559272766
0.0311999991536140442 -0.0252248998731374741 0.0182510130107402802
0.0311999991536140442 -0.00291864573955535889 0.0196798183023929596
0.0311999991536140442 -0.0225489791482686996 0.0183013658970594406
0.0311999991536140442 -0.0178038477897644043 0.021855892613530159
0.0311999991536140442 -0.0156719684600830078 0.0198105201125144958
0.0311999991536140442 0.0163627509027719498 0.0222913008183240891
0.0311999991536140442 -0.020541628822684288 0.0222489088773727417
0.0311999991536140442 -0.0260944031178951263 0.0204540323466062546
0.0311999991536140442 -0.0151739893481135368 0.0224615857005119324
0.0311999991536140442 -0.0232566110789775848 0.0187975447624921799
0.0311999991536140442 0.0173371303826570511 0.0221973005682229996
0.0311999991536140442 -0.00377772003412246704 0.0193715523928403854
0.0311999991536140442 -0.0158247184008359909 0.0221352744847536087
0.0311999991536140442 -0.019503176212310791 0.0190486330538988113
0.0311999991536140442 -0.0153712574392557144 0.0225308686494827271
0.0311999991536140442 -0.0199633557349443436 0.0194870512932538986
0.0311999991536140442 -0.0189373679459095001 0.0182183757424354553
0.0311999991536140442 -0.0102495085448026657 0.0211435239762067795
0.0311999991536140442 -0.0258784219622612 0.0175808053463697433
0.0311999991536140442 -0.000564608722925186157 0.0205368082970380783
0.0311999991536140442 -0.0173202212899923325 0.0268497876822948456
0.0311999991536140442 -0.0223878975957632065 0.024733569473028183
0.0311999991536140442 -0.00821849144995212555 0.0270361602306365967
0.0311999991536140442 -0.0101577099412679672 0.0261811017990112305
0.0311999991536140442 0.0010842345654964447 0.0248965714126825333
0.0311999991536140442 0.00812996737658977509 0.0240496750921010971
0.0311999991536140442 0.0100748445838689804 0.0229948814958333969
0.0311999991536140442 -0.0231991838663816452 0.0252077300101518631
0.0311999991536140442 0.0179698988795280457 0.0229121148586273193
0.0311999991536140442 -0.0144125521183013916 0.0268473736941814423
0.0311999991536140442 -0.0167556162923574448 0.0229370091110467911
0.0311999991536140442 -0.0213685072958469391 0.0233037285506725311
0.0311999991536140442 0.0171706806868314743 0.0232687518000602722
0.0311999991536140442 -0.0215619038790464401 0.0263067092746496201
0.0311999991536140442 -0.0192380789667367935 0.0277533940970897675
0.0311999991536140442 -0.0213410276919603348 0.0263994336128234863
0.0311999991536140442 0.0177502147853374481 0.0234897583723068237
0.0311999991536140442 0.0213462971150875092 0.0233388766646385193
0.0311999991536140442 -0.00656246673315763474 0.0251404084265232086
0.0311999991536140442 -0.0219586510211229324 0.0246839839965105057
0.0311999991536140442 -0.0117607451975345612 0.0251673869788646698
0.0311999991536140442 -0.0163276884704828262 0.025202624499797821
0.0311999991536140442 0.0220853071659803391 0.0229520425200462341
0.0311999991536140442 -0.00257219560444355011 0.0257759857922792435
0.0311999991536140442 -0.0213291775435209274 0.0258488748222589493
0.0311999991536140442 -0.00696032028645277023 0.0249332506209611893
0.0311999991536140442 -0.00862305983901023865 0.0241449549794197083
0.0311999991536140442 0.00525578483939170837 0.0239396151155233383
0.0311999991536140442 -0.0061741117388010025 0.0234361365437507629
0.0311999991536140442 -0.0185895897448062897 0.0260838922113180161
0.0311999991536140442 -0.0232690554112195969 0.0236476846039295197
0.0311999991536140442 0.0120767354965209961 0.0237798988819122314
0.0311999991536140442 0.00998974964022636414 0.0247992575168609619
0.0311999991536140442 -0.013060443103313446 0.0263870153576135635
0.0311999991536140442 -0.0095257684588432312 0.0232041291892528534
0.0311999991536140442 0.018560776486992836 0.0237845778465270996
0.0311999991536140442 -0.00890471227467060089 0.0260181762278079987
0.0311999991536140442 -0.00669994764029979706 0.0269386880099773407
0.0311999991536140442 -0.00139842182397842407 0.0293751880526542664
0.0311999991536140442 0.00492279138416051865 0.0276356656104326248
0.0311999991536140442 -0.00804383587092161179 0.0278321392834186554
0.0311999991536140442 -0.00693005882203578949 0.027381598949432373
0.0311999991536140442 0.0112603595480322838 0.0261228829622268677
0.0311999991536140442 0.00330796558409929276 0.0268533490598201752
0.0311999991536140442 -0.0119792837649583817 0.030484221875667572
0.0311999991536140442 0.00296671874821186066 0.0279500856995582581
0.0311999991536140442 0.0196170434355735779 0.0240867659449577332
0.0311999991536140442 0.0018578898161649704 0.028187878429889679
0.0311999991536140442 0.0144857894629240036 0.0243894979357719421
0.0311999991536140442 0.00358775537461042404 0.027713581919670105
0.0311999991536140442 -0.00281678512692451477 0.0289091132581233978
0.0311999991536140442 -0.0162778459489345551 0.0291056856513023376
0.0311999991536140442 0.0127644259482622147 0.0254339482635259628
0.0311999991536140442 -0.00397975929081439972 0.0287952739745378494
0.0311999991536140442 0.010082954540848732 0.025225028395652771
0.0311999991536140442 -0.00904952455312013626 0.027281150221824646
0.0311999991536140442 0.0135186472907662392 0.0255005396902561188
0.0311999991536140442 0.0128042977303266525 0.0250234548002481461
0.0311999991536140442 -0.006909162737429142 0.026912471279501915
0.0311999991536140442 0.00819750037044286728 0.0256843362003564835
0.0311999991536140442 -0.0165308639407157898 0.0288500003516674042
0.0311999991536140442 -0.000249000266194343567 0.0273526404052972794
0.0311999991536140442 -0.016292450949549675 0.0292551033198833466
0.0311999991536140442 -0.0128263672813773155 0.0297461245208978653
0.0311999991536140442 0.00328096747398376465 0.0281039830297231674
0.0311999991536140442 -0.00230248225852847099 0.0301335509866476059
0.0311999991536140442 -0.00247600255534052849 0.0312225520610809326
0.0311999991536140442 4.88702207803726196e-05 0.0314716659486293793
0.0311999991536140442 -0.00314183440059423447 0.0331083610653877258
0.0311999991536140442 0.0153769124299287796 0.0256435815244913101
0.0311999991536140442 -0.00205268384888768196 0.0313467122614383698
0.0311999991536140442 0.00232125725597143173 0.0295997075736522675
0.0311999991536140442 -0.00744170509278774261 0.0314784198999404907
0.0311999991536140442 -0.00523284729570150375 0.031564716249704361
0.0311999991536140442 -0.00682981032878160477 0.0319709330797195435
0.0311999991536140442 0.0104242479428648949 0.0276107192039489746
0.0311999991536140442 0.00321647059172391891 0.029934469610452652
0.0311999991536140442 0.00152773130685091019 0.0297687910497188568
0.0311999991536140442 0.0203689131885766983 0.0245501119643449783
0.0311999991536140442 0.00454912241548299789 0.0293463170528411865
0.0311999991536140442 0.0135783134028315544 0.0267977751791477203
0.0311999991536140442 0.0118990801274776459 0.0269818436354398727
0.0311999991536140442 0.00272206123918294907 0.0307310894131660461
0.0311999991536140442 -0.00311120180413126945 0.0320215001702308655
0.0311999991536140442 0.00645095529034733772 0.0307203363627195358
0.0311999991536140442 0.00923763029277324677 0.0303939804434776306
0.0311999991536140442 0.0153411990031599998 0.0277135614305734634
0.0311999991536140442 0.00509570585563778877 0.0313593447208404541
0.0311999991536140442 0.012067246250808239 0.0287481397390365601
0.0311999991536140442 0.00457751937210559845 0.0334940776228904724
0.0311999991536140442 0.0060146162286400795 0.0308000668883323669
0.0311999991536140442 0.00326375709846615791 0.0329386778175830841
0.0311999991536140442 0.00535177532583475113 0.0307018347084522247
0.0311999991536140442 0.00353835197165608406 0.0320777967572212219
0.0311999991536140442 0.0153512433171272278 0.0281271021813154221
0.0311999991536140442 0.00971776247024536133 0.0313580334186553955
0.0311999991536140442 0.0211982633918523788 0.0257037319242954254
0.0311999991536140442 0.0151739194989204407 0.028850136324763298
0.0311999991536140442 0.00827341806143522263 0.0329733751714229584
0.0311999991536140442 0.0128288418054580688 0.0310534443706274033
0.0311999991536140442 0.0108854351565241814 0.0310496911406517029
0.0311999991536140442 0.0147331058979034424 0.0293444376438856125
0.0311999991536140442 0.0238829180598258972 0.0242997221648693085
0.0311999991536140442 0.0203977171331644058 0.0274580661207437515
0.0311999991536140442 0.0300208274275064468 0.0150606874376535416
0.0311999991536140442 0.028737436980009079 0.0178754180669784546
0.0311999991536140442 0.0327641740441322327 0.00850742124021053314
0.0311999991536140442 0.0267379861325025558 0.0207444299012422562
0.0311999991536140442 0.0300444774329662323 0.0137707777321338654
0.0311999991536140442 0.0319901593029499054 0.00689611304551362991
0.0311999991536140442 0.0326793231070041656 0.00870711635798215866
0.0311999991536140442 0.0321998186409473419 0.00948861986398696899
0.0311999991536140442 0.032714061439037323 0.00958299823105335236
0.0311999991536140442 0.0340059325098991394 -0.0034328121691942215
0.0311999991536140442 0.0279143005609512329 0.015839647501707077
0.0311999991536140442 0.0302854683250188828 0.00881167873740196228
0.0311999991536140442 0.0290109217166900635 0.0103075485676527023
0.0311999991536140442 0.0313551798462867737 0.00707565480843186378
0.0311999991536140442 0.0296021848917007446 0.0118956323713064194
0.0311999991536140442 0.0331416800618171692 0.00172734260559082031
0.0311999991536140442 0.031338084489107132 0.00391300860792398453
0.0311999991536140442 0.034143153578042984 -0.000643291918095201254
0.0311999991536140442 0.0330978818237781525 -0.00376745406538248062
0.0311999991536140442 0.0285705029964447021 0.0135473646223545074
0.0311999991536140442 0.0314496494829654694 0.00414335168898105621
0.0311999991536140442 0.0284543335437774658 0.00494935642927885056
0.0311999991536140442 0.0317439176142215729 -0.00710784783586859703
0.0311999991536140442 0.029147101566195488 0.00439815036952495575
0.0311999991536140442 0.0273625981062650681 0.0149337118491530418
0.0311999991536140442 0.0332370065152645111 -0.00707898335531353951
0.0311999991536140442 0.0302061997354030609 -0.000362874940037727356
0.0311999991536140442 0.0311323348432779312 -0.013283904641866684
0.0311999991536140442 0.0321740135550498962 -0.00768499122932553291
0.0311999991536140442 0.0313791483640670776 -0.0124198021367192268
0.0311999991536140442 0.0292910784482955933 -0.00147580355405807495
0.0311999991536140442 0.032353132963180542 -0.00454746140167117119
0.0311999991536140442 0.0308652669191360474 -0.00864731241017580032
0.0311999991536140442 0.0325015299022197723 -0.0099051622673869133
0.0311999991536140442 0.0287761278450489044 0.00241310428828001022
0.0311999991536140442 0.0271933954209089279 0.0159980058670043945
0.0311999991536140442 0.0319933705031871796 -0.00954211223870515823
0.0311999991536140442 0.0310331005603075027 -0.000739883631467819214
0.0311999991536140442 0.0309867542237043381 -0.0117693720385432243
0.0311999991536140442 0.0306241083890199661 -0.0126072000712156296
0.0311999991536140442 0.0296744108200073242 -0.00757904257625341415
0.0311999991536140442 0.0266678966581821442 -0.00719771534204483032
0.0311999991536140442 0.0265256576240062714 -0.0004320535808801651
0.0311999991536140442 0.027843693271279335 -0.00584881938993930817
0.0311999991536140442 0.0259010884910821915 0.0142381191253662109
0.0311999991536140442 0.026888582855463028 -0.00305372849106788635
0.0311999991536140442 0.0273950211703777313 -0.0068774959072470665
0.0311999991536140442 0.0274474285542964935 -0.00371599011123180389
0.0311999991536140442 0.0297050904482603073 -0.0131268240511417389
0.0311999991536140442 0.0303522795438766479 -0.015346163883805275
0.0311999991536140442 0.0260404199361801147 -0.0215398687869310379
0.0311999991536140442 0.0264032389968633652 -0.00350229814648628235
0.0311999991536140442 0.0287949778139591217 -0.00976500660181045532
0.0311999991536140442 0.0275165271013975143 0.00413988344371318817
0.0311999991536140442 0.027006056159734726 -0.00315722450613975525
0.0311999991536140442 0.0288065038621425629 -0.00943004526197910309
0.0311999991536140442 0.0275374408811330795 -0.0190094131976366043
0.0311999991536140442 0.0261431559920310974 -0.00350742414593696594
0.0311999991536140442 0.0282138213515281677 -0.0192781370133161545
0.0311999991536140442 0.0259530637413263321 -0.0204625800251960754
0.0311999991536140442 0.0262493900954723358 -0.0209155678749084473
0.0311999991536140442 0.0258916672319173813 0.00570452772080898285
0.0311999991536140442 0.0262058191001415253 -0.00939545035362243652
0.0311999991536140442 0.028659401461482048 -0.0110814552754163742
0.0311999991536140442 0.0261316318064928055 -0.0196708180010318756
0.0311999991536140442 0.0260212589055299759 -0.0212746597826480865
0.0311999991536140442 0.0281214918941259384 -0.00442465487867593765
0.0311999991536140442 0.0286466628313064575 -0.0135857285931706429
0.0311999991536140442 0.0260129831731319427 0.00526113249361515045
0.0311999991536140442 0.0254620425403118134 -0.016754150390625
0.0311999991536140442 0.0251697394996881485 -0.0209608022123575211
0.0311999991536140442 0.0233171805739402771 -0.0179869197309017181
0.0311999991536140442 0.0237476415932178497 -0.00490850023925304413
0.0311999991536140442 0.0244812499731779099 -0.0237740296870470047
0.0311999991536140442 0.0207387339323759079 -0.0229218024760484695
0.0311999991536140442 0.0223917644470930099 -0.0100617948919534683
0.0311999991536140442 0.0252849925309419632 -0.0146983256563544273
0.0311999991536140442 0.0255741104483604431 -0.0120787294581532478
0.0311999991536140442 0.0243050139397382736 -0.016063101589679718
0.0311999991536140442 0.0250911321491003036 -0.000415621325373649597
0.0311999991536140442 0.0203164909034967422 -0.0251823700964450836
0.0311999991536140442 0.0255149025470018387 -0.0221171919256448746
0.0311999991536140442 0.02548980712890625 -0.0102235386148095131
0.0311999991536140442 0.0248739775270223618 -0.0206027980893850327
0.0311999991536140442 0.0224246568977832794 -0.0135282855480909348
0.0311999991536140442 0.0198208037763834 -0.0270734261721372604
0.0311999991536140442 0.0257732346653938293 0.00150814652442932129
0.0311999991536140442 0.025313887745141983 0.0140665341168642044
0.0311999991536140442 0.0252093169838190079 -0.0233225896954536438
0.0311999991536140442 0.0258195418864488602 -0.00209992378950119019
0.0311999991536140442 0.023294694721698761 -0.00377016514539718628
0.0311999991536140442 0.025804370641708374 0.00724009051918983459
0.0311999991536140442 0.0250115562230348587 -0.0160446837544441223
0.0311999991536140442 0.0243252832442522049 -0.00112358108162879944
0.0311999991536140442 0.0245325881987810135 0.00836379267275333405
0.0311999991536140442 0.0218520183116197586 -0.017794433981180191
0.0311999991536140442 0.0256045293062925339 -0.000185074284672737122
0.0311999991536140442 0.022494044154882431 -0.0255219601094722748
0.0311999991536140442 0.0258513297885656357 -0.00154533423483371735
0.0311999991536140442 0.0230548344552516937 -0.0141694983467459679
0.0311999991536140442 0.0246287491172552109 -0.00358898378908634186
0.0311999991536140442 0.0247801188379526138 -0.0200217068195343018
0.0311999991536140442 0.0257627833634614944 0.0145764909684658051
0.0311999991536140442 0.023664647713303566 -0.0168777815997600555
0.0311999991536140442 0.0244893170893192291 -0.00653338618576526642
0.0311999991536140442 0.0220547989010810852 -0.0189692191779613495
0.0311999991536140442 0.0228756535798311234 0.00044001452624797821
0.0311999991536140442 0.0215414166450500488 -0.00815940834581851959
0.0311999991536140442 0.0151444170624017715 -0.0220031403005123138
0.0311999991536140442 0.0168539341539144516 -0.027859073132276535
0.0311999991536140442 0.0170209575444459915 -0.0145267751067876816
0.0311999991536140442 0.0182021800428628922 -0.0242014080286026001
0.0311999991536140442 0.0192727483808994293 -0.00463814102113246918
0.0311999991536140442 0.0218807272613048553 -0.00647319108247756958
0.0311999991536140442 0.0219481587409973145 -0.00757954083383083344
0.0311999991536140442 0.0200672559440135956 -0.0154895903542637825
0.0311999991536140442 0.0194084513932466507 -0.0225665457546710968
0.0311999991536140442 0.0164598450064659119 -0.0208886787295341492
0.0311999991536140442 0.019297964870929718 -0.0195959117263555527
0.0311999991536140442 0.0174767021089792252 -0.0128037445247173309
0.0311999991536140442 0.0146393990144133568 -0.0301534254103899002
0.0311999991536140442 0.0147396828979253769 -0.0226419232785701752
0.0311999991536140442 0.0221369378268718719 0.0022058635950088501
0.0311999991536140442 0.0210026036947965622 -0.00407758727669715881
0.0311999991536140442 0.0136076482012867928 -0.0306815337389707565
0.0311999991536140442 0.0190023984760046005 -0.00785378925502300262
0.0311999991536140442 0.0202203709632158279 -0.00510279461741447449
0.0311999991536140442 0.013543982058763504 -0.0290773212909698486
0.0311999991536140442 0.0208927206695079803 0.00214027613401412964
0.0311999991536140442 0.0152124371379613876 -0.0295735690742731094
0.0311999991536140442 0.0194249358028173447 -0.0284962840378284454
0.0311999991536140442 0.0209182463586330414 -0.00814733654260635376
0.0311999991536140442 0.0199407581239938736 -0.0133203752338886261
0.0311999991536140442 0.0219629369676113129 -0.00480515323579311371
0.0311999991536140442 0.0188292432576417923 -0.0237172879278659821
0.0311999991536140442 0.0179931968450546265 -0.0124185197055339813
0.0311999991536140442 0.0205830447375774384 -0.00601142644882202148
0.0311999991536140442 0.0226442757993936539 -0.00297059863805770874
0.0311999991536140442 0.0169247817248106003 -0.0207114424556493759
0.0311999991536140442 0.020134851336479187 -0.00104841217398643494
0.0311999991536140442 0.0155188413336873055 -0.0228692032396793365
0.0311999991536140442 0.0211408212780952454 -0.00798407569527626038
0.0311999991536140442 0.020410710945725441 -0.0214714594185352325
0.0311999991536140442 0.0156344100832939148 -0.0300292614847421646
0.0311999991536140442 0.0189446806907653809 -0.0078281797468662262
0.0311999991536140442 0.0185334905982017517 -0.0115878749638795853
0.0311999991536140442 0.0219291038811206818 0.00298888981342315674
0.0311999991536140442 0.0192677956074476242 -0.023621484637260437
0.0311999991536140442 0.0165564045310020447 -0.0279509946703910828
0.0311999991536140442 0.0193595234304666519 -0.00919695198535919189
0.0311999991536140442 0.0169961415231227875 -0.0142486114054918289
0.0311999991536140442 0.0191946513950824738 -0.0220970883965492249
0.0311999991536140442 0.0159019771963357925 -0.00424892641603946686
0.0311999991536140442 0.0184264704585075378 -0.00364903546869754791
0.0311999991536140442 0.00618312554433941841 -0.0319175980985164642
0.0311999991536140442 0.0116618974134325981 -0.026134345680475235
0.0311999991536140442 0.0205508433282375336 0.0064480416476726532
0.0311999991536140442 0.0159473363310098648 -0.0152382608503103256
0.0311999991536140442 0.0179255995899438858 0.00179067626595497131
0.0311999991536140442 0.0175366029143333435 -0.00230836495757102966
0.0311999991536140442 0.011850123293697834 -0.0235832240432500839
0.0311999991536140442 0.0137747032567858696 -0.0165550466626882553
0.0311999991536140442 0.0102983210235834122 -0.025934264063835144
0.0311999991536140442 0.0107940630987286568 -0.0271909348666667938
0.0311999991536140442 0.01963820680975914 0.00053684040904045105
0.0311999991536140442 0.00706113921478390694 -0.0332753919064998627
0.0311999991536140442 0.0166183356195688248 -0.00453619658946990967
0.0311999991536140442 0.0151692964136600494 -0.0143127609044313431
0.0311999991536140442 0.0176077261567115784 0.000576715916395187378
0.0311999991536140442 0.0170213654637336731 -0.00142765045166015625
0.0311999991536140442 0.0179435573518276215 -0.00781290605664253235
0.0311999991536140442 0.0181426014751195908 -0.00101681426167488098
0.0311999991536140442 0.0160765666514635086 -0.00593381747603416443
0.0311999991536140442 0.0145942186936736107 -0.00772996991872787476
0.0311999991536140442 0.0103493817150592804 -0.0292085632681846619
0.0311999991536140442 0.0128855146467685699 -0.0176252443343400955
0.0311999991536140442 0.0103239854797720909 -0.0277133788913488388
0.0311999991536140442 0.0109502710402011871 -0.0295647680759429932
0.0311999991536140442 0.0170471519231796265 -0.000441335141658782959
0.0311999991536140442 0.010205480270087719 -0.0190057996660470963
0.0311999991536140442 0.00797227490693330765 -0.0263074673712253571
0.0311999991536140442 0.0135384313762187958 -0.0162155497819185257
0.0311999991536140442 0.0185327120125293732 -0.00276085734367370605
0.0311999991536140442 0.017536848783493042 -0.00187997147440910339
0.0311999991536140442 0.0134732536971569061 -0.0167481806129217148
0.0311999991536140442 0.00647245347499847412 -0.0300666540861129761
0.0311999991536140442 0.0120742730796337128 -0.0273141656070947647
0.0311999991536140442 0.0134495552629232407 -0.00993036851286888123
0.0311999991536140442 0.0145364813506603241 -0.0152290686964988708
0.0311999991536140442 0.0139437709003686905 -0.0253655854612588882
0.0311999991536140442 0.0109573341906070709 -0.0295480918139219284
0.0311999991536140442 0.0115816053003072739 -0.0287817679345607758
0.0311999991536140442 0.0124719589948654175 -0.0214630737900733948
0.0311999991536140442 0.0149237997829914093 -0.016855703666806221
0.0311999991536140442 0.0138573776930570602 -0.0133447889238595963
0.0311999991536140442 0.00912248808890581131 -0.0243663899600505829
0.0311999991536140442 0.0141268670558929443 -0.00866951420903205872
0.0311999991536140442 0.0177242718636989594 -0.00636969320476055145
0.0311999991536140442 0.0195224862545728683 0.00549207627773284912
0.0311999991536140442 0.0117219351232051849 -0.0168060902506113052
0.0311999991536140442 0.0221868995577096939 0.00912465155124664307
0.0311999991536140442 0.0121550429612398148 -0.0295701958239078522
0.0311999991536140442 0.0132402600720524788 -0.0272684488445520401
0.0311999991536140442 0.0114914309233427048 -0.0150983482599258423
0.0311999991536140442 0.0144237391650676727 -0.017139708623290062
0.0311999991536140442 0.00790397822856903076 -0.0293440353125333786
0.0311999991536140442 0.00351463910192251205 -0.0307952277362346649
0.0311999991536140442 0.0196784473955631256 0.0077845454216003418
0.0311999991536140442 0.0059239841066300869 -0.0185675211250782013
0.0311999991536140442 0.0216923635452985764 0.0131936036050319672
0.0311999991536140442 0.0210129339247941971 0.0116319470107555389
0.0311999991536140442 0.0203542150557041168 0.00885367020964622498
0.0311999991536140442 0.00445301923900842667 -0.0215518325567245483
0.0311999991536140442 0.00584764499217271805 -0.0212074033915996552
0.0311999991536140442 0.00765824085101485252 -0.024068094789981842
0.0311999991536140442 0.0042917872779071331 -0.0263609923422336578
0.0311999991536140442 0.00845690537244081497 -0.011565839871764183
0.0311999991536140442 0.00799317844212055206 -0.0164555460214614868
0.0311999991536140442 0.003294333815574646 -0.023688681423664093
0.0311999991536140442 0.0165321324020624161 0.00408217310905456543
0.0311999991536140442 0.00532429944723844528 -0.0255496203899383545
0.0311999991536140442 0.0138744041323661804 -0.0034052673727273941
0.0311999991536140442 0.0210160482674837112 0.010419405996799469
0.0311999991536140442 -7.16568902134895325e-05 -0.0276484191417694092
0.0311999991536140442 0.00267256749793887138 -0.0330206155776977539
0.0311999991536140442 0.0183556992560625076 0.00706114619970321655
0.0311999991536140442 -0.000582344364374876022 -0.0322945751249790192
0.0311999991536140442 0.00480225309729576111 -0.0279078111052513123
0.0311999991536140442 0.0132263274863362312 -0.00398873351514339447
0.0311999991536140442 0.0113717168569564819 -0.0127442441880702972
0.0311999991536140442 0.00694425450637936592 -0.0176148880273103714
0.0311999991536140442 0.00854030810296535492 -0.0101893860846757889
0.0311999991536140442 0.0175981894135475159 0.00259272381663322449
0.0311999991536140442 0.0118545293807983398 -0.0108763445168733597
0.0311999991536140442 0.00790183804929256439 -0.0222045537084341049
0.0311999991536140442 0.0122403725981712341 -0.0033284258097410202
0.0311999991536140442 0.00496628228574991226 -0.0267849378287792206
0.0311999991536140442 0.00444331392645835876 -0.0234690457582473755
0.0311999991536140442 0.0141703784465789795 -0.000405363738536834717
0.0311999991536140442 -0.0022195128258317709 -0.0324636101722717285
0.0311999991536140442 0.0126397106796503067 -0.00325995124876499176
0.0311999991536140442 0.00680058961734175682 -0.0173586811870336533
0.0311999991536140442 0.000767156598158180714 -0.0338915660977363586
0.0311999991536140442 -0.000340719940140843391 -0.0333390496671199799
0.0311999991536140442 0.0212361942976713181 0.0123671256005764008
0.0311999991536140442 0.0174387264996767044 0.00595378875732421875
0.0311999991536140442 0.00495940074324607849 -0.0240154638886451721
0.0311999991536140442 -5.55031001567840576e-05 -0.0297734029591083527
0.0311999991536140442 0.00830626022070646286 -0.0173994172364473343
0.0311999991536140442 0.00732599105685949326 -0.0244223475456237793
0.0311999991536140442 0.00940227136015892029 -0.0201079715043306351
0.0311999991536140442 0.00617769826203584671 -0.0263670384883880615
0.0311999991536140442 0.00315819517709314823 -0.0320244543254375458
0.0311999991536140442 0.00546790193766355515 -0.0171977542340755463
0.0311999991536140442 0.0236632749438285828 0.017818942666053772
0.0311999991536140442 0.00751757295802235603 -0.0198037698864936829
0.0311999991536140442 0.00198545842431485653 -0.0275064408779144287
0.0311999991536140442 0.00664643710479140282 -0.0227475278079509735
0.0311999991536140442 0.0153024569153785706 0.00198968127369880676
0.0311999991536140442 0.007431812584400177 -0.016666484996676445
0.0311999991536140442 0.0134833799675107002 -0.00176561623811721802
0.0311999991536140442 0.00398389250040054321 -0.0241125151515007019
0.0311999991536140442 0.000502504641190171242 -0.027857685461640358
0.0311999991536140442 0.0138578349724411964 -0.00373412668704986572
0.0311999991536140442 0.00772095285356044769 -0.012404927983880043
0.0311999991536140442 0.0157759226858615875 -0.00165687128901481628
0.0311999991536140442 0.00864353403449058533 -0.0155010037124156952
0.0311999991536140442 -0.00239766505546867847 -0.0339815206825733185
0.0311999991536140442 -0.00373333413153886795 -0.0296377986669540405
0.0311999991536140442 0.00438408087939023972 -0.0104898661375045776
0.0311999991536140442 0.000744349323213100433 -0.0170815754681825638
0.0311999991536140442 0.0214492175728082657 0.0156304948031902313
0.0311999991536140442 0.00212723854929208755 -0.0159588288515806198
0.0311999991536140442 0.0112475957721471786 -0.000551812350749969482
0.0311999991536140442 -0.00884930882602930069 -0.0283717252314090729
0.0311999991536140442 0.024485509842634201 0.0205869376659393311
0.0311999991536140442 0.00661349575966596603 -0.0114291254431009293
0.0311999991536140442 0.0191714279353618622 0.0113457478582859039
0.0311999991536140442 -0.0046252300962805748 -0.0303614623844623566
0.0311999991536140442 -0.00786067266017198563 -0.0308203771710395813
0.0311999991536140442 0.0202974788844585419 0.0142733193933963776
0.0311999991536140442 0.0220893248915672302 0.0174149349331855774
0.0311999991536140442 0.0106848310679197311 -0.00338637270033359528
0.0311999991536140442 0.0041927555575966835 -0.0105926953256130219
0.0311999991536140442 0.00265954528003931046 -0.0176962018013000488
0.0311999991536140442 -0.00335362320765852928 -0.0312584340572357178
0.0311999991536140442 0.0107039548456668854 -0.00468843616545200348
0.0311999991536140442 -0.0105963731184601784 -0.0304800346493721008
0.0311999991536140442 -0.00104318605735898018 -0.0257198736071586609
0.0311999991536140442 0.0158244520425796509 0.00532027706503868103
0.0311999991536140442 -0.0036032430361956358 -0.0310315340757369995
0.0311999991536140442 0.00999181065708398819 -0.00327372550964355469
0.0311999991536140442 0.0196574348956346512 0.0121242888271808624
0.0311999991536140442 0.00363498600199818611 -0.0184278581291437149
0.0311999991536140442 -0.00733920419588685036 -0.0290724746882915497
0.0311999991536140442 0.00405797641724348068 -0.0116798784583806992
0.0311999991536140442 -0.00681991176679730415 -0.0322060026228427887
0.0311999991536140442 0.0125492913648486137 0.002680167555809021
0.0311999991536140442 0.00626938045024871826 -0.00658507831394672394
0.0311999991536140442 -0.00210391823202371597 -0.0243698582053184509
0.0311999991536140442 0.00325970351696014404 -0.0154993049800395966
0.0311999991536140442 -0.0100545976310968399 -0.032270427793264389
0.0311999991536140442 0.0159559585154056549 0.00750523433089256287
0.0311999991536140442 -0.00610511098057031631 -0.0237598717212677002
0.0311999991536140442 -0.00329659320414066315 -0.0283814538270235062
0.0311999991536140442 0.0220362525433301926 0.015642993152141571
0.0311999991536140442 -0.00403611408546566963 -0.0258645340800285339
0.0311999991536140442 0.00437159091234207153 -0.0102016162127256393
0.0311999991536140442 0.00572404218837618828 -0.0153471734374761581
0.0311999991536140442 -0.00189922749996185303 -0.0232276841998100281
0.0311999991536140442 -0.0116924159228801727 -0.0323829911649227142
0.0311999991536140442 -0.00832505896687507629 -0.0306976251304149628
0.0311999991536140442 -0.00805761665105819702 -0.0311626438051462173
0.0311999991536140442 -0.00754243601113557816 -0.0309502854943275452
0.0311999991536140442 0.0233784876763820648 0.0191687792539596558
0.0311999991536140442 0.0122199840843677521 -0.00250699184834957123
0.0311999991536140442 -0.00511696375906467438 -0.0300262793898582458
0.0311999991536140442 -0.00646300707012414932 -0.02779434435069561
0.0311999991536140442 -0.0112038999795913696 -0.0317808613181114197
0.0311999991536140442 0.0193406157195568085 0.0108564868569374084
0.0311999991536140442 0.00689247064292430878 -0.00830510817468166351
0.0311999991536140442 0.00269006751477718353 -0.012790486216545105
0.0311999991536140442 -0.00322295608930289745 -0.031180093064904213
0.0311999991536140442 0.00608800165355205536 -0.00938056595623493195
0.0311999991536140442 0.00362470513209700584 -0.0187103934586048126
0.0311999991536140442 -0.00450157001614570618 -0.0291192512959241867
0.0311999991536140442 0.00818281993269920349 -0.00963198207318782806
0.0311999991536140442 0.00386893469840288162 -0.0138064064085483551
0.0311999991536140442 -0.0043398858979344368 -0.030371466651558876
0.0311999991536140442 -0.00268974178470671177 -0.0288021955639123917
0.0311999991536140442 0.000658553093671798706 -0.0244436189532279968
0.0311999991536140442 -0.00220233574509620667 -0.0198236536234617233
0.0311999991536140442 0.00614366959780454636 -0.00594480894505977631
0.0311999991536140442 0.0212345197796821594 0.0147888362407684326
0.0311999991536140442 -0.00045583769679069519 -0.0209932904690504074
0.0311999991536140442 0.0163873955607414246 0.00534011423587799072
0.0311999991536140442 -0.0117147266864776611 -0.0216694865375757217
0.0311999991536140442 -0.0115086222067475319 -0.0225001592189073563
0.0311999991536140442 -0.00405798107385635376 -0.0156917478889226913
0.0311999991536140442 -0.0118019236251711845 -0.0265152100473642349
0.0311999991536140442 0.00474751181900501251 -0.00297341682016849518
0.0311999991536140442 -0.005307026207447052 -0.0168143995106220245
0.0311999991536140442 -0.00381718575954437256 -0.0151959480717778206
0.0311999991536140442 0.00732698850333690643 -0.00326263904571533203
0.0311999991536140442 0.00673414207994937897 0.000977948307991027832
0.0311999991536140442 -0.00835665687918663025 -0.0222182422876358032
0.0311999991536140442 -0.0116036403924226761 -0.0299290847033262253
0.0311999991536140442 0.00815458223223686218 -0.000160185620188713074
0.0311999991536140442 -0.0141413668170571327 -0.0261916778981685638
0.0311999991536140442 0.00471787340939044952 -0.00502551719546318054
0.0311999991536140442 -0.0161196049302816391 -0.0262220259755849838
0.0311999991536140442 0.00625788979232311249 0.000412730500102043152
0.0311999991536140442 -0.011335461400449276 -0.0275110341608524323
0.0311999991536140442 -0.00785052310675382614 -0.0198627226054668427
0.0311999991536140442 0.0113546475768089294 0.00568689778447151184
0.0311999991536140442 -0.00281480234116315842 -0.0163921713829040527
0.0311999991536140442 0.00541559047996997833 -0.0045902542769908905
0.0311999991536140442 0.0107198767364025116 0.00565373338758945465
0.0311999991536140442 0.0137199703603982925 0.00807101652026176453
0.0311999991536140442 -0.00446708500385284424 -0.0185984522104263306
0.0311999991536140442 0.00619964487850666046 -0.00464528799057006836
0.0311999991536140442 0.000249452888965606689 -0.00795783847570419312
0.0311999991536140442 0.0101448856294155121 0.00420059449970722198
0.0311999991536140442 0.0100889354944229126 0.00144795142114162445
