ply
format ascii 1.0
element vertex 764
property float x
property float y
property float z
end_header
1.46611893177032471 0.866940081119537354 0.131496638059616089
1.46611893177032471 0.904740035533905029 0.0910845100879669189
1.46611893177032471 0.680710852146148682 0.109537743031978607
1.46611893177032471 0.711775541305541992 0.135229840874671936
1.46611893177032471 0.881919205188751221 0.100575484335422516
1.46611893177032471 1.28491687774658203 0.174800440669059753
1.46611893177032471 1.33620071411132812 0.0607785880565643311
1.46611893177032471 0.891666054725646973 0.106953799724578857
1.46611893177032471 0.893676459789276123 0.15684528648853302
1.46611893177032471 1.17804133892059326 0.0879045650362968445
1.46611893177032471 0.459248900413513184 0.135182619094848633
1.46611893177032471 1.32877099514007568 0.0935561433434486389
1.46611893177032471 1.14160299301147461 0.177030235528945923
1.46611893177032471 0.998404383659362793 0.16534896194934845
1.46611893177032471 0.271659970283508301 0.157313764095306396
1.46611893177032471 1.07589197158813477 0.17178933322429657
1.46611893177032471 1.3148270845413208 0.0833825618028640747
1.46611893177032471 1.15173637866973877 0.147120654582977295
1.46611893177032471 0.816902637481689453 0.135314345359802246
1.46611893177032471 1.2092280387878418 0.146288663148880005
1.46611893177032471 0.361628055572509766 0.152117639780044556
1.46611893177032471 0.719071865081787109 0.109400376677513123
1.46611893177032471 0.224034905433654785 0.158219218254089355
1.46611893177032471 1.2090752124786377 0.100210055708885193
1.46611893177032471 1.37541842460632324 0.086992412805557251
1.46611893177032471 1.02609038352966309 0.093677915632724762
1.46611893177032471 1.2413400411605835 0.14993719756603241
1.46611893177032471 1.11978578567504883 0.0402699261903762817
1.46611893177032471 1.05213546752929688 0.0931601226329803467
1.46611893177032471 0.649638593196868896 0.099720485508441925
1.46611893177032471 0.991346240043640137 0.158698558807373047
1.46611893177032471 1.16377484798431396 0.169764161109924316
1.46611893177032471 1.28565430641174316 0.0739487931132316589
1.46611893177032471 1.2406235933303833 0.0276491492986679077
1.46611893177032471 0.771682679653167725 0.103182263672351837
1.46611893177032471 0.492063462734222412 0.12668493390083313
1.46611893177032471 1.33895456790924072 0.0334268361330032349
1.46611893177032471 1.36453700065612793 0.165429741144180298
1.46611893177032471 1.30908727645874023 0.111083753407001495
1.46611893177032471 0.443266212940216064 0.142310097813606262
1.46611893177032471 1.23044466972351074 0.135479822754859924
1.46611893177032471 0.909788727760314941 0.079328589141368866
1.46611893177032471 0.73911672830581665 0.16389167308807373
1.46611893177032471 0.983868122100830078 0.105871506035327911
1.46611893177032471 0.471676409244537354 0.152101710438728333
1.46611893177032471 0.498878121376037598 0.158439457416534424
1.46611893177032471 0.919575691223144531 0.133528530597686768
1.46611893177032471 1.16459202766418457 0.0426589399576187134
1.46611893177032471 1.31957435607910156 0.179962441325187683
1.46611893177032471 1.16209888458251953 0.0686095282435417175
1.46611893177032471 0.791186392307281494 0.172599449753761292
1.46611893177032471 1.27498281002044678 0.115985311567783356
1.46611893177032471 0.55807042121887207 0.112963192164897919
1.46611893177032471 0.9983254075050354 0.084307454526424408
1.46611893177032471 0.769900679588317871 0.0849942415952682495
1.46611893177032471 1.07718658447265625 0.0799449831247329712
1.46611893177032471 1.39752578735351562 0.166040942072868347
1.46611893177032471 1.30100858211517334 0.0749132782220840454
1.46611893177032471 0.979955613613128662 0.114788591861724854
1.46611893177032471 1.00030159950256348 0.092575468122959137
1.46611893177032471 1.21755635738372803 0.151658743619918823
1.46611893177032471 1.07063508033752441 0.118689417839050293
1.46611893177032471 0.849516689777374268 0.172725275158882141
1.46611893177032471 0.786030113697052002 0.121750198304653168
1.46611893177032471 1.27997148036956787 0.139159858226776123
1.46611893177032471 0.467965960502624512 0.130876421928405762
1.46611893177032471 0.380537867546081543 0.155755236744880676
1.46611893177032471 0.931788444519042969 0.133972734212875366
1.46611893177032471 0.776807904243469238 0.116894759237766266
1.46611893177032471 1.18014764785766602 0.152787312865257263
1.46611893177032471 1.25342142581939697 0.0589803606271743774
1.46611893177032471 1.20337450504302979 0.0694858580827713013
1.46611893177032471 1.19220399856567383 0.159427911043167114
1.46611893177032471 1.17812550067901611 0.11997281014919281
1.46611893177032471 0.98749387264251709 0.104793652892112732
1.46611893177032471 1.25869178771972656 0.0998912826180458069
1.46611893177032471 0.612397074699401855 0.14675787091255188
1.46611893177032471 0.652837216854095459 0.124635525047779083
1.46611893177032471 1.2553941011428833 0.179497063159942627
1.46611893177032471 0.677812755107879639 0.153020530939102173
1.46611893177032471 1.11910140514373779 0.150663718581199646
1.46611893177032471 0.718894898891448975 0.138949692249298096
1.46611893177032471 1.38670551776885986 0.0169686675071716309
1.46611893177032471 1.37049353122711182 0.0906527265906333923
1.46611893177032471 0.997609794139862061 0.149067193269729614
1.46611893177032471 1.00894641876220703 0.114121370017528534
1.46611893177032471 1.05086946487426758 0.114740282297134399
1.46611893177032471 0.747666239738464355 0.177815452218055725
1.46611893177032471 0.128341078758239746 0.164897993206977844
1.46611893177032471 0.978307962417602539 0.161552786827087402
1.46611893177032471 1.28088879585266113 0.150731801986694336
1.46611893177032471 1.25246548652648926 0.0338249951601028442
1.46611893177032471 0.168909788131713867 0.159537896513938904
1.46611893177032471 0.936706244945526123 0.0610357597470283508
1.46611893177032471 0.472725093364715576 0.133025512099266052
1.46611893177032471 0.805928528308868408 0.103737086057662964
1.46611893177032471 1.22657191753387451 0.118129536509513855
1.46611893177032471 0.684997797012329102 0.140996456146240234
1.46611893177032471 1.3922584056854248 0.0471883118152618408
1.46611893177032471 1.11167609691619873 0.14575648307800293
1.46611893177032471 0.768342018127441406 0.120212182402610779
1.46611893177032471 1.10338819026947021 0.0915299952030181885
1.46611893177032471 0.621518373489379883 0.148718014359474182
1.46611893177032471 0.390962004661560059 0.154632925987243652
1.46611893177032471 0.449739277362823486 0.178608015179634094
1.46611893177032471 1.19363212585449219 0.0976506620645523071
1.46611893177032471 1.27280795574188232 0.179639130830764771
1.46611893177032471 1.32584428787231445 0.0911783352494239807
1.46611893177032471 1.20820236206054688 0.104241393506526947
1.46611893177032471 1.30038094520568848 0.0260988771915435791
1.46611893177032471 1.3324272632598877 0.0780096501111984253
1.46611893177032471 1.0193706750869751 0.173730611801147461
1.46611893177032471 1.25059950351715088 0.149760693311691284
1.46611893177032471 1.16042780876159668 0.0919520854949951172
1.46611893177032471 1.36495685577392578 0.0929851606488227844
1.46611893177032471 1.14818251132965088 0.0783871635794639587
1.46611893177032471 0.955848217010498047 0.0844202041625976562
1.46611893177032471 0.535398900508880615 0.135106652975082397
1.46611893177032471 0.614275574684143066 0.118037194013595581
1.46611893177032471 0.646835744380950928 0.119381621479988098
1.46611893177032471 0.346967220306396484 0.165835320949554443
1.46611893177032471 0.587487757205963135 0.152766197919845581
1.46611893177032471 1.31669986248016357 0.0684357285499572754
1.46611893177032471 1.07290756702423096 0.11421530693769455
1.46611893177032471 0.91965717077255249 0.077274709939956665
1.46611893177032471 1.12519454956054688 0.0751166492700576782
1.46611893177032471 1.22654855251312256 0.164132252335548401
1.46611893177032471 0.491598129272460938 0.152454137802124023
1.46611893177032471 0.997024774551391602 0.140735119581222534
1.46611893177032471 0.998037934303283691 0.165063321590423584
1.46611893177032471 1.15782952308654785 0.0761044621467590332
1.46611893177032471 0.9613381028175354 0.160121619701385498
1.46611893177032471 1.12358498573303223 0.150965392589569092
1.46611893177032471 1.32888519763946533 0.129289120435714722
1.46611893177032471 1.32000327110290527 0.134467676281929016
1.46611893177032471 0.394235610961914062 0.148063346743583679
1.46611893177032471 1.26454997062683105 0.103031665086746216
1.46611893177032471 1.19751501083374023 0.0869339480996131897
1.46611893177032471 1.13422465324401855 0.120957642793655396
1.46611893177032471 1.00394952297210693 0.129791319370269775
1.46611893177032471 0.376879572868347168 0.15383535623550415
1.46611893177032471 1.31914961338043213 0.0671545267105102539
1.46611893177032471 0.234579086303710938 0.175298184156417847
1.46611893177032471 0.472699284553527832 0.128467217087745667
1.46611893177032471 0.961609244346618652 0.14841441810131073
1.46611893177032471 1.0376284122467041 0.17385534942150116
1.46611893177032471 0.497499942779541016 0.140337452292442322
1.46611893177032471 0.921225547790527344 0.152474656701087952
1.46611893177032471 0.473557412624359131 0.175728470087051392
0.246153593063354492 1.39999997615814209 0.0277542918920516968
1.35523903369903564 1.39999997615814209 0.133723795413970947
0.697888791561126709 1.39999997615814209 0.0451394468545913696
1.17449164390563965 1.39999997615814209 0.113482385873794556
1.33070242404937744 1.39999997615814209 0.0694533661007881165
1.33992350101470947 1.39999997615814209 0.109931513667106628
1.00642216205596924 1.39999997615814209 0.0812363922595977783
0.86052626371383667 1.39999997615814209 0.0569159090518951416
0.847856342792510986 1.39999997615814209 0.0476520583033561707
0.444826602935791016 1.39999997615814209 0.0528878867626190186
1.24267709255218506 1.39999997615814209 0.0670383870601654053
0.675908327102661133 1.39999997615814209 0.0313143283128738403
0.69486534595489502 1.39999997615814209 0.077634073793888092
0.934504926204681396 1.39999997615814209 0.0184394791722297668
0.55046546459197998 1.39999997615814209 0.00321567803621292114
1.14771687984466553 1.39999997615814209 0.0498441271483898163
0.506883502006530762 1.39999997615814209 0.0292376577854156494
1.39562714099884033 1.39999997615814209 0.0480242334306240082
0.806267023086547852 1.39999997615814209 0.050747305154800415
0.903509199619293213 1.39999997615814209 0.0832050517201423645
0.464104652404785156 1.39999997615814209 0.0168964788317680359
0.645256638526916504 1.39999997615814209 0.0486378669738769531
1.17989790439605713 1.39999997615814209 0.0610916577279567719
0.445376753807067871 1.39999997615814209 0.0159822851419448853
1.24912011623382568 1.39999997615814209 0.135680794715881348
0.913086771965026855 1.39999997615814209 0.0425041764974594116
1.04115736484527588 1.39999997615814209 0.0516825802624225616
1.38698709011077881 1.39999997615814209 0.0426826514303684235
0.685891985893249512 1.39999997615814209 0.0703479722142219543
0.901789009571075439 1.39999997615814209 0.0652288645505905151
1.40133309364318848 1.39999997615814209 0.020804770290851593
0.338443279266357422 1.39999997615814209 0.038908541202545166
0.775426626205444336 1.39999997615814209 0.041451871395111084
1.44882845878601074 1.39999997615814209 0.0868551507592201233
0.44753730297088623 1.39999997615814209 0.0271942615509033203
1.32298195362091064 1.39999997615814209 0.0501397699117660522
1.14606106281280518 1.39999997615814209 0.125749856233596802
1.34872245788574219 1.39999997615814209 0.0489548482000827789
0.373723149299621582 1.39999997615814209 0.0127265751361846924
1.16440653800964355 1.39999997615814209 0.0774630829691886902
1.02531564235687256 1.39999997615814209 0.0666761398315429688
1.02306675910949707 1.39999997615814209 0.109249234199523926
1.04167008399963379 1.39999997615814209 0.109868600964546204
1.07389891147613525 1.39999997615814209 0.0469464249908924103
1.35852658748626709 1.39999997615814209 0.004342629574239254
0.534064412117004395 1.39999997615814209 0.0115398615598678589
0.288683414459228516 1.39999997615814209 0.0343209058046340942
1.44308590888977051 1.39999997615814209 0.0965323373675346375
0.668006360530853271 1.39999997615814209 0.0212691724300384521
0.661092638969421387 1.39999997615814209 0.00271714478731155396
0.768372893333435059 1.39999997615814209 0.00295075774192810059
0.813259124755859375 1.39999997615814209 0.00399582833051681519
0.792946875095367432 1.39999997615814209 0.0251543521881103516
1.29536926746368408 1.39999997615814209 0.0777575969696044922
1.21362566947937012 1.39999997615814209 0.123507864773273468
0.749289274215698242 1.39999997615814209 0.0816621929407119751
0.702769815921783447 1.39999997615814209 0.0639673694968223572
0.67694556713104248 1.39999997615814209 0.0362074002623558044
1.26635158061981201 1.39999997615814209 0.118244856595993042
1.31143832206726074 1.39999997615814209 0.0131066087633371353
0.162399411201477051 1.39999997615814209 0.0161780714988708496
0.246182918548583984 1.39999997615814209 0.0154235810041427612
0.955818295478820801 1.39999997615814209 0.0210494548082351685
0.856187164783477783 1.39999997615814209 0.0871162340044975281
1.44877290725708008 1.39999997615814209 0.13524310290813446
1.35241734981536865 1.39999997615814209 0.0147291421890258789
1.08551144599914551 1.39999997615814209 0.0314620435237884521
1.1246039867401123 1.39999997615814209 0.0392791628837585449
0.97379601001739502 1.39999997615814209 0.112135797739028931
1.06902694702148438 1.39999997615814209 0.0457200631499290466
0.344902634620666504 1.39999997615814209 0.0118212997913360596
0.522352099418640137 1.39999997615814209 0.0320193096995353699
1.05401730537414551 1.39999997615814209 0.0402209572494029999
1.382790207862854 1.39999997615814209 0.102428779006004333
0.388716578483581543 1.39999997615814209 0.0156885981559753418
1.41890382766723633 1.39999997615814209 0.0520797930657863617
1.33298158645629883 1.39999997615814209 0.0436891540884971619
0.617104411125183105 1.39999997615814209 0.0616911053657531738
1.34221053123474121 1.39999997615814209 0.164601027965545654
1.21659862995147705 1.39999997615814209 0.0811411440372467041
1.33239245414733887 1.39999997615814209 0.0253061782568693161
1.26421260833740234 1.39999997615814209 0.0173855610191822052
0.790938675403594971 1.39999997615814209 0.0061903148889541626
1.01500236988067627 1.39999997615814209 0.098055034875869751
1.40815258026123047 1.39999997615814209 0.142383292317390442
1.30350494384765625 1.39999997615814209 0.131923556327819824
1.32426309585571289 1.39999997615814209 0.148106217384338379
1.15756034851074219 1.39999997615814209 0.10180489718914032
1.4375988245010376 1.39999997615814209 0.0541276969015598297
1.32527256011962891 1.39999997615814209 0.0308478754013776779
0.367269158363342285 1.39999997615814209 0.00414058566093444824
0.98953402042388916 1.39999997615814209 0.0856876075267791748
1.15680718421936035 1.39999997615814209 0.0180053301155567169
0.176411032676696777 1.39999997615814209 0.00566378235816955566
0.374364137649536133 1.39999997615814209 0.0301238745450973511
1.42527890205383301 1.39999997615814209 0.137209072709083557
1.29978048801422119 1.39999997615814209 0.055825360119342804
0.703932702541351318 1.39999997615814209 0.0816225633025169373
0.50183260440826416 1.39999997615814209 0.0243509337306022644
1.24713873863220215 1.39999997615814209 0.111580654978752136
1.37584817409515381 1.39999997615814209 0.0867843180894851685
1.20471572875976562 1.39999997615814209 0.0339253060519695282
1.17785036563873291 1.39999997615814209 0.0569061450660228729
0.876986920833587646 1.39999997615814209 0.0127344280481338501
0.642046093940734863 1.39999997615814209 0.0322217419743537903
1.21097993850708008 1.39999997615814209 0.0307668149471282959
1.0745232105255127 1.39999997615814209 0.108863011002540588
1.46373927593231201 1.39999997615814209 0.157290071249008179
1.37540531158447266 1.39999997615814209 0.00507943611592054367
0.805538058280944824 1.39999997615814209 0.0512281954288482666
1.40800189971923828 1.39999997615814209 0.011990012601017952
0.536818087100982666 1.39999997615814209 0.0178556591272354126
0.916776120662689209 1.39999997615814209 0.106343403458595276
0.71185535192489624 1.39999997615814209 0.0271203592419624329
0.853975832462310791 1.39999997615814209 0.0987650603055953979
0.968943357467651367 1.39999997615814209 0.11439204216003418
1.0050128698348999 1.39999997615814209 0.0727028697729110718
1.07743096351623535 1.39999997615814209 0.0263524092733860016
0.970167875289916992 1.39999997615814209 0.00474517792463302612
1.46154212951660156 1.39999997615814209 0.0440459400415420532
0.465809822082519531 1.39999997615814209 0.0405267179012298584
1.46127510070800781 1.39999997615814209 0.0212993472814559937
0.555203437805175781 1.39999997615814209 0.0599817633628845215
1.38936316967010498 1.39999997615814209 0.0644117370247840881
0.215896368026733398 1.39999997615814209 0.00703310966491699219
1.14956879615783691 1.39999997615814209 0.0703168213367462158
0.963464498519897461 1.39999997615814209 0.0144481249153614044
1.11585688591003418 1.39999997615814209 0.0142543613910675049
0.777066349983215332 1.39999997615814209 0.0316988527774810791
1.09378087520599365 1.39999997615814209 0.078673824667930603
1.3503497838973999 1.39999997615814209 0.146505445241928101
0.429178118705749512 1.39999997615814209 0.03968048095703125
1.05984199047088623 1.39999997615814209 0.0984199643135070801
1.36350107192993164 1.39999997615814209 0.0264968499541282654
1.40479636192321777 1.39999997615814209 0.170209944248199463
0.215503096580505371 1.39999997615814209 0.00793352723121643066
1.3259882926940918 1.39999997615814209 0.114536985754966736
0.654720306396484375 1.39999997615814209 0.0634628087282180786
0.777777135372161865 1.39999997615814209 0.0383967161178588867
1.35498380661010742 1.39999997615814209 0.0871520191431045532
0.961905062198638916 1.39999997615814209 0.0612416565418243408
0.626776337623596191 1.39999997615814209 0.0428123325109481812
0.851391077041625977 1.39999997615814209 0.0908071920275688171
1.07050991058349609 1.39999997615814209 0.0915743857622146606
0.674610614776611328 1.39999997615814209 0.00640388578176498413
0.312874794006347656 1.39999997615814209 0.00802575051784515381
0.99300086498260498 1.39999997615814209 0.0384172387421131134
0.457347273826599121 1.39999997615814209 0.0315001830458641052
0.247711181640625 1.39999997615814209 0.0105352997779846191
0.159477710723876953 1.39999997615814209 0.0186621099710464478
0.898428797721862793 1.39999997615814209 0.0955339670181274414
0.942304909229278564 1.39999997615814209 0.0837256535887718201
1.13810157775878906 1.39999997615814209 0.087169937789440155
0.340562224388122559 1.39999997615814209 0.0244057774543762207
1.20323562622070312 1.39999997615814209 0.0803362876176834106
1.44351696968078613 1.39999997615814209 0.0723825395107269287
1.02759051322937012 1.39999997615814209 0.028189290314912796
1.12696266174316406 1.39999997615814209 0.0702451914548873901
1.24947071075439453 1.39999997615814209 0.00400958023965358734
0.924801111221313477 1.39999997615814209 0.10964588075876236
1.31540489196777344 1.39999997615814209 0.0247669443488121033
0.789379775524139404 1.39999997615814209 0.0687111318111419678
0.204349398612976074 1.39999997615814209 0.0212288647890090942
1.32077407836914062 1.39999997615814209 0.00179459899663925171
0.800072968006134033 1.39999997615814209 0.0711779668927192688
0.546178936958312988 1.39999997615814209 0.0155491307377815247
0.508904337882995605 1.39999997615814209 0.00196893513202667236
1.40113675594329834 1.39999997615814209 0.0261344946920871735
0.677232503890991211 1.39999997615814209 0.00640543550252914429
0.79461371898651123 1.39999997615814209 0.0109058544039726257
1.17158734798431396 1.39999997615814209 0.117089316248893738
0.195152044296264648 1.39999997615814209 0.00933046638965606689
1.18142533302307129 1.39999997615814209 0.0867669656872749329
0.527058839797973633 1.39999997615814209 0.0174077972769737244
0.519891977310180664 1.39999997615814209 0.0524812191724777222
1.19083309173583984 1.39999997615814209 0.0808837637305259705
0.81529921293258667 1.39999997615814209 0.0583391785621643066
1.40520167350769043 1.39999997615814209 0.164362818002700806
1.33641993999481201 1.39999997615814209 0.0782885253429412842
0.798027157783508301 1.39999997615814209 0.0650923922657966614
1.33214688301086426 1.39999997615814209 0.0552052631974220276
1.15760159492492676 1.39999997615814209 0.118521273136138916
1.21345186233520508 1.39999997615814209 0.0670507848262786865
1.25063014030456543 1.39999997615814209 0.131752520799636841
1.26602602005004883 1.39999997615814209 0.100867748260498047
1.38608169555664062 1.39999997615814209 0.00922365672886371613
1.37461340427398682 1.39999997615814209 0.069553770124912262
0.952266812324523926 1.39999997615814209 0.0228906050324440002
0.698774397373199463 1.39999997615814209 0.0233309268951416016
1.38639354705810547 1.39999997615814209 0.0775717273354530334
1.31243419647216797 1.39999997615814209 0.139487296342849731
0.852545857429504395 1.39999997615814209 0.104346916079521179
0.437926054000854492 1.39999997615814209 0.0195465683937072754
0.243539810180664062 1.39999997615814209 0.0122516453266143799
1.26659011840820312 1.39999997615814209 0.138572514057159424
1.44108676910400391 1.39999997615814209 0.0502861253917217255
1.27207112312316895 1.39999997615814209 0.147568553686141968
0.530896961688995361 1.39999997615814209 0.0228770226240158081
1.25232040882110596 1.39999997615814209 0.127958387136459351
1.45280611515045166 1.39999997615814209 0.086821630597114563
1.46256339550018311 1.39999997615814209 0.0353814512491226196
1.3073585033416748 1.39999997615814209 0.0315076485276222229
0.518047928810119629 1.39999997615814209 0.0388342663645744324
1.07430899143218994 1.39999997615814209 0.00825541839003562927
0.525769352912902832 1.39999997615814209 0.0241478011012077332
1.28282725811004639 1.39999997615814209 0.0931783616542816162
1.43926811218261719 1.39999997615814209 0.02061501145362854
0.458674907684326172 1.39999997615814209 0.0245585665106773376
0.995693325996398926 1.39999997615814209 0.0894958823919296265
1.13960063457489014 1.39999997615814209 0.0990704447031021118
0.732620358467102051 1.39999997615814209 0.0828782767057418823
1.20052313804626465 1.39999997615814209 0.106034457683563232
1.22329068183898926 1.39999997615814209 0.103385694324970245
0.361272335052490234 1.39999997615814209 0.0143668055534362793
1.14103305339813232 1.39999997615814209 0.0839918553829193115
0.710400581359863281 1.39999997615814209 0.00883751362562179565
1.4617466926574707 1.39999997615814209 0.0248018670827150345
1.01990282535552979 1.39999997615814209 0.109160095453262329
0.493536829948425293 1.39999997615814209 0.0372872650623321533
0.55217432975769043 1.39999997615814209 0.0334361568093299866
1.23482561111450195 1.39999997615814209 0.021002376452088356
0.976400017738342285 1.39999997615814209 0.0743254125118255615
1.44406414031982422 1.39999997615814209 0.0548290163278579712
1.32294058799743652 1.39999997615814209 0.0186120476573705673
1.1163794994354248 1.39999997615814209 0.0278966575860977173
1.37052083015441895 1.39999997615814209 0.167008012533187866
1.22295618057250977 1.39999997615814209 0.0384869575500488281
1.08034646511077881 1.39999997615814209 0.108718633651733398
1.34999763965606689 1.39999997615814209 0.0333188474178314209
1.02939558029174805 1.39999997615814209 0.0131149031221866608
1.4349367618560791 1.39999997615814209 0.172806829214096069
0.276736617088317871 1.39999997615814209 0.0249594449996948242
0.90904313325881958 1.39999997615814209 0.00648726522922515869
1.36200881004333496 1.39999997615814209 0.114671379327774048
0.259997844696044922 1.39999997615814209 0.00250682234764099121
1.18165385723114014 1.39999997615814209 0.0768950209021568298
0.261064052581787109 1.39999997615814209 0.00616493821144104004
1.04505312442779541 1.39999997615814209 0.111906237900257111
0.797070026397705078 1.39999997615814209 0.0921823903918266296
1.43966519832611084 1.39999997615814209 0.0413261689245700836
1.42325365543365479 1.39999997615814209 0.10018756240606308
1.05650889873504639 1.39999997615814209 0.0926821082830429077
0.819392085075378418 1.39999997615814209 0.0547174066305160522
0.872090458869934082 1.39999997615814209 0.0172856226563453674
1.38582718372344971 1.39999997615814209 0.149356469511985779
0.679350435733795166 1.39999997615814209 0.08222237229347229
0.950300097465515137 1.39999997615814209 0.116613678634166718
0.233758330345153809 1.39999997615814209 0.0248558521270751953
0.48753046989440918 1.39999997615814209 0.0560024678707122803
1.1222834587097168 1.39999997615814209 0.00276522710919380188
1.06570017337799072 1.39999997615814209 0.00430747121572494507
0.697801828384399414 1.39999997615814209 0.0665185824036598206
1.39701831340789795 1.39999997615814209 0.0272631347179412842
1.4038231372833252 1.39999997615814209 0.121814385056495667
0.313046455383300781 1.39999997615814209 0.00796091556549072266
1.16038179397583008 1.39999997615814209 0.0534257218241691589
0.579184353351593018 1.39999997615814209 0.0660952255129814148
0.803377449512481689 1.39999997615814209 0.153672739863395691
0.848676443099975586 1.39999997615814209 0.104876585304737091
0.349417626857757568 1.39999997615814209 0.0827130973339080811
0.544460892677307129 1.39999997615814209 0.133832678198814392
0.7730674147605896 1.39999997615814209 0.177522018551826477
0.761972904205322266 1.39999997615814209 0.146024450659751892
1.24238765239715576 1.39999997615814209 0.172569155693054199
1.02826559543609619 1.39999997615814209 0.155061393976211548
0.591104745864868164 1.39999997615814209 0.126461997628211975
0.102594673633575439 1.39999997615814209 0.0510854274034500122
0.0283426828682422638 1.39999997615814209 0.0749013349413871765
0.786885380744934082 1.39999997615814209 0.152548879384994507
0.917207300662994385 1.39999997615814209 0.137151271104812622
0.159385025501251221 1.39999997615814209 0.0335907191038131714
0.226425439119338989 1.39999997615814209 0.0998555421829223633
0.0748363956809043884 1.39999997615814209 0.16725611686706543
0.0647142603993415833 1.39999997615814209 0.0669108405709266663
0.456641316413879395 1.39999997615814209 0.087671332061290741
0.509938716888427734 1.39999997615814209 0.124123543500900269
0.0360481142997741699 1.39999997615814209 0.0740093141794204712
0.626944243907928467 1.39999997615814209 0.106368593871593475
0.302681028842926025 1.39999997615814209 0.168155297636985779
0.250556826591491699 1.39999997615814209 0.127173036336898804
1.46118438243865967 1.39999997615814209 0.179424121975898743
0.577903211116790771 1.39999997615814209 0.0773804038763046265
0.544826924800872803 1.39999997615814209 0.17665843665599823
0.146901875734329224 1.39999997615814209 0.0484541803598403931
0.362596899271011353 1.39999997615814209 0.132268652319908142
0.388088196516036987 1.39999997615814209 0.120404116809368134
0.304664403200149536 1.39999997615814209 0.176602214574813843
0.468091517686843872 1.39999997615814209 0.106997571885585785
0.717569708824157715 1.39999997615814209 0.107191003859043121
0.0815255716443061829 1.39999997615814209 0.0950505658984184265
0.797619342803955078 1.39999997615814209 0.130748480558395386
1.09213840961456299 1.39999997615814209 0.145259514451026917
0.849847972393035889 1.39999997615814209 0.153699636459350586
0.021620582789182663 1.39999997615814209 0.0470092743635177612
0.151485785841941833 1.39999997615814209 0.0957193225622177124
0.500477790832519531 1.39999997615814209 0.0692858472466468811
1.20371890068054199 1.39999997615814209 0.167752712965011597
0.393033266067504883 1.39999997615814209 0.127941876649856567
0.148285970091819763 1.39999997615814209 0.13296489417552948
0.278200387954711914 1.39999997615814209 0.0646416917443275452
0.319643765687942505 1.39999997615814209 0.0779491588473320007
0.326275646686553955 1.39999997615814209 0.0469412952661514282
0.325840920209884644 1.39999997615814209 0.130304738879203796
0.44819343090057373 1.39999997615814209 0.131755858659744263
0.469739407300949097 1.39999997615814209 0.17320840060710907
0.475088298320770264 1.39999997615814209 0.170051977038383484
1.10698604583740234 1.39999997615814209 0.158057838678359985
0.135043323040008545 1.39999997615814209 0.143929541110992432
0.709080934524536133 1.39999997615814209 0.148682981729507446
0.0467956885695457458 1.39999997615814209 0.111915610730648041
0.251435995101928711 1.39999997615814209 0.130886241793632507
1.03646838665008545 1.39999997615814209 0.133237123489379883
0.840604007244110107 1.39999997615814209 0.139565259218215942
0.100793905556201935 1.39999997615814209 0.151816517114639282
0.133764296770095825 1.39999997615814209 0.129226744174957275
0.0166110359132289886 1.39999997615814209 0.0909425541758537292
0.166974619030952454 1.39999997615814209 0.109803296625614166
0.386723905801773071 1.39999997615814209 0.0592577382922172546
0.741364836692810059 1.39999997615814209 0.158329278230667114
0.328753679990768433 1.39999997615814209 0.112330012023448944
0.22322314977645874 1.39999997615814209 0.107379160821437836
0.668487727642059326 1.39999997615814209 0.158807992935180664
1.0142214298248291 1.39999997615814209 0.167957022786140442
0.455423742532730103 1.39999997615814209 0.0734149143099784851
0.945283412933349609 1.39999997615814209 0.170208066701889038
0.000339795020408928394 1.39999997615814209 0.01927928626537323
0.491952687501907349 1.39999997615814209 0.147847339510917664
0.647738099098205566 1.39999997615814209 0.167912214994430542
0.51307445764541626 1.39999997615814209 0.0976457297801971436
0.357646197080612183 1.39999997615814209 0.143476575613021851
0.692637085914611816 1.39999997615814209 0.137814685702323914
0.267834454774856567 1.39999997615814209 0.0551445484161376953
0.101029083132743835 1.39999997615814209 0.173179209232330322
0.115174897015094757 1.39999997615814209 0.0535919815301895142
0.00399194704368710518 1.39999997615814209 0.0300942212343215942
0.799350321292877197 1.39999997615814209 0.103498436510562897
0.348341107368469238 1.39999997615814209 0.132620289921760559
0.0217305645346641541 1.39999997615814209 0.165392041206359863
0.203706637024879456 1.39999997615814209 0.16752275824546814
0.519018232822418213 1.39999997615814209 0.13782559335231781
0.020772252231836319 1.39999997615814209 0.133298352360725403
0.246187686920166016 1.39999997615814209 0.170543909072875977
0.0309017188847064972 1.39999997615814209 0.00655068457126617432
0.352899610996246338 1.39999997615814209 0.0965519249439239502
0.427073448896408081 1.39999997615814209 0.0771179869771003723
0.0891933664679527283 1.39999997615814209 0.14615902304649353
0.444250732660293579 1.39999997615814209 0.0838485509157180786
0.112245574593544006 1.39999997615814209 0.152227580547332764
0.418298989534378052 1.39999997615814209 0.166143089532852173
0.921577990055084229 1.39999997615814209 0.145814180374145508
0.838531196117401123 1.39999997615814209 0.153939679265022278
0.5050392746925354 1.39999997615814209 0.119049035012722015
0.194081321358680725 1.39999997615814209 0.103471644222736359
0.236201554536819458 1.39999997615814209 0.115941800177097321
0.443633556365966797 1.39999997615814209 0.0959283486008644104
1.07176971435546875 1.39999997615814209 0.132416993379592896
0.0927362367510795593 1.39999997615814209 0.118670403957366943
0.746217310428619385 1.39999997615814209 0.178994655609130859
0.0175699852406978607 1.39999997615814209 0.110433049499988556
1.25478732585906982 1.39999997615814209 0.167013198137283325
0.786745011806488037 1.39999997615814209 0.119501791894435883
0.63302457332611084 1.39999997615814209 0.133452147245407104
0.0738173723220825195 1.39999997615814209 0.167786940932273865
1.05012190341949463 1.39999997615814209 0.164670169353485107
0.331324368715286255 1.39999997615814209 0.109804242849349976
0.80545651912689209 1.39999997615814209 0.124910801649093628
0.903759300708770752 1.39999997615814209 0.154266670346260071
1.18670046329498291 1.39999997615814209 0.174049839377403259
0.257241278886795044 1.39999997615814209 0.114976607263088226
0.757463216781616211 1.39999997615814209 0.145341098308563232
1.0555499792098999 1.39999997615814209 0.149113833904266357
0.346179813146591187 1.39999997615814209 0.121291361749172211
0.438759356737136841 1.39999997615814209 0.0888585522770881653
0.251715213060379028 1.39999997615814209 0.0946624726057052612
0.0355203896760940552 1.39999997615814209 0.0629690736532211304
0.693086802959442139 1.39999997615814209 0.139425933361053467
0.237538665533065796 1.39999997615814209 0.171929866075515747
0.492828607559204102 1.39999997615814209 0.109819389879703522
0.462775975465774536 1.39999997615814209 0.0701967701315879822
0.944470345973968506 1.39999997615814209 0.174676820635795593
0.785764455795288086 1.39999997615814209 0.14522707462310791
1.05976152420043945 1.39999997615814209 0.15230444073677063
0.42259681224822998 1.39999997615814209 0.0825853273272514343
0.705923795700073242 1.39999997615814209 0.14670717716217041
0.315307408571243286 1.39999997615814209 0.0710129439830780029
0.237360194325447083 1.39999997615814209 0.0317323207855224609
0.780273020267486572 1.39999997615814209 0.149994686245918274
1.00428712368011475 1.39999997615814209 0.138078615069389343
0.256683021783828735 1.39999997615814209 0.13378201425075531
0.0481202006340026855 1.39999997615814209 0.051433265209197998
0.285389214754104614 1.39999997615814209 0.103469856083393097
0.150530114769935608 1.39999997615814209 0.0338561981916427612
0.58751147985458374 1.39999997615814209 0.156913876533508301
0.96434473991394043 1.39999997615814209 0.13746190071105957
0.434750735759735107 1.39999997615814209 0.0593708157539367676
0.720546960830688477 1.39999997615814209 0.104207701981067657
0.103377506136894226 1.39999997615814209 0.161928057670593262
0.318771928548812866 1.39999997615814209 0.145167425274848938
0.132273197174072266 1.39999997615814209 0.0280200988054275513
0.0734534189105033875 1.39999997615814209 0.112457364797592163
0.663064420223236084 1.39999997615814209 0.116958692669868469
1.14886534214019775 1.39999997615814209 0.161725714802742004
0.495797872543334961 1.39999997615814209 0.142705440521240234
0.0199543144553899765 1.39999997615814209 0.0220212638378143311
1.29426586627960205 1.39999997615814209 0.16739267110824585
0.314630180597305298 1.39999997615814209 0.0844335108995437622
0.0474883913993835449 1.39999997615814209 0.080166153609752655
0.66485065221786499 1.39999997615814209 0.14481651782989502
0.243412747979164124 1.39999997615814209 0.0546423941850662231
0.555974304676055908 1.39999997615814209 0.166041240096092224
0.958392679691314697 1.39999997615814209 0.134661018848419189
0.558412551879882812 1.39999997615814209 0.158463373780250549
0.273105442523956299 1.39999997615814209 0.0803356841206550598
0.218433007597923279 1.39999997615814209 0.0411913245916366577
0.916931509971618652 1.39999997615814209 0.130144655704498291
0.949117600917816162 1.39999997615814209 0.120459958910942078
0.92938232421875 1.39999997615814209 0.174265459179878235
0.165002882480621338 1.39999997615814209 0.151884019374847412
0.0202837307006120682 1.39999997615814209 0.0768607854843139648
0.422555774450302124 1.39999997615814209 0.136216670274734497
0.234700188040733337 1.39999997615814209 0.133416116237640381
0.0912573039531707764 1.39999997615814209 0.175477743148803711
0.845667004585266113 1.39999997615814209 0.122708611190319061
0.559020638465881348 1.39999997615814209 0.171441271901130676
0.0721049532294273376 1.39999997615814209 0.109332270920276642
0.825903415679931641 1.39999997615814209 0.141747221350669861
0.0974137932062149048 1.39999997615814209 0.033646509051322937
0.0175350625067949295 1.39999997615814209 0.0949673056602478027
0.693991124629974365 1.39999997615814209 0.134424805641174316
1.10496091842651367 1.39999997615814209 0.142465248703956604
0.212520107626914978 1.39999997615814209 0.163552001118659973
0.692880630493164062 1.39999997615814209 0.154408976435661316
0.758260250091552734 1.39999997615814209 0.141747727990150452
0.10882587730884552 1.39999997615814209 0.0183307677507400513
0.52480846643447876 1.39999997615814209 0.110110484063625336
0.180363789200782776 1.39999997615814209 0.165630489587783813
0.980625808238983154 1.39999997615814209 0.165958583354949951
0.377981811761856079 1.39999997615814209 0.172026857733726501
0.34375607967376709 1.39999997615814209 0.0991330966353416443
0.69181746244430542 1.39999997615814209 0.142485082149505615
0.414622694253921509 1.39999997615814209 0.0673052072525024414
0.129977911710739136 1.39999997615814209 0.0726943686604499817
0.789376616477966309 1.39999997615814209 0.162046715617179871
0.0242919884622097015 1.39999997615814209 0.082587897777557373
0.371753841638565063 1.39999997615814209 0.0786870792508125305
0.273208081722259521 1.39999997615814209 0.0910246297717094421
0.37743079662322998 1.39999997615814209 0.160271570086479187
0.0535053834319114685 1.39999997615814209 0.15287172794342041
0.21617618203163147 1.39999997615814209 0.0801745131611824036
0.340973377227783203 1.39999997615814209 0.0600951313972473145
0.189771756529808044 1.39999997615814209 0.035909801721572876
0.24238269031047821 1.39999997615814209 0.145299077033996582
0.53179699182510376 1.39999997615814209 0.0799644440412521362
0.896272838115692139 1.39999997615814209 0.146834582090377808
0.827127993106842041 1.39999997615814209 0.148519545793533325
0.355151325464248657 1.39999997615814209 0.149333864450454712
0.970483720302581787 1.39999997615814209 0.162472695112228394
0.533120095729827881 1.39999997615814209 0.109089836478233337
0.195605948567390442 1.39999997615814209 0.151170715689659119
0.830201268196105957 1.39999997615814209 0.178338021039962769
0.469345659017562866 1.39999997615814209 0.116778947412967682
1.11001622676849365 1.39999997615814209 0.149951145052909851
0.17791379988193512 1.39999997615814209 0.146376878023147583
0.118286557495594025 1.39999997615814209 0.0194801837205886841
0.757918000221252441 1.39999997615814209 0.160220354795455933
0.269438564777374268 1.39999997615814209 0.136239603161811829
0.785440206527709961 1.39999997615814209 0.124011263251304626
0.413719296455383301 1.39999997615814209 0.106085948646068573
0.184666454792022705 1.39999997615814209 0.0323605835437774658
0.0438042059540748596 1.39999997615814209 0.152200892567634583
0.180202573537826538 1.39999997615814209 0.17511257529258728
0.839955329895019531 1.39999997615814209 0.17528185248374939
0.292605489492416382 1.39999997615814209 0.132937565445899963
0.380416125059127808 1.39999997615814209 0.08476218581199646
0.580389738082885742 1.39999997615814209 0.1751212477684021
1.03204119205474854 1.39999997615814209 0.129017174243927002
0.059129767119884491 1.39999997615814209 0.175341859459877014
0.489915341138839722 1.39999997615814209 0.100587531924247742
0.857647061347961426 1.39999997615814209 0.15894944965839386
0.143823385238647461 1.39999997615814209 0.11230885237455368
0.149672746658325195 1.39999997615814209 0.0582799538969993591
0.694167554378509521 1.39999997615814209 0.119182303547859192
0.296637594699859619 1.39999997615814209 0.110294319689273834
0.311764717102050781 1.39999997615814209 0.0556277632713317871
0.450670480728149414 1.39999997615814209 0.0763671696186065674
0.203294053673744202 1.39999997615814209 0.112736895680427551
0.211548492312431335 1.39999997615814209 0.1582489013671875
0.227607429027557373 1.39999997615814209 0.167047962546348572
0.271170288324356079 1.39999997615814209 0.17540837824344635
0.457482606172561646 1.39999997615814209 0.132265105843544006
0.318771690130233765 1.39999997615814209 0.0504856854677200317
0.377276033163070679 1.39999997615814209 0.174781203269958496
0.332342714071273804 1.39999997615814209 0.118730582296848297
0.645907163619995117 1.39999997615814209 0.161690354347229004
1.07878506183624268 1.39999997615814209 0.171710222959518433
0.682987749576568604 1.39999997615814209 0.169299483299255371
0.725777029991149902 1.39999997615814209 0.120248839259147644
1.38932394981384277 1.39999997615814209 0.176337674260139465
0.452508270740509033 1.39999997615814209 0.101535506546497345
0.914804399013519287 1.39999997615814209 0.132828056812286377
0.171964019536972046 1.39999997615814209 0.102783575654029846
1.05821967124938965 1.39999997615814209 0.143276005983352661
0.737686872482299805 1.39999997615814209 0.162324488162994385
1.22412919998168945 1.39999997615814209 0.17012825608253479
0.315729677677154541 1.39999997615814209 0.090840950608253479
0.243652403354644775 1.39999997615814209 0.137420386075973511
0.00849674642086029053 1.39999997615814209 0.0159368962049484253
0.360771745443344116 1.39999997615814209 0.0556047931313514709
0.219797402620315552 1.39999997615814209 0.121759332716464996
0.557199597358703613 1.39999997615814209 0.130641922354698181
0.024132855236530304 1.39999997615814209 0.132579505443572998
0.863640785217285156 1.39999997615814209 0.126112580299377441
0.825899660587310791 1.39999997615814209 0.135959938168525696
0.0114713776856660843 1.39999997615814209 0.0336236953735351562
-5.99520433297584532e-15 1.10448956489562988 0.0948230922222137451
-5.99520433297584532e-15 0.968924999237060547 0.113190069794654846
-5.99520433297584532e-15 0.862048864364624023 0.0235843360424041748
-5.99520433297584532e-15 1.10200726985931396 0.0698393285274505615
-5.99520433297584532e-15 1.12370586395263672 0.0591461844742298126
-5.99520433297584532e-15 1.34566998481750488 0.0837547257542610168
-5.99520433297584532e-15 1.07504546642303467 0.0900427401065826416
-5.99520433297584532e-15 1.21500003337860107 0.0251094941049814224
-5.99520433297584532e-15 1.29845166206359863 0.0190904121845960617
-5.99520433297584532e-15 1.27500200271606445 0.099525153636932373
-5.99520433297584532e-15 0.838003993034362793 0.0845468491315841675
-5.99520433297584532e-15 1.28731954097747803 0.105251118540763855
-5.99520433297584532e-15 1.0649721622467041 0.113352581858634949
-5.99520433297584532e-15 1.15747857093811035 0.0541438274085521698
-5.99520433297584532e-15 0.710544228553771973 0.0274217352271080017
-5.99520433297584532e-15 0.98420417308807373 0.0252527818083763123
-5.99520433297584532e-15 0.934646368026733398 0.0855880677700042725
-5.99520433297584532e-15 0.522177755832672119 0.0152941718697547913
-5.99520433297584532e-15 0.517927467823028564 0.0256815403699874878
-5.99520433297584532e-15 0.82287442684173584 0.0384044647216796875
-5.99520433297584532e-15 0.868752360343933105 0.0894856303930282593
-5.99520433297584532e-15 1.2880483865737915 0.127584934234619141
-5.99520433297584532e-15 1.06293439865112305 0.0913457795977592468
-5.99520433297584532e-15 1.22260355949401855 0.0655330270528793335
-5.99520433297584532e-15 1.02487492561340332 0.119414731860160828
-5.99520433297584532e-15 0.798459231853485107 0.0775831341743469238
-5.99520433297584532e-15 0.395663022994995117 0.0377112925052642822
-5.99520433297584532e-15 0.739741027355194092 0.0680299103260040283
-5.99520433297584532e-15 1.14004385471343994 0.146189212799072266
-5.99520433297584532e-15 1.11322999000549316 0.0212886780500411987
-5.99520433297584532e-15 0.362063407897949219 0.000975221395492553711
-5.99520433297584532e-15 0.949654936790466309 0.0328049883246421814
-5.99520433297584532e-15 0.723434567451477051 0.0190785601735115051
-5.99520433297584532e-15 0.962152838706970215 0.102789700031280518
-5.99520433297584532e-15 1.20121133327484131 0.0161449704319238663
-5.99520433297584532e-15 0.5712432861328125 0.0190532803535461426
-5.99520433297584532e-15 0.769378364086151123 0.0396637171506881714
-5.99520433297584532e-15 1.24959158897399902 0.0862691700458526611
-5.99520433297584532e-15 0.985656261444091797 0.0513903908431529999
-5.99520433297584532e-15 0.353565216064453125 0.0338336974382400513
-5.99520433297584532e-15 1.0795743465423584 0.11499381810426712
-5.99520433297584532e-15 1.36100137233734131 0.0929461196064949036
-5.99520433297584532e-15 0.540428102016448975 0.0124946758151054382
-5.99520433297584532e-15 0.824120223522186279 0.00018195807933807373
-5.99520433297584532e-15 1.33930003643035889 0.0870727747678756714
-5.99520433297584532e-15 1.07775425910949707 0.0624703094363212585
-5.99520433297584532e-15 1.30265426635742188 0.146741151809692383
-5.99520433297584532e-15 1.05140137672424316 0.120949313044548035
-5.99520433297584532e-15 1.26990580558776855 0.125785276293754578
-5.99520433297584532e-15 0.697438836097717285 0.0216604918241500854
-5.99520433297584532e-15 0.763273417949676514 0.0441258400678634644
-5.99520433297584532e-15 1.24376499652862549 0.0493772178888320923
-5.99520433297584532e-15 0.884899020195007324 0.0936453789472579956
-5.99520433297584532e-15 1.18570685386657715 0.0171333160251379013
-5.99520433297584532e-15 1.07530319690704346 0.0301912836730480194
-5.99520433297584532e-15 1.18998885154724121 0.128029987215995789
-5.99520433297584532e-15 0.86442035436630249 0.0835109725594520569
-5.99520433297584532e-15 0.723003864288330078 0.033008672297000885
-5.99520433297584532e-15 1.19872021675109863 0.149093523621559143
-5.99520433297584532e-15 1.37223160266876221 0.111397303640842438
-5.99520433297584532e-15 0.688174009323120117 0.0308577343821525574
-5.99520433297584532e-15 1.28213834762573242 0.158814713358879089
-5.99520433297584532e-15 1.11766743659973145 0.103426292538642883
-5.99520433297584532e-15 1.0133056640625 0.00201260671019554138
-5.99520433297584532e-15 0.631396949291229248 0.0728691443800926208
-5.99520433297584532e-15 0.427225649356842041 0.0248303115367889404
-5.99520433297584532e-15 1.33508515357971191 0.114339500665664673
-5.99520433297584532e-15 1.24500679969787598 0.0820333212614059448
-5.99520433297584532e-15 0.592571556568145752 0.053803369402885437
-5.99520433297584532e-15 0.461422204971313477 0.00208327174186706543
-5.99520433297584532e-15 0.981405496597290039 0.0678236633539199829
-5.99520433297584532e-15 0.238927841186523438 0.0235786736011505127
-5.99520433297584532e-15 1.11514866352081299 0.134331822395324707
-5.99520433297584532e-15 0.50832521915435791 0.0368927270174026489
-5.99520433297584532e-15 0.934167861938476562 0.0380695760250091553
-5.99520433297584532e-15 1.08579957485198975 0.0918685644865036011
-5.99520433297584532e-15 1.15940344333648682 0.135080605745315552
-5.99520433297584532e-15 0.872940242290496826 0.0462158843874931335
-5.99520433297584532e-15 1.3056180477142334 0.0528258904814720154
-5.99520433297584532e-15 0.788409709930419922 0.0843950808048248291
-5.99520433297584532e-15 1.02532970905303955 0.104630917310714722
-5.99520433297584532e-15 1.06253814697265625 0.0435441844165325165
-5.99520433297584532e-15 0.824076414108276367 0.0888636037707328796
-5.99520433297584532e-15 0.561204254627227783 0.00856500118970870972
-5.99520433297584532e-15 0.690911412239074707 0.0517760217189788818
-5.99520433297584532e-15 1.03926503658294678 0.045986369252204895
-5.99520433297584532e-15 0.819410562515258789 0.0839652270078659058
-5.99520433297584532e-15 0.935207366943359375 0.1170014888048172
-5.99520433297584532e-15 0.97453010082244873 0.0763142183423042297
-5.99520433297584532e-15 0.582860946655273438 0.055952511727809906
-5.99520433297584532e-15 0.980958640575408936 0.107036814093589783
-5.99520433297584532e-15 1.33434557914733887 0.158115312457084656
-5.99520433297584532e-15 1.14591610431671143 0.0955560356378555298
-5.99520433297584532e-15 0.908239841461181641 0.0562704280018806458
-5.99520433297584532e-15 1.3604426383972168 0.106039233505725861
-5.99520433297584532e-15 1.28837180137634277 0.141152903437614441
-5.99520433297584532e-15 1.26115226745605469 0.0355994254350662231
-5.99520433297584532e-15 0.918248414993286133 0.0663044452667236328
-5.99520433297584532e-15 0.498004376888275146 0.0247612372040748596
-5.99520433297584532e-15 0.760908901691436768 0.0649272352457046509
-5.99520433297584532e-15 0.472672700881958008 0.0361337661743164062
