ply
format ascii 1.0
element vertex 742
property float x
property float y
property float z
end_header
0.0205044243484735489 -0.00679964246228337288 -0.0215738359838724136
0.00121292658150196075 -0.00738000497221946716 -0.0214307885617017746
0.00471385940909385681 -0.00468363519757986069 -0.0220953840762376785
0.0155796846374869347 -0.0067150043323636055 -0.0215946957468986511
0.0128084942698478699 -0.00507364701479673386 -0.0219992548227310181
0.012907383032143116 -0.00657577160745859146 -0.0216290149837732315
0.000936246477067470551 -0.00696427281945943832 -0.0215332582592964172
0.00943631865084171295 -0.00666189705953001976 -0.0216077864170074463
0.00112720020115375519 -0.00435306178405880928 -0.0221768636256456375
0.0263209585100412369 -0.00795995350927114487 -0.0212878435850143433
0.0242948178201913834 -0.00738349976018071175 -0.0214299280196428299
0.00301304087042808533 -0.00335874315351247787 -0.0224219411611557007
0.0234026703983545303 -0.00802403036504983902 -0.021272050216794014
0.0236069485545158386 -0.00733778951689600945 -0.0214411932975053787
0.0133530925959348679 -0.00801315624266862869 -0.0212747305631637573
0.00630157953128218651 -0.00720553845167160034 -0.0214737914502620697
0.00010686926543712616 -0.00359044084325432777 -0.0223648324608802795
0.00850169733166694641 -0.00625345529988408089 -0.0217084586620330811
0.019561421126127243 -0.00740318512544035912 -0.0214250758290290833
0.00274477666243910789 -0.00757758226245641708 -0.0213820897042751312
0.00947028212249279022 -0.00446208473294973373 -0.0221499912440776825
0.00844901707023382187 -0.00777136068791151047 -0.021334327757358551
0.0121927373111248016 -0.00749710574746131897 -0.0214019268751144409
0.00450896099209785461 -0.00367772486060857773 -0.022343318909406662
0.014356980100274086 -0.00544568523764610291 -0.0219075549393892288
0.00129035208374261856 -0.00601491052657365799 -0.0217672549188137054
0.00974368583410978317 -0.00647915899753570557 -0.0216528270393610001
0.0127535918727517128 -0.00690590310841798782 -0.0215476453304290771
0.00734086707234382629 -0.00717018591240048409 -0.0214825049042701721
0.00773969478905200958 -0.00567155797034502029 -0.0218518823385238647
0.00096160336397588253 -0.00767468288540840149 -0.0213581565767526627
0.00894286669790744781 -0.00761836022138595581 -0.021372038871049881
0.0165085550397634506 -0.00623296201229095459 -0.0217135101556777954
0.00379972532391548157 -0.00392236886546015739 -0.0222830194979906082
0.00119730085134506226 -0.00646353140473365784 -0.0216566789895296097
0.00664757145568728447 -0.00698985112830996513 -0.0215269532054662704
0.0104068107903003693 -0.00494750402867794037 -0.0220303460955619812
0.00259015616029500961 -0.00565323280170559883 -0.0218563992530107498
0.00344922579824924469 -0.004126768559217453 -0.0222326386719942093
0.0128193199634552002 -0.00691299606114625931 -0.0215458963066339493
0.0248055532574653625 0.000142252072691917419 -0.0225741993635892868
0.0273542888462543488 0.000432699685916304588 -0.0225741993635892868
0.0213718842715024948 0.00221051694825291634 -0.0225741993635892868
0.0266037452965974808 -0.00177312153391540051 -0.0225741993635892868
0.0217167418450117111 0.00188077962957322598 -0.0225741993635892868
0.0200153738260269165 -0.000636537326499819756 -0.0225741993635892868
0.0185666028410196304 0.000139255309477448463 -0.0225741993635892868
0.00375979021191596985 0.00214590225368738174 -0.0225741993635892868
0.0241119768470525742 0.00227618636563420296 -0.0225741993635892868
0.0184294357895851135 0.0025979022029787302 -0.0225741993635892868
0.0147038288414478302 0.00191341014578938484 -0.0225741993635892868
0.01221456378698349 0.000751793384552001953 -0.0225741993635892868
0.0237023942172527313 0.00098529329989105463 -0.0225741993635892868
0.0116557534784078598 0.0015045268228277564 -0.0225741993635892868
0.023999333381652832 -0.001488095847889781 -0.0225741993635892868
0.0246509015560150146 -0.000633197370916604996 -0.0225741993635892868
0.0246290396898984909 0.000776326516643166542 -0.0225741993635892868
0.0162429399788379669 0.0018174448050558567 -0.0225741993635892868
0.0192784890532493591 -0.000339033547788858414 -0.0225741993635892868
0.0272005200386047363 0.00183288939297199249 -0.0225741993635892868
0.0200073197484016418 0.00248129549436271191 -0.0225741993635892868
0.00748170353472232819 0.00183525530155748129 -0.0225741993635892868
0.0127869676798582077 0.00263928389176726341 -0.0225741993635892868
0.0163454785943031311 0.00179020408540964127 -0.0225741993635892868
0.0171004589647054672 0.00245709088630974293 -0.0225741993635892868
0.0179970227181911469 0.00229109893552958965 -0.0225741993635892868
0.0191820524632930756 -0.00047739734873175621 -0.0225741993635892868
0.0227371957153081894 0.00244346051476895809 -0.0225741993635892868
0.0216455906629562378 0.00080908916424959898 -0.0225741993635892868
0.027910945937037468 -0.00183168775402009487 -0.0225741993635892868
0.0232718978077173233 0.00222575711086392403 -0.0225741993635892868
0.0221353229135274887 0.00239422917366027832 -0.0225741993635892868
0.013138575479388237 0.00143946590833365917 -0.0225741993635892868
0.01398478914052248 0.0026453693863004446 -0.0225741993635892868
0.0245586875826120377 -0.00155716412700712681 -0.0225741993635892868
0.0164122916758060455 0.000633211340755224228 -0.0225741993635892868
0.0292694680392742157 0.00237719411961734295 -0.0225741993635892868
0.019184451550245285 0.000703895464539527893 -0.0225741993635892868
0.00566517747938632965 0.00251007266342639923 -0.0225741993635892868
0.0191660560667514801 -0.000145596684888005257 -0.0225741993635892868
0.0264002792537212372 -0.00197971775196492672 -0.0225741993635892868
0.0212924014776945114 -0.00165875069797039032 -0.0225741993635892868
0.0120926611125469208 -0.00204324629157781601 -0.0225741993635892868
0.0064220912754535675 0.00113178673200309277 -0.0225741993635892868
0.0175555981695652008 -0.00123958464246243238 -0.0225741993635892868
0.000373417511582374573 0.000575904501602053642 -0.0225741993635892868
0.0127493636682629585 -0.000225108582526445389 -0.0225741993635892868
0.00293040834367275238 -0.00160348427016288042 -0.0225741993635892868
0.0170433297753334045 -0.00189728266559541225 -0.0225741993635892868
0.0209676716476678848 -0.00224806787446141243 -0.0225741993635892868
0.00662648305296897888 0.00141110294498503208 -0.0225741993635892868
0.00554105313494801521 -0.00134554202668368816 -0.0225741993635892868
0.00365433981642127037 -0.00183818815276026726 -0.0225741993635892868
0.00572492973878979683 -0.00168253155425190926 -0.0225741993635892868
0.00721610244363546371 -0.00108005269430577755 -0.0225741993635892868
0.00760427489876747131 0.000942508690059185028 -0.0225741993635892868
0.00541328825056552887 -0.000593537231907248497 -0.0225741993635892868
0.00858036056160926819 -0.00260428059846162796 -0.0225741993635892868
0.0214706547558307648 -0.00200669094920158386 -0.0225741993635892868
0.00759534630924463272 -0.00178157305344939232 -0.0225741993635892868
0.00472796615213155746 -0.0010197832016274333 -0.0225741993635892868
0.0149534037336707115 -0.00234938389621675014 -0.0225741993635892868
0.00114134326577186584 -6.51017762720584869e-06 -0.0225741993635892868
0.00433078594505786896 0.00124397850595414639 -0.0225741993635892868
0.00613668374717235565 -0.00124667573254555464 -0.0225741993635892868
0.0173907149583101273 -0.00258477311581373215 -0.0225741993635892868
0.0193035230040550232 -0.00106773828156292439 -0.0225741993635892868
0.00447829347103834152 -0.00259197643026709557 -0.0225741993635892868
0.0110755972564220428 -0.00159886875189840794 -0.0225741993635892868
0.00578844919800758362 4.38569113612174988e-05 -0.0225741993635892868
0.00698661152273416519 -0.000349834095686674118 -0.0225741993635892868
0.0112330373376607895 -0.000859364168718457222 -0.0225741993635892868
0.0168318320065736771 -0.000716741196811199188 -0.0225741993635892868
0.00025180913507938385 0.00103761348873376846 -0.0225741993635892868
0.00230875052511692047 0.000787077471613883972 -0.0225741993635892868
0.00647288141772150993 -0.00239070574752986431 -0.0225741993635892868
0.0105500556528568268 0.000693270470947027206 -0.0225741993635892868
0.0099019194021821022 -0.00174024072475731373 -0.0225741993635892868
0.00813400372862815857 -0.0012667293194681406 -0.0225741993635892868
0.0103618139401078224 9.18281730264425278e-05 -0.0225741993635892868
0.00583749264478683472 -0.00114372267853468657 -0.0225741993635892868
0.0199637077748775482 -0.00156840740237385035 -0.0225741993635892868
0.00272023305296897888 0.00168959912844002247 -0.0225741993635892868
0.0137692447751760483 0.00617825891822576523 -0.0217269919812679291
0.0216639302670955658 0.00774158118292689323 -0.0213416684418916702
0.017831016331911087 0.00642000278457999229 -0.02166740782558918
0.0264510568231344223 0.00327264890074729919 -0.0224431604146957397
0.0159733109176158905 0.00671313004568219185 -0.0215951576828956604
0.0074688401073217392 0.00682785268872976303 -0.0215668827295303345
0.0236512497067451477 0.00702312961220741272 -0.0215187501162290573
0.00633494555950164795 0.00765723036602139473 -0.0213624592870473862
0.0191441532224416733 0.00756522221490740776 -0.0213851369917392731
0.0110760759562253952 0.00805209297686815262 -0.0212651342153549194
0.0279965046793222427 0.00719137862324714661 -0.0214772801846265793
0.015806887298822403 0.00606230553239583969 -0.0217555724084377289
0.0283602084964513779 0.00635607168078422546 -0.0216831658035516739
0.0253937523812055588 0.00736078713089227676 -0.0214355252683162689
0.0285732559859752655 0.00408383319154381752 -0.0222432222217321396
0.0268518365919589996 0.00407844409346580505 -0.0222445502877235413
0.0107156950980424881 0.00639923242852091789 -0.0216725282371044159
0.0138135319575667381 0.00585562270134687424 -0.0218065157532691956
0.0114560704678297043 0.00599319720640778542 -0.021772606298327446
0.0183694437146186829 0.00698262033984065056 -0.0215287357568740845
0.0156411454081535339 0.00801584962755441666 -0.0212740674614906311
0.0214922372251749039 0.0068029528483748436 -0.0215730201452970505
0.0231062173843383789 0.00729824043810367584 -0.0214509423822164536
0.0220257118344306946 0.00580075662583112717 -0.0218200385570526123
0.0280756242573261261 0.00525643117725849152 -0.0219542030245065689
0.0203321017324924469 0.00731045287102460861 -0.0214479323476552963
0.0229757167398929596 0.00721321254968643188 -0.021471899002790451
0.0247723422944545746 0.00688278349116444588 -0.0215533431619405746
0.0285297948867082596 0.00320825353264808655 -0.0224590320140123367
0.0288530085235834122 0.00621797097846865654 -0.0217172037810087204
0.023632323369383812 0.0055597228929400444 -0.0218794476240873337
0.0274068806320428848 0.00472919689491391182 -0.0220841541886329651
0.0191749632358551025 0.00635744864121079445 -0.0216828268021345139
0.0197880640625953674 0.00680432049557566643 -0.0215726830065250397
0.0213238559663295746 0.00472334679216146469 -0.0220855958759784698
0.0225226134061813354 0.00479966495186090469 -0.0220667850226163864
0.0166793875396251678 0.0069333566352725029 -0.0215408783406019211
0.0165203437209129333 0.00584712065756320953 -0.0218086112290620804
0.0290168020874261856 0.00402465881779789925 -0.022257806733250618
0.0278633963316679001 0.00411302922293543816 -0.0222360249608755112
0.0188312195241451263 0.00482813641428947449 -0.0220597684383392334
0.0176088977605104446 0.00431187404319643974 -0.0221870150417089462
0.019023604691028595 0.00447090528905391693 -0.02214781753718853
0.0186236090958118439 0.0036262967623770237 -0.0223559942096471786
0.00632670894265174866 0.00641192775219678879 -0.0216693989932537079
0.00258317543193697929 0.00331633747555315495 -0.0224323924630880356
0.00825189519673585892 0.00464527402073144913 -0.0221048388630151749
0.0242675840854644775 0.00307717570103704929 -0.0224913414567708969
0.0114703718572854996 0.00319879502058029175 -0.0224613640457391739
0.006775708869099617 0.00491676339879631996 -0.0220379233360290527
0.0080647636204957962 0.00562364328652620316 -0.0218636933714151382
0.00211989320814609528 0.00725780054926872253 -0.0214609093964099884
0.0140577824786305428 0.00367928994819521904 -0.0223429333418607712
0.0177375525236129761 0.00380989024415612221 -0.0223107431083917618
0.00356924720108509064 0.00435932911932468414 -0.0221753176301717758
0.00594145618379116058 0.00672404002398252487 -0.0215924698859453201
0.00698492303490638733 0.00615387968719005585 -0.0217330008745193481
0.00303278770297765732 0.00356319965794682503 -0.0223715472966432571
0.00185507722198963165 0.00663131475448608398 -0.021615324541926384
0.0126714594662189484 0.0044309697113931179 -0.0221576597541570663
0.00854505598545074463 0.00284797325730323792 -0.0225478336215019226
0.0175166353583335876 0.00467374082654714584 -0.0220978222787380219
0.0132773350924253464 0.00447465013712644577 -0.0221468936651945114
0.0235716942697763443 0.00352798961102962494 -0.0223802253603935242
0.0018344484269618988 0.0056517510674893856 -0.0218567643314599991
0.00550517812371253967 0.00665465556085109711 -0.0216095708310604095
0.00854499265551567078 0.00376639422029256821 -0.0223214626312255859
0.00335471704602241516 0.00693806726485490799 -0.021539716050028801
0.00164292566478252411 0.00463213119655847549 -0.0221080780029296875
0.0204719472676515579 0.00375542882829904556 -0.0223241653293371201
0.00749866478145122528 0.00579192023724317551 -0.0218222159892320633
0.00445355474948883057 0.00594975240528583527 -0.0217833146452903748
0.0128320325165987015 0.00427590403705835342 -0.0221958812326192856
0.00122748687863349915 0.00381684605963528156 -0.0223090276122093201
0.00218810699880123138 0.00721835903823375702 -0.0214706305414438248
0.0171726793050765991 0.00380431395024061203 -0.0223121177405118942
0.0180932953953742981 0.00351960491389036179 -0.0223822910338640213
0.00439120829105377197 0.00673197116702795029 -0.0215905141085386276
0.00468988809734582901 0.00339222257025539875 -0.0224136877804994583
0.0224665645509958267 0.00296621606685221195 -0.0225186888128519058
0.0136108361184597015 0.0034092385321855545 -0.0224094949662685394
0.00161065463908016682 0.00280162366107106209 -0.0225592572242021561
0.0199031978845596313 0.0109556997194886208 -0.0197444390505552292
0.0243945587426424026 0.00971946492791175842 -0.0203932654112577438
0.0155399618670344353 0.0125208264216780663 -0.0189229976385831833
0.0283108167350292206 0.0116613274440169334 -0.0193740967661142349
0.0197462625801563263 0.0128304492682218552 -0.0187604948878288269
0.0267890468239784241 0.0102588711306452751 -0.0201101619750261307
0.0256370212882757187 0.0119997570291161537 -0.0191964749246835709
0.0251535754650831223 0.0112310023978352547 -0.0195999480783939362
0.0206923019140958786 0.00992155447602272034 -0.0202872008085250854
0.0289750341325998306 0.00997386500239372253 -0.0202597454190254211
0.026166234165430069 0.0124203469604253769 -0.0189757328480482101
0.0234115645289421082 0.00926820654422044754 -0.0206301044672727585
0.0167107656598091125 0.0114407651126384735 -0.0194898564368486404
0.0266447346657514572 0.0112363044172525406 -0.0195971652865409851
0.0292979050427675247 0.0124157192185521126 -0.0189781617373228073
0.0241952687501907349 0.0120426975190639496 -0.0191739387810230255
0.021973220631480217 0.00961158610880374908 -0.0204498842358589172
0.0130495019257068634 0.011774720624089241 -0.0193145833909511566
0.0263108853250741959 0.00895168352872133255 -0.0207962282001972198
0.0237153135240077972 0.0126311499625444412 -0.0188650954514741898
0.0284806061536073685 0.0124019160866737366 -0.0189854055643081665
0.0102117341011762619 0.012777409516274929 -0.0187883321195840836
0.0276165995746850967 0.0106586376205086708 -0.0199003499001264572
0.0266406964510679245 0.00878174416720867157 -0.020885419100522995
0.0117695946246385574 0.0124600324779748917 -0.0189549047499895096
0.0119337458163499832 0.0119690829887986183 -0.019212573766708374
0.0192412137985229492 0.00995337869971990585 -0.0202704966068267822
0.013361884281039238 0.0115031450986862183 -0.0194571167230606079
0.00648726895451545715 0.0128595307469367981 -0.0187452305108308792
0.00709806941449642181 0.0123571138828992844 -0.0190089195966720581
0.0228482000529766083 0.0110574793070554733 -0.0196910202503204346
0.0110128745436668396 0.0121988793835043907 -0.0190919674932956696
0.00902529060840606689 0.0117136668413877487 -0.0193466264754533768
0.0234052464365959167 0.0127721615135669708 -0.0187910869717597961
0.0160033516585826874 0.0124412532895803452 -0.0189647600054740906
0.0240860264748334885 0.0107258260250091553 -0.0198650863021612167
0.0205258689820766449 0.0114862425252795219 -0.019465988501906395
0.0117230843752622604 0.0116236051544547081 -0.0193938948214054108
0.0183204635977745056 0.0105729475617408752 -0.0199453234672546387
0.0250745397061109543 0.0125875025987625122 -0.0188880022615194321
0.0199873689562082291 0.0108282901346683502 -0.0198113080114126205
0.00664197094738483429 0.0100317224860191345 -0.0202293787151575089
0.0136440824717283249 0.00990019179880619049 -0.0202984120696783066
0.0108479456976056099 0.00947089493274688721 -0.0205237250775098801
0.0221963599324226379 0.00858097337186336517 -0.0209907907992601395
0.00244721956551074982 0.0119204381480813026 -0.0192381050437688828
0.00710337795317173004 0.0112318582832813263 -0.0195994991809129715
0.0185285601764917374 0.00807412527501583099 -0.0212568063288927078
0.0021155504509806633 0.00964668579399585724 -0.0204314626753330231
0.0158964581787586212 0.00842405017465353012 -0.0210731513798236847
0.00233186129480600357 0.0093557313084602356 -0.0205841660499572754
0.00953898392617702484 0.0109181441366672516 -0.0197641495615243912
0.0138054890558123589 0.00945123098790645599 -0.0205340441316366196
0.0167840365320444107 0.00962686631828546524 -0.0204418636858463287
0.000571550801396369934 0.00968537852168083191 -0.0204111542552709579
0.0170091092586517334 0.00845668558031320572 -0.0210560224950313568
0.00546447187662124634 0.0106397615745663643 -0.0199102554470300674
0.0105418097227811813 0.00854811910539865494 -0.0210080351680517197
0.0192653648555278778 0.00921311322599649429 -0.0206590183079242706
0.00132218562066555023 0.0126443449407815933 -0.0188581701368093491
0.00602692365646362305 0.00974856875836849213 -0.0203779898583889008
0.0100664738565683365 0.00967955216765403748 -0.0204142127186059952
0.00404732581228017807 0.00949813239276409149 -0.0205094292759895325
0.0161339081823825836 0.00909566041082143784 -0.0207206625491380692
0.0114300251007080078 0.00971734803169965744 -0.0203943755477666855
0.0114028360694646835 0.00864987261593341827 -0.0209546294063329697
0.00213728193193674088 0.0098910769447684288 -0.0203031953424215317
0.00962789170444011688 0.00845364946871995926 -0.0210576150566339493
0.0233228318393230438 0.00891144014894962311 -0.0208173487335443497
0.0189168956130743027 0.00835065543651580811 -0.0211116708815097809
0.00644820649176836014 0.00937404483556747437 -0.0205745548009872437
0.00540534220635890961 0.0103205461055040359 -0.0200777929276227951
0.015259377658367157 0.0093121211975812912 -0.0206070560961961746
0.0149886142462491989 0.00986927654594182968 -0.0203146375715732574
0.00907312147319316864 0.0109794316813349724 -0.0197319835424423218
0.0162774249911308289 0.00914441235363483429 -0.0206950753927230835
0.0146013638004660606 0.00984018482267856598 -0.0203299056738615036
0.0131682008504867554 0.00863360613584518433 -0.0209631677716970444
0.00962059944868087769 0.0089819813147187233 -0.0207803267985582352
0.0148887401446700096 0.00877940189093351364 -0.0208866484463214874
0.01974494569003582 0.00871094129979610443 -0.0209225788712501526
0.0187208708375692368 0.00896170828491449356 -0.0207909662276506424
0.0246784985065460205 0.0154760051518678665 -0.0164482742547988892
0.0222135633230209351 0.0168698485940694809 -0.01521343644708395
0.0283259265124797821 0.0149449659511446953 -0.0169187337160110474
0.0255900993943214417 0.0157106518745422363 -0.0162403956055641174
0.0156638175249099731 0.0154238585382699966 -0.0164944715797901154
0.0222340729087591171 0.0149974357336759567 -0.0168722495436668396
0.0255676824599504471 0.0146244922652840614 -0.0172026492655277252
0.02591700479388237 0.0144628984853625298 -0.0173458084464073181
0.0157087910920381546 0.0169254746288061142 -0.0151641564443707466
0.0247585680335760117 0.0145805384963750839 -0.0172415897250175476
0.0278310943394899368 0.0164726488292217255 -0.0155653245747089386
0.00638138130307197571 0.0165085978806018829 -0.0155334761366248131
0.0169314667582511902 0.0152537515386939049 -0.0166451744735240936
0.0224855914711952209 0.0169814154505729675 -0.0151145970448851585
0.0221291892230510712 0.0142947565764188766 -0.0174947697669267654
0.018408510833978653 0.0160227864980697632 -0.0159638673067092896
0.0243235398083925247 0.0155643383041024208 -0.0163700170814990997
0.0160366743803024292 0.0156027600169181824 -0.0163359791040420532
0.00846757553517818451 0.0168379992246627808 -0.0152416517958045006
0.0108661558479070663 0.0159608777612447739 -0.0160187147557735443
0.0109544806182384491 0.0169455148279666901 -0.0151464017108082771
0.0254771169275045395 0.0146526098251342773 -0.0171777382493019104
0.0195563286542892456 0.0156758259981870651 -0.016271248459815979
0.0262363739311695099 0.0163680184632539749 -0.0156580191105604172
0.0124569237232208252 0.0167302396148443222 -0.0153371198102831841
0.02355232834815979 0.0146212689578533173 -0.0172055047005414963
0.0180743951350450516 0.0145626794546842575 -0.0172574091702699661
0.013531900942325592 0.0162713900208473206 -0.0157436244189739227
0.0168584287166595459 0.0153700010851025581 -0.0165421850979328156
0.028944600373506546 0.0161288902163505554 -0.0158698689192533493
0.0152625730261206627 0.0155129358172416687 -0.0164155568927526474
0.0111075565218925476 0.0166529566049575806 -0.015405585989356041
0.0144351776689291 0.0154931657016277313 -0.0164330713450908661
0.0131267327815294266 0.0164867118000984192 -0.0155528662726283073
0.0201856754720211029 0.0167980846017599106 -0.0152770141139626503
0.0180588886141777039 0.0161205586045980453 -0.0158772505819797516
0.0218023471534252167 0.0168897733092308044 -0.0151957841590046883
0.0216332394629716873 0.0153774004429578781 -0.0165356304496526718
0.0101543478667736053 0.0158117972314357758 -0.0161507893353700638
0.0136576034128665924 0.0166398864239454269 -0.0154171651229262352
0.0204923003911972046 0.016132749617099762 -0.0158664491027593613
0.0253393650054931641 0.0140525940805673599 -0.0177093073725700378
0.000850006937980651855 0.0165068339556455612 -0.0155350388959050179
0.0121465437114238739 0.0136117627844214439 -0.0180998481810092926
0.0152029944583773613 0.0142641859129071236 -0.0175218526273965836
0.00694574508816003799 0.0140303103253245354 -0.0177290476858615875
0.0234822984784841537 0.0136368852108716965 -0.0180775932967662811
0.00118585024029016495 0.0144216064363718033 -0.0173823907971382141
0.0214569494128227234 0.0132526718080043793 -0.0184179749339818954
0.00110124144703149796 0.014135594479739666 -0.0176357738673686981
0.00171107682399451733 0.0129873901605606079 -0.0186529941856861115
0.00460941344499588013 0.0152663113549351692 -0.0166340470314025879
0.0141624137759208679 0.0137629779055714607 -0.0179658848792314529
0.00359627045691013336 0.0158855020999908447 -0.0160854924470186234
0.00111178308725357056 0.0149552030488848686 -0.0169096644967794418
0.00165162002667784691 0.0132975112646818161 -0.0183782521635293961
0.0094002261757850647 0.0154969170689582825 -0.0164297483861446381
0.00949072279036045074 0.0152732748538255692 -0.016627877950668335
0.0126444604247808456 0.0149864517152309418 -0.0168819818645715714
0.00503254402428865433 0.0133772045373916626 -0.0183076504617929459
0.00624918937683105469 0.01491555105894804 -0.0169447939842939377
0.00828406214714050293 0.0147593971341848373 -0.0170831345021724701
0.000532934442162513733 0.0145856328308582306 -0.017237076535820961
0.0184466857463121414 0.0137648126110434532 -0.0179642587900161743
0.00870394892990589142 0.0129627026617527008 -0.0186748672276735306
0.00994349457323551178 0.0133762480691075325 -0.0183084961026906967
0.00450622523203492165 0.0136282630264759064 -0.0180852301418781281
0.0168258864432573318 0.0130044380202889442 -0.0186378918588161469
0.00920212268829345703 0.0134347565472126007 -0.0182566624134778976
0.0230804048478603363 0.0130253368988633156 -0.0186193771660327911
0.00675772130489349365 0.015920788049697876 -0.016054229810833931
0.0102646546438336372 0.0140021266415715218 -0.0177540164440870285
0.0241526346653699875 0.0131748197600245476 -0.0184869468212127686
0.00788136199116706848 0.0135306855663657188 -0.018171677365899086
0.0131693650037050247 0.0139831183478236198 -0.0177708566188812256
0.00385778583586215973 0.0137604307383298874 -0.0179681405425071716
0.00902171619236469269 0.0156296174973249435 -0.016312185674905777
0.0133587513118982315 0.0142602492123842239 -0.0175253394991159439
0.0265589971095323563 0.0131652131676673889 -0.0184954572468996048
0.0011117979884147644 0.0162130314856767654 -0.0157953258603811264
0.00175768602639436722 0.0137570817023515701 -0.0179711077362298965
0.0244214907288551331 0.0134616931900382042 -0.0182327982038259506
0.0105902254581451416 0.0129192788153886795 -0.0187133364379405975
0.0231339633464813232 0.0187941249459981918 -0.0125107895582914352
0.0204435698688030243 0.019372057169675827 -0.0116735110059380531
0.0184093229472637177 0.0185934305191040039 -0.0128015447407960892
0.0285745803266763687 0.0181404203176498413 -0.0134578421711921692
0.0171151142567396164 0.0200641751289367676 -0.0106708034873008728
0.00484839640557765961 0.019901251420378685 -0.0109068397432565689
0.0156833697110414505 0.0191528648138046265 -0.0119910640642046928
0.022427637130022049 0.0185214653611183167 -0.0129058044403791428
0.00976526178419589996 0.019863983616232872 -0.010960831306874752
0.0264830421656370163 0.0180569235235452652 -0.0135788097977638245
0.0235921572893857956 0.0177843011915683746 -0.0139737706631422043
0.0277642291039228439 0.0191257894039154053 -0.0120302895084023476
0.0222347266972064972 0.0198238007724285126 -0.0110190454870462418
0.0203664489090442657 0.0180920455604791641 -0.0135279269888997078
0.0114230811595916748 0.0193693973124027252 -0.011677364818751812
0.0157492347061634064 0.0196791850030422211 -0.0112285586073994637
0.0131466127932071686 0.018980691209435463 -0.0122405020520091057
0.0056992359459400177 0.0198507923632860184 -0.0109799420461058617
0.00475839525461196899 0.0201063100248575211 -0.0106097599491477013
0.0229656286537647247 0.0185471680015325546 -0.0128685683012008667
0.0231292005628347397 0.0198534037917852402 -0.0109761590138077736
0.0116809364408254623 0.0190587751567363739 -0.0121273770928382874
0.0277655720710754395 0.0183450896292924881 -0.0131613276898860931
0.0289009157568216324 0.0197477415204048157 -0.0111292367801070213
0.0152944186702370644 0.019113294780254364 -0.0120483925566077232
0.0212086215615272522 0.0197406485676765442 -0.0111395148560404778
0.0205901339650154114 0.0188548136502504349 -0.0124228652566671371
0.0131249893456697464 0.0194327421486377716 -0.0115855932235717773
0.0265999101102352142 0.0201086122542619705 -0.0106064258143305779
0.023991147056221962 0.0185019969940185547 -0.0129340086132287979
0.0248123984783887863 0.0187721345573663712 -0.0125426473096013069
0.0207942984998226166 0.020127246156334877 -0.0105794304981827736
0.0258058980107307434 0.0193834565579891205 -0.0116569958627223969
0.0227154102176427841 0.0196751896291971207 -0.0112343477085232735
0.0287991166114807129 0.0197418760508298874 -0.0111377360299229622
0.00843269936740398407 0.019771970808506012 -0.0110941352322697639
0.0265908278524875641 0.0185486767441034317 -0.0128663834184408188
0.0100425370037555695 0.0200854558497667313 -0.0106399739161133766
0.0213375575840473175 0.019778834655880928 -0.0110841896384954453
0.024516155943274498 0.0199129320681095123 -0.0108899176120758057
0.0205438993871212006 0.0179664380848407745 -0.0137099018320441246
0.0109895840287208557 0.0193386580795049667 -0.0117218978703022003
0.0092712128534913063 0.0175240729004144669 -0.0143507756292819977
0.0130888400599360466 0.0180021338164806366 -0.0136581864207983017
0.00659051444381475449 0.0182516183704137802 -0.0132967457175254822
0.00361358560621738434 0.0185934528708457947 -0.0128015130758285522
0.0142544442787766457 0.0180194061249494553 -0.013633163645863533
0.00970153044909238815 0.0174305159598588943 -0.014486316591501236
0.0225357245653867722 0.0170456748455762863 -0.0150438565760850906
0.0231387056410312653 0.0174989327788352966 -0.0143871987238526344
0.0158644355833530426 0.0175614971667528152 -0.0142965596169233322
0.00889646727591753006 0.0170931164175271988 -0.0149751249700784683
0.00126386247575283051 0.0194996930658817291 -0.0114885969087481499
0.012433961033821106 0.0187917333096265793 -0.0125142531469464302
0.0163085851818323135 0.0176294315606355667 -0.0141981383785605431
0.00319202058017253876 0.0197150912135839462 -0.0111765395849943161
0.00557052064687013626 0.0174799729138612747 -0.0144146671518683434
0.00730536505579948425 0.0179618801921606064 -0.0137165039777755737
0.0118416966870427132 0.0179407224059104919 -0.0137471575289964676
0.0026901978999376297 0.0195918753743171692 -0.0113550499081611633
0.0105614177882671356 0.0190104544162750244 -0.012197381816804409
0.0267673768103122711 0.017251947894692421 -0.014745018444955349
0.00769674591720104218 0.0191811155527830124 -0.0119501370936632156
0.00956055242568254471 0.0179995894432067871 -0.0136618735268712044
0.00523430109024047852 0.0182373262941837311 -0.0133174527436494827
0.00947533268481492996 0.0177548732608556747 -0.0140164047479629517
0.0241271890699863434 0.017379196360707283 -0.0145606659352779388
0.0150931086391210556 0.0181321315467357635 -0.0134698506444692612
0.000745009630918502808 0.0192650612443685532 -0.0118285194039344788
0.00802238751202821732 0.0180405490100383759 -0.0136025333777070045
0.0115255601704120636 0.0180216562002897263 -0.0136299030855298042
0.0210303179919719696 0.0172091256827116013 -0.0148070566356182098
0.00315867550671100616 0.0195612572133541107 -0.011399407871067524
0.00338417105376720428 0.0182865560054779053 -0.0132461301982402802
0.0107315750792622566 0.0176719315350055695 -0.0141365658491849899
0.0169986635446548462 0.0171129312366247177 -0.0149464178830385208
0.0120976734906435013 0.0183316804468631744 -0.0131807541474699974
0.00880855880677700043 0.0186959411948919296 -0.0126530332490801811
6.16610050201416016e-05 0.0186172742396593094 -0.0127670019865036011
0.00906248576939105988 0.0182065907865762711 -0.0133619792759418488
0.00970705784857273102 0.018980707973241806 -0.0122404769062995911
0.0126441968604922295 0.0180775206536054611 -0.0135489702224731445
0.023021971806883812 0.0171778351068496704 -0.0148523878306150436
0.0196071341633796692 0.0215755198150873184 -0.00677017960697412491
0.0135166328400373459 0.0213434584438800812 -0.00738207250833511353
0.0203936509788036346 0.0213807839900255203 -0.00728365546092391014
0.0176246650516986847 0.0209789928048849106 -0.0083430921658873558
0.0276837348937988281 0.0206439029425382614 -0.00922664999961853027
0.0128877405077219009 0.0213367100805044174 -0.0073998686857521534
0.0227887090295553207 0.0216511096805334091 -0.00657086214050650597
0.0198828056454658508 0.0216574817895889282 -0.00655406247824430466
0.0234718881547451019 0.0220780856907367706 -0.00544502120465040207
0.0153008829802274704 0.0210880003869533539 -0.00805565901100635529
0.026336669921875 0.0206247977912425995 -0.00927702523767948151
0.0217084307223558426 0.0212722718715667725 -0.00756977638229727745
0.0196447018533945084 0.0211457312107086182 -0.00790343526750802994
0.0102849919348955154 0.0217714998871088028 -0.00625341944396495819
0.0122290775179862976 0.021696312353014946 -0.00645167380571365356
0.0220897551625967026 0.0220634434372186661 -0.00548362778499722481
0.0149810044094920158 0.0216695200651884079 -0.0065223202109336853
0.022398877888917923 0.0214595869183540344 -0.00707586901262402534
0.0161040797829627991 0.0215238239616155624 -0.00690648611634969711
0.0217501148581504822 0.0206494517624378204 -0.00921201985329389572
0.0162932239472866058 0.021158851683139801 -0.00786884035915136337
0.0283701196312904358 0.0217821113765239716 -0.00622544204816222191
0.0283017773181200027 0.0208311025053262711 -0.00873304717242717743
0.00296622328460216522 0.0220059435814619064 -0.00563524011522531509
0.00893972255289554596 0.021917145699262619 -0.00586938392370939255
0.00733900256454944611 0.0217980034649372101 -0.00618353718891739845
0.0177510455250740051 0.0211934614926576614 -0.00777758145704865456
0.0105579756200313568 0.0216555949300527573 -0.00655903713777661324
0.0186765156686306 0.0210053939372301102 -0.00827347766607999802
0.0100548192858695984 0.0217635799199342728 -0.00627430388703942299
0.0233599990606307983 0.0209164898842573166 -0.00850789807736873627
0.0252225622534751892 0.0210445355623960495 -0.00817027129232883453
0.0228135529905557632 0.0205931663513183594 -0.00936042983084917068
0.0163515247404575348 0.0210747681558132172 -0.00809055101126432419
0.0278239715844392776 0.0219971481710672379 -0.00565843423828482628
0.0138704124838113785 0.0216792076826095581 -0.0064967726357281208
0.0259100217372179031 0.0215267185121774673 -0.00689885625615715981
0.00849621929228305817 0.0216500628739595413 -0.00657362258061766624
0.00677460990846157074 0.0218021776527166367 -0.00617253128439188004
0.0258001126348972321 0.0214336104691028595 -0.00714436313137412071
0.0183511786162853241 0.0214139539748430252 -0.00719619076699018478
0.00884063821285963058 0.0211633201688528061 -0.00785705819725990295
0.000667290994897484779 0.0203602928668260574 -0.0099744703620672226
0.000221822410821914673 0.0207465905696153641 -0.00895588379353284836
0.0147764664143323898 0.0204749833792448044 -0.00967205315828323364
0.0108973095193505287 0.0203063134104013443 -0.0101167988032102585
0.00518664950504899025 0.0202502422034740448 -0.0102646481245756149
9.28584486246109009e-05 0.0217508040368556976 -0.00630799168720841408
0.00367897376418113708 0.0213036071509122849 -0.00748715177178382874
0.0254026688635349274 0.0203941501677036285 -0.00988519378006458282
0.00531783979386091232 0.0203667636960744858 -0.0099574066698551178
0.0249396320432424545 0.0201972555369138718 -0.010404365137219429
0.0059950738213956356 0.0204703621566295624 -0.00968423765152692795
0.00993397459387779236 0.0213830582797527313 -0.00727765541523694992
0.00330178812146186829 0.021216152235865593 -0.00771775096654891968
0.00653956271708011627 0.0203669816255569458 -0.00995683204382658005
0.00992367975413799286 0.0211373288184404373 -0.00792559236288070679
0.00957439746707677841 0.0209310352802276611 -0.00846954621374607086
0.00553495669737458229 0.0201942697167396545 -0.0104122385382652283
0.00795195251703262329 0.0215446632355451584 -0.00685154180973768234
0.00260406360030174255 0.0214343518018722534 -0.00714240502566099167
0.026060769334435463 0.0202870555222034454 -0.0101675791665911674
0.0132596837356686592 0.0204990878701210022 -0.00960849691182374954
0.0029304996132850647 0.0209384839981794357 -0.00844990275800228119
0.0169196389615535736 0.020670061931014061 -0.00915767345577478409
0.00767515227198600769 0.0211727246642112732 -0.00783226173371076584
0.00561702530831098557 0.0211332477629184723 -0.00793635286390781403
0.00384145602583885193 0.0213089603930711746 -0.00747303618118166924
0.0062279868870973587 0.0210254639387130737 -0.00822055898606777191
0.0157125145196914673 0.0204122308641672134 -0.00983751937747001648
0.000258522108197212219 0.0208918415009975433 -0.00857289228588342667
0.0186191797256469727 0.020678764209151268 -0.00913473032414913177
0.00412688218057155609 0.0217235926538705826 -0.00637974310666322708
0.0052542397752404213 0.0204282719641923904 -0.00979522056877613068
0.0152322975918650627 0.0206561237573623657 -0.00919442716985940933
0.0192674081772565842 0.0204385556280612946 -0.00976810511201620102
0.0245501715689897537 0.0202382281422615051 -0.0102963251993060112
0.00556172803044319153 0.0209042821079492569 -0.00854008644819259644
0.0140675893053412437 0.0207612793892621994 -0.00891715381294488907
0.00613503530621528625 0.0209867954254150391 -0.00832251831889152527
0.000108743086457252502 0.0215944573283195496 -0.00672024069353938103
0.0153425205498933792 0.0201472491025924683 -0.0105362189933657646
0.0120360245928168297 0.0207578279078006744 -0.00892625655978918076
0.0135712102055549622 0.0227199941873550415 -0.00016476192104164511
0.0206280425190925598 0.0226794425398111343 -0.000498736393637955189
0.0234621483832597733 0.0223302468657493591 -0.0033746231347322464
0.0222022794187068939 0.0225250069051980972 -0.00177062628790736198
0.0141481813043355942 0.0224428512156009674 -0.00244724401272833347
0.0250121261924505234 0.0224813986569643021 -0.0021297771017998457
0.0272807572036981583 0.0221618730574846268 -0.0047613075003027916
0.0195521973073482513 0.0226677805185317993 -0.000594789511524140835
0.0238640662282705307 0.022612331435084343 -0.00105144642293453217
0.0277935191988945007 0.0224397648125886917 -0.00247266795486211777
0.0134440995752811432 0.0226749442517757416 -0.000535794591996818781
0.0247773006558418274 0.022530093789100647 -0.00172873493283987045
0.0193459596484899521 0.022726844996213913 -0.000108354121039155871
0.0114634893834590912 0.022485801950097084 -0.00209351838566362858
0.0213726609945297241 0.0226547140628099442 -0.000702403776813298464
0.0121823493391275406 0.0226017776876688004 -0.00113836233504116535
0.0281498078256845474 0.0222414471209049225 -0.00410595722496509552
0.021694481372833252 0.0223625712096691132 -0.00310840574093163013
0.0149218402802944183 0.0225640274584293365 -0.00144927261862903833
0.0188627429306507111 0.0227106958627700806 -0.000241343615925870836
0.0147662870585918427 0.0224426593631505966 -0.00244881468825042248
0.0281538628041744232 0.0223704278469085693 -0.0030437044333666563
0.0188104398548603058 0.0224424786865711212 -0.00245031644590198994
0.0286556519567966461 0.0227353330701589584 -3.84487539122346789e-05
0.00392537377774715424 0.0227012485265731812 -0.000319159240461885929
0.0202684216201305389 0.0226144660264253616 -0.00103386875707656145
0.0153792090713977814 0.0224638506770133972 -0.00227429205551743507
0.0155813023447990417 0.0225886814296245575 -0.00124622054863721132
0.0221650972962379456 0.0223066098988056183 -0.00356928468681871891
0.0276283547282218933 0.0223293229937553406 -0.00338222156278789043
0.0175420995801687241 0.0223553534597158432 -0.0031678471714258194
0.0268812011927366257 0.0226250309497117996 -0.000946856860537081957
0.0198496542870998383 0.0225460212677717209 -0.00159756315406411886
0.0169002767652273178 0.0224016886204481125 -0.00278623867779970169
0.0198473613709211349 0.0224126968532800674 -0.00269558117724955082
0.00415205024182796478 0.0227256640791893005 -0.000118072806799318641
0.0171745549887418747 0.0223883520811796188 -0.00289608025923371315
0.0123705640435218811 0.0225471798330545425 -0.0015880183782428503
0.0188723951578140259 0.022605089470744133 -0.00111108878627419472
0.019201347604393959 0.0226203314960002899 -0.000985559425316751003
0.0247537791728973389 0.0222988780587911606 -0.00363296992145478725
0.00951856561005115509 0.0226690005511045456 -0.00058474118122830987
0.00681586377322673798 0.0225098207592964172 -0.00189570081420242786
0.0114708160981535912 0.0222992599010467529 -0.00362981716170907021
0.00439608283340930939 0.0225629843771457672 -0.00145786581560969353
0.000922547653317451477 0.0226393677294254303 -0.000828780699521303177
0.015225578099489212 0.022167302668094635 -0.00471657933667302132
0.00538332201540470123 0.0222606416791677475 -0.00394786987453699112
0.00875225849449634552 0.0225038714706897736 -0.0019446921069175005
0.00090198218822479248 0.0223775766789913177 -0.00298482435755431652
0.0144835012033581734 0.0223389472812414169 -0.00330296065658330917
0.0121713653206825256 0.0222098231315612793 -0.0043664025142788887
0.0132781649008393288 0.0224044695496559143 -0.00276334420777857304
0.0132700344547629356 0.0222926735877990723 -0.00368406251072883606
0.000472212210297584534 0.0225344374775886536 -0.00169296236708760262
0.00184369459748268127 0.0224501360207796097 -0.00238724774681031704
0.00418003648519515991 0.0223467573523521423 -0.00323864258825778961
0.00777448294684290886 0.0222187358886003494 -0.00429299706593155861
0.00308948196470737457 0.0225166045129299164 -0.00183983263559639454
0.0236150436103343964 0.0221332311630249023 -0.00499718310311436653
0.0133297285065054893 0.0224000085145235062 -0.00280008022673428059
0.020740121603012085 0.0222068894654512405 -0.0043905600905418396
0.0187606904655694962 0.0222913660109043121 -0.00369482813403010368
0.000140495598316192627 0.022578822448849678 -0.00132742291316390038
0.000387333333492279053 0.0225557852536439896 -0.00151715520769357681
0.00280261971056461334 0.0226166378706693649 -0.00101598398759961128
0.00785180181264877319 0.0222011636942625046 -0.00443771155551075935
0.0186555590480566025 0.0222482122480869293 -0.00405024085193872452
0.009644336998462677 0.0220921747386455536 -0.00533531326800584793
0.00547413714230060577 0.0224077645689249039 -0.00273621268570423126
0.0164369121193885803 0.0222159139811992645 -0.00431623868644237518
0.00341917108744382858 0.0223419629037380219 -0.00327812624163925648
0.0221034493297338486 0.0221253987401723862 -0.00506169022992253304
0.0159702971577644348 0.022368038073182106 -0.00306338327936828136
0.0137779619544744492 0.0223582722246646881 -0.00314381462521851063
0.0171145051717758179 0.0221298225224018097 -0.00502525642514228821
0.003293648362159729 0.0226180460304021835 -0.00100438762456178665
0.00604600924998521805 0.0222632158547639847 -0.00392666785046458244
0.0140220504254102707 0.0223831832408905029 -0.00293864705599844456
0.0145766856148838997 0.0223596878349781036 -0.00313215912319719791
0.00469320639967918396 0.0223748814314603806 -0.00300702382810413837
0.00327359023503959179 0.0221399012953042984 -0.00494226021692156792
0.0148033304139971733 0.0223442874848842621 -0.00325898965820670128
0.0109657421708106995 0.0222498364746570587 -0.00403685495257377625
0 0.0192109625786542892 0.00934534240514039993
0 0.0190415829420089722 0.0107913278043270111
0 0.0186009742319583893 0.0114316940307617188
0 0.0192675720900297165 0.0102041363716125488
0 0.0206080395728349686 0.00760710891336202621
0 0.0219262018799781799 0.00378061411902308464
0 0.0200279932469129562 0.00941371358931064606
0 0.0212398599833250046 0.0071549643762409687
0 0.0115274824202060699 0.019120778888463974
0 0.0126545093953609467 0.0183935165405273438
0 0.00520343612879514694 0.02172832190990448
0 0.0149242095649242401 0.0163288954645395279
0 0.0152928512543439865 0.0161512121558189392
0 0.00494946865364909172 0.0217656940221786499
0 0.0117038656026124954 0.0187251251190900803
0 0.0110589340329170227 0.0185810085386037827
0 0.00461985915899276733 0.0199681669473648071
0 0.00516547122970223427 0.0196703318506479263
0 0.00212151044979691505 0.0216061938554048538
0 0.00859254971146583557 0.019116593524813652
0 0.0119112711399793625 0.017708752304315567
0 -0.000119047821499407291 0.0221239868551492691
0 0.00484586227685213089 0.0211362633854150772
0 0.00806761067360639572 0.0196836516261100769
0 0.00941887032240629196 0.0187193527817726135
0 0.00280127744190394878 0.0206711906939744949
0 0.00224266736768186092 0.0214343871921300888
0 -0.00124257826246321201 0.0219618584960699081
0 0.00117130391299724579 0.0197391882538795471
0 0.00177347566932439804 0.0199100635945796967
0 -0.000651198439300060272 0.0202331505715847015
0 0.00439675012603402138 0.0185794755816459656
0 -0.00114193721674382687 0.0218068137764930725
0 0.00529971159994602203 0.017976369708776474
0 0.00659110117703676224 0.0189702790230512619
0 -0.00319952634163200855 0.0224104300141334534
0 0.0101713752374053001 0.01712786965072155
0 0.00999126303941011429 0.016969241201877594
0 -0.00566894467920064926 0.0212631188333034515
0 0.000545460730791091919 0.0208582468330860138
0 0.0117643186822533607 0.0170120224356651306
0 0.0118275228887796402 0.016573786735534668
0 0.00183331919834017754 0.0196545366197824478
0 0.00351571943610906601 0.0199706833809614182
0 -0.00951752252876758575 0.0198433138430118561
0 -0.00154830049723386765 0.0185470897704362869
0 0.00197550561279058456 0.0185530334711074829
0 -0.0102003756910562515 0.019816868007183075
0 -0.00092465616762638092 0.0182125810533761978
0 -0.00737073225900530815 0.0183348506689071655
0 -0.00974188186228275299 0.0184370111674070358
0 -0.00902457628399133682 0.0182732008397579193
0 -0.00168701913207769394 0.0179141908884048462
0 0.00444345176219940186 0.0179008021950721741
0 -0.0077290879562497139 0.019787641242146492
0 0.000505628995597362518 0.0174726322293281555
0 0.00396375264972448349 0.0178142059594392776
0 -0.0035444553941488266 0.0176715180277824402
0 -0.00640631746500730515 0.0206629782915115356
0 -0.0069764433428645134 0.0202140696346759796
0 0.000331763178110122681 0.0188999250531196594
0 -0.00941681768745183945 0.0195900797843933105
0 0.00966185610741376877 0.0162734948098659515
0 -0.0023657502606511116 0.0180664882063865662
0 -0.0099720880389213562 0.0194982327520847321
0 -0.00600351952016353607 0.0180149748921394348
0 -0.010407913476228714 0.0192005671560764313
0 -0.00423077354207634926 0.0199135411530733109
0 -0.00836338941007852554 0.0155105460435152054
0 -0.0102130472660064697 0.0156830865889787674
0 0.00312660448253154755 0.0154593214392662048
0 0.0078027043491601944 0.0159593727439641953
0 -0.0128745259717106819 0.0184418223798274994
0 -0.0107474131509661674 0.0172991957515478134
0 0.0136090274900197983 0.0151764489710330963
0 0.00496848113834857941 0.0158113613724708557
0 -0.0104940924793481827 0.0155310258269309998
0 0.00120117142796516418 0.015269329771399498
0 -0.00575171317905187607 0.0169736258685588837
0 -0.0045542493462562561 0.0167633127421140671
0 -0.0129945129156112671 0.0153826642781496048
0 0.00132261216640472412 0.0165185593068599701
0 -0.00949515402317047119 0.0165819711983203888
0 0.007683534175157547 0.0159068256616592407
0 0.0100522860884666443 0.0156158627942204475
0 -0.0105613749474287033 0.0162190943956375122
0 -0.0113863013684749603 0.0180002488195896149
0 -0.00626196339726448059 0.0160939972847700119
0 -0.00973789580166339874 0.0178711172193288803
0 -0.00197538547217845917 0.0173064488917589188
0 -0.00494470167905092239 0.0172348674386739731
0 -0.0102504147216677666 0.0171202588826417923
0 -0.00208522751927375793 0.016226842999458313
0 -0.00995032768696546555 0.0179456975311040878
0 -0.00628616474568843842 0.0163666252046823502
0 -0.0114067373797297478 0.0164253320544958115
0 -0.0092867724597454071 0.0182361360639333725
0 -0.00703183095902204514 0.0157456845045089722
0 -0.00833160150796175003 0.0164305344223976135
0 -0.000684746541082859039 0.0169550254940986633
0 -0.0108300074934959412 0.0148594258353114128
0 -0.00642554834485054016 0.0140708480030298233
0 -0.016517961397767067 0.0124071873724460602
0 -0.00322260055691003799 0.0147021450102329254
0 -0.00390499178320169449 0.0135438535362482071
0 -0.0115641830489039421 0.0128249302506446838
0 -0.00759179890155792236 0.0131606021896004677
0 -0.00456552300602197647 0.0129282493144273758
0 -0.0148970158770680428 0.0120024858042597771
0 -0.00258800573647022247 0.0147410975769162178
0 0.00547491572797298431 0.014544416218996048
0 -0.0107928123325109482 0.0150406807661056519
0 -0.0193129982799291611 0.0115553047508001328
0 -0.0010600164532661438 0.0148957939818501472
0 -0.0107871983200311661 0.0137100769206881523
0 0.00196228735148906708 0.0137335071340203285
0 -0.00262494385242462158 0.013685125857591629
0 -0.0021956712007522583 0.0144963515922427177
0 0.0022319648414850235 0.0135148651897907257
0 0.00868282653391361237 0.014512963593006134
0 0.00564083456993103027 0.0143382586538791656
0 -0.00454619526863098145 0.0138076981529593468
