ply
format ascii 1.0
element vertex 711
property float x
property float y
property float z
end_header
0.0624473690986633301 0.0544990003108978271 -0.0171687733381986618
0.0614829212427139282 0.0551763437688350677 -0.0148371215909719467
0.0587171502411365509 0.0545223057270050049 -0.0170847382396459579
0.0832504779100418091 0.0549654215574264526 -0.0155853563919663429
0.0714461058378219604 0.0550319105386734009 -0.0153443813323974609
0.0672628432512283325 0.0548391491174697876 -0.0160033460706472397
0.0578797496855258942 0.0566660277545452118 -0.0073932926170527935
0.0701262876391410828 0.0562730059027671814 -0.00988450739532709122
0.0703514367341995239 0.0563061982393264771 -0.0096775200217962265
0.0717569813132286072 0.0564112775027751923 -0.00902411714196205139
0.0758334174752235413 0.0562607608735561371 -0.00997653789818286896
0.0982927903532981873 0.0562641024589538574 -0.0100163156166672707
0.101564511656761169 0.0522454045712947845 -0.0230741668492555618
0.0796344652771949768 0.0530245564877986908 -0.0212424285709857941
0.0973694249987602234 0.0534113310277462006 -0.0202688071876764297
0.103460289537906647 0.0530057400465011597 -0.0212342943996191025
0.0640736222267150879 0.052964385598897934 -0.0214226804673671722
0.09885396808385849 0.0533273108303546906 -0.0204683132469654083
0.0991262868046760559 0.0535812191665172577 -0.0198547076433897018
0.1002778559923172 0.0534364171326160431 -0.0202017035335302353
0.103248387575149536 0.0534670390188694 -0.0201210975646972656
0.0919112339615821838 0.0532724447548389435 -0.0206163786351680756
0.0502243749797344208 0.0276655741035938263 -0.0499958321452140808
0.0754268094897270203 0.0274853184819221497 -0.0500762946903705597
0.0909239500761032104 0.0255476757884025574 -0.0510767474770545959
0.104138590395450592 0.0275677070021629333 -0.0500181689858436584
0.0562341958284378052 0.0265431329607963562 -0.0505769476294517517
0.0721559822559356689 0.027587108314037323 -0.0500250421464443207
0.0978342816233634949 0.0275660660117864609 -0.0500223711133003235
0.0862213373184204102 0.0275363773107528687 -0.050043988972902298
0.0985144823789596558 0.0255694631487131119 -0.0510613732039928436
0.0939268544316291809 0.0277882833033800125 -0.0499087609350681305
0.0981770902872085571 0.0275335144251585007 -0.0500391349196434021
0.0964837968349456787 0.0251209139823913574 -0.0512959547340869904
0.0698819532990455627 0.027544090524315834 -0.0500486381351947784
0.0741643384099006653 0.0267542693763971329 -0.0504575259983539581
0.0594704076647758484 0.0225861035287380219 -0.0524716563522815704
0.0612146630883216858 0.0217230916023254395 -0.052828080952167511
0.0860287398099899292 0.021106453612446785 -0.0530686303973197937
0.0792634710669517517 0.0232880245894193649 -0.0521690472960472107
0.0618985444307327271 0.022008899599313736 -0.0527092888951301575
0.0441214479506015778 0.0228274539113044739 -0.0523808859288692474
0.0903854966163635254 0.0217055678367614746 -0.052817855030298233
0.104274861514568329 0.0226789060980081558 -0.05240635946393013
0.0819172859191894531 0.0212450195103883743 -0.0530136972665786743
0.0529018044471740723 0.0221170801669359207 -0.0526698678731918335
0.0953049808740615845 0.023900521919131279 -0.0519057288765907288
0.0947018712759017944 0.0200425665825605392 -0.0535041056573390961
0.0727905184030532837 0.0217141099274158478 -0.0528248660266399384
0.0869809985160827637 0.0234832949936389923 -0.0520835369825363159
0.0617390386760234833 0.0233925096690654755 -0.0521362684667110443
0.0354386530816555023 0.0126741593703627586 -0.055712822824716568
0.091794237494468689 0.013345855288207531 -0.0555308908224105835
0.104965075850486755 0.0127805648371577263 -0.0556484982371330261
0.0810494124889373779 0.0114716058596968651 -0.0559526979923248291
0.0313045047223567963 0.0126452045515179634 -0.0557216666638851166
0.10190136730670929 0.0128362048417329788 -0.0556379556655883789
0.0357930921018123627 0.0123449182137846947 -0.0557856112718582153
0.0569244176149368286 0.0118523342534899712 -0.0558824315667152405
0.0997941941022872925 0.0116156758740544319 -0.0559097751975059509
0.0303041599690914154 0.0126764886081218719 -0.055715315043926239
0.0593179315328598022 0.0134369665756821632 -0.0555297210812568665
0.0903878435492515564 0.012622687965631485 -0.055692039430141449
0.0958769172430038452 0.0102398507297039032 -0.0562170855700969696
0.0904326289892196655 0.0122352587059140205 -0.0557779036462306976
0.0691201016306877136 0.013660971075296402 -0.0554743185639381409
0.041577313095331192 0.0133276935666799545 -0.0555643439292907715
0.0995844751596450806 0.0135249225422739983 -0.0554866306483745575
0.0191317200660705566 0.0177948698401451111 -0.0543076843023300171
0.028703959658741951 0.0176300164312124252 -0.0543538704514503479
0.0911437571048736572 0.0160988215357065201 -0.0547988526523113251
0.0823834836483001709 0.0163085274398326874 -0.0547380372881889343
0.0588681027293205261 0.0173660144209861755 -0.0544188469648361206
0.0776268839836120605 0.0175877418369054794 -0.0543375834822654724
0.0564847439527511597 0.0168401133269071579 -0.0545861050486564636
0.0720237791538238525 0.016019115224480629 -0.0548355579376220703
0.058501075953245163 0.0169198065996170044 -0.0545597560703754425
0.0702275782823562622 0.0170760620385408401 -0.0545033924281597137
0.0841730833053588867 0.018827119842171669 -0.0539428442716598511
0.0691627711057662964 0.0173097327351570129 -0.0544303618371486664
0.0557933077216148376 0.0174413099884986877 -0.0543969683349132538
0.100062891840934753 0.0184674356132745743 -0.0540466345846652985
0.0736518576741218567 0.0174545906484127045 -0.0543819703161716461
0.0670810118317604065 0.016572924330830574 -0.0546639375388622284
0.100155755877494812 0.030946001410484314 -0.0479844249784946442
0.088912472128868103 0.0299052000045776367 -0.0486511215567588806
0.05216173455119133 0.0317070484161376953 -0.0475151054561138153
0.0843472331762313843 0.0322773419320583344 -0.0471413768827915192
0.0702161639928817749 0.0310802124440670013 -0.0479086041450500488
0.0949644818902015686 0.0295272208750247955 -0.0488899648189544678
0.0581098869442939758 0.0315243154764175415 -0.0476295948028564453
0.0443885736167430878 0.0318321660161018372 -0.0474379099905490875
0.0777892768383026123 0.0310533065348863602 -0.0479232966899871826
0.101861551403999329 0.0305691547691822052 -0.0482239462435245514
0.0964794754981994629 0.0312997810542583466 -0.0477602295577526093
0.0986076071858406067 0.0325070582330226898 -0.0469904206693172455
0.0900035947561264038 0.0317694172263145447 -0.0474631302058696747
0.0738750845193862915 0.0485026240348815918 -0.0301762223243713379
0.0630636811256408691 0.0483905933797359467 -0.0303680896759033203
0.0959550440311431885 0.048246871680021286 -0.0305449757725000381
0.0990713387727737427 0.0481202937662601471 -0.0307390503585338593
0.0957884564995765686 0.0480385646224021912 -0.030872199684381485
0.0636490955948829651 0.0483919084072113037 -0.0303651578724384308
0.0930499136447906494 0.0484681576490402222 -0.0302019286900758743
0.102050177752971649 0.0486090853810310364 -0.0299673862755298615
0.0524543002247810364 0.0487811826169490814 -0.029770703986287117
0.0654436051845550537 0.0486377961933612823 -0.0299765355885028839
0.0846980884671211243 0.0501200258731842041 -0.0274117458611726761
0.0971792042255401611 0.0503127649426460266 -0.0270165503025054932
0.0937765464186668396 0.0497945956885814667 -0.0280187446624040604
0.0672820955514907837 0.0506221391260623932 -0.0264820121228694916
0.101172067224979401 0.0503102429211139679 -0.0270134098827838898
0.0618309415876865387 0.050466734915971756 -0.0267914347350597382
0.104039676487445831 0.0499811843037605286 -0.0276397988200187683
0.0929964929819107056 0.049765460193157196 -0.0280762743204832077
0.0749282464385032654 0.0500215999782085419 -0.0276203509420156479
0.104533970355987549 0.0505381599068641663 -0.0265688728541135788
0.10053977370262146 0.0336063951253890991 -0.0461846701800823212
0.0888971015810966492 0.0342513136565685272 -0.045701097697019577
0.0983928591012954712 0.0332715101540088654 -0.0464437194168567657
0.0998911261558532715 0.0364438332617282867 -0.044008057564496994
0.0991666987538337708 0.0336096026003360748 -0.0461835376918315887
0.0594453439116477966 0.0341562554240226746 -0.0458026118576526642
0.0884014815092086792 0.0347435958683490753 -0.0453238412737846375
0.0569292642176151276 0.0345330312848091125 -0.045515943318605423
0.0742670893669128418 0.0352832041680812836 -0.0449234917759895325
0.0619869641959667206 0.034935634583234787 -0.045202106237411499
0.0587145909667015076 0.0353229828178882599 -0.0449080578982830048
0.0520616620779037476 0.0349073521792888641 -0.0452334396541118622
0.0934927165508270264 0.0341219641268253326 -0.0457958951592445374
0.0852240473031997681 0.041900981217622757 -0.0388001687824726105
0.0932021141052246094 0.0415907576680183411 -0.0391327105462551117
0.0762743055820465088 0.0431647896766662598 -0.0374277010560035706
0.0797303617000579834 0.0428082533180713654 -0.0378141924738883972
0.103246979415416718 0.0436713173985481262 -0.0368546247482299805
0.0659969598054885864 0.0427576042711734772 -0.0378798022866249084
0.0515883713960647583 0.0428650267422199249 -0.0377734154462814331
0.0633654296398162842 0.0426579490303993225 -0.0379905328154563904
0.0878871902823448181 0.0435532927513122559 -0.0369949862360954285
0.0830744355916976929 0.0414942316710948944 -0.0392456799745559692
0.096032850444316864 0.043639160692691803 -0.0368951484560966492
0.0975499525666236877 0.0432511679828166962 -0.0373174287378787994
0.0905253291130065918 0.0463632456958293915 -0.0333893448114395142
0.0835134461522102356 0.044912092387676239 -0.0352908521890640259
0.0804012790322303772 0.0443561859428882599 -0.0360199064016342163
0.0752134248614311218 0.0447034239768981934 -0.0355750173330307007
0.0752286016941070557 0.0456734597682952881 -0.0343108214437961578
0.0503861233592033386 0.0450890548527240753 -0.0351090170443058014
0.103076115250587463 0.0462959408760070801 -0.0334585756063461304
0.0711556375026702881 0.0452505163848400116 -0.0348680093884468079
0.0873793959617614746 0.0459528006613254547 -0.0339288860559463501
0.0937634333968162537 0.0441314280033111572 -0.0362931378185749054
0.0727517157793045044 0.0445776693522930145 -0.0357425287365913391
0.0936918333172798157 0.0401142984628677368 -0.0406950227916240692
0.060418255627155304 0.0388110093772411346 -0.0419241562485694885
0.0738655924797058105 0.0380136296153068542 -0.0426407195627689362
0.10117620974779129 0.0395074747502803802 -0.0412432290613651276
0.0822864770889282227 0.0394056029617786407 -0.0413563847541809082
0.0783632919192314148 0.0388893559575080872 -0.0418335534632205963
0.0887783840298652649 0.0374605469405651093 -0.0431318916380405426
0.0763222426176071167 0.039324488490819931 -0.0414369627833366394
0.102613210678100586 0.0395749658346176147 -0.0411798767745494843
0.0815967097878456116 0.0398550070822238922 -0.0409453064203262329
0.0812034159898757935 0.0390680059790611267 -0.0416668690741062164
0.0875928699970245361 0.0382345393300056458 -0.0424239039421081543
0.0790753588080406189 0.0100123155862092972 -0.0562658868730068207
0.0593421459197998047 0.00764809176325798035 -0.056573912501335144
0.0560824312269687653 0.00771883223205804825 -0.0565640628337860107
0.0919096469879150391 0.00576984928920865059 -0.056826520711183548
0.0944577008485794067 0.00847961287945508957 -0.0564701929688453674
0.0792635530233383179 0.00853167381137609482 -0.056460849940776825
0.100891426205635071 0.00676053296774625778 -0.0566975660622119904
0.0587506592273712158 0.00850855465978384018 -0.0564605295658111572
0.0884813070297241211 0.00979143660515546799 -0.0562965087592601776
0.0864805206656455994 0.00809229165315628052 -0.0565198808908462524
0.0897514075040817261 0.0098425205796957016 -0.0562899895012378693
0.0923603177070617676 0.00918586459010839462 -0.056376870721578598
0.102564573287963867 0.00575801264494657516 -0.0568298250436782837
0.0668304190039634705 0.00978016294538974762 -0.0562944449484348297
0.0571758076548576355 0.00781734008342027664 -0.0565512776374816895
0.0778662413358688354 0.00872332416474819183 -0.0564353913068771362
0.0546792447566986084 0.00912879407405853271 -0.0563782118260860443
0.0960105881094932556 0.0519734099507331848 -0.0237384829670190811
0.0557873621582984924 0.0527816638350486755 -0.0218569301068782806
0.0772790834307670593 0.0520484820008277893 -0.0235673971474170685
0.083189845085144043 0.0519728325307369232 -0.0237429756671190262
0.0680976063013076782 0.0521595068275928497 -0.0233098417520523071
0.0580422393977642059 0.0523965135216712952 -0.0227576829493045807
0.0689936429262161255 0.0519542321562767029 -0.0237899851053953171
0.0687307938933372498 0.0510086305439472198 -0.0257236231118440628
0.0765544399619102478 0.0513860173523426056 -0.0249683111906051636
0.0979950875043869019 0.0516406670212745667 -0.0244617722928524017
0.0672489255666732788 0.0517788343131542206 -0.0241787638515233994
0.0768329352140426636 0.0513486377894878387 -0.0250433292239904404
0.0554050356149673462 0.0511577911674976349 -0.0254219323396682739
0.0776957571506500244 0.0474656224250793457 -0.0317887179553508759
0.0821970030665397644 0.047069113701581955 -0.0323964841663837433
0.0505004040896892548 0.0486073456704616547 -0.0300435572862625122
0.0605163536965847015 0.0479973852634429932 -0.030977446585893631
0.0726608559489250183 0.0469941943883895874 -0.032514866441488266
0.0715328529477119446 0.0472199618816375732 -0.0321683287620544434
0.0848131924867630005 0.0469859503209590912 -0.0325233861804008484
0.0519837364554405212 0.0469102747738361359 -0.0326360240578651428
0.087551407516002655 0.0467543266713619232 -0.0328577905893325806
0.0592642650008201599 0.0457639805972576141 -0.0342031084001064301
0.0789629369974136353 0.0463455840945243835 -0.0334138013422489166
0.0822715684771537781 0.0465188324451446533 -0.0331780463457107544
0.0474695861339569092 0.0459035150706768036 -0.0340096466243267059
0.0824924483895301819 0.0493990369141101837 -0.0287209376692771912
0.0925519242882728577 0.0493962094187736511 -0.0287342462688684464
0.0567583441734313965 0.0499991215765476227 -0.0276517067104578018
0.0510547012090682983 0.0491877719759941101 -0.0290636494755744934
0.068223416805267334 0.0493029430508613586 -0.02887684665620327
0.097774505615234375 0.0494471155107021332 -0.0286497138440608978
0.0665886104106903076 0.0491126999258995056 -0.0292076617479324341
0.0465758554637432098 0.0426867455244064331 -0.0379730239510536194
0.0494676530361175537 0.0416678600013256073 -0.0390858091413974762
0.0971919968724250793 0.0405712760984897614 -0.0402429476380348206
0.0644130408763885498 0.0416736230254173279 -0.0390659309923648834
0.0463940538465976715 0.042282644659280777 -0.0384155735373497009
0.063319377601146698 0.041028294712305069 -0.0397733822464942932
0.0744610428810119629 0.0409443899989128113 -0.0398551188409328461
0.064087793231010437 0.0396553017199039459 -0.0411412231624126434
0.0959225296974182129 0.04032927006483078 -0.0404884293675422668
0.0458761453628540039 0.0404338464140892029 -0.0403656773269176483
0.0899667590856552124 0.0402941331267356873 -0.0405207835137844086
0.0770135968923568726 0.0398488007485866547 -0.0409552827477455139
0.0699758604168891907 0.0402033217251300812 -0.0406026169657707214
0.0433150529861450195 0.0395942144095897675 -0.0411934107542037964
0.09409312903881073 0.0366294719278812408 -0.0438634678721427917
0.0536432527005672455 0.0359617657959461212 -0.0443961247801780701
0.0442210771143436432 0.0358801260590553284 -0.0444608479738235474
0.0365466736257076263 0.0351480394601821899 -0.0450481399893760681
0.0757932588458061218 0.0364031791687011719 -0.0440435819327831268
0.0579850301146507263 0.0362308435142040253 -0.0441804006695747375
0.0523494258522987366 0.0362329967319965363 -0.0441781654953956604
0.0480038002133369446 0.0326408818364143372 -0.0469052232801914215
0.0394790433347225189 0.0333195701241493225 -0.0464121215045452118
0.0763564333319664001 0.0328086651861667633 -0.0467886663973331451
0.0473494604229927063 0.0324688665568828583 -0.0470297038555145264
0.0706088617444038391 0.0329772382974624634 -0.0466655530035495758
0.0401551946997642517 0.033964645117521286 -0.0459449812769889832
0.0392397865653038025 0.0336490646004676819 -0.0461734123528003693
0.0680758953094482422 0.0380029715597629547 -0.0426555126905441284
0.0504875518381595612 0.0373034849762916565 -0.0432798378169536591
0.0626409351825714111 0.0378470234572887421 -0.0427948646247386932
0.0430985018610954285 0.0370564423501491547 -0.043500460684299469
0.0615200884640216827 0.0372344665229320526 -0.0433400422334671021
0.0892773568630218506 0.037241719663143158 -0.0433305539190769196
0.0644224211573600769 0.0370755977928638458 -0.043481089174747467
0.0510339215397834778 0.0445547215640544891 -0.0357655361294746399
0.0759307444095611572 0.044388309121131897 -0.0359794646501541138
0.0473518706858158112 0.0449207015335559845 -0.0353171862661838531
0.0737865343689918518 0.0438987091183662415 -0.036576196551322937
0.0640133321285247803 0.0434542708098888397 -0.0371144935488700867
0.0468385666608810425 0.0442092381417751312 -0.0361854583024978638
0.0729974508285522461 0.0439005456864833832 -0.0365736111998558044
0.0869908109307289124 0.0286929495632648468 -0.0494200661778450012
0.0416696295142173767 0.0293014105409383774 -0.0490533336997032166
0.0418488718569278717 0.0284393094480037689 -0.0495577119290828705
0.0638901069760322571 0.0283612553030252457 -0.0496086142957210541
0.0411909110844135284 0.0282551422715187073 -0.0496652908623218536
0.076973259449005127 0.0290902871638536453 -0.049185238778591156
0.0505386330187320709 0.0281933359801769257 -0.0497036725282669067
0.0638097077608108521 0.0283900462090969086 -0.049591749906539917
0.0358440205454826355 0.0252279695123434067 -0.051274571567773819
0.0647568106651306152 0.0250986535102128983 -0.0513252988457679749
0.0788320153951644897 0.0246968585997819901 -0.0515267439186573029
0.0604094341397285461 0.0255543123930692673 -0.0510901324450969696
0.0270433593541383743 0.0255653597414493561 -0.0511036701500415802
0.0793508440256118774 0.0245951078832149506 -0.0515795201063156128
0.0614359155297279358 0.0259546320885419846 -0.0508807189762592316
0.0516816526651382446 0.0260114502161741257 -0.0508567243814468384
0.0287458803504705429 0.0224975105375051498 -0.0525263138115406036
0.028906356543302536 0.0217847656458616257 -0.0528165027499198914
0.0241910405457019806 0.0209532193839550018 -0.0531566478312015533
0.0226350948214530945 0.0207442566752433777 -0.0532422438263893127
0.10033070296049118 0.0196888577193021774 -0.0536469481885433197
0.0211486909538507462 0.0207947101444005966 -0.0532221794128417969
0.0451521836221218109 0.0212294477969408035 -0.053037397563457489
0.0433660633862018585 0.0203346200287342072 -0.0534023642539978027
0.0814867913722991943 0.0199371706694364548 -0.0535519123077392578
0.0770622491836547852 0.0193265434354543686 -0.0537768043577671051
0.0643335655331611633 0.0187848992645740509 -0.053966715931892395
0.0543660372495651245 0.0197367295622825623 -0.0536276772618293762
0.0460772588849067688 0.0193048063665628433 -0.0537794232368469238
0.0524553656578063965 0.01911919005215168 -0.053846266120672226
0.0498722642660140991 0.0197353344410657883 -0.0536274313926696777
0.074716515839099884 0.0190269872546195984 -0.0538826063275337219
0.0394023507833480835 0.0197559203952550888 -0.0536184199154376984
0.0575980544090270996 0.0242204871028661728 -0.051753900945186615
0.0255114063620567322 0.0246532298624515533 -0.051546439528465271
0.0588329732418060303 0.0240680072456598282 -0.0518248453736305237
0.0502726584672927856 0.0245274137705564499 -0.0516100563108921051
0.0514336004853248596 0.0248736869543790817 -0.0514497943222522736
0.0386448726058006287 0.0239515993744134903 -0.0518744923174381256
0.081383921205997467 0.0238474905490875244 -0.0519318841397762299
0.0563210025429725647 0.0246478915214538574 -0.0515555031597614288
0.0232471469789743423 0.0150410644710063934 -0.0551300197839736938
0.0174672659486532211 0.0132154924795031548 -0.0555929727852344513
0.057265155017375946 0.0148426247760653496 -0.0551842711865901947
0.0271414835005998611 0.014937741681933403 -0.0551567040383815765
0.0293357633054256439 0.013259069062769413 -0.0555832497775554657
0.0473336204886436462 0.0147610493004322052 -0.0552038587629795074
0.0134020363911986351 0.0131179448217153549 -0.0556172840297222137
0.0218116194009780884 0.0134645663201808929 -0.0555302128195762634
0.0270612612366676331 0.0107806036248803139 -0.0561125800013542175
0.038380056619644165 0.0102003496140241623 -0.0562309585511684418
0.0817307755351066589 0.0104781053960323334 -0.056169852614402771
0.0202444102615118027 0.0124409990385174751 -0.0557715147733688354
0.072391703724861145 0.0109295602887868881 -0.0560777969658374786
0.0206803753972053528 0.0103185456246137619 -0.0562082454562187195
0.0218871235847473145 0.0106638018041849136 -0.0561370886862277985
0.054390735924243927 0.0109305232763290405 -0.0560792386531829834
0.0133705325424671173 0.0110906967893242836 -0.0560500100255012512
0.0534769482910633087 0.0059361262246966362 -0.0568265430629253387
0.0453725382685661316 0.00551521824672818184 -0.0568743906915187836
0.0129100997000932693 0.00549433100968599319 -0.0568779595196247101
0.0703317746520042419 0.00517764408141374588 -0.0569115951657295227
0.0162171274423599243 0.0062691601924598217 -0.0567903071641921997
0.022894587367773056 0.00633588898926973343 -0.0567825213074684143
0.0652157366275787354 0.00548674352467060089 -0.0568768717348575592
0.0209543798118829727 0.00647397805005311966 -0.0567669905722141266
0.0521144010126590729 0.0058373832143843174 -0.0568377450108528137
0.0119124855846166611 0.00377054722048342228 -0.0570020526647567749
0.050352536141872406 0.00215825415216386318 -0.0570668205618858337
0.087575763463973999 0.000890037044882774353 -0.0571100600063800812
0.0212349426001310349 0.00261172093451023102 -0.0570687949657440186
0.0414595752954483032 0.00161580322310328484 -0.0571126863360404968
0.0276540033519268036 0.00295001966878771782 -0.0570392310619354248
0.0411910787224769592 0.00306823430582880974 -0.0570164397358894348
0.00992374308407306671 0.00254800776019692421 -0.0570855066180229187
0.0598169118165969849 0.00218051532283425331 -0.0570548996329307556
0.0235429704189300537 0.00418499903753399849 -0.0569616779685020447
0.0353485047817230225 0.00779609242454171181 -0.0565780885517597198
0.0921155810356140137 0.00546779530122876167 -0.0568723082542419434
0.0094678318127989769 0.00896243937313556671 -0.0564274117350578308
0.0498484447598457336 0.0076529504731297493 -0.0565820150077342987
0.0116809643805027008 0.00994900800287723541 -0.0562689490616321564
0.0209518540650606155 0.00775331119075417519 -0.056603357195854187
0.0473370477557182312 0.00773398391902446747 -0.0565724633634090424
0.0195470117032527924 0.00776698440313339233 -0.0566030070185661316
0.0239073224365711212 0.0078158210963010788 -0.0565896965563297272
0.0568032003939151764 0.0151412142440676689 -0.0551052168011665344
0.0282585285604000092 0.0164563655853271484 -0.0547117404639720917
0.0209170263260602951 0.0174421984702348709 -0.0544143058359622955
0.0228323750197887421 0.0160015299916267395 -0.0548505261540412903
0.0502336323261260986 0.0159991234540939331 -0.0548464097082614899
0.0745585858821868896 0.0154399489983916283 -0.0550115518271923065
0.082329288125038147 0.0153110167011618614 -0.0550492480397224426
0.0498369187116622925 0.0162322074174880981 -0.0547758489847183228
0.041339825838804245 0.0311991404742002487 -0.0478517115116119385
0.0333844386041164398 0.030393257737159729 -0.0483843758702278137
0.0444462597370147705 0.0306429974734783173 -0.0482103936374187469
0.0390735268592834473 0.0319915339350700378 -0.0473384149372577667
0.0382044613361358643 0.0318502224981784821 -0.0474312752485275269
0.0645242109894752502 0.0305719822645187378 -0.0482357926666736603
0.0574228018522262573 0.0295947827398777008 -0.0488790534436702728
0.0425417833030223846 0.0303763169795274734 -0.0483859069645404816
0.039254654198884964 0.00496551627293229103 -0.0569286122918128967
0.0712834373116493225 0.00491327885538339615 -0.0569331273436546326
0.048310600221157074 0.0039387955330312252 -0.0569740757346153259
0.0755926221609115601 0.00341820716857910156 -0.0569987073540687561
0.0451863929629325867 0.00333434203639626503 -0.0570002458989620209
0.100830554962158203 0.00498408311977982521 -0.0569320991635322571
0.080519556999206543 0.00176686933264136314 -0.0570711493492126465
0.0597763285040855408 0.00471793301403522491 -0.0569408535957336426
0.103868231177330017 0.00322251440957188606 -0.0570092238485813141
0.0930554717779159546 0.00464499136433005333 -0.0569463633000850677
0.0465831086039543152 0.0043554878793656826 -0.0569557584822177887
0.0957948565483093262 0.002841221634298563 -0.0570253059267997742
0.0856811851263046265 0.00325533864088356495 -0.0570065230131149292
0.0929503440856933594 0.00179140805266797543 -0.0570709444582462311
0.0561401434242725372 0.00480090593919157982 -0.0569369792938232422
0.078414425253868103 0.00464754179120063782 -0.0569452308118343353
0.0901651233434677124 0.00271928822621703148 -0.0570302382111549377
0.0827794522047042847 0.00471922475844621658 -0.0569424033164978027
0.0793457254767417908 -0.0253921393305063248 -0.0511638559401035309
0.100985243916511536 -0.0265923682600259781 -0.0505275726318359375
0.0809535980224609375 -0.027768181636929512 -0.0499261096119880676
0.103023827075958252 -0.0246575679630041122 -0.0515336878597736359
0.0864671468734741211 -0.0274399854242801666 -0.0500940345227718353
0.0941526591777801514 -0.0263338256627321243 -0.0506657883524894714
0.0837384313344955444 -0.0252403989434242249 -0.0512405149638652802
0.088298499584197998 -0.0251564942300319672 -0.0512817762792110443
0.0885789841413497925 -0.0250964649021625519 -0.0513128750026226044
0.0860481187701225281 -0.0252440124750137329 -0.0512374080717563629
0.0767707154154777527 -0.0277006775140762329 -0.0499634705483913422
0.0883247479796409607 -0.0256053581833839417 -0.0510480962693691254
0.0589480176568031311 -0.0273327752947807312 -0.050164446234703064
0.0793785899877548218 -0.0266582723706960678 -0.050504729151725769
0.0950868725776672363 -0.0326813347637653351 -0.0468805320560932159
0.0709115937352180481 -0.0312836021184921265 -0.0477788038551807404
0.0969091877341270447 -0.0319885574281215668 -0.0473212897777557373
0.0736732780933380127 -0.0305743720382452011 -0.0482297427952289581
0.0493001490831375122 -0.0318455621600151062 -0.047427784651517868
0.0778181031346321106 -0.0305851306766271591 -0.0482215471565723419
0.0862684100866317749 -0.0298447813838720322 -0.0486904717981815338
0.083708152174949646 -0.0303247515112161636 -0.04838552325963974
0.0603499338030815125 -0.0313137546181678772 -0.0477630160748958588
0.0758393853902816772 -0.0307606849819421768 -0.0481103472411632538
0.0757148414850234985 -0.0318216867744922638 -0.0474344566464424133
0.096932537853717804 -0.0304929818958044052 -0.0482740700244903564
0.0945832729339599609 -0.0312982723116874695 -0.0477618053555488586
0.0797324106097221375 -0.0398733355104923248 -0.0409304648637771606
0.0530243180692195892 -0.0387984737753868103 -0.0419433936476707458
0.0964076519012451172 -0.0393954180181026459 -0.0413509048521518707
0.104217849671840668 -0.0379307977855205536 -0.0426847971975803375
0.0967894047498703003 -0.0383450612425804138 -0.0423129871487617493
0.101593285799026489 -0.0397914759814739227 -0.0409825518727302551
0.0844217613339424133 -0.0381944254040718079 -0.0424639806151390076
0.0682210400700569153 -0.0396140627562999725 -0.0411801151931285858
0.0912194103002548218 -0.0384251996874809265 -0.0422453917562961578
0.0551922507584095001 -0.0391024276614189148 -0.041662607342004776
0.0959852933883666992 -0.0383619926869869232 -0.0422983095049858093
0.0534734874963760376 -0.0387741923332214355 -0.0419651754200458527
0.0802570953965187073 -0.0335841290652751923 -0.0462214313447475433
0.101292878389358521 -0.0338915102183818817 -0.0459651574492454529
0.0824868083000183105 -0.0356493927538394928 -0.0446345321834087372
0.048140447586774826 -0.0343424379825592041 -0.0456707179546356201
0.0642188265919685364 -0.0342117585241794586 -0.0457553938031196594
0.087110564112663269 -0.0338618755340576172 -0.0460016615688800812
0.104677438735961914 -0.03408098965883255 -0.0458164885640144348
0.0606356635689735413 -0.0349517352879047394 -0.0451910682022571564
0.065942719578742981 -0.0347621925175189972 -0.0453313589096069336
0.0784506574273109436 -0.0335518233478069305 -0.0462479665875434875
0.0602359026670455933 -0.0345812365412712097 -0.0454757437109947205
0.103573761880397797 -0.036501564085483551 -0.0439601875841617584
0.0691174864768981934 -0.0426779761910438538 -0.0379643514752388
0.0704628527164459229 -0.0427027009427547455 -0.0379363559186458588
0.0706156492233276367 -0.0425524525344371796 -0.0381002053618431091
0.0795212313532829285 -0.0432240702211856842 -0.0373605638742446899
0.0885085612535476685 -0.0420394055545330048 -0.0386466346681118011
0.081559397280216217 -0.0416421294212341309 -0.0390854142606258392
0.0476420037448406219 -0.043139975517988205 -0.0374763309955596924
0.0758359730243682861 -0.0422108247876167297 -0.0384691022336483002
0.0949036106467247009 -0.0424378886818885803 -0.0382069572806358337
0.0920195132493972778 -0.0420357659459114075 -0.0386479645967483521
0.0861644893884658813 -0.0425567477941513062 -0.0380838252604007721
0.0491401888430118561 -0.00447861058637499809 -0.0569505617022514343
0.102993637323379517 -0.00390950823202729225 -0.0569791682064533234
0.0754254236817359924 -0.00193398050032556057 -0.0570634976029396057
0.0945886000990867615 -0.00227567623369395733 -0.0570499151945114136
0.0626348406076431274 -0.00368916033767163754 -0.0569859705865383148
0.0389801487326622009 -0.0041023637168109417 -0.0569662787020206451
0.0882856398820877075 -0.00263119116425514221 -0.0570339523255825043
0.0584598556160926819 -0.00375089445151388645 -0.0569829829037189484
0.0376595631241798401 -0.00478317681699991226 -0.0569364652037620544
0.0935039445757865906 -0.00456771859899163246 -0.0569497682154178619
0.0929716005921363831 -0.00154354702681303024 -0.0570817664265632629
0.0160861276090145111 -0.00477442843839526176 -0.0569353401660919189
0.0844462960958480835 -0.00446445634588599205 -0.0569536462426185608
0.07788114994764328 -0.00441998522728681564 -0.0569551251828670502
0.0788959339261054993 -0.00484687089920043945 -0.056936558336019516
0.0687205567955970764 -0.00355505244806408882 -0.0569922514259815216
0.0898428112268447876 -0.00156417919788509607 -0.0570806451141834259
0.0274241641163825989 -0.0044233701191842556 -0.0569514594972133636
0.0772203952074050903 -0.00992941670119762421 -0.0562765002250671387
0.0758860409259796143 -0.00722090620547533035 -0.0566328652203083038
0.0675584971904754639 -0.00949593167752027512 -0.0563319846987724304
0.0698709785938262939 -0.00918936170637607574 -0.0563727244734764099
0.0820415467023849487 -0.00701819546520709991 -0.0566605553030967712
0.050259467214345932 -0.00882270839065313339 -0.0564177818596363068
0.0652235373854637146 -0.00859336834400892258 -0.0564504265785217285
0.0699466168880462646 -0.00758833019062876701 -0.0565835162997245789
0.0741712749004364014 -0.00976883526891469955 -0.0562971420586109161
0.0849841833114624023 -0.00968944001942873001 -0.0563093647360801697
0.0875610113143920898 -0.00631667207926511765 -0.0567538216710090637
0.0797414183616638184 -0.00845196936279535294 -0.0564714223146438599
0.0578600391745567322 -0.00794643908739089966 -0.0565343908965587616
0.0910547301173210144 -0.00973777845501899719 -0.0563039965927600861
0.0911750495433807373 -0.00747134210541844368 -0.0566023960709571838
0.0617333874106407166 -0.00750530930235981941 -0.0565931014716625214
0.0995186716318130493 -0.00736449053511023521 -0.0566178299486637115
0.0878193527460098267 -0.0172121468931436539 -0.0544498376548290253
0.0892602354288101196 -0.0183547139167785645 -0.0540887154638767242
0.0693100914359092712 -0.0171522591263055801 -0.0544799268245697021
0.0987894013524055481 -0.0171990711241960526 -0.054447319358587265
0.0694197490811347961 -0.0160714779049158096 -0.0548206232488155365
0.10422922670841217 -0.0166973117738962173 -0.0546022281050682068
0.0391149520874023438 -0.0180309489369392395 -0.0542211532592773438
0.0646537318825721741 -0.0184756387025117874 -0.0540654808282852173
0.0932081714272499084 -0.0185230057686567307 -0.0540332645177841187
0.0831413120031356812 -0.0171755850315093994 -0.0544641949236392975
0.0319826379418373108 -0.0174608472734689713 -0.0544052235782146454
0.0900463610887527466 -0.0156619567424058914 -0.054937262088060379
0.0897507444024085999 -0.0156171573325991631 -0.0549515634775161743
0.0365932472050189972 -0.017373349517583847 -0.0544300153851509094
0.102044515311717987 -0.017437884584069252 -0.054370049387216568
0.100131936371326447 -0.0158774387091398239 -0.0548632144927978516
0.0374395065009593964 -0.0132716149091720581 -0.0555792003870010376
0.0987384244799613953 -0.010146251879632473 -0.0562361590564250946
0.0788758024573326111 -0.0138356704264879227 -0.0554298721253871918
0.0923793911933898926 -0.0123610729351639748 -0.0557488687336444855
0.0924851745367050171 -0.0123200109228491783 -0.0557579100131988525
0.0749821662902832031 -0.0118217235431075096 -0.0558786354959011078
0.085491664707660675 -0.0142164565622806549 -0.0553415752947330475
0.0554645135998725891 -0.013164987787604332 -0.0555922761559486389
0.0351170338690280914 -0.0126539347693324089 -0.0557174943387508392
0.0731984972953796387 -0.0110019277781248093 -0.0560614243149757385
0.0696887671947479248 -0.0136796226724982262 -0.0554698482155799866
0.0975454896688461304 -0.0124285826459527016 -0.0557308793067932129
0.0903866440057754517 -0.0116741722449660301 -0.0559023208916187286
0.073092631995677948 -0.0136433551087975502 -0.0554758943617343903
0.100757718086242676 -0.0119050033390522003 -0.0558450706303119659
0.0709465742111206055 -0.0119417281821370125 -0.0558543987572193146
0.0695072337985038757 -0.0210489910095930099 -0.0531023330986499786
0.0836018770933151245 -0.0234803576022386551 -0.0520867817103862762
0.101130828261375427 -0.0218654908239841461 -0.0527451746165752411
0.0876635164022445679 -0.0230487696826457977 -0.0522631146013736725
0.098793715238571167 -0.0208986308425664902 -0.0531470626592636108
0.104300566017627716 -0.0238672513514757156 -0.0519141145050525665
0.0914958193898200989 -0.0201898366212844849 -0.0534450262784957886
0.0649345368146896362 -0.0226921550929546356 -0.0524244531989097595
0.097947731614112854 -0.0201437529176473618 -0.0534602515399456024
0.0840446874499320984 -0.0204819086939096451 -0.0533285140991210938
0.0523770600557327271 -0.022350899875164032 -0.0525733307003974915
0.10160905122756958 -0.0213048290461301804 -0.0529771223664283752
0.0860512107610702515 -0.0205011386424303055 -0.0533193424344062805
0.0488881133496761322 -0.0224959347397089005 -0.0525153465569019318
0.0724286511540412903 -0.0215679183602333069 -0.0528856366872787476
0.0691117122769355774 -0.0446377508342266083 -0.0356695912778377533
0.0922468006610870361 -0.0445357002317905426 -0.035768512636423111
0.0836378782987594604 -0.0455647744238376617 -0.0344400741159915924
0.0611750558018684387 -0.0455056503415107727 -0.034550204873085022
0.104040354490280151 -0.0457567125558853149 -0.0341598950326442719
0.0898552760481834412 -0.0448642075061798096 -0.0353439189493656158
0.0653111636638641357 -0.045466400682926178 -0.0345952697098255157
0.0840471237897872925 -0.0452177748084068298 -0.0348916947841644287
0.0641546770930290222 -0.0448495745658874512 -0.0354008376598358154
0.0820660144090652466 -0.0451106056571006775 -0.03503427654504776
0.08407554030418396 -0.0454604700207710266 -0.0345753692090511322
0.0974515527486801147 -0.0534451976418495178 -0.0201868582516908646
0.0755534470081329346 -0.0531079694628715515 -0.0210502240806818008
0.100313775241374969 -0.0534607246518135071 -0.0201429408043622971
0.0864272862672805786 -0.0534303896129131317 -0.0202473942190408707
0.068569965660572052 -0.0529284030199050903 -0.0214994382113218307
0.0974783450365066528 -0.0524703823029994965 -0.0225402116775512695
0.0855314284563064575 -0.0528334006667137146 -0.0216906629502773285
0.0960348695516586304 -0.0531501509249210358 -0.0209023430943489075
0.0719772130250930786 -0.0532318353652954102 -0.020759236067533493
0.0811073780059814453 -0.0546545498073101044 -0.0166121665388345718
0.0752449780702590942 -0.0544578023254871368 -0.0172563605010509491
0.0789024904370307922 -0.0545081980526447296 -0.0170839354395866394
0.104509145021438599 -0.054165184497833252 -0.0180836543440818787
0.0919076651334762573 -0.0540082715451717377 -0.0186247117817401886
0.0783188790082931519 -0.0543575771152973175 -0.0175636541098356247
0.0834556221961975098 -0.054311901330947876 -0.0176908355206251144
0.0931675508618354797 -0.0549300946295261383 -0.0156967230141162872
0.100745372474193573 -0.054742373526096344 -0.0162660051137208939
0.0933917537331581116 -0.056499134749174118 -0.00837234035134315491
0.0907624736428260803 -0.056501094251871109 -0.00837997253984212875
0.07402048259973526 -0.0565947741270065308 -0.00781184155493974686
0.100995473563671112 -0.0565165504813194275 -0.00817490462213754654
0.071895204484462738 -0.0565722472965717316 -0.00800113379955291748
0.0990805849432945251 -0.0566219799220561981 -0.00739050144329667091
0.0870966240763664246 -0.0566566251218318939 -0.00723001500591635704
0.0811066403985023499 -0.056755945086479187 -0.00652693118900060654
0.0783373638987541199 -0.0567033737897872925 -0.00694995839148759842
0.0964796319603919983 -0.0558855272829532623 -0.0117367589846253395
0.0797627270221710205 -0.0558425821363925934 -0.0119804581627249718
0.102873951196670532 -0.0558506138622760773 -0.0118751386180520058
0.0768235325813293457 -0.0557585246860980988 -0.012368389405310154
0.101195544004440308 -0.0553169846534729004 -0.014287186786532402
0.0965737327933311462 -0.0561903566122055054 -0.0103614917024970055
0.0876758173108100891 -0.0561165027320384979 -0.0107212206348776817
0.0966268852353096008 -0.055453665554523468 -0.0136843156069517136
0.0652784258127212524 -0.0559783205389976501 -0.0114114638417959213
0.064367637038230896 -0.0570322014391422272 -0.00352505221962928772
0.0750460624694824219 -0.0570313446223735809 -0.00332728005014359951
0.104252241551876068 -0.0569618828594684601 -0.00432382524013519287
0.104493908584117889 -0.057095065712928772 -0.00126851885579526424
0.0981851443648338318 -0.0569962784647941589 -0.00365952798165380955
0.101350292563438416 -0.0569828934967517853 -0.00390169094316661358
0.0965672358870506287 -0.0570412054657936096 -0.00266348314471542835
0.0980786532163619995 -0.0569662041962146759 -0.00435048993676900864
0.104705363512039185 -0.0508874803781509399 -0.025897487998008728
0.0706914514303207397 -0.0508507899940013885 -0.0260359607636928558
0.0992186665534973145 -0.0504161454737186432 -0.0268138870596885681
0.0929264649748802185 -0.0503082536160945892 -0.0270337201654911041
0.081333063542842865 -0.050744183361530304 -0.0262194816023111343
0.07719402015209198 -0.0504696294665336609 -0.0267551634460687637
0.061039309948682785 -0.0506360158324241638 -0.0264678336679935455
0.100546009838581085 -0.0513036511838436127 -0.0251063462346792221
0.0834618955850601196 -0.0498695112764835358 -0.0278954543173313141
0.0660742670297622681 -0.0502336621284484863 -0.0272306837141513824
0.0664000958204269409 -0.0558044426143169403 -0.0121846972033381462
0.0593365244567394257 -0.0559132993221282959 -0.0117133110761642456
0.0798731371760368347 -0.0553022511303424835 -0.0143942330032587051
0.0929298922419548035 -0.0553310178220272064 -0.014242466539144516
0.0693189427256584167 -0.0553642883896827698 -0.0141374533995985985
0.0642872676253318787 -0.0555406138300895691 -0.0133622130379080772
0.085572361946105957 -0.048455704003572464 -0.0302325524389743805
0.0980160161852836609 -0.0493520572781562805 -0.0288071241229772568
0.100576154887676239 -0.0479866564273834229 -0.0309465881437063217
0.0834748372435569763 -0.048298615962266922 -0.0304822362959384918
0.076223321259021759 -0.0481983646750450134 -0.0306503437459468842
0.0983328819274902344 -0.0471361055970191956 -0.0322850123047828674
0.0972040221095085144 -0.0491920225322246552 -0.0290595348924398422
0.0849046260118484497 -0.0479596443474292755 -0.0310121998190879822
0.0818513482809066772 -0.0482101887464523315 -0.0306234415620565414
0.100440576672554016 -0.0476417206227779388 -0.0314882285892963409
0.0651517882943153381 -0.0566109642386436462 -0.00775732425972819328
0.0980066806077957153 -0.0563131235539913177 -0.00970895122736692429
0.0638504326343536377 -0.0563429184257984161 -0.00943031348288059235
0.0683416053652763367 -0.056271035224199295 -0.00989202689379453659
0.0587334036827087402 -0.0565395727753639221 -0.00818651169538497925
0.060324452817440033 -0.0562924407422542572 -0.00973648205399513245
0.0685444772243499756 -0.0565788634121417999 -0.00796726439148187637
0.0960546806454658508 -0.0569223687052726746 -0.0050349729135632515
0.0569729544222354889 -0.0569419190287590027 -0.0046041528694331646
0.0659968405961990356 -0.0569924972951412201 -0.00412893109023571014
0.0605940818786621094 -0.0569052249193191528 -0.00500795105472207069
0.0715543478727340698 -0.0569499358534812927 -0.00460517173632979393
0.0932600647211074829 -0.056936115026473999 -0.00487538566812872887
0.058544304221868515 -0.0570435672998428345 -0.00332674128003418446
0.0701690018177032471 -0.057107340544462204 -0.00133333250414580107
0.0675174370408058167 -0.0571340732276439667 -0.000497817702125757933
0.08364848792552948 -0.0571423992514610291 -0.000237583561101928353
0.063298545777797699 -0.0570772178471088409 -0.00227492023259401321
0.0712201669812202454 -0.0571351498365402222 -0.000464087643194943666
0.0547725968062877655 -0.0546947531402111053 -0.01648729108273983
0.0590976029634475708 -0.0549913905560970306 -0.0154710579663515091
0.0717100426554679871 -0.0551669597625732422 -0.014879968948662281
0.0947131440043449402 -0.0551259219646453857 -0.0150449248030781746
0.085380159318447113 -0.0551651902496814728 -0.0149001693353056908
0.0631971657276153564 -0.0547962971031665802 -0.0161465834826231003
0.089193388819694519 -0.0192808452993631363 -0.0537949949502944946
0.0414842180907726288 -0.0186046715825796127 -0.0540268532931804657
0.0299525856971740723 -0.018214397132396698 -0.0541633069515228271
0.0450898893177509308 -0.0191740337759256363 -0.0538256168365478516
0.035815507173538208 -0.0189834143966436386 -0.0538916662335395813
0.0566166006028652191 -0.0191306732594966888 -0.0538428798317909241
0.055455431342124939 -0.0195346269756555557 -0.053699493408203125
0.0614412352442741394 -0.0198125839233398438 -0.0536019504070281982
0.0339591540396213531 -0.0221722610294818878 -0.0526570789515972137
0.0248050522059202194 -0.0203691348433494568 -0.0533942990005016327
0.0340435802936553955 -0.0203513316810131073 -0.05339856818318367
0.0649630799889564514 -0.0205572545528411865 -0.0533047355711460114
0.0699322968721389771 -0.0207243561744689941 -0.0532350838184356689
0.0471088811755180359 -0.0207796264439821243 -0.0532199442386627197
0.1020374596118927 -0.0196310617029666901 -0.0536699369549751282
0.0296454280614852905 -0.0213302336633205414 -0.0530013591051101685
0.0385366976261138916 -0.0260421168059110641 -0.0508483313024044037
0.0306474789977073669 -0.0256011411547660828 -0.0510829165577888489
0.0390067733824253082 -0.0260715950280427933 -0.0508326850831508636
0.0307912472635507584 -0.0261417273432016373 -0.0508008524775505066
0.0661337301135063171 -0.0247043315321207047 -0.0515301935374736786
0.034870736300945282 -0.0253212079405784607 -0.051226496696472168
0.0504404231905937195 -0.0257097650319337845 -0.0510148108005523682
0.0363557077944278717 -0.0252285990864038467 -0.0512739457190036774
0.0381494201719760895 -0.0288507230579853058 -0.0493161492049694061
0.0380243808031082153 -0.0280458498746156693 -0.0497869737446308136
0.0685856938362121582 -0.0286375284194946289 -0.0494481101632118225
0.0294804312288761139 -0.0287747178226709366 -0.0493585541844367981
0.0644824132323265076 -0.0288377478718757629 -0.049330003559589386
0.0393507704138755798 -0.0281108636409044266 -0.0497492589056491852
0.0607081092894077301 -0.0285713337361812592 -0.0494849607348442078
0.0622243061661720276 -0.0241186656057834625 -0.0518020913004875183
0.0705031752586364746 -0.0244979262351989746 -0.0516280531883239746
0.0292112529277801514 -0.023071708157658577 -0.0522803440690040588
0.0269480273127555847 -0.0231636222451925278 -0.0522372536361217499
0.048105236142873764 -0.0235816743224859238 -0.0520479902625083923
0.0574784427881240845 -0.0245007090270519257 -0.0516239777207374573
0.0448084250092506409 -0.0248639341443777084 -0.0514528974890708923
0.0865455269813537598 -0.024028560146689415 -0.0518490560352802277
0.0358898602426052094 -0.00292279710993170738 -0.0570319555699825287
0.0154611021280288696 -0.00344769936054944992 -0.0570195987820625305
0.0148186804726719856 -0.00275776605121791363 -0.0570661649107933044
0.0831662192940711975 -0.00102856801822781563 -0.0571057163178920746
0.0132641708478331566 -0.00303814467042684555 -0.057049240916967392
0.0232164524495601654 -0.00218450790271162987 -0.057095009833574295
0.0384973138570785522 -0.00233810092322528362 -0.0570679418742656708
0.0380739346146583557 -0.00314138038083910942 -0.0570150166749954224
0.0828456133604049683 -0.000603935681283473969 -0.0571342930197715759
0.015102580189704895 -0.00238327169790863991 -0.0570907443761825562
0.0876841172575950623 -0.00544611969962716103 -0.0568806231021881104
0.0177591815590858459 -0.00679081771522760391 -0.0567313209176063538
0.0474969185888767242 -0.00514557305723428726 -0.0569160692393779755
0.0353508368134498596 -0.00612778542563319206 -0.0568055622279644012
0.0194558184593915939 -0.00596353085711598396 -0.0568247102200984955
0.072766520082950592 -0.00503972452133893967 -0.0569270886480808258
0.014634319581091404 -0.00610190257430076599 -0.0568092577159404755
0.0723654255270957947 -0.00580500345677137375 -0.056840650737285614
0.0929483473300933838 -0.00528859160840511322 -0.0568982250988483429
0.056466616690158844 -0.0110289305448532104 -0.0560587979853153229
0.0345256216824054718 -0.0102696707472205162 -0.0562170408666133881
0.0730056017637252808 -0.0101953605189919472 -0.05622883141040802
0.0468668378889560699 -0.0102608585730195045 -0.056217733770608902
0.0319875217974185944 -0.0105353360995650291 -0.0561626031994819641
0.0242647547274827957 -0.0119125237688422203 -0.0558798983693122864
0.0135277342051267624 -0.01187922153621912 -0.0558877289295196533
0.0158606395125389099 -0.0105518549680709839 -0.0561606697738170624
0.0646998360753059387 -0.0106056760996580124 -0.0561451539397239685
0.0384880639612674713 -0.0138626247644424438 -0.0554310157895088196
0.051224835216999054 -0.0140756173059344292 -0.0553783699870109558
0.0584944374859333038 -0.0139567488804459572 -0.0554093755781650543
0.0331257842481136322 -0.0144601352512836456 -0.0552786663174629211
0.0581360869109630585 -0.0147737506777048111 -0.0552018620073795319
0.0674003139138221741 -0.0145936114713549614 -0.055248655378818512
0.0676910281181335449 -0.0144838001579046249 -0.055276576429605484
0.0732475966215133667 -0.0145673984661698341 -0.0552559755742549896
0.0413189753890037537 -0.0139351431280374527 -0.0554129183292388916
0.0392644181847572327 -0.00836328696459531784 -0.056483585387468338
0.053671959787607193 -0.00782117992639541626 -0.0565505586564540863
0.0701803267002105713 -0.00686448626220226288 -0.0566802248358726501
0.0413025356829166412 -0.00706519884988665581 -0.056685715913772583
0.0147290779277682304 -0.00938811898231506348 -0.056353498250246048
0.0702640041708946228 -0.00667896028608083725 -0.0567093826830387115
0.0190858170390129089 -0.00949091743677854538 -0.0563316792249679565
0.00999244116246700287 -0.00959945656359195709 -0.0563262589275836945
