ply
format ascii 1.0
element vertex 739
property float x
property float y
property float z
end_header
0.0838441625237464905 0.150000005960464478 0.0238276422023773193
0.0926780253648757935 0.150000005960464478 0.000149067491292953491
0.130739212036132812 0.150000005960464478 0.0601822584867477417
0.112447723746299744 0.150000005960464478 0.0608521029353141785
0.147263571619987488 0.150000005960464478 0.0881504788994789124
0.134046733379364014 0.150000005960464478 0.0749688148498535156
0.147657617926597595 0.150000005960464478 0.0398090220987796783
0.112213663756847382 0.150000005960464478 0.0278810858726501465
0.112154468894004822 0.150000005960464478 0.0316447615623474121
0.139372766017913818 0.150000005960464478 0.0487843379378318787
0.112220458686351776 0.150000005960464478 0.0566045641899108887
0.139992848038673401 0.150000005960464478 0.0593260675668716431
0.149966686964035034 0.150000005960464478 0.00532822916284203529
0.14436735212802887 0.150000005960464478 0.00828556157648563385
0.145104005932807922 0.150000005960464478 0.0674249529838562012
0.109892025589942932 0.150000005960464478 0.00978884287178516388
0.0655147209763526917 0.150000005960464478 0.0369646623730659485
0.021364167332649231 0.150000005960464478 0.000407509505748748779
0.108179286122322083 0.150000005960464478 0.0258372724056243896
0.0864964947104454041 0.150000005960464478 0.0110284909605979919
0.121025905013084412 0.150000005960464478 0.0616740696132183075
0.120032034814357758 0.150000005960464478 0.0373282283544540405
0.0998692363500595093 0.150000005960464478 0.0504931919276714325
0.0628509670495986938 0.150000005960464478 0.0375173762440681458
0.069730706512928009 0.150000005960464478 0.033062860369682312
0.0450376346707344055 0.150000005960464478 0.01906595379114151
0.0836675465106964111 0.150000005960464478 0.0255158804357051849
0.0734754279255867004 0.150000005960464478 0.00546760484576225281
0.144395440816879272 0.150000005960464478 0.0313612818717956543
0.134373992681503296 0.150000005960464478 0.0666992664337158203
0.0876300111413002014 0.150000005960464478 0.00927450135350227356
0.0817276164889335632 0.150000005960464478 0.0318356901407241821
0.136886969208717346 0.150000005960464478 0.0596982836723327637
0.13693884015083313 0.150000005960464478 0.0303037278354167938
0.0712438672780990601 0.150000005960464478 0.0370721928775310516
0.130729973316192627 0.150000005960464478 0.0433686673641204834
0.138661116361618042 0.150000005960464478 0.0447808466851711273
0.107940360903739929 0.150000005960464478 0.0182259548455476761
0.139920562505722046 0.150000005960464478 0.0665729343891143799
0.131544932723045349 0.150000005960464478 0.0144774103537201881
0.121943123638629913 0.150000005960464478 0.016671106219291687
0.0958656668663024902 0.150000005960464478 0.0130378976464271545
0.118505388498306274 0.150000005960464478 0.0700896382331848145
0.149601995944976807 0.150000005960464478 0.0815113112330436707
0.129592031240463257 0.150000005960464478 0.0758952051401138306
0.109331779181957245 0.150000005960464478 0.0111348573118448257
0.1163511723279953 0.150000005960464478 0.0423833206295967102
0.0679943263530731201 0.150000005960464478 0.00359788909554481506
0.0543261691927909851 0.150000005960464478 0.0237752273678779602
0.127050131559371948 0.150000005960464478 0.00486576184630393982
0.0888353437185287476 0.150000005960464478 0.0256987288594245911
0.102486699819564819 0.150000005960464478 0.0203582681715488434
0.0867731273174285889 0.150000005960464478 0.033998243510723114
0.108828648924827576 0.150000005960464478 0.0346802771091461182
0.135895043611526489 0.150000005960464478 0.0746541321277618408
0.132387891411781311 0.150000005960464478 0.0243378616869449615
0.0823739692568778992 0.150000005960464478 0.0494053252041339874
0.0173725932836532593 0.150000005960464478 0.00845282524824142456
0.0784266442060470581 0.150000005960464478 0.0361310280859470367
0.0459342673420906067 0.150000005960464478 0.0211435109376907349
0.064496062695980072 0.150000005960464478 0.0341988205909729004
0.0879289358854293823 0.150000005960464478 0.0475752055644989014
0.137460991740226746 0.150000005960464478 0.0738045796751976013
0.0914430916309356689 0.150000005960464478 0.0210449732840061188
0.109526023268699646 0.150000005960464478 0.0609563253819942474
0.0600863397121429443 0.150000005960464478 0.00447043031454086304
0.146189630031585693 0.150000005960464478 0.0732946544885635376
0.107752606272697449 0.150000005960464478 0.0619169250130653381
0.0454555675387382507 0.150000005960464478 0.00327663123607635498
0.106913693249225616 0.150000005960464478 0.0425409674644470215
0.0180935263633728027 0.150000005960464478 0.00679629296064376831
0.0462102368474006653 0.150000005960464478 0.0145303718745708466
0.0873390734195709229 0.150000005960464478 0.010571599006652832
0.111310392618179321 0.150000005960464478 0.0625220686197280884
0.106495782732963562 0.150000005960464478 0.0598986521363258362
0.0862016007304191589 0.150000005960464478 0.0253122374415397644
0.0898818299174308777 0.150000005960464478 0.0129516534507274628
0.042107507586479187 0.150000005960464478 0.0145212039351463318
0.0175019353628158569 0.150000005960464478 0.00581292808055877686
0.0904341414570808411 0.150000005960464478 0.0113097913563251495
0.109441906213760376 0.150000005960464478 0.0262346770614385605
0.0909840613603591919 0.150000005960464478 0.0243942514061927795
0.0581969991326332092 0.150000005960464478 0.0129582323133945465
0.0675632953643798828 0.150000005960464478 0.014257870614528656
0.125725507736206055 0.150000005960464478 0.0254403166472911835
0.112106114625930786 0.150000005960464478 0.0457362383604049683
0.133702650666236877 0.150000005960464478 0.0407331660389900208
0.0995173603296279907 0.150000005960464478 0.0467642731964588165
0.110741458833217621 0.150000005960464478 0.00747689418494701385
0.0369525700807571411 0.150000005960464478 0.0143901333212852478
0.13823091983795166 0.150000005960464478 0.053646773099899292
0.128654330968856812 0.150000005960464478 0.0443919673562049866
0.114790037274360657 0.150000005960464478 0.0624681375920772552
0.149486079812049866 0.150000005960464478 0.0853147357702255249
0.140064224600791931 0.150000005960464478 0.0513519346714019775
0.0890013948082923889 0.150000005960464478 0.0301033481955528259
0.122360244393348694 0.150000005960464478 0.02548234723508358
0.0972673743963241577 0.150000005960464478 0.0212683305144309998
0.0758157894015312195 0.150000005960464478 0.0216457545757293701
0.106163360178470612 0.150000005960464478 0.0548221021890640259
0.130277931690216064 0.150000005960464478 0.0673303604125976562
0.148081213235855103 0.150000005960464478 0.0329645536839962006
0.0687252506613731384 0.150000005960464478 0.00893867388367652893
0.0741571709513664246 0.150000005960464478 0.0342631004750728607
0.0948285311460494995 0.150000005960464478 0.00991617143154144287
0.125649526715278625 0.150000005960464478 0.0241569988429546356
0.143377989530563354 0.150000005960464478 0.00845995359122753143
0.117365390062332153 0.150000005960464478 0.00269738584756851196
0.113057047128677368 0.150000005960464478 0.0251589920371770859
0.134167596697807312 0.150000005960464478 0.0698830559849739075
0.135058999061584473 0.150000005960464478 0.0557814203202724457
0.0730404406785964966 0.150000005960464478 0.00818531960248947144
0.0755276605486869812 0.150000005960464478 0.0365175418555736542
0.0710685476660728455 0.150000005960464478 0.00830968841910362244
0.100125953555107117 0.150000005960464478 0.0259687751531600952
0.141359910368919373 0.150000005960464478 0.0558377504348754883
0.082260817289352417 0.150000005960464478 0.00790325924754142761
0.103056445717811584 0.150000005960464478 0.00310705788433551788
0.114224299788475037 0.150000005960464478 0.0321571789681911469
0.0964705273509025574 0.150000005960464478 0.0073110237717628479
0.0589709877967834473 0.150000005960464478 0.0191374793648719788
0.143233358860015869 0.150000005960464478 0.0591102540493011475
0.111833468079566956 0.150000005960464478 0.00331836752593517303
0.139638572931289673 0.150000005960464478 0.0125846024602651596
0.135172948241233826 0.150000005960464478 0.0241754129528999329
0.0266271904110908508 0.150000005960464478 0.00162623822689056396
0.144717410206794739 0.150000005960464478 0.00287957186810672283
0.0724320411682128906 0.150000005960464478 0.0190106481313705444
0.0976828336715698242 0.150000005960464478 0.0181530490517616272
0.133715957403182983 0.150000005960464478 0.0576993934810161591
0.122097417712211609 0.150000005960464478 0.0328006446361541748
0.0280387923121452332 0.150000005960464478 0.0104121491312980652
0.112065747380256653 0.150000005960464478 0.02883918397128582
0.134843051433563232 0.150000005960464478 0.00384612567722797394
0.0359520986676216125 0.150000005960464478 0.0196110308170318604
0.131883025169372559 0.150000005960464478 0.0779138058423995972
0.11133497953414917 0.150000005960464478 0.0522003695368766785
0.0597024187445640564 0.150000005960464478 0.0308852605521678925
0.0908574908971786499 0.150000005960464478 0.045821063220500946
0.082033112645149231 0.150000005960464478 0.0231613144278526306
0.0276429653167724609 0.150000005960464478 0.0134913697838783264
0.122344523668289185 0.150000005960464478 0.050033126026391983
0.0893078893423080444 0.150000005960464478 0.0343463830649852753
0.0653205737471580505 0.150000005960464478 0.00554733350872993469
0.103221036493778229 0.150000005960464478 0.0337816476821899414
0.0899462699890136719 0.150000005960464478 0.00181462988257408142
0.131637603044509888 0.150000005960464478 0.0445295646786689758
0.0683155208826065063 0.150000005960464478 0.0317896604537963867
0.0590845346450805664 0.150000005960464478 0.00256328284740447998
0.082224041223526001 0.150000005960464478 0.0377600230276584625
0.134839862585067749 0.150000005960464478 0.0234019234776496887
0.0385924652218818665 0.150000005960464478 0.0104036852717399597
0.14617021381855011 0.150000005960464478 0.087502308189868927
0.148684561252593994 0.150000005960464478 0.00862015224993228912
0.108964003622531891 0.150000005960464478 0.0400102622807025909
0.149715527892112732 0.150000005960464478 0.0284533873200416565
0.0588773414492607117 0.150000005960464478 0.0337645187973976135
0.0856743529438972473 0.150000005960464478 0.0385655313730239868
0.123771458864212036 0.150000005960464478 0.0184202883392572403
0.118124313652515411 0.150000005960464478 0.00190198607742786407
0.12196698784828186 0.150000005960464478 0.0651306509971618652
0.146501898765563965 0.150000005960464478 0.0695481821894645691
0.132715195417404175 0.150000005960464478 0.0626620426774024963
0.146222993731498718 0.150000005960464478 0.086187802255153656
0.0769727379083633423 0.150000005960464478 0.034158710390329361
0.0340863019227981567 0.150000005960464478 0.000949628651142120361
0.0554554760456085205 0.150000005960464478 0.0161912813782691956
0.0842447876930236816 0.150000005960464478 0.0197900943458080292
0.114087723195552826 0.150000005960464478 0.035900019109249115
0.110127106308937073 0.150000005960464478 0.0364094376564025879
0.0327583029866218567 0.150000005960464478 0.00175695866346359253
0.0533420965075492859 0.150000005960464478 0.00319611281156539917
0.0583406388759613037 0.150000005960464478 0.0282182320952415466
0.148624837398529053 0.150000005960464478 0.0617953278124332428
0.119578942656517029 0.150000005960464478 0.0627391785383224487
0.110559053719043732 0.150000005960464478 0.0624592006206512451
0.0364542007446289062 0.150000005960464478 0.0151742398738861084
0.0847718119621276855 0.150000005960464478 0.0323021039366722107
0.0262821391224861145 0.150000005960464478 0.000244915485382080078
0.108482614159584045 0.150000005960464478 0.0605402514338493347
0.0493645742535591125 0.150000005960464478 0.0210952945053577423
0.108444757759571075 0.150000005960464478 0.0620958246290683746
0.0415065251290798187 0.150000005960464478 0.028222501277923584
0.106748536229133606 0.150000005960464478 0.0648699328303337097
0.089632079005241394 0.150000005960464478 0.0565455630421638489
0.0165679864585399628 0.150000005960464478 0.0828193202614784241
0.0286718253046274185 0.150000005960464478 0.0308772251009941101
0.00686960574239492416 0.150000005960464478 0.0116970688104629517
0.0102561842650175095 0.150000005960464478 0.037839885801076889
0.0558486320078372955 0.150000005960464478 0.0708189606666564941
0.00172531232237815857 0.150000005960464478 0.0359598509967327118
0.0851843133568763733 0.150000005960464478 0.0684647709131240845
0.0172408763319253922 0.150000005960464478 0.0231284722685813904
0.0756483525037765503 0.150000005960464478 0.0579524822533130646
0.102553442120552063 0.150000005960464478 0.0690886005759239197
0.00422013737261295319 0.150000005960464478 0.012335948646068573
0.12189793586730957 0.150000005960464478 0.0833117738366127014
0.0352989621460437775 0.150000005960464478 0.0365534350275993347
0.0325640179216861725 0.150000005960464478 0.0730726867914199829
0.00989357568323612213 0.150000005960464478 0.0674262121319770813
0.035123337060213089 0.150000005960464478 0.0524476580321788788
6.14874170423718169e-06 0.150000005960464478 0.0576660409569740295
0.0678411275148391724 0.150000005960464478 0.0860168188810348511
0.0256450735032558441 0.150000005960464478 0.0699318870902061462
0.0691132843494415283 0.150000005960464478 0.0605698749423027039
0.0646466463804244995 0.150000005960464478 0.0690919086337089539
0.0255500953644514084 0.150000005960464478 0.0678729861974716187
0.0432844497263431549 0.150000005960464478 0.0623619593679904938
0.0899294614791870117 0.150000005960464478 0.0686720907688140869
0.0514572225511074066 0.150000005960464478 0.0600132197141647339
0.0535186193883419037 0.150000005960464478 0.0643216148018836975
0.0122460341081023216 0.150000005960464478 0.0737924873828887939
0.0325149744749069214 0.150000005960464478 0.0879330039024353027
0.0241935066878795624 0.150000005960464478 0.0247918963432312012
0.00837920326739549637 0.150000005960464478 0.0716106444597244263
0.0163968540728092194 0.150000005960464478 0.0248749256134033203
0.103142142295837402 0.150000005960464478 0.0846858769655227661
0.0499393604695796967 0.150000005960464478 0.0852948948740959167
0.0412259325385093689 0.150000005960464478 0.078533366322517395
0.115257091820240021 0.150000005960464478 0.0774058476090431213
0.0737134590744972229 0.150000005960464478 0.0581222176551818848
0.0537725426256656647 0.150000005960464478 0.0707280561327934265
0.0146545683965086937 0.150000005960464478 0.0356132946908473969
0.00138173927552998066 0.150000005960464478 0.0662426650524139404
0.0940838232636451721 0.150000005960464478 0.0857839733362197876
0.0357704050838947296 0.150000005960464478 0.0526011474430561066
0.0660314932465553284 0.150000005960464478 0.0891225859522819519
0.0704201161861419678 0.150000005960464478 0.0687340646982192993
0.0717674940824508667 0.150000005960464478 0.0673081129789352417
0.0689414292573928833 0.150000005960464478 0.0784644335508346558
0.0223251134157180786 0.150000005960464478 0.0545890294015407562
0.00664184615015983582 0.150000005960464478 0.0892993509769439697
0.0907278656959533691 0.150000005960464478 0.0601355656981468201
0.0393391922116279602 0.150000005960464478 0.0482775270938873291
0.0295827910304069519 0.150000005960464478 0.025219261646270752
0.0325975082814693451 0.150000005960464478 0.0761630535125732422
0.0368327498435974121 0.150000005960464478 0.0552055947482585907
0.00643626833334565163 0.150000005960464478 0.0554504469037055969
0.0200979318469762802 0.150000005960464478 0.0872533917427062988
0.0245039183646440506 0.150000005960464478 0.0896467193961143494
0.0124969137832522392 0.150000005960464478 0.0241967365145683289
0.0444704107940196991 0.150000005960464478 0.0450473278760910034
0.0562161765992641449 0.150000005960464478 0.0870848745107650757
0.144405782222747803 0.150000005960464478 0.0873400866985321045
0.102064460515975952 0.150000005960464478 0.0659369975328445435
0.0433363355696201324 0.150000005960464478 0.0271678492426872253
0.0860543325543403625 0.150000005960464478 0.0737222433090209961
0.0400169938802719116 0.150000005960464478 0.0416856296360492706
0.0430928841233253479 0.150000005960464478 0.0309179462492465973
0.0716616213321685791 0.150000005960464478 0.0762127041816711426
0.092780090868473053 0.150000005960464478 0.0656216517090797424
0.0989115610718727112 0.150000005960464478 0.0897386670112609863
0.0241514574736356735 0.150000005960464478 0.0629688501358032227
0.0841156318783760071 0.150000005960464478 0.0631218478083610535
0.0469364970922470093 0.150000005960464478 0.0847461670637130737
0.0728880316019058228 0.150000005960464478 0.0454835407435894012
0.0251096822321414948 0.150000005960464478 0.0668175369501113892
0.0260752364993095398 0.150000005960464478 0.0336624272167682648
0.110664039850234985 0.150000005960464478 0.0852499231696128845
0.0452127419412136078 0.150000005960464478 0.0765473991632461548
0.112489260733127594 0.150000005960464478 0.0797086730599403381
0.041736304759979248 0.150000005960464478 0.0826322510838508606
0.0450834296643733978 0.150000005960464478 0.07534809410572052
0.109155096113681793 0.150000005960464478 0.0744820088148117065
0.00929380208253860474 0.150000005960464478 0.0548895709216594696
0.0912159085273742676 0.150000005960464478 0.0892471820116043091
0.137596115469932556 0.150000005960464478 0.0891278907656669617
0.0220023132860660553 0.150000005960464478 0.0275320932269096375
0.0254932381212711334 0.150000005960464478 0.0649903863668441772
0.0133484192192554474 0.150000005960464478 0.0761069506406784058
0.137679293751716614 0.150000005960464478 0.0857935771346092224
0.0776827186346054077 0.150000005960464478 0.079438135027885437
0.0432187914848327637 0.150000005960464478 0.0451194122433662415
0.0477527491748332977 0.150000005960464478 0.0583539791405200958
0.0733867213129997253 0.150000005960464478 0.0761495083570480347
0.0333465598523616791 0.150000005960464478 0.0352380797266960144
0.0529056452214717865 0.150000005960464478 0.07543143630027771
0.000287556351395323873 0.150000005960464478 0.0326207168400287628
0.0138381235301494598 0.150000005960464478 0.0139859914779663086
0.0569297783076763153 0.150000005960464478 0.0714901834726333618
0.0931309163570404053 0.150000005960464478 0.088908560574054718
0.0267311334609985352 0.150000005960464478 0.0702129751443862915
0.0512388758361339569 0.150000005960464478 0.0669071823358535767
0.118397735059261322 0.150000005960464478 0.0714572668075561523
0.0730934739112854004 0.150000005960464478 0.0541805922985076904
0.0510906912386417389 0.150000005960464478 0.0574650876224040985
0.010639827698469162 0.150000005960464478 0.0548217929899692535
0.108261227607727051 0.150000005960464478 0.069914795458316803
0.0919823721051216125 0.150000005960464478 0.0754705145955085754
0.0192731171846389771 0.150000005960464478 0.0329327471554279327
0.000491765502374619246 0.150000005960464478 0.0671986490488052368
0.0524847544729709625 0.150000005960464478 0.0649743601679801941
0.109967745840549469 0.150000005960464478 0.0708926916122436523
0.0677243471145629883 0.150000005960464478 0.0659955292940139771
0.0946433618664741516 0.150000005960464478 0.0826926305890083313
0.0991173908114433289 0.150000005960464478 0.0782866477966308594
0.0156111866235733032 0.150000005960464478 0.0435050018131732941
0.0812839418649673462 0.150000005960464478 0.0723433643579483032
0.116639181971549988 0.150000005960464478 0.0777474194765090942
0.0880189463496208191 0.150000005960464478 0.069199100136756897
0.0719995126128196716 0.150000005960464478 0.0746984481811523438
0.0120406253263354301 0.150000005960464478 0.0363458544015884399
0.04672202467918396 0.150000005960464478 0.0599976778030395508
0.0146116418763995171 0.150000005960464478 0.0331799834966659546
0.000514590763486921787 0.150000005960464478 0.013259589672088623
0.0839787870645523071 0.150000005960464478 0.0686817914247512817
0.0125986356288194656 0.150000005960464478 0.0675725042819976807
0.12263227254152298 0.150000005960464478 0.0747296586632728577
0.114500276744365692 0.150000005960464478 0.0738655179738998413
0.0408725738525390625 0.150000005960464478 0.0620119906961917877
0.0170280393213033676 0.150000005960464478 0.0152115821838378906
0.0402262471616268158 0.150000005960464478 0.0725748166441917419
0.138310730457305908 0.150000005960464478 0.0872099250555038452
0.0382177531719207764 0.150000005960464478 0.0298535563051700592
0.0452783331274986267 0.150000005960464478 0.0460084900259971619
0.00695187970995903015 0.150000005960464478 0.0196549892425537109
0.0455525480210781097 0.150000005960464478 0.0314282439649105072
0.00712334178388118744 0.150000005960464478 0.0809954851865768433
0.00699626421555876732 0.150000005960464478 0.0476476773619651794
0.000359521829523146152 0.150000005960464478 0.0789313241839408875
0.0571617931127548218 0.150000005960464478 0.0433450192213058472
0.132697880268096924 0.150000005960464478 0.089792206883430481
0.031993083655834198 0.150000005960464478 0.0515309646725654602
0.0419241860508918762 0.150000005960464478 0.0754922851920127869
0.0544335171580314636 0.150000005960464478 0.05129975825548172
0.0279726292937994003 0.150000005960464478 0.0504461489617824554
0.0258864089846611023 0.150000005960464478 0.0509803816676139832
0.0403118319809436798 0.150000005960464478 0.0649220719933509827
0.0145110739395022392 0.150000005960464478 0.0561454854905605316
0.134815707802772522 0.150000005960464478 0.0897209122776985168
0.09736672043800354 0.150000005960464478 0.0749196112155914307
0.14203701913356781 0.150000005960464478 0.0878148898482322693
0.0666607916355133057 0.150000005960464478 0.0629067346453666687
0.125479310750961304 0.150000005960464478 0.0759110599756240845
0.00781275331974029541 0.150000005960464478 0.0864162296056747437
0.106382913887500763 0.150000005960464478 0.0649046972393989563
0.0322008989751338959 0.150000005960464478 0.0699956715106964111
0.0064133666455745697 0.150000005960464478 0.0308792665600776672
0.0100487051531672478 0.150000005960464478 0.0445051342248916626
0.0535088293254375458 0.150000005960464478 0.0346002355217933655
0.0975559428334236145 0.150000005960464478 0.0856113433837890625
0.066899225115776062 0.150000005960464478 0.0645135641098022461
0.0166429057717323303 0.150000005960464478 0.0504628419876098633
0.0321565382182598114 0.150000005960464478 0.0893351957201957703
0.0171904824674129486 0.150000005960464478 0.0106104239821434021
0.0129076270386576653 0.150000005960464478 0.0262024253606796265
0.134425193071365356 0.150000005960464478 0.0807071328163146973
0.0458670444786548615 0.150000005960464478 0.0764727890491485596
0.00323404534719884396 0.150000005960464478 0.0886519402265548706
0.0438763722777366638 0.150000005960464478 0.0344859994947910309
0.069727577269077301 0.150000005960464478 0.0731320977210998535
0.0104125626385211945 0.150000005960464478 0.0861461162567138672
0.0713951364159584045 0.150000005960464478 0.0748542100191116333
0.103391796350479126 0.150000005960464478 0.0648742467164993286
0.0469129867851734161 0.150000005960464478 0.0335043109953403473
0.0526175312697887421 0.150000005960464478 0.0671295449137687683
0.0185994505882263184 0.150000005960464478 0.0481011681258678436
0.0183056388050317764 0.150000005960464478 0.0570442192256450653
0.0506915263831615448 0.150000005960464478 0.0733961388468742371
0.0294232331216335297 0.150000005960464478 0.0678694546222686768
0.0252289939671754837 0.150000005960464478 0.050703875720500946
0.0215221196413040161 0.150000005960464478 0.0801753699779510498
0.128399655222892761 0.150000005960464478 0.0776775851845741272
0.0740121379494667053 0.150000005960464478 0.0526310056447982788
0.0619533546268939972 0.150000005960464478 0.0773871839046478271
0.140266329050064087 0.150000005960464478 0.0883114859461784363
0.059922240674495697 0.150000005960464478 0.0773289129137992859
0.0521214641630649567 0.150000005960464478 0.0441029109060764313
0.0109779257327318192 0.150000005960464478 0.0643591731786727905
0.0162579063326120377 0.150000005960464478 0.0418718494474887848
0.0136106954887509346 0.150000005960464478 0.0233888179063796997
0.0270204562693834305 0.150000005960464478 0.0757547542452812195
0.0605151578783988953 0.150000005960464478 0.0569324716925621033
0.0212608855217695236 0.150000005960464478 0.0482067801058292389
0.0494365803897380829 0.150000005960464478 0.0379318110644817352
0.0421286523342132568 0.150000005960464478 0.0572834908962249756
0.00785589404404163361 0.150000005960464478 0.0858073011040687561
0.0020803455263376236 0.150000005960464478 0.00421529263257980347
0.0571207664906978607 0.150000005960464478 0.0869598910212516785
0.0521048009395599365 0.150000005960464478 0.0341992378234863281
0.0178741421550512314 0.150000005960464478 0.0501426719129085541
0.0175172984600067139 0.150000005960464478 0.0613916218280792236
0.104233071208000183 0.150000005960464478 0.0762416869401931763
0.0560204870998859406 0.150000005960464478 0.087308935821056366
0.0742930546402931213 0.150000005960464478 0.0776050686836242676
0.0257009956985712051 0.150000005960464478 0.0750666186213493347
0.0237166788429021835 0.150000005960464478 0.0408475026488304138
0.0419077128171920776 0.150000005960464478 0.0257673636078834534
0.0599006302654743195 0.150000005960464478 0.0668187141418457031
0.0362247154116630554 0.150000005960464478 0.0326691418886184692
0.0622416399419307709 0.150000005960464478 0.0394895896315574646
0.0878059267997741699 0.150000005960464478 0.0788531899452209473
0.0923837572336196899 0.150000005960464478 0.0806062519550323486
0.0640411749482154846 0.150000005960464478 0.0561514832079410553
0.0685950964689254761 0.150000005960464478 0.0644718781113624573
0.0354202650487422943 0.150000005960464478 0.0824148505926132202
0.00140283955261111259 0.150000005960464478 0.089742712676525116
0.058318696916103363 0.150000005960464478 0.0384416505694389343
0.0148378452286124229 0.150000005960464478 0.0256892964243888855
0.00464333081617951393 0.150000005960464478 0.0295796990394592285
0.0134670799598097801 0.150000005960464478 0.062450014054775238
0.000544998969417065382 0.150000005960464478 0.00466477870941162109
0.00278285425156354904 0.150000005960464478 0.0840218812227249146
0.0243956279009580612 0.150000005960464478 0.0391419269144535065
0.099681362509727478 0.150000005960464478 0.0802727043628692627
0.0447182245552539825 0.150000005960464478 0.0875045657157897949
0.00457447487860918045 0.150000005960464478 0.0125998854637145996
0.113323703408241272 0.150000005960464478 0.07398252934217453
0.00510411988943815231 0.150000005960464478 0.0215295478701591492
0.0338230915367603302 0.150000005960464478 0.0468395352363586426
0.0775746479630470276 0.150000005960464478 0.0647199228405952454
0.0803614631295204163 0.150000005960464478 0.0623762942850589752
0.0255610086023807526 0.150000005960464478 0.073232404887676239
0.028036508709192276 0.150000005960464478 0.0788918361067771912
0.10067255049943924 0.150000005960464478 0.0699920281767845154
0.0123303569853305817 0.150000005960464478 0.0504038445651531219
0.0557720363140106201 0.150000005960464478 0.0853032916784286499
0.0581561215221881866 0.150000005960464478 0.0836421772837638855
0.0136857070028781891 0.150000005960464478 0.0437455102801322937
0.0934608504176139832 0.150000005960464478 0.0814348384737968445
0.00519000273197889328 0.150000005960464478 0.0473519526422023773
0.0178718920797109604 0.150000005960464478 0.0662235915660858154
0.0524295978248119354 0.150000005960464478 0.0511556155979633331
0.0259699132293462753 0.150000005960464478 0.0200627222657203674
0.00930934585630893707 0.150000005960464478 0.0420513413846492767
0.134053528308868408 0.150000005960464478 0.0844107866287231445
0.0239368192851543427 0.150000005960464478 0.0328761711716651917
0.0943956226110458374 0.150000005960464478 0.0589467622339725494
0.132019653916358948 0.150000005960464478 0.0818762481212615967
0.0388756617903709412 0.150000005960464478 0.0854279622435569763
0.0283097140491008759 0.150000005960464478 0.0775399059057235718
0.00342686101794242859 0.150000005960464478 0.0573558956384658813
0.00656487559899687767 0.150000005960464478 0.0465200990438461304
0.0609794445335865021 0.150000005960464478 0.0496240295469760895
0.108922652900218964 0.150000005960464478 0.0869047939777374268
0.0456737950444221497 0.150000005960464478 0.0456530451774597168
0.134826451539993286 0.150000005960464478 0.0823990851640701294
0.0736647844314575195 0.150000005960464478 0.0740715563297271729
0.0011742996284738183 0.150000005960464478 0.0573527067899703979
0.0837038755416870117 0.150000005960464478 0.0865482687950134277
0.0514282174408435822 0.150000005960464478 0.0853096321225166321
0.0603880919516086578 0.150000005960464478 0.0512054413557052612
0.0442747175693511963 0.150000005960464478 0.0528846196830272675
0.0132424645125865936 0.150000005960464478 0.0730231106281280518
0.0739525258541107178 0.150000005960464478 0.0650941282510757446
0.0394441820681095123 0.150000005960464478 0.0770786330103874207
0.0320334620773792267 0.150000005960464478 0.0421646162867546082
0.0928350314497947693 0.150000005960464478 0.0629148557782173157
0.0338112786412239075 0.150000005960464478 0.0595333240926265717
0.0547499507665634155 0.150000005960464478 0.0829560980200767517
0.0511356964707374573 0.150000005960464478 0.0744496509432792664
0.0801872313022613525 0.150000005960464478 0.0747375860810279846
0.0280644800513982773 0.150000005960464478 0.0322099961340427399
0.0837670862674713135 0.150000005960464478 0.0590798333287239075
0.0303101632744073868 0.150000005960464478 0.0732924118638038635
0.0335663966834545135 0.150000005960464478 0.085125364363193512
0.043789152055978775 0.150000005960464478 0.047597736120223999
0.0675892233848571777 0.150000005960464478 0.0527511835098266602
0.0368843302130699158 0.150000005960464478 0.048343174159526825
0.0635849162936210632 0.150000005960464478 0.0527029968798160553
0.0717631801962852478 0.150000005960464478 0.0731762945652008057
0.00786543544381856918 0.150000005960464478 0.0545455105602741241
0.0736951380968093872 0.150000005960464478 0.0472827963531017303
0.00587674695998430252 0.150000005960464478 0.0746298879384994507
0.062946617603302002 0.150000005960464478 0.050864044576883316
0.0198674965649843216 0.150000005960464478 0.0168728232383728027
0.0591765865683555603 0.150000005960464478 0.0880228132009506226
0.0541404299437999725 0.150000005960464478 0.0557263195514678955
0.00238296994939446449 0.150000005960464478 0.0631338059902191162
0.0317352339625358582 0.150000005960464478 0.0849717706441879272
0.0934990942478179932 0.150000005960464478 0.0864342525601387024
0.0618662275373935699 0.150000005960464478 0.053210873156785965
0.0885059460997581482 0.150000005960464478 0.0563553124666213989
0.00986994709819555283 0.150000005960464478 0.0125233903527259827
0.00518559152260422707 0.150000005960464478 0.0508919507265090942
0.0586608462035655975 0.150000005960464478 0.0845126360654830933
0.0600889585912227631 0.150000005960464478 0.081917397677898407
0.0316520519554615021 0.150000005960464478 0.0380260907113552094
0.00107786338776350021 0.150000005960464478 0.0731968134641647339
0.0255979392677545547 0.150000005960464478 0.0609407201409339905
0.137976959347724915 0.150000005960464478 0.086666591465473175
0.103036262094974518 0.150000005960464478 0.0879197046160697937
0.0401168093085289001 0.150000005960464478 0.043295934796333313
0.0974633991718292236 0.150000005960464478 0.0662734657526016235
0.00296386540867388248 0.150000005960464478 0.00215414166450500488
0.122542604804039001 0.150000005960464478 0.0744947642087936401
0.0780881717801094055 0.150000005960464478 0.0772195532917976379
0.0281400009989738464 0.150000005960464478 0.0210606157779693604
0.0519805289804935455 0.150000005960464478 0.0535379089415073395
0.0420096628367900848 0.150000005960464478 0.0418403446674346924
0.0457784831523895264 0.150000005960464478 0.0354753807187080383
0.00067528081126511097 0.150000005960464478 0.0687426105141639709
0.0722997486591339111 0.150000005960464478 0.0516215451061725616
0.0141090648248791695 0.150000005960464478 0.010983102023601532
0.0878640562295913696 0.150000005960464478 0.0538206733763217926
0.113222897052764893 0.150000005960464478 0.0776834785938262939
0.00737193040549755096 0.150000005960464478 0.047219596803188324
0.00304715870879590511 0.150000005960464478 0.0278851427137851715
0.0334865935146808624 0.150000005960464478 0.075602799654006958
0.00235737115144729614 0.150000005960464478 0.0637876987457275391
0.042905610054731369 0.150000005960464478 0.0749364197254180908
0.0388341136276721954 0.150000005960464478 0.0699758455157279968
0.0123798958957195282 0.150000005960464478 0.0865192562341690063
0.0887687951326370239 0.150000005960464478 0.0828662365674972534
0.0648158863186836243 0.150000005960464478 0.0674209967255592346
0.0105069717392325401 0.150000005960464478 0.0319497883319854736
0.0598546713590621948 0.150000005960464478 0.0610670894384384155
0.0764292776584625244 0.150000005960464478 0.0731567144393920898
0.090733654797077179 0.150000005960464478 0.0808905959129333496
0.0351052060723304749 0.150000005960464478 0.0574681311845779419
0.056562129408121109 0.150000005960464478 0.0815009325742721558
0.0711939632892608643 0.150000005960464478 0.0813229382038116455
0.0508147887885570526 0.150000005960464478 0.0412811711430549622
0.0626602619886398315 0.150000005960464478 0.089871726930141449
0.0654881373047828674 0.150000005960464478 0.0417147986590862274
0.0187933873385190964 0.150000005960464478 0.0644749850034713745
0.0541955344378948212 0.150000005960464478 0.0776799619197845459
0.0851053893566131592 0.150000005960464478 0.0528430156409740448
0.0277091134339570999 0.150000005960464478 0.0584043785929679871
0.0108978971838951111 0.150000005960464478 0.0442429147660732269
0.0364701338112354279 0.150000005960464478 0.0591867752373218536
0.0162774082273244858 0.150000005960464478 0.0260083675384521484
0.0652956664562225342 0.150000005960464478 0.0892608687281608582
6.68002976453863084e-05 0.150000005960464478 0.0358865112066268921
0.00765825062990188599 0.150000005960464478 0.0310349762439727783
0.00412635225802659988 0.150000005960464478 0.00831135362386703491
0.00668611936271190643 0.150000005960464478 0.0843367874622344971
0.0870209336280822754 0.150000005960464478 0.0784216299653053284
0.0812071710824966431 0.150000005960464478 0.0551460832357406616
0.0970628112554550171 0.150000005960464478 0.0616365596652030945
0.0134395835921168327 0.150000005960464478 0.0671212822198867798
0.0904050096869468689 0.150000005960464478 0.0705882608890533447
0.0807579830288887024 0.150000005960464478 0.0573790073394775391
0.0726618245244026184 0.150000005960464478 0.0664433836936950684
0.0440322943031787872 0.150000005960464478 0.06793232262134552
0.0249710176140069962 0.150000005960464478 0.0223368182778358459
0.0230880118906497955 0.150000005960464478 0.0222779437899589539
0.044603053480386734 0.150000005960464478 0.0709320530295372009
0.0740890949964523315 0.150000005960464478 0.0783601924777030945
0.0575750954449176788 0.150000005960464478 0.0450815856456756592
0.0941807404160499573 0.150000005960464478 0.0832752957940101624
0.0367707498371601105 0.150000005960464478 0.0731573477387428284
0.082213275134563446 0.150000005960464478 0.0673951655626296997
0.0662858188152313232 0.150000005960464478 0.0740408673882484436
0.10700669139623642 0.150000005960464478 0.0875195935368537903
0.0807842612266540527 0.150000005960464478 0.0537031739950180054
0.0341216102242469788 0.150000005960464478 0.0590173825621604919
0.0518269985914230347 0.150000005960464478 0.069302193820476532
0.00547589734196662903 0.150000005960464478 0.0667783766984939575
0.0944121554493904114 0.150000005960464478 0.0870962664484977722
0.026510726660490036 0.150000005960464478 0.071252085268497467
0.123308464884757996 0.150000005960464478 0.087330549955368042
0.118406973779201508 0.150000005960464478 0.0807767212390899658
0.0782191082835197449 0.150000005960464478 0.0813993066549301147
0.0330196432769298553 0.150000005960464478 0.0485240481793880463
0.0794208720326423645 0.150000005960464478 0.0724500268697738647
0.0834804773330688477 0.150000005960464478 0.0613264888525009155
0.00190755666699260473 0.150000005960464478 0.0766828656196594238
0.113982200622558594 0.150000005960464478 0.0868224725127220154
0.101868182420730591 0.150000005960464478 0.0664367005228996277
0.0824773013591766357 0.150000005960464478 0.0861424952745437622
0.0535504408180713654 0.150000005960464478 0.0572609715163707733
0.0396476760506629944 0.150000005960464478 0.0529801435768604279
0.0339488312602043152 0.150000005960464478 0.0255619063973426819
0.0680885836482048035 0.150000005960464478 0.0607148967683315277
0.00535197276622056961 0.150000005960464478 0.0677784010767936707
0.0186047963798046112 0.150000005960464478 0.0164030566811561584
0.105701044201850891 0.150000005960464478 0.0788896158337593079
0.0697767436504364014 0.150000005960464478 0.0714057683944702148
0.0529000312089920044 0.150000005960464478 0.0638498514890670776
0.0131230531260371208 0.150000005960464478 0.0808276087045669556
0.0199507270008325577 0.150000005960464478 0.0272658243775367737
0.0835209041833877563 0.150000005960464478 0.0626989156007766724
0.0375326648354530334 0.150000005960464478 0.0313591919839382172
0.0745868608355522156 0.150000005960464478 0.0608036965131759644
0.141221031546592712 0.150000005960464478 0.0887205749750137329
0.0332032181322574615 0.150000005960464478 0.0822919607162475586
0.00603416701778769493 0.150000005960464478 0.0796954110264778137
0.0398971997201442719 0.150000005960464478 0.0336166992783546448
0.032696649432182312 0.150000005960464478 0.025514647364616394
0.0028934963047504425 0.150000005960464478 0.0696609318256378174
0.00573579687625169754 0.150000005960464478 0.0770884454250335693
0.0214925408363342285 0.150000005960464478 0.0603396818041801453
0.0321589745581150055 0.150000005960464478 0.0637151673436164856
0.0153896352276206017 0.150000005960464478 0.0429577045142650604
0.0547221638262271881 0.150000005960464478 0.0529231950640678406
0.118769973516464233 0.150000005960464478 0.0755893886089324951
0.00902607198804616928 0.150000005960464478 0.0126051083207130432
0.0642049908638000488 0.150000005960464478 0.0662587583065032959
0.0535884425044059753 0.150000005960464478 0.0793814957141876221
0.128941178321838379 0.150000005960464478 0.0833928883075714111
0.0761404260993003845 0.150000005960464478 0.082940809428691864
0.0342306233942508698 0.150000005960464478 0.0267011150717735291
0.0708304569125175476 0.150000005960464478 0.0669734552502632141
0.0720160305500030518 0.150000005960464478 0.069707043468952179
0.0517228804528713226 0.150000005960464478 0.088894382119178772
0.0336748436093330383 0.150000005960464478 0.0290828719735145569
0.0824257135391235352 0.150000005960464478 0.0495421737432479858
0.0535160638391971588 0.150000005960464478 0.0414237529039382935
0.10683751106262207 0.150000005960464478 0.064812883734703064
0.0693773180246353149 0.150000005960464478 0.0694274455308914185
0.0169618669897317886 0.150000005960464478 0.0529902651906013489
0.0269933678209781647 0.150000005960464478 0.0541720539331436157
0.0297902394086122513 0.150000005960464478 0.0865830928087234497
0.065575920045375824 0.150000005960464478 0.0650614053010940552
0.006756580900400877 0.150000005960464478 0.0675896406173706055
0.0574736297130584717 0.150000005960464478 0.0769778341054916382
0.0282074771821498871 0.150000005960464478 0.0402687825262546539
0.0946141928434371948 0.150000005960464478 0.0666628852486610413
0.060820702463388443 0.150000005960464478 0.037122875452041626
0.0034428874496370554 0.150000005960464478 0.012239500880241394
0.0486304797232151031 0.150000005960464478 0.0428576357662677765
0.0314993709325790405 0.150000005960464478 0.0689947530627250671
0.08403034508228302 0.150000005960464478 0.0639174431562423706
0.0538820512592792511 0.150000005960464478 0.0776290595531463623
0.0171297956258058548 0.150000005960464478 0.0369140803813934326
0.0429601520299911499 0.150000005960464478 0.0625750571489334106
0.0169953592121601105 0.150000005960464478 0.0110092312097549438
0.00368002965115010738 0.150000005960464478 0.0544935129582881927
0.0515547357499599457 0.150000005960464478 0.0726302117109298706
0.058151785284280777 0.150000005960464478 0.0465981326997280121
0.0451832637190818787 0.150000005960464478 0.0564424246549606323
0.0632344856858253479 0.150000005960464478 0.0476994588971138
0.0231238603591918945 0.150000005960464478 0.0176232457160949707
0.00176037591882050037 0.150000005960464478 0.0633565187454223633
0.0905868932604789734 0.150000005960464478 0.0629619285464286804
0.0499922260642051697 0.150000005960464478 0.061122499406337738
0.00327433389611542225 0.150000005960464478 0.0284508317708969116
0.0537987463176250458 0.150000005960464478 0.0360884815454483032
0.0231411661952733994 0.150000005960464478 0.0567131489515304565
0.0620935112237930298 0.150000005960464478 0.0435631684958934784
0.0736525356769561768 0.150000005960464478 0.0784226879477500916
0.0498108305037021637 0.150000005960464478 0.0690470337867736816
0.0604401305317878723 0.150000005960464478 0.0556203201413154602
0.0406062453985214233 0.150000005960464478 0.0602858103811740875
0.0324728004634380341 0.150000005960464478 0.0701213926076889038
0.116348110139369965 0.150000005960464478 0.0865199938416481018
0.0346651561558246613 0.150000005960464478 0.0470087267458438873
0.10475756973028183 0.150000005960464478 0.0821314156055450439
0.133838728070259094 0.150000005960464478 0.084471583366394043
0.075350441038608551 0.150000005960464478 0.0644080117344856262
0.00178774690721184015 0.150000005960464478 0.0776785612106323242
0.0331585593521595001 0.150000005960464478 0.0456843413412570953
0.0290797650814056396 0.150000005960464478 0.0421832464635372162
0.101157329976558685 0.150000005960464478 0.0736668705940246582
0.0731913968920707703 0.150000005960464478 0.0586182624101638794
0.0723598301410675049 0.150000005960464478 0.0843474119901657104
0.0298581346869468689 0.150000005960464478 0.0877714678645133972
0.0100856553763151169 0.150000005960464478 0.0305503308773040771
0.0112913064658641815 0.150000005960464478 0.0601013526320457458
0.0504943616688251495 0.150000005960464478 0.0665412396192550659
0.0770031288266181946 0.150000005960464478 0.0784168019890785217
0.0465379245579242706 0.150000005960464478 0.0385930463671684265
0.0143187856301665306 0.150000005960464478 0.0392582938075065613
0.0306581594049930573 0.150000005960464478 0.0805389359593391418
0.125181734561920166 0.150000005960464478 0.0811002105474472046
0.0520731322467327118 0.150000005960464478 0.0521734096109867096
0.10055030882358551 0.150000005960464478 0.0874767675995826721
0.0863660573959350586 0.150000005960464478 0.0529378056526184082
0.0144559526816010475 0.150000005960464478 0.0370861664414405823
0.0138089712709188461 0.150000005960464478 0.022184714674949646
0.012014913372695446 0.150000005960464478 0.0118120089173316956
0.143836721777915955 0.150000005960464478 0.0887450724840164185
0.0749201327562332153 0.150000005960464478 0.0889291241765022278
0.00626073544844985008 0.150000005960464478 0.0157090574502944946
0.0303227435797452927 0.150000005960464478 0.0738233551383018494
0.0349260568618774414 0.150000005960464478 0.0216461643576622009
0.0647569671273231506 0.150000005960464478 0.0749697089195251465
0.00468263449147343636 0.150000005960464478 0.0555010959506034851
0.109339728951454163 0.150000005960464478 0.0675041228532791138
0.00901921186596155167 0.150000005960464478 0.0315075814723968506
0.0919071808457374573 0.150000005960464478 0.0768616050481796265
0.0664511397480964661 0.150000005960464478 0.0812067911028862
0.00591744668781757355 0.150000005960464478 0.0365171059966087341
0.0819590315222740173 0.150000005960464478 0.0544419512152671814
0.0747403129935264587 0.150000005960464478 0.0513508319854736328
0.0617987699806690216 0.150000005960464478 0.0544150508940219879
0.0420494005084037781 0.150000005960464478 0.0544933341443538666
0.0142686432227492332 0.150000005960464478 0.0721707791090011597
0.0369506962597370148 0.150000005960464478 0.089928850531578064
0.0642689764499664307 0.150000005960464478 0.0842393562197685242
0.0799644738435745239 0.150000005960464478 0.060293935239315033
0.0372141823172569275 0.150000005960464478 0.0237821862101554871
0.00140071997884660959 0.150000005960464478 0.0602967254817485809
0.00840162858366966248 0.150000005960464478 0.0374857299029827118
0.102883204817771912 0.150000005960464478 0.0854516252875328064
0.0223516300320625305 0.150000005960464478 0.0821701362729072571
0.0155771374702453613 0.150000005960464478 0.0380765534937381744
0.00509167741984128952 0.150000005960464478 0.0356722921133041382
0.0202153027057647705 0.150000005960464478 0.0513408556580543518
0.0280254129320383072 0.150000005960464478 0.0256137102842330933
0.0267886091023683548 0.150000005960464478 0.0808823034167289734
0.0339940972626209259 0.150000005960464478 0.0570935942232608795
0.0417040735483169556 0.150000005960464478 0.0250929594039916992
0.0041580800898373127 0.150000005960464478 0.0659896880388259888
0.0453986078500747681 0.150000005960464478 0.0578062832355499268
0.0539353638887405396 0.150000005960464478 0.0548649132251739502
0.114728592336177826 0.150000005960464478 0.074015691876411438
0.0227141957730054855 0.150000005960464478 0.0418161861598491669
0.0414331331849098206 0.150000005960464478 0.0437353849411010742
0.0080937650054693222 0.150000005960464478 0.0345169343054294586
0.120970912277698517 0.150000005960464478 0.0793386548757553101
0.0145754097029566765 0.150000005960464478 0.0192860662937164307
0.0783613994717597961 0.150000005960464478 0.0595341697335243225
0.00136651936918497086 0.150000005960464478 0.00306888669729232788
0.128892645239830017 0.150000005960464478 0.0845576971769332886
0.0742651969194412231 0.150000005960464478 0.0517089404165744781
0.131627395749092102 0.150000005960464478 0.0832149162888526917
0.0586460940539836884 0.150000005960464478 0.0401125773787498474
0.104115866124629974 0.150000005960464478 0.0739658921957015991
0.00820283032953739166 0.150000005960464478 0.075033232569694519
0.0741512402892112732 0.150000005960464478 0.0536995753645896912
0.101913005113601685 0.150000005960464478 0.0714013651013374329
0.120480962097644806 0.150000005960464478 0.0778721719980239868
0.0644932091236114502 0.150000005960464478 0.0560410134494304657
0.0279156733304262161 0.150000005960464478 0.0806767269968986511
0.0947175100445747375 0.150000005960464478 0.0860003083944320679
0.0539602376520633698 0.150000005960464478 0.0612995289266109467
0.0190894808620214462 0.150000005960464478 0.0331642404198646545
0.0618855021893978119 0.150000005960464478 0.0534329414367675781
0.0164755452424287796 0.150000005960464478 0.0101231858134269714
0.0189544986933469772 0.150000005960464478 0.0206753388047218323
0.0828116089105606079 0.150000005960464478 0.0520948730409145355
0.00802226364612579346 0.150000005960464478 0.0301920473575592041
0.0109848752617835999 0.150000005960464478 0.0568385571241378784
0.0572423748672008514 0.150000005960464478 0.0601599514484405518
0.0424538701772689819 0.150000005960464478 0.0367555506527423859
0.0667235702276229858 0.150000005960464478 0.0636782795190811157
0.0451417788863182068 0.150000005960464478 0.0601763427257537842
0.0757004693150520325 0.150000005960464478 0.0884449481964111328
0.0801567286252975464 0.150000005960464478 0.0648910999298095703
0.11911311000585556 0.150000005960464478 0.0777124613523483276
0.0102355415001511574 0.150000005960464478 0.0102821290493011475
0.0514863058924674988 0.150000005960464478 0.0359012782573699951
0.104281552135944366 0.150000005960464478 0.069935336709022522
0.0460114143788814545 0.150000005960464478 0.044885680079460144
0.0694468468427658081 0.150000005960464478 0.0691919401288032532
0.0957737788558006287 0.150000005960464478 0.0782062336802482605
0.0847226232290267944 0.150000005960464478 0.0805497840046882629
