ply
format ascii 1.0
element vertex 728
property float x
property float y
property float z
end_header
0.103484846651554108 9.49240686054508842e-15 0.262431979179382324
0.48340258002281189 9.49240686054508842e-15 0.0694581568241119385
0.382382392883300781 9.49240686054508842e-15 0.254794925451278687
0.638009846210479736 9.49240686054508842e-15 0.461614727973937988
0.0422261804342269897 9.49240686054508842e-15 0.367131561040878296
0.459760457277297974 9.49240686054508842e-15 0.619874119758605957
1.65105521678924561 9.49240686054508842e-15 0.188038796186447144
2.25759005546569824 9.49240686054508842e-15 0.0792524814605712891
2.10415816307067871 9.49240686054508842e-15 0.1213226318359375
0.0297271106392145157 9.49240686054508842e-15 0.605926096439361572
0.744390487670898438 9.49240686054508842e-15 0.0887564271688461304
0.874693155288696289 9.49240686054508842e-15 0.0363149940967559814
1.18147909641265869 9.49240686054508842e-15 0.0812595784664154053
0.22747194766998291 9.49240686054508842e-15 0.151913881301879883
1.16453027725219727 9.49240686054508842e-15 0.297844588756561279
1.47448647022247314 9.49240686054508842e-15 0.230278283357620239
0.145507439970970154 9.49240686054508842e-15 0.451659053564071655
0.377405494451522827 9.49240686054508842e-15 0.294985592365264893
1.79005515575408936 9.49240686054508842e-15 0.0657759308815002441
0.99723583459854126 9.49240686054508842e-15 0.200108170509338379
1.91882693767547607 9.49240686054508842e-15 0.207564055919647217
1.75768899917602539 9.49240686054508842e-15 0.00638377666473388672
0.626304686069488525 9.49240686054508842e-15 0.127311959862709045
1.14759421348571777 9.49240686054508842e-15 0.0127819180488586426
0.865908503532409668 9.49240686054508842e-15 0.207916289567947388
0.0164480004459619522 9.49240686054508842e-15 0.0191568471491336823
0.487615615129470825 9.49240686054508842e-15 0.156488314270973206
1.46951806545257568 9.49240686054508842e-15 0.0887760818004608154
0.227385416626930237 9.49240686054508842e-15 0.725859344005584717
0.644571185111999512 9.49240686054508842e-15 0.0156038105487823486
0.614497840404510498 9.49240686054508842e-15 0.320062637329101562
0.127438575029373169 9.49240686054508842e-15 0.0695128291845321655
1.42743492126464844 9.49240686054508842e-15 0.301845014095306396
0.121840387582778931 9.49240686054508842e-15 0.577489137649536133
0.210922911763191223 9.49240686054508842e-15 0.541603028774261475
1.01419579982757568 9.49240686054508842e-15 0.0596218407154083252
1.55810141563415527 9.49240686054508842e-15 0.0822481215000152588
1.39976489543914795 9.49240686054508842e-15 0.146435439586639404
1.59377777576446533 9.49240686054508842e-15 0.0707837939262390137
2.26926064491271973 9.49240686054508842e-15 0.0401095747947692871
1.32632029056549072 9.49240686054508842e-15 0.193642586469650269
1.02634072303771973 9.49240686054508842e-15 0.029101938009262085
0.582198977470397949 9.49240686054508842e-15 0.618143439292907715
0.933484077453613281 9.49240686054508842e-15 0.258314847946166992
1.98262381553649902 9.49240686054508842e-15 0.165426731109619141
1.16285550594329834 9.49240686054508842e-15 0.0123700201511383057
1.73330223560333252 9.49240686054508842e-15 0.211000919342041016
1.01492178440093994 9.49240686054508842e-15 0.38619762659072876
0.675695896148681641 9.49240686054508842e-15 0.431259810924530029
0.0639477595686912537 9.49240686054508842e-15 0.577158749103546143
0.266632139682769775 9.49240686054508842e-15 0.62449193000793457
1.33099102973937988 9.49240686054508842e-15 0.387362092733383179
1.5590813159942627 9.49240686054508842e-15 0.249268203973770142
1.01869475841522217 9.49240686054508842e-15 0.221722304821014404
0.849045753479003906 9.49240686054508842e-15 0.474847316741943359
0.752643287181854248 9.49240686054508842e-15 0.0101796835660934448
0.0189536437392234802 9.49240686054508842e-15 0.695493459701538086
0.220716997981071472 9.49240686054508842e-15 0.0678488239645957947
1.9896162748336792 9.49240686054508842e-15 0.0456115007400512695
1.30901193618774414 9.49240686054508842e-15 0.224291801452636719
0.0189284663647413254 9.49240686054508842e-15 0.56102597713470459
0.501847565174102783 9.49240686054508842e-15 0.186868235468864441
2.03687596321105957 9.49240686054508842e-15 0.158637046813964844
0.402667582035064697 9.49240686054508842e-15 0.479425728321075439
2.42784929275512695 9.49240686054508842e-15 5.63859939575195312e-05
0.474934279918670654 9.49240686054508842e-15 0.612661480903625488
0.767854213714599609 9.49240686054508842e-15 0.427791118621826172
1.4702993631362915 9.49240686054508842e-15 0.0250102579593658447
0.909784436225891113 9.49240686054508842e-15 0.469852924346923828
0.234807565808296204 9.49240686054508842e-15 0.48133811354637146
0.00325963669456541538 9.49240686054508842e-15 0.50374293327331543
1.59592962265014648 9.49240686054508842e-15 0.10061269998550415
1.06694149971008301 9.49240686054508842e-15 0.0292389094829559326
0.971940755844116211 9.49240686054508842e-15 0.382192522287368774
0.595525681972503662 9.49240686054508842e-15 0.255803346633911133
0.361563324928283691 9.49240686054508842e-15 0.0120652541518211365
1.43092989921569824 9.49240686054508842e-15 0.358595371246337891
0.561920344829559326 9.49240686054508842e-15 0.154412850737571716
1.17813289165496826 9.49240686054508842e-15 0.396561264991760254
0.209516361355781555 9.49240686054508842e-15 0.641716480255126953
1.69185245037078857 9.49240686054508842e-15 0.0772049427032470703
0.469402521848678589 9.49240686054508842e-15 0.44336169958114624
0.42821425199508667 9.49240686054508842e-15 0.385416537523269653
1.30776405334472656 9.49240686054508842e-15 0.0530659854412078857
0.0757849067449569702 9.49240686054508842e-15 0.0606407970190048218
0.545717418193817139 9.49240686054508842e-15 0.0572305172681808472
1.18052113056182861 9.49240686054508842e-15 0.0850538015365600586
1.16223037242889404 9.49240686054508842e-15 0.0375119149684906006
0.511035919189453125 9.49240686054508842e-15 0.406831324100494385
1.09592854976654053 9.49240686054508842e-15 0.152962297201156616
1.19995486736297607 9.49240686054508842e-15 0.349242419004440308
0.350432753562927246 9.49240686054508842e-15 0.581377983093261719
0.121912769973278046 9.49240686054508842e-15 0.0632751584053039551
0.110454685986042023 9.49240686054508842e-15 0.0664549767971038818
0.369457900524139404 9.49240686054508842e-15 0.526286184787750244
0.0898190140724182129 9.49240686054508842e-15 0.50226283073425293
0.796168923377990723 9.49240686054508842e-15 0.507546007633209229
1.54335737228393555 9.49240686054508842e-15 0.157330095767974854
0.316813141107559204 9.49240686054508842e-15 0.435143709182739258
0.831214249134063721 9.49240686054508842e-15 0.385283917188644409
0.104710102081298828 9.49240686054508842e-15 0.709803402423858643
0.977406203746795654 9.49240686054508842e-15 0.461539894342422485
0.0616328231990337372 9.49240686054508842e-15 0.611256778240203857
1.48132681846618652 9.49240686054508842e-15 0.0945879817008972168
1.2344059944152832 9.49240686054508842e-15 0.386944562196731567
1.53864681720733643 9.49240686054508842e-15 0.0669110715389251709
0.863307178020477295 9.49240686054508842e-15 0.478877097368240356
1.50034379959106445 9.49240686054508842e-15 0.141057401895523071
0.794910430908203125 9.49240686054508842e-15 0.397668063640594482
0.0579976402223110199 9.49240686054508842e-15 0.35737687349319458
2.19923067092895508 9.49240686054508842e-15 0.0975735187530517578
0.627382040023803711 9.49240686054508842e-15 0.392516553401947021
1.22004663944244385 9.49240686054508842e-15 0.167169272899627686
1.07329964637756348 9.49240686054508842e-15 0.182764053344726562
0.565769016742706299 9.49240686054508842e-15 0.336439669132232666
0.580420136451721191 9.49240686054508842e-15 0.0395634621381759644
0.945151329040527344 9.49240686054508842e-15 0.153216540813446045
1.24808287620544434 9.49240686054508842e-15 0.241669118404388428
1.53380668163299561 9.49240686054508842e-15 0.267396688461303711
0.522564589977264404 9.49240686054508842e-15 0.556760251522064209
0.359499096870422363 9.49240686054508842e-15 0.668553769588470459
0.162350505590438843 9.49240686054508842e-15 0.685985982418060303
1.11072444915771484 9.49240686054508842e-15 0.255835086107254028
0.581273794174194336 9.49240686054508842e-15 0.0453953146934509277
1.14615261554718018 9.49240686054508842e-15 0.406201571226119995
0.853976726531982422 9.49240686054508842e-15 0.426333844661712646
1.88423609733581543 9.49240686054508842e-15 0.043020784854888916
0.598368346691131592 9.49240686054508842e-15 0.430392950773239136
0.013517916202545166 9.49240686054508842e-15 0.620528519153594971
0.618449270725250244 9.49240686054508842e-15 0.557785868644714355
1.60988366603851318 9.49240686054508842e-15 0.242793083190917969
1.83388721942901611 9.49240686054508842e-15 0.115397810935974121
1.73097789287567139 9.49240686054508842e-15 0.0326218605041503906
0.47366023063659668 9.49240686054508842e-15 0.19974575936794281
0.981235384941101074 9.49240686054508842e-15 0.0512970089912414551
0.496373742818832397 9.49240686054508842e-15 0.119468778371810913
0.0228596124798059464 9.49240686054508842e-15 0.260774582624435425
1.10143542289733887 9.49240686054508842e-15 0.297506660223007202
0.561715066432952881 9.49240686054508842e-15 0.363649427890777588
1.7922666072845459 9.49240686054508842e-15 0.126206099987030029
0.525547683238983154 9.49240686054508842e-15 0.361861586570739746
0.00382745219394564629 9.49240686054508842e-15 0.664598762989044189
0.689791858196258545 9.49240686054508842e-15 0.328754723072052002
1.29503083229064941 9.49240686054508842e-15 0.162385761737823486
0.230812996625900269 9.49240686054508842e-15 0.291037470102310181
1.57953500747680664 9.49240686054508842e-15 0.184339761734008789
0.390923738479614258 9.49240686054508842e-15 0.607226908206939697
1.85881531238555908 9.49240686054508842e-15 0.101241230964660645
0.925720036029815674 9.49240686054508842e-15 0.466219127178192139
0.440425336360931396 9.49240686054508842e-15 0.53765493631362915
0.657398641109466553 9.49240686054508842e-15 0.199194863438606262
0.865307867527008057 9.49240686054508842e-15 0.0661148428916931152
0.250433266162872314 9.49240686054508842e-15 0.717888534069061279
1.96523356437683105 9.49240686054508842e-15 0.167049169540405273
1.75632989406585693 9.49240686054508842e-15 0.273643851280212402
0.797334253787994385 9.49240686054508842e-15 0.325455844402313232
0.332827538251876831 9.49240686054508842e-15 0.135228335857391357
0.595017313957214355 9.49240686054508842e-15 0.241406217217445374
1.06349778175354004 9.49240686054508842e-15 0.306326240301132202
0.243109852075576782 9.49240686054508842e-15 0.419507145881652832
0.155444294214248657 9.49240686054508842e-15 0.100077494978904724
0.569397151470184326 9.49240686054508842e-15 0.29263952374458313
1.51509475708007812 9.49240686054508842e-15 0.165129750967025757
0.0544804036617279053 9.49240686054508842e-15 0.295009315013885498
1.22547900676727295 9.49240686054508842e-15 0.29295840859413147
1.81683051586151123 9.49240686054508842e-15 0.029247581958770752
1.18378961086273193 9.49240686054508842e-15 0.433971285820007324
0.0294769220054149628 9.49240686054508842e-15 0.469812750816345215
1.0740886926651001 9.49240686054508842e-15 0.0983165502548217773
0.19404149055480957 9.49240686054508842e-15 0.205541789531707764
0.653465926647186279 9.49240686054508842e-15 0.10019432008266449
1.11037063598632812 9.49240686054508842e-15 0.393180310726165771
0.340846449136734009 9.49240686054508842e-15 0.109587721526622772
0.437099039554595947 9.49240686054508842e-15 0.317578017711639404
1.29334890842437744 9.49240686054508842e-15 0.276106059551239014
0.473440885543823242 9.49240686054508842e-15 0.243101760745048523
0.776296913623809814 9.49240686054508842e-15 0.245336845517158508
0.678175449371337891 9.49240686054508842e-15 0.22943665087223053
1.60151457786560059 9.49240686054508842e-15 0.186227023601531982
1.16484725475311279 9.49240686054508842e-15 0.0549894869327545166
0.176988869905471802 9.49240686054508842e-15 0.0809698998928070068
0.963770270347595215 9.49240686054508842e-15 0.322761833667755127
0.026537848636507988 9.49240686054508842e-15 0.547649860382080078
0.979317426681518555 9.49240686054508842e-15 0.260124921798706055
0.238539844751358032 9.49240686054508842e-15 0.0917013958096504211
1.1371234655380249 9.49240686054508842e-15 0.0751314461231231689
0.171674072742462158 9.49240686054508842e-15 0.0845301896333694458
0.774681329727172852 9.49240686054508842e-15 0.216896370053291321
1.49397945404052734 9.49240686054508842e-15 0.280271828174591064
0.577554285526275635 9.49240686054508842e-15 0.211291387677192688
1.67893242835998535 9.49240686054508842e-15 0.290150940418243408
0.0986937433481216431 9.49240686054508842e-15 0.181447148323059082
0.950001716613769531 9.49240686054508842e-15 0.150893241167068481
1.87327110767364502 9.49240686054508842e-15 0.234112560749053955
0.402301311492919922 9.49240686054508842e-15 0.132110506296157837
1.81158947944641113 9.49240686054508842e-15 0.107358813285827637
0.836719512939453125 9.49240686054508842e-15 0.247859969735145569
0.80914229154586792 9.49240686054508842e-15 0.258695930242538452
0.279138475656509399 9.49240686054508842e-15 0.255708545446395874
0.867596983909606934 9.49240686054508842e-15 0.109427481889724731
0.215874895453453064 9.49240686054508842e-15 0.322394639253616333
0.00227177469059824944 9.49240686054508842e-15 0.113206535577774048
1.51365971565246582 9.49240686054508842e-15 0.00790232419967651367
0.0119354063645005226 9.49240686054508842e-15 0.0455742254853248596
0.171047702431678772 9.49240686054508842e-15 0.293072998523712158
0.152770772576332092 9.49240686054508842e-15 0.608488619327545166
1.88857650756835938 9.49240686054508842e-15 0.121679961681365967
0.997188746929168701 9.49240686054508842e-15 0.091083228588104248
1.18854725360870361 9.49240686054508842e-15 0.379436761140823364
0.656555712223052979 9.49240686054508842e-15 0.0574423372745513916
0.182342842221260071 9.49240686054508842e-15 0.597008585929870605
0.0323356315493583679 9.49240686054508842e-15 0.041591249406337738
2.21933197975158691 9.49240686054508842e-15 0.0221246480941772461
1.051888108253479 9.49240686054508842e-15 0.309468686580657959
0.0897718220949172974 9.49240686054508842e-15 0.530346214771270752
1.89341223239898682 9.49240686054508842e-15 0.010907292366027832
1.16090202331542969 9.49240686054508842e-15 0.347253292798995972
1.14115309715270996 9.49240686054508842e-15 0.320764213800430298
1.40933799743652344 9.49240686054508842e-15 0.236832886934280396
0.720756411552429199 9.49240686054508842e-15 0.123940765857696533
1.13210117816925049 9.49240686054508842e-15 0.258051484823226929
0.77726513147354126 9.49240686054508842e-15 0.136489823460578918
0.884847044944763184 9.49240686054508842e-15 0.000971585512161254883
1.43250691890716553 9.49240686054508842e-15 0.064002692699432373
0.938770473003387451 9.49240686054508842e-15 0.329250365495681763
1.00630903244018555 9.49240686054508842e-15 0.311539143323898315
1.76348400115966797 9.49240686054508842e-15 0.0326868295669555664
0.255383163690567017 9.49240686054508842e-15 0.670368075370788574
2.22732019424438477 9.49240686054508842e-15 0.104417026042938232
1.19364595413208008 9.49240686054508842e-15 0.263108372688293457
0.0506251342594623566 9.49240686054508842e-15 0.304157286882400513
2.12402081489562988 9.49240686054508842e-15 0.120577514171600342
1.43105518817901611 9.49240686054508842e-15 0.167841404676437378
0.59763413667678833 9.49240686054508842e-15 0.426284343004226685
1.27047622203826904 9.49240686054508842e-15 0.289282500743865967
0.0616579502820968628 9.49240686054508842e-15 0.515313506126403809
0.496069252490997314 9.49240686054508842e-15 0.242657825350761414
0.0511651337146759033 9.49240686054508842e-15 0.764442563056945801
1.91241633892059326 9.49240686054508842e-15 0.203397214412689209
0.783505558967590332 9.49240686054508842e-15 0.0571638047695159912
1.52917778491973877 9.49240686054508842e-15 0.0697159469127655029
1.11746060848236084 9.49240686054508842e-15 0.189678400754928589
2.06391000747680664 9.49240686054508842e-15 0.127367317676544189
0.753572404384613037 9.49240686054508842e-15 0.481276094913482666
1.7367866039276123 9.49240686054508842e-15 0.200491607189178467
0.503764748573303223 9.49240686054508842e-15 0.123408153653144836
2.21667242050170898 9.49240686054508842e-15 0.0244380831718444824
0.444693237543106079 9.49240686054508842e-15 0.243459641933441162
0.333062082529067993 9.49240686054508842e-15 0.0487396866083145142
0.593448221683502197 9.49240686054508842e-15 0.471576005220413208
0.305933266878128052 9.49240686054508842e-15 0.635803103446960449
0.568556427955627441 9.49240686054508842e-15 0.286405622959136963
1.97626066207885742 9.49240686054508842e-15 0.0227138996124267578
0.935273945331573486 9.49240686054508842e-15 0.356095075607299805
1.52760326862335205 9.49240686054508842e-15 0.228719115257263184
0.251409977674484253 9.49240686054508842e-15 0.0249765664339065552
0.503434836864471436 9.49240686054508842e-15 0.525942623615264893
1.37278115749359131 9.49240686054508842e-15 0.211908310651779175
0.372317403554916382 9.49240686054508842e-15 0.458713382482528687
0.264309167861938477 9.49240686054508842e-15 0.398166418075561523
0.597721517086029053 9.49240686054508842e-15 0.0861304402351379395
1.76834452152252197 9.49240686054508842e-15 0.171164631843566895
1.41202235221862793 9.49240686054508842e-15 0.30882495641708374
0.140478029847145081 9.49240686054508842e-15 0.234815984964370728
1.38016259670257568 9.49240686054508842e-15 0.198486357927322388
1.42987644672393799 9.49240686054508842e-15 0.373268425464630127
1.09714627265930176 9.49240686054508842e-15 0.133782327175140381
0.962253093719482422 9.49240686054508842e-15 0.200331509113311768
0.134348779916763306 9.49240686054508842e-15 0.190952584147453308
0.765906155109405518 9.49240686054508842e-15 0.44445568323135376
0.453805685043334961 9.49240686054508842e-15 0.519725680351257324
2.00630879402160645 9.49240686054508842e-15 0.0438994765281677246
1.68829023838043213 9.49240686054508842e-15 0.0189717411994934082
1.21789443492889404 9.49240686054508842e-15 0.378692477941513062
1.26676416397094727 9.49240686054508842e-15 0.07618752121925354
0.262270927429199219 9.49240686054508842e-15 0.625518798828125
1.1217038631439209 9.49240686054508842e-15 0.27675861120223999
0.124203130602836609 9.49240686054508842e-15 0.612186968326568604
0.485147207975387573 9.49240686054508842e-15 0.0991709977388381958
0.739044010639190674 9.49240686054508842e-15 0.214683860540390015
0.645217597484588623 9.49240686054508842e-15 0.0404909402132034302
1.86706435680389404 9.49240686054508842e-15 0.189605474472045898
1.30735945701599121 9.49240686054508842e-15 0.292384594678878784
1.58868396282196045 9.49240686054508842e-15 0.155552983283996582
2.01171159744262695 9.49240686054508842e-15 0.0588334202766418457
1.01806509494781494 9.49240686054508842e-15 0.112333983182907104
1.77938222885131836 9.49240686054508842e-15 0.170300066471099854
1.02595722675323486 9.49240686054508842e-15 0.378901779651641846
0.427396118640899658 9.49240686054508842e-15 0.637982666492462158
0.123743355274200439 9.49240686054508842e-15 0.137112081050872803
0.485430419445037842 9.49240686054508842e-15 0.0479869991540908813
0.036107867956161499 9.49240686054508842e-15 0.476484298706054688
0.435361951589584351 9.49240686054508842e-15 0.358573734760284424
0.36441376805305481 9.49240686054508842e-15 0.58547288179397583
0.710420131683349609 9.49240686054508842e-15 0.246003970503807068
1.38401138782501221 9.49240686054508842e-15 0.196848869323730469
0.279868155717849731 9.49240686054508842e-15 0.328507125377655029
0.820652961730957031 9.49240686054508842e-15 0.200227692723274231
0.366827160120010376 9.49240686054508842e-15 0.438752233982086182
0.186440348625183105 9.49240686054508842e-15 0.176256090402603149
1.73173213005065918 9.49240686054508842e-15 0.252149701118469238
0.417081356048583984 9.49240686054508842e-15 0.418999761343002319
0.0459694676101207733 9.49240686054508842e-15 0.124170884490013123
0.747179865837097168 9.49240686054508842e-15 0.473379611968994141
0.415377020835876465 9.49240686054508842e-15 0.525407493114471436
1.09046697616577148 9.49240686054508842e-15 0.421750307083129883
1.24045789241790771 9.49240686054508842e-15 0.183232665061950684
1.48303711414337158 9.49240686054508842e-15 0.273099809885025024
0.957581937313079834 9.49240686054508842e-15 0.321529358625411987
0.494173020124435425 9.49240686054508842e-15 0.286355257034301758
0.941677391529083252 9.49240686054508842e-15 0.239961445331573486
1.48756980895996094 9.49240686054508842e-15 0.135115176439285278
0.490494430065155029 9.49240686054508842e-15 0.635966300964355469
0.305409878492355347 9.49240686054508842e-15 0.544991970062255859
2.49058151245117188 9.49240686054508842e-15 0.0220313668251037598
0.710727334022521973 9.49240686054508842e-15 0.10727246105670929
0.754183650016784668 9.49240686054508842e-15 0.541841268539428711
0.122137829661369324 9.49240686054508842e-15 0.498176217079162598
0.920925617218017578 9.49240686054508842e-15 0.314092636108398438
1.08071720600128174 9.49240686054508842e-15 0.372853398323059082
1.22062838077545166 9.49240686054508842e-15 0.406982958316802979
1.41631627082824707 9.49240686054508842e-15 0.145493924617767334
0.794934451580047607 9.49240686054508842e-15 0.553862035274505615
0.416750043630599976 9.49240686054508842e-15 0.256964921951293945
0.483958303928375244 9.49240686054508842e-15 0.633371114730834961
0.316263258457183838 9.49240686054508842e-15 0.543772518634796143
0.607433497905731201 9.49240686054508842e-15 0.432350397109985352
1.74493229389190674 9.49240686054508842e-15 0.119195938110351562
0.839360892772674561 9.49240686054508842e-15 0.114960953593254089
0.428047746419906616 9.49240686054508842e-15 0.11605854332447052
1.78495109081268311 9.49240686054508842e-15 0.110501468181610107
1.90553486347198486 9.49240686054508842e-15 0.122508347034454346
0.343397349119186401 9.49240686054508842e-15 0.289792776107788086
0.773389041423797607 9.49240686054508842e-15 0.27466195821762085
0.813204109668731689 9.49240686054508842e-15 0.0993519574403762817
1.81059277057647705 9.49240686054508842e-15 0.0661014914512634277
0.398137509822845459 9.49240686054508842e-15 0.630615115165710449
0.66490483283996582 9.49240686054508842e-15 0.520592153072357178
0.44249299168586731 9.49240686054508842e-15 0.313923418521881104
0.473343640565872192 9.49240686054508842e-15 0.172496870160102844
0.988017022609710693 9.49240686054508842e-15 0.106855303049087524
0.229360073804855347 9.49240686054508842e-15 0.686708450317382812
0.741910994052886963 9.49240686054508842e-15 0.559755146503448486
0.033324461430311203 9.49240686054508842e-15 0.443915337324142456
0.513504743576049805 9.49240686054508842e-15 0.307554483413696289
0.483700871467590332 9.49240686054508842e-15 0.0735572576522827148
1.61784017086029053 9.49240686054508842e-15 0.313622117042541504
1.45635902881622314 9.49240686054508842e-15 0.139291733503341675
1.88583314418792725 9.49240686054508842e-15 0.238322257995605469
0.398412317037582397 9.49240686054508842e-15 0.288738071918487549
0.758317768573760986 9.49240686054508842e-15 0.256805419921875
0.929012298583984375 9.49240686054508842e-15 0.364977359771728516
0.387681514024734497 9.49240686054508842e-15 0.575399637222290039
0.144098222255706787 9.49240686054508842e-15 0.552261233329772949
1.2914808988571167 9.49240686054508842e-15 0.161171972751617432
0.777728378772735596 9.49240686054508842e-15 0.409080088138580322
0.0321164093911647797 9.49240686054508842e-15 0.022304970771074295
1.94346272945404053 9.49240686054508842e-15 0.0426643490791320801
0.359684914350509644 9.49240686054508842e-15 0.36064380407333374
1.68549370765686035 9.49240686054508842e-15 0.221101999282836914
0.545368075370788574 9.49240686054508842e-15 0.240000128746032715
2.42983508110046387 9.49240686054508842e-15 0.0538403987884521484
0.728095829486846924 9.49240686054508842e-15 0.414582490921020508
2.58761096000671387 9.49240686054508842e-15 0.0293831825256347656
0.991000652313232422 9.49240686054508842e-15 0.462251752614974976
0.151390939950942993 9.49240686054508842e-15 0.011598832905292511
1.97331273555755615 9.49240686054508842e-15 0.0762176513671875
0.240586891770362854 9.49240686054508842e-15 0.321975469589233398
0.458902597427368164 9.49240686054508842e-15 0.406030535697937012
0.537244558334350586 9.49240686054508842e-15 0.360023260116577148
1.80520427227020264 9.49240686054508842e-15 0.193255066871643066
2.06746411323547363 9.49240686054508842e-15 0.012317955493927002
0.382556647062301636 9.49240686054508842e-15 0.420925617218017578
0.145963177084922791 9.49240686054508842e-15 0.504705309867858887
0.70280224084854126 9.49240686054508842e-15 0.0630499422550201416
0.148947164416313171 9.49240686054508842e-15 0.479903042316436768
1.77417325973510742 9.49240686054508842e-15 0.0873696804046630859
0.18187318742275238 9.49240686054508842e-15 0.637757599353790283
0.60848158597946167 9.49240686054508842e-15 0.0980800092220306396
0.351026415824890137 9.49240686054508842e-15 0.558452248573303223
0.223859146237373352 9.49240686054508842e-15 0.32535398006439209
1.56522214412689209 9.49240686054508842e-15 0.0830430984497070312
1.39878380298614502 9.49240686054508842e-15 0.255979567766189575
0.540050327777862549 9.49240686054508842e-15 0.535113096237182617
0.487908780574798584 9.49240686054508842e-15 0.0326568037271499634
0.25079682469367981 9.49240686054508842e-15 0.615015029907226562
0.925872385501861572 9.49240686054508842e-15 0.00111302733421325684
0.414976835250854492 9.49240686054508842e-15 0.525175213813781738
0.504822432994842529 9.49240686054508842e-15 0.121049433946609497
0.432757735252380371 9.49240686054508842e-15 0.262740612030029297
1.5865095853805542 9.49240686054508842e-15 0.163365811109542847
0.859416782855987549 9.49240686054508842e-15 0.0690279304981231689
0.785169124603271484 9.49240686054508842e-15 0.225530892610549927
1.7596668004989624 9.49240686054508842e-15 0.270984888076782227
0.308303564786911011 9.49240686054508842e-15 0.477067559957504272
0.495121240615844727 9.49240686054508842e-15 0.195671722292900085
0.235974401235580444 9.49240686054508842e-15 0.537978172302246094
1.45189046859741211 9.49240686054508842e-15 0.0989219546318054199
0.400388389825820923 9.49240686054508842e-15 0.349746823310852051
1.32975566387176514 9.49240686054508842e-15 0.322535306215286255
1.47138214111328125 9.49240686054508842e-15 0.318721175193786621
0.808667123317718506 9.49240686054508842e-15 0.0729350894689559937
1.69949626922607422 9.49240686054508842e-15 0.148653566837310791
0.195145979523658752 9.49240686054508842e-15 0.389832735061645508
0.255719244480133057 9.49240686054508842e-15 0.402378976345062256
1.25810849666595459 9.49240686054508842e-15 0.0728918910026550293
2.19579386711120605 9.49240686054508842e-15 0.115664422512054443
0.643773913383483887 9.49240686054508842e-15 0.228399902582168579
1.78509962558746338 9.49240686054508842e-15 0.20552515983581543
0.0747742354869842529 9.49240686054508842e-15 0.679945111274719238
0.319533288478851318 9.49240686054508842e-15 0.434302568435668945
1.68662452697753906 9.49240686054508842e-15 0.177648812532424927
0.223235949873924255 9.49240686054508842e-15 0.294548511505126953
0.269635885953903198 9.49240686054508842e-15 0.676282167434692383
1.36127591133117676 9.49240686054508842e-15 0.391744136810302734
1.00838637351989746 9.49240686054508842e-15 0.213751912117004395
0.306970655918121338 9.49240686054508842e-15 0.157212674617767334
1.81123256683349609 9.49240686054508842e-15 0.174025237560272217
0.317233890295028687 9.49240686054508842e-15 0.038715653121471405
0.515886425971984863 9.49240686054508842e-15 0.18803270161151886
0.336963772773742676 9.49240686054508842e-15 0.590390205383300781
1.12379670143127441 9.49240686054508842e-15 0.319330185651779175
0.228848069906234741 9.49240686054508842e-15 0.517394661903381348
0.514724254608154297 9.49240686054508842e-15 0.00970821082592010498
0.690439343452453613 9.49240686054508842e-15 0.274414718151092529
1.71079730987548828 9.49240686054508842e-15 0.268277943134307861
0.238045930862426758 9.49240686054508842e-15 0.190051138401031494
0.779463589191436768 9.49240686054508842e-15 0.554772496223449707
0.373992830514907837 9.49240686054508842e-15 0.292919844388961792
0.858279943466186523 9.49240686054508842e-15 0.450934648513793945
0.221278682351112366 9.49240686054508842e-15 0.498411446809768677
0.988088726997375488 9.49240686054508842e-15 0.286594152450561523
1.43810677528381348 9.49240686054508842e-15 0.274426281452178955
1.76400923728942871 9.49240686054508842e-15 0.0881979465484619141
0.654886960983276367 9.49240686054508842e-15 0.00227098166942596436
0.54204559326171875 9.49240686054508842e-15 0.0871454179286956787
0.835333168506622314 9.49240686054508842e-15 0.0833029299974441528
1.06763279438018799 9.49240686054508842e-15 0.0668142735958099365
1.25846803188323975 9.49240686054508842e-15 0.175456792116165161
0.27797272801399231 9.49240686054508842e-15 0.122648678719997406
1.81779861450195312 9.49240686054508842e-15 0.258546710014343262
0.0961358994245529175 9.49240686054508842e-15 0.236138984560966492
0.0770599916577339172 9.49240686054508842e-15 0.36898842453956604
0.615330517292022705 9.49240686054508842e-15 0.496824920177459717
1.47688412666320801 9.49240686054508842e-15 0.209993809461593628
0.158792957663536072 9.49240686054508842e-15 0.307442724704742432
1.58178210258483887 9.49240686054508842e-15 0.31993141770362854
1.18339931964874268 9.49240686054508842e-15 0.114948838949203491
0.0501963384449481964 9.49240686054508842e-15 0.773106098175048828
0.101558782160282135 9.49240686054508842e-15 0.558800160884857178
0.20627613365650177 9.49240686054508842e-15 0.0770328342914581299
0.259665459394454956 9.49240686054508842e-15 0.306009650230407715
0.618302822113037109 9.49240686054508842e-15 0.475965619087219238
0.468481361865997314 9.49240686054508842e-15 0.0280016511678695679
1.65806949138641357 9.49240686054508842e-15 0.161197632551193237
0.87218773365020752 9.49240686054508842e-15 0.183743298053741455
1.17084133625030518 9.49240686054508842e-15 0.247597366571426392
0.653055667877197266 9.49240686054508842e-15 0.067362561821937561
0.574008405208587646 9.49240686054508842e-15 0.407038837671279907
0.377297043800354004 9.49240686054508842e-15 0.348928242921829224
1.22101771831512451 9.49240686054508842e-15 0.296188473701477051
0.511242389678955078 9.49240686054508842e-15 0.639057576656341553
1.16910350322723389 9.49240686054508842e-15 0.412979245185852051
0.0624906159937381744 9.49240686054508842e-15 0.581350207328796387
0.769104421138763428 9.49240686054508842e-15 0.479357600212097168
1.02760946750640869 9.49240686054508842e-15 0.415603429079055786
2.07736110687255859 9.49240686054508842e-15 0.0973184108734130859
0.661013543605804443 9.49240686054508842e-15 0.593308091163635254
0.965161621570587158 9.49240686054508842e-15 0.197092324495315552
0.53425443172454834 9.49240686054508842e-15 0.0830594003200531006
0.408930689096450806 9.49240686054508842e-15 0.565870523452758789
0.458588600158691406 9.49240686054508842e-15 0.346630245447158813
1.80766499042510986 9.49240686054508842e-15 0.118735432624816895
1.4099431037902832 9.49240686054508842e-15 0.274909526109695435
1.02008414268493652 9.49240686054508842e-15 0.127926945686340332
0.00801818631589412689 9.49240686054508842e-15 0.586436569690704346
2.23863577842712402 9.49240686054508842e-15 0.073491513729095459
2.29106640815734863 9.49240686054508842e-15 0.0689368247985839844
2.06251931190490723 9.49240686054508842e-15 0.147594153881072998
0.021236225962638855 9.49240686054508842e-15 0.158041834831237793
1.9692007303237915 9.49240686054508842e-15 0.203805744647979736
1.70614969730377197 9.49240686054508842e-15 0.239207744598388672
0.505555570125579834 9.49240686054508842e-15 0.585872888565063477
1.39376318454742432 9.49240686054508842e-15 0.0376881659030914307
0.804426491260528564 9.49240686054508842e-15 0.188461631536483765
1.41950082778930664 9.49240686054508842e-15 0.308290749788284302
0.340444713830947876 9.49240686054508842e-15 0.543105185031890869
1.75462174415588379 9.49240686054508842e-15 0.178856849670410156
1.51567792892456055 9.49240686054508842e-15 0.289724081754684448
0.86116790771484375 9.49240686054508842e-15 0.223053604364395142
2.14255809783935547 9.49240686054508842e-15 0.0244132280349731445
0.171896442770957947 9.49240686054508842e-15 0.429473161697387695
0.63355255126953125 9.49240686054508842e-15 0.194282174110412598
0.162434369325637817 9.49240686054508842e-15 0.70099252462387085
0.0689812600612640381 9.49240686054508842e-15 0.467137128114700317
0.508237183094024658 9.49240686054508842e-15 0.52821195125579834
1.00199031829833984 9.49240686054508842e-15 0.320532679557800293
0.612458705902099609 9.49240686054508842e-15 0.479950994253158569
0.905994057655334473 9.49240686054508842e-15 0.256098717451095581
2.52490782737731934 9.49240686054508842e-15 0.0082823634147644043
0.983032405376434326 9.49240686054508842e-15 0.359631747007369995
0.237640976905822754 9.49240686054508842e-15 0.520472168922424316
0.979745686054229736 9.49240686054508842e-15 0.144821494817733765
1.67117619514465332 9.49240686054508842e-15 0.083993375301361084
1.02121877670288086 9.49240686054508842e-15 0.0861611366271972656
0.954435050487518311 9.49240686054508842e-15 0.420582175254821777
1.54428517818450928 9.49240686054508842e-15 0.158500850200653076
1.53785395622253418 9.49240686054508842e-15 0.00195902585983276367
1.39179754257202148 9.49240686054508842e-15 0.00409844517707824707
0.179963782429695129 9.49240686054508842e-15 0.315365999937057495
2.10073161125183105 9.49240686054508842e-15 0.015799105167388916
0.407821327447891235 9.49240686054508842e-15 0.278282463550567627
0.545416057109832764 9.49240686054508842e-15 0.44392019510269165
0.405639618635177612 9.49240686054508842e-15 0.199780434370040894
1.42640101909637451 9.49240686054508842e-15 0.0864123702049255371
1.00956261157989502 9.49240686054508842e-15 0.378739655017852783
1.73696994781494141 9.49240686054508842e-15 0.00611817836761474609
1.12772881984710693 9.49240686054508842e-15 0.309141576290130615
0.865233302116394043 9.49240686054508842e-15 0.103755801916122437
0.191088303923606873 9.49240686054508842e-15 0.169769987463951111
0.0427742674946784973 9.49240686054508842e-15 0.704435110092163086
0.0510305464267730713 9.49240686054508842e-15 0.40912434458732605
0.218028128147125244 9.49240686054508842e-15 0.162341952323913574
0.465757459402084351 9.49240686054508842e-15 0.158249124884605408
0.621062278747558594 9.49240686054508842e-15 0.481345325708389282
1.16931295394897461 9.49240686054508842e-15 0.308810174465179443
1.43963813781738281 9.49240686054508842e-15 0.170015394687652588
1.35232818126678467 9.49240686054508842e-15 0.373736858367919922
1.45223343372344971 9.49240686054508842e-15 0.0574621856212615967
1.31469714641571045 9.49240686054508842e-15 0.164059489965438843
0.244328275322914124 9.49240686054508842e-15 0.476350396871566772
0.83458709716796875 9.49240686054508842e-15 0.0731056779623031616
0.542794585227966309 9.49240686054508842e-15 0.548968791961669922
0.747575044631958008 9.49240686054508842e-15 0.0664040297269821167
1.73064649105072021 9.49240686054508842e-15 0.259035110473632812
0.484687089920043945 9.49240686054508842e-15 0.0348151326179504395
0.130416229367256165 9.49240686054508842e-15 0.335437774658203125
0.410167217254638672 9.49240686054508842e-15 0.57409369945526123
1.59716212749481201 9.49240686054508842e-15 0.281411528587341309
1.58643436431884766 9.49240686054508842e-15 0.0753252804279327393
0.00665223784744739532 9.49240686054508842e-15 0.0874089747667312622
0.324605643749237061 9.49240686054508842e-15 0.57931286096572876
0.437936753034591675 9.49240686054508842e-15 0.607799649238586426
1.8926929235458374 9.49240686054508842e-15 0.0557678937911987305
1.72160840034484863 9.49240686054508842e-15 0.25764840841293335
0.748862504959106445 9.49240686054508842e-15 0.216936454176902771
1.02774918079376221 9.49240686054508842e-15 0.158055126667022705
1.55422759056091309 9.49240686054508842e-15 0.259678244590759277
0.937236130237579346 9.49240686054508842e-15 0.235381662845611572
0.519371628761291504 9.49240686054508842e-15 0.0356697440147399902
2.31652259826660156 9.49240686054508842e-15 0.0449999570846557617
0.663546741008758545 9.49240686054508842e-15 0.31691211462020874
1.38627827167510986 9.49240686054508842e-15 0.298007279634475708
0.162224858999252319 9.49240686054508842e-15 0.669955015182495117
1.00706577301025391 9.49240686054508842e-15 0.473496109247207642
0.784496843814849854 9.49240686054508842e-15 0.219776183366775513
0.524078488349914551 9.49240686054508842e-15 0.415366172790527344
1.87165963649749756 9.49240686054508842e-15 0.211152195930480957
0.142706021666526794 9.49240686054508842e-15 0.0240673534572124481
0.0248491130769252777 9.49240686054508842e-15 0.244115084409713745
1.65062093734741211 9.49240686054508842e-15 0.264849841594696045
0.307057589292526245 9.49240686054508842e-15 0.218842983245849609
1.3824077844619751 9.49240686054508842e-15 0.115024656057357788
0.83120429515838623 9.49240686054508842e-15 0.524763047695159912
0.708707273006439209 9.49240686054508842e-15 0.138372600078582764
0.637891948223114014 9.49240686054508842e-15 0.0231698453426361084
1.23930323123931885 9.49240686054508842e-15 0.350094497203826904
2.40545797348022461 9.49240686054508842e-15 0.0409269332885742188
0.469773590564727783 9.49240686054508842e-15 0.595590174198150635
1.43344640731811523 9.49240686054508842e-15 0.27780953049659729
1.74912750720977783 9.49240686054508842e-15 0.0772131085395812988
1.82046926021575928 9.49240686054508842e-15 0.227597236633300781
0.116895705461502075 9.49240686054508842e-15 0.172668933868408203
0.0731052830815315247 9.49240686054508842e-15 0.450143873691558838
0.763921201229095459 9.49240686054508842e-15 0.502772271633148193
0.45152166485786438 9.49240686054508842e-15 0.193056121468544006
0.314023971557617188 9.49240686054508842e-15 0.342789769172668457
0.270372182130813599 9.49240686054508842e-15 0.237037524580955505
1.74299323558807373 9.49240686054508842e-15 0.0882140398025512695
1.73274266719818115 9.49240686054508842e-15 0.146424055099487305
1.0535888671875 9.49240686054508842e-15 0.370189368724822998
2.43657255172729492 9.49240686054508842e-15 0.0141874551773071289
0.933769464492797852 9.49240686054508842e-15 0.478361964225769043
0.651805698871612549 9.49240686054508842e-15 0.103345081210136414
0.137513965368270874 9.49240686054508842e-15 0.179673537611961365
0.436930924654006958 9.49240686054508842e-15 0.510528683662414551
0.0558270364999771118 9.49240686054508842e-15 0.499859511852264404
0.745389640331268311 9.49240686054508842e-15 0.061413303017616272
0.127441480755805969 9.49240686054508842e-15 0.365058451890945435
0.172920852899551392 9.49240686054508842e-15 0.0596139580011367798
0.239085227251052856 9.49240686054508842e-15 0.715447366237640381
0.198290720582008362 9.49240686054508842e-15 0.476457953453063965
1.49357819557189941 9.49240686054508842e-15 0.10860210657119751
2.09566140174865723 9.49240686054508842e-15 0.0181989669799804688
1.46827483177185059 9.49240686054508842e-15 0.333039283752441406
0.0884802937507629395 9.49240686054508842e-15 0.142188966274261475
0.94795680046081543 9.49240686054508842e-15 0.271442115306854248
1.13806605339050293 9.49240686054508842e-15 0.404007226228713989
1.80147099494934082 9.49240686054508842e-15 0.0293568968772888184
1.06357204914093018 9.49240686054508842e-15 0.263169139623641968
0.296499311923980713 9.49240686054508842e-15 0.56116253137588501
1.49721205234527588 9.49240686054508842e-15 0.111358225345611572
1.53234803676605225 9.49240686054508842e-15 0.0316049158573150635
1.15800285339355469 9.49240686054508842e-15 0.169771313667297363
0.35822904109954834 9.49240686054508842e-15 0.568750381469726562
0.491861015558242798 9.49240686054508842e-15 0.452854812145233154
0.396835505962371826 9.49240686054508842e-15 0.255924880504608154
1.0861436128616333 9.49240686054508842e-15 0.0161904692649841309
0.107979640364646912 9.49240686054508842e-15 0.68459165096282959
0.961854159832000732 9.49240686054508842e-15 0.458758115768432617
1.96356546878814697 9.49240686054508842e-15 0.170126855373382568
1.32023990154266357 9.49240686054508842e-15 0.322693377733230591
2.0791628360748291 9.49240686054508842e-15 0.0767300724983215332
2.14669942855834961 9.49240686054508842e-15 0.0670149922370910645
2.28015708923339844 9.49240686054508842e-15 0.048122704029083252
1.4387129545211792 9.49240686054508842e-15 0.237230807542800903
1.29421329498291016 9.49240686054508842e-15 0.136331677436828613
0.404811441898345947 9.49240686054508842e-15 0.200592190027236938
1.32267701625823975 9.49240686054508842e-15 0.081187903881072998
0.838058948516845703 9.49240686054508842e-15 0.485029041767120361
0.172352522611618042 9.49240686054508842e-15 0.40926709771156311
0.647893369197845459 9.49240686054508842e-15 0.582308053970336914
2.06631565093994141 9.49240686054508842e-15 0.172164797782897949
1.09599268436431885 9.49240686054508842e-15 0.272984862327575684
0.764163792133331299 9.49240686054508842e-15 0.070647016167640686
0.773333549499511719 9.49240686054508842e-15 0.31005743145942688
0.214022338390350342 9.49240686054508842e-15 0.520737588405609131
0.432685643434524536 9.49240686054508842e-15 0.130572915077209473
2.18925237655639648 9.49240686054508842e-15 0.12473452091217041
0.0608989410102367401 9.49240686054508842e-15 0.0594867318868637085
0.959194660186767578 9.49240686054508842e-15 0.333964139223098755
2.03925108909606934 9.49240686054508842e-15 0.16020655632019043
0.622004866600036621 9.49240686054508842e-15 0.539396524429321289
0.600625395774841309 9.49240686054508842e-15 0.250795125961303711
2.12614059448242188 9.49240686054508842e-15 0.00618511438369750977
0.312389254570007324 9.49240686054508842e-15 0.415435194969177246
1.35617339611053467 9.49240686054508842e-15 0.108269423246383667
1.86641883850097656 9.49240686054508842e-15 0.18931955099105835
0.560102164745330811 9.49240686054508842e-15 0.095642387866973877
0.178256973624229431 9.49240686054508842e-15 0.354929029941558838
2.28367471694946289 9.49240686054508842e-15 0.0387754440307617188
0.497674047946929932 9.49240686054508842e-15 0.0243435055017471313
1.19120991230010986 9.49240686054508842e-15 0.336344718933105469
1.99650204181671143 9.49240686054508842e-15 0.0495965480804443359
0.545776069164276123 9.49240686054508842e-15 0.394203603267669678
0.0348304957151412964 9.49240686054508842e-15 0.401772260665893555
2.3163914680480957 9.49240686054508842e-15 0.0873423218727111816
0.611338615417480469 9.49240686054508842e-15 0.346974551677703857
1.52959418296813965 9.49240686054508842e-15 0.0489017665386199951
0.262194633483886719 9.49240686054508842e-15 0.450612634420394897
1.18771076202392578 9.49240686054508842e-15 0.131795436143875122
1.77282989025115967 9.49240686054508842e-15 0.144789695739746094
1.87684929370880127 9.49240686054508842e-15 0.146460771560668945
0.0959577560424804688 9.49240686054508842e-15 0.69564366340637207
0.121540896594524384 9.49240686054508842e-15 0.721404314041137695
0.106938712298870087 9.49240686054508842e-15 0.292023837566375732
0.819737434387207031 9.49240686054508842e-15 0.247991561889648438
2.26328015327453613 9.49240686054508842e-15 0.114291191101074219
0.365798234939575195 9.49240686054508842e-15 0.587614178657531738
1.69565689563751221 9.49240686054508842e-15 0.00320947170257568359
1.74248504638671875 9.49240686054508842e-15 0.2572479248046875
0.548435747623443604 9.49240686054508842e-15 0.238194376230239868
0.619783401489257812 9.49240686054508842e-15 0.398149073123931885
0.340264469385147095 9.49240686054508842e-15 0.454373478889465332
0.32010883092880249 9.49240686054508842e-15 0.234109386801719666
0.704239308834075928 9.49240686054508842e-15 0.557857394218444824
0.871143698692321777 9.49240686054508842e-15 0.488705962896347046
0.965265035629272461 9.49240686054508842e-15 0.197826147079467773
0.288863599300384521 9.49240686054508842e-15 0.0844530463218688965
1.0611954927444458 9.49240686054508842e-15 0.0494536459445953369
1.00305438041687012 9.49240686054508842e-15 0.0274766087532043457
0.397286474704742432 9.49240686054508842e-15 0.117776535451412201
2.29093098640441895 9.49240686054508842e-15 0.00300204753875732422
1.47530663013458252 9.49240686054508842e-15 0.321390509605407715
0.447938680648803711 9.49240686054508842e-15 0.418472349643707275
0.387736141681671143 9.49240686054508842e-15 0.180041536688804626
0.846899211406707764 9.49240686054508842e-15 0.29656749963760376
1.08907163143157959 9.49240686054508842e-15 0.436830520629882812
1.78849935531616211 9.49240686054508842e-15 0.0700615644454956055
1.31504738330841064 9.49240686054508842e-15 0.0449455082416534424
0.33860442042350769 9.49240686054508842e-15 0.643748164176940918
0.419721335172653198 9.49240686054508842e-15 0.316686272621154785
0.78729480504989624 9.49240686054508842e-15 0.296843469142913818
2.09957242012023926 9.49240686054508842e-15 0.0776511430740356445
0.951893210411071777 9.49240686054508842e-15 0.0512919127941131592
0.0869303420186042786 9.49240686054508842e-15 0.558714747428894043
0.795539557933807373 9.49240686054508842e-15 0.534602522850036621
0.839875578880310059 9.49240686054508842e-15 0.532365679740905762
0.579903781414031982 9.49240686054508842e-15 0.0470443665981292725
0.618474423885345459 9.49240686054508842e-15 0.0648721009492874146
1.83365607261657715 9.49240686054508842e-15 0.0790718793869018555
0.56037139892578125 9.49240686054508842e-15 0.45042264461517334
1.5631718635559082 9.49240686054508842e-15 0.14691886305809021
0.108907967805862427 9.49240686054508842e-15 0.329457759857177734
0.120077617466449738 9.49240686054508842e-15 0.12291041761636734
0.523807048797607422 9.49240686054508842e-15 0.0353847295045852661
0.0920842662453651428 9.49240686054508842e-15 0.672237038612365723
1.42390382289886475 9.49240686054508842e-15 0.282685220241546631
1.13943898677825928 9.49240686054508842e-15 0.342122465372085571
1.66792607307434082 9.49240686054508842e-15 0.0954144001007080078
1.0896151065826416 9.49240686054508842e-15 0.163757115602493286
0.675568580627441406 9.49240686054508842e-15 0.486314505338668823
1.44054496288299561 9.49240686054508842e-15 0.225507020950317383
0.959086418151855469 9.49240686054508842e-15 0.0965525507926940918
0.346369832754135132 9.49240686054508842e-15 0.113789170980453491
0.493650078773498535 9.49240686054508842e-15 0.105499818921089172
0.851414501667022705 9.49240686054508842e-15 0.0487000048160552979
0.312280803918838501 9.49240686054508842e-15 0.417454719543457031
1.07514071464538574 9.49240686054508842e-15 0.345728278160095215
0.782370686531066895 9.49240686054508842e-15 0.347610116004943848
1.37953424453735352 9.49240686054508842e-15 0.331291496753692627
0.58066326379776001 9.49240686054508842e-15 0.395371496677398682
0.494092166423797607 9.49240686054508842e-15 0.475639849901199341
0.325494527816772461 9.49240686054508842e-15 0.383607089519500732
0.184180274605751038 9.49240686054508842e-15 0.091059759259223938
1.33164465427398682 9.49240686054508842e-15 0.292666435241699219
0.887132048606872559 9.49240686054508842e-15 0.0293727517127990723
1.90198636054992676 9.49240686054508842e-15 0.055084228515625
1.57387244701385498 9.49240686054508842e-15 0.284402906894683838
1.41760516166687012 9.49240686054508842e-15 0.302537471055984497
1.77901566028594971 9.49240686054508842e-15 0.0120695829391479492
1.47564935684204102 9.49240686054508842e-15 0.309935331344604492
0.890336751937866211 9.49240686054508842e-15 0.181636840105056763
1.41440427303314209 9.49240686054508842e-15 0.0202026665210723877
1.00618147850036621 9.49240686054508842e-15 0.37570837140083313
0.795435547828674316 9.49240686054508842e-15 0.204916968941688538
0.580731570720672607 9.49240686054508842e-15 0.440758973360061646
1.40349352359771729 9.49240686054508842e-15 0.0503955185413360596
