ply
format ascii 1.0
element vertex 700
property float x
property float y
property float z
end_header
0.00930000003427267075 0.00861093495041131973 -0.0113387433812022209
0.00930000003427267075 -0.0164167173206806183 0.0138375256210565567
0.00930000003427267075 0.0158860720694065094 -0.0188919119536876678
0.00930000003427267075 0.00470378994941711426 -0.00592003297060728073
0.00930000003427267075 -0.00640375539660453796 0.00483613647520542145
0.00930000003427267075 -0.00897387787699699402 0.0064466279000043869
0.00930000003427267075 0.00595018453896045685 -0.00960728432983160019
0.00930000003427267075 0.00302325189113616943 -0.00698863528668880463
0.00930000003427267075 -0.0101773496717214584 0.00698934495449066162
0.00930000003427267075 0.0143955759704113007 -0.0133287366479635239
0.00930000003427267075 0.0192266777157783508 -0.0227713063359260559
0.00930000003427267075 0.00909271370619535446 -0.0130512909963726997
0.00930000003427267075 0.0143539560958743095 -0.0211659669876098633
0.00930000003427267075 -0.0050203762948513031 0.00283391214907169342
0.00930000003427267075 0.00712012313306331635 -0.0114814396947622299
0.00930000003427267075 0.0155918197706341743 -0.0163053479045629501
0.00930000003427267075 0.0114938467741012573 -0.0139422714710235596
0.00930000003427267075 0.00497948005795478821 -0.00972619000822305679
0.00930000003427267075 -0.0118533391505479813 0.0099877137690782547
0.00930000003427267075 -0.0130698978900909424 0.00965814664959907532
0.00930000003427267075 0.00831224489957094193 -0.0137909548357129097
0.00930000003427267075 -0.0175211094319820404 0.0142137259244918823
0.00930000003427267075 0.020373903214931488 -0.0181675795465707779
0.00930000003427267075 0.00375868938863277435 -0.00492195598781108856
0.00930000003427267075 -0.0093033425509929657 0.00565763562917709351
0.00930000003427267075 0.0143060777336359024 -0.0208646468818187714
0.00930000003427267075 0.00971181225031614304 -0.0132717657834291458
0.00930000003427267075 0.00577680114656686783 -0.0104302307590842247
0.00930000003427267075 0.017842564731836319 -0.0184274744242429733
0.00930000003427267075 -0.0111845824867486954 0.00729864835739135742
0.00930000003427267075 -0.00493146851658821106 0.00360372476279735565
0.00930000003427267075 -0.00687004625797271729 0.00586704909801483154
0.00930000003427267075 -0.0049212183803319931 0.00407139211893081665
0.00930000003427267075 0.0191902350634336472 -0.0214687567204236984
0.00930000003427267075 -0.000548021867871284485 -0.00291787087917327881
0.00930000003427267075 0.00713968649506568909 -0.0104204257950186729
0.00930000003427267075 0.0197023786604404449 -0.0188176557421684265
0.00930000003427267075 0.0148576237261295319 -0.0206261575222015381
0.00930000003427267075 0.0114286318421363831 -0.0127385696396231651
0.00930000003427267075 0.00934997014701366425 -0.0152610419318079948
0.00930000003427267075 0.0142930923029780388 -0.0128330038860440254
0.00930000003427267075 0.0192610714584589005 -0.0176993273198604584
0.00930000003427267075 0.0180050935596227646 -0.0184540320187807083
0.00930000003427267075 -0.00869433954358100891 0.00432417914271354675
0.00930000003427267075 -0.0111974775791168213 0.00740924477577209473
0.00930000003427267075 0.0051108337938785553 -0.00894204434007406235
0.00930000003427267075 0.00721079669892787933 -0.00763716641813516617
0.00930000003427267075 0.0154037252068519592 -0.0144800655543804169
0.00930000003427267075 0.00817970279604196548 -0.00770349521189928055
0.00930000003427267075 -0.000137960538268089294 -0.00214099884033203125
0.00930000003427267075 0.0114030102267861366 -0.0147598441690206528
0.00930000003427267075 0.00830711238086223602 -0.0145383020862936974
0.00930000003427267075 0.00156124308705329895 -0.00377213954925537109
0.00930000003427267075 0.000244256108999252319 -0.00292763859033584595
0.00930000003427267075 0.00185733474791049957 -0.00214424170553684235
0.00930000003427267075 0.0019769575446844101 -0.0039651133120059967
0.00930000003427267075 0.0137434937059879303 -0.0175676289945840836
0.00930000003427267075 0.0130736008286476135 -0.0193659309297800064
0.00930000003427267075 0.00127790682017803192 -0.00679392367601394653
0.00930000003427267075 0.00646726600825786591 -0.0117737008258700371
0.00930000003427267075 0.00666969362646341324 -0.0109761497005820274
0.00930000003427267075 0.0180804058909416199 -0.0215808004140853882
0.00930000003427267075 0.00651063863188028336 -0.0103821670636534691
0.00930000003427267075 0.0129071343690156937 -0.011919570155441761
0.00930000003427267075 0.0120724346488714218 -0.0173606481403112411
0.00930000003427267075 -0.0174741297960281372 0.0142452921718358994
0.00930000003427267075 0.0132078966125845909 -0.0161685124039649963
0.00930000003427267075 0.016202462837100029 -0.0167654380202293396
0.00930000003427267075 0.0224799010902643204 -0.0199788548052310944
0.00930000003427267075 -0.0114280469715595245 0.00814775936305522919
0.00930000003427267075 -0.00199625454843044281 -0.00170475617051124573
0.00930000003427267075 0.0127093922346830368 -0.0196012593805789948
0.00930000003427267075 0.00429563969373703003 -0.00808154325932264328
0.00930000003427267075 0.0135133713483810425 -0.0183984208852052689
0.00930000003427267075 0.0212316140532493591 -0.0209744498133659363
0.00930000003427267075 0.0045964391902089119 -0.010575474239885807
0.00930000003427267075 0.00187396258115768433 -0.00734892301261425018
0.00930000003427267075 0.0152669325470924377 -0.0155542436987161636
0.00930000003427267075 -0.00857807695865631104 0.00666073337197303772
0.00930000003427267075 -0.00708751007914543152 0.00673865526914596558
0.00930000003427267075 0.0163309983909130096 -0.0108547713607549667
0.00930000003427267075 -0.0022459663450717926 0.00272887572646141052
0.00930000003427267075 0.00827425532042980194 -0.00369689706712961197
0.00930000003427267075 -0.00560600869357585907 0.00520400330424308777
0.00930000003427267075 -0.012601759284734726 0.0123523054644465446
0.00930000003427267075 -0.0170657597482204437 0.0155484043061733246
0.00930000003427267075 0.0225082486867904663 -0.0127490172162652016
0.00930000003427267075 -0.0166278425604104996 0.0152536071836948395
0.00930000003427267075 0.00175478495657444 -0.000159909948706626892
0.00930000003427267075 0.0136507181450724602 -0.00547938793897628784
0.00930000003427267075 -0.00174489058554172516 0.00465403683483600616
0.00930000003427267075 0.00822995230555534363 -0.00193777494132518768
0.00930000003427267075 0.0174746625125408173 -0.0106743369251489639
0.00930000003427267075 0.00452030263841152191 3.55765223503112793e-07
0.00930000003427267075 -0.000921823084354400635 0.00435385480523109436
0.00930000003427267075 0.0152478301897644997 -0.00603868812322616577
0.00930000003427267075 0.021031571552157402 -0.0167380906641483307
0.00930000003427267075 0.0213112998753786087 -0.0158974956721067429
0.00930000003427267075 0.00255557149648666382 0.000566340982913970947
0.00930000003427267075 0.0244469977915287018 -0.0153634417802095413
0.00930000003427267075 0.0223185215145349503 -0.0156654603779315948
0.00930000003427267075 -0.0156960301101207733 0.0153108639642596245
0.00930000003427267075 0.000222017988562583923 0.00291346292942762375
0.00930000003427267075 0.0214451011270284653 -0.0179059281945228577
0.00930000003427267075 0.0003949776291847229 0.00330538209527730942
0.00930000003427267075 0.0206581931561231613 -0.0116824768483638763
0.00930000003427267075 0.0143892690539360046 -0.0101202502846717834
0.00930000003427267075 -0.0135034900158643723 0.0134361013770103455
0.00930000003427267075 0.0100380461663007736 -0.00413814187049865723
0.00930000003427267075 0.0115886721760034561 -0.00796705763787031174
0.00930000003427267075 -0.00555014051496982574 0.00604912079870700836
0.00930000003427267075 0.018225252628326416 -0.00904471240937709808
0.00930000003427267075 0.00231249630451202393 0.00274161901324987411
0.00930000003427267075 0.0105317123234272003 -0.00520635396242141724
0.00930000003427267075 0.0182545892894268036 -0.0095167309045791626
0.00930000003427267075 9.93609428405761719e-05 0.00139852799475193024
0.00930000003427267075 0.020750219002366066 -0.0161015503108501434
0.00930000003427267075 0.0203205160796642303 -0.0107257440686225891
0.00930000003427267075 -0.00168877281248569489 0.00205224007368087769
0.00930000003427267075 0.0073136407881975174 -0.00190017186105251312
0.00930000003427267075 0.00804029777646064758 -0.00379002932459115982
0.00930000003427267075 0.0208722669631242752 -0.0178159661591053009
0.00930000003427267075 0.0124099403619766235 -0.00720425695180892944
0.00930000003427267075 0.0229932349175214767 -0.0193203482776880264
0.00930000003427267075 0.0151400212198495865 -0.00824868492782115936
0.00930000003427267075 0.014583970420062542 -0.00629842095077037811
0.00930000003427267075 0.0222155507653951645 -0.0133465360850095749
0.00930000003427267075 0.0157048739492893219 -0.00643096771091222763
0.00930000003427267075 0.00435519963502883911 0.000394806265830993652
0.00930000003427267075 0.0238707885146141052 -0.0180373955518007278
0.00930000003427267075 0.00926611572504043579 -0.00602998491376638412
0.00930000003427267075 0.0147115793079137802 -0.0125013552606105804
0.00930000003427267075 -0.00494945980608463287 0.00576741620898246765
0.00930000003427267075 0.0194899048656225204 -0.0111765740439295769
0.00930000003427267075 -0.00214090012013912201 0.00485868006944656372
0.00930000003427267075 0.0146282147616147995 -0.0112022887915372849
0.00930000003427267075 0.00906895287334918976 -0.00415145978331565857
0.00930000003427267075 0.0258051082491874695 -0.0151905529201030731
0.00930000003427267075 0.00887372717261314392 -0.00468096695840358734
0.00930000003427267075 -0.0102195907384157181 0.0101848123595118523
0.00930000003427267075 0.0234238244593143463 -0.0124014625325798988
0.00930000003427267075 -0.0158944614231586456 0.0143153779208660126
0.00930000003427267075 -0.00426105409860610962 0.0061631668359041214
0.00930000003427267075 -0.0129483509808778763 0.0132903112098574638
0.00930000003427267075 0.00705220922827720642 -0.00579298660159111023
0.00930000003427267075 -0.00154506228864192963 0.00319137796759605408
0.00930000003427267075 -0.0149792954325675964 0.0145816663280129433
0.00930000003427267075 0.0164447911083698273 -0.00990014895796775818
0.00930000003427267075 -0.00928616151213645935 0.00965009164065122604
0.00930000003427267075 -0.0124183408915996552 0.0125754885375499725
0.00930000003427267075 0.010800863616168499 -0.00863639358431100845
0.00930000003427267075 0.00337147153913974762 0.000158654525876045227
0.00930000003427267075 -0.00439347885549068451 0.00397254340350627899
0.00930000003427267075 0.0175516791641712189 -0.0106150228530168533
0.00930000003427267075 0.019849289208650589 -0.0152890607714653015
0.00930000003427267075 0.0245677735656499863 -0.0160319376736879349
0.00930000003427267075 0.0194780193269252777 -0.00985444150865077972
0.00930000003427267075 0.0233280323445796967 -0.0134277045726776123
0.00930000003427267075 -0.00162775814533233643 0.00474289990961551666
0.00930000003427267075 0.0211998652666807175 -0.016299128532409668
0.00930000003427267075 0.0224639419466257095 -0.0120190531015396118
0.00930000003427267075 -0.0158657003194093704 0.0146824764087796211
0.00930000003427267075 0.0214799772948026657 -0.0136844106018543243
0.00930000003427267075 0.014963255263864994 -0.00736995879560709
0.00930000003427267075 0.0142099084332585335 -0.00599694158881902695
0.00930000003427267075 0.0231576394289731979 -0.0157170537859201431
0.00930000003427267075 0.0219680853188037872 -0.0163006186485290527
0.00930000003427267075 0.0205549243837594986 -0.0104691293090581894
0.00930000003427267075 -0.0125149637460708618 0.0116963647305965424
0.00930000003427267075 -0.000278782099485397339 0.000436535105109214783
0.00930000003427267075 0.0137534216046333313 -0.0109266936779022217
0.00930000003427267075 -0.00267706811428070068 0.00261415168642997742
0.00930000003427267075 0.00954553484916687012 -0.0067058885470032692
0.00930000003427267075 0.00579288788139820099 -0.00238789431750774384
0.00930000003427267075 0.0128386979922652245 -0.00670072436332702637
0.00930000003427267075 -0.0018140207976102829 0.00514939986169338226
0.00930000003427267075 -0.00977325811982154846 0.0107885105535387993
0.00930000003427267075 0.00175171345472335815 0.000461935997009277344
0.00930000003427267075 0.0175576731562614441 -0.0149826249107718468
0.00930000003427267075 0.0083673577755689621 -0.00613216031342744827
0.00930000003427267075 -0.00353508070111274719 0.00519619137048721313
0.00930000003427267075 0.0217619854956865311 -0.0159795172512531281
0.00930000003427267075 0.00480311736464500427 -0.00420473329722881317
0.00930000003427267075 0.0154895996674895287 -0.0070620216429233551
0.00930000003427267075 0.00776210054755210876 -0.00507769547402858734
0.00930000003427267075 0.00698868371546268463 -0.00443961005657911301
0.00930000003427267075 0.0233088359236717224 -0.0141121353954076767
0.00930000003427267075 0.0143080996349453926 -0.00922507233917713165
0.00930000003427267075 0.0123558463528752327 -0.010059642605483532
0.00930000003427267075 -0.0184510089457035065 0.0165509767830371857
0.00930000003427267075 0.0147636439651250839 -0.00880926288664340973
0.00930000003427267075 0.00845939852297306061 -0.00269388407468795776
0.00930000003427267075 -0.0114578083157539368 0.0123983239755034447
0.00930000003427267075 0.0199998375028371811 -0.0127870803698897362
0.00930000003427267075 -0.00855872966349124908 0.00876497011631727219
0.00930000003427267075 -0.00196111202239990234 0.00353354029357433319
0.00930000003427267075 0.0164945740252733231 -0.00787984207272529602
0.00930000003427267075 0.00884741358458995819 -0.00358654186129570007
0.00930000003427267075 -0.00198975019156932831 0.00353624299168586731
0.00930000003427267075 0.0217013433575630188 -0.0123199131339788437
0.00930000003427267075 0.0244913380593061447 -0.0137187084183096886
0.00930000003427267075 0.00564177893102169037 -0.0013174423947930336
0.00930000003427267075 0.00561026483774185181 -0.00101348757743835449
0.00930000003427267075 0.0169965270906686783 -0.0137805230915546417
0.00930000003427267075 0.0173527263104915619 -0.011470411904156208
0.00930000003427267075 0.0189959220588207245 -0.00910851266235113144
0.00930000003427267075 -0.0124675780534744263 0.0120596643537282944
0.00930000003427267075 0.0122374314814805984 -0.00759623851627111435
0.00930000003427267075 0.0138207422569394112 -0.0118666645139455795
0.00930000003427267075 0.0259842947125434875 -0.0156588219106197357
0.00930000003427267075 0.0263368077576160431 -0.0155405299738049507
0.00930000003427267075 -0.000894755125045776367 0.00420792028307914734
0.00930000003427267075 -0.0102309677749872208 0.0110354283824563026
0.00930000003427267075 0.0074381362646818161 -0.00132361147552728653
0.00930000003427267075 0.0117540862411260605 -0.00887737050652503967
0.00930000003427267075 0.0196818485856056213 -0.00953074917197227478
0.00930000003427267075 0.0184893757104873657 -0.0128165930509567261
0.00930000003427267075 -0.00461678206920623779 0.0076579628512263298
0.00930000003427267075 0.0141830462962388992 -0.0122367646545171738
0.00930000003427267075 0.0121016008779406548 -0.00969288311898708344
0.00930000003427267075 0.0100326612591743469 -0.00448641367256641388
0.00930000003427267075 0.0206367485225200653 -0.0156443230807781219
0.00930000003427267075 0.0176083426922559738 -0.0104583483189344406
0.00930000003427267075 0.0148386098444461823 -0.00865280628204345703
0.00930000003427267075 0.0247836336493492126 -0.00499772652983665466
0.00930000003427267075 0.0237169675529003143 -0.00898205488920211792
0.00930000003427267075 -0.0134940240532159805 0.0147612160071730614
0.00930000003427267075 0.0178673304617404938 -0.00653039198368787766
0.00930000003427267075 0.0229987651109695435 -0.0068896561861038208
0.00930000003427267075 0.0204769596457481384 -0.00923475902527570724
0.00930000003427267075 -0.0162236373871564865 0.016015663743019104
0.00930000003427267075 0.0261368583887815475 -0.00838774349540472031
0.00930000003427267075 0.0290816202759742737 -0.00873322226107120514
0.00930000003427267075 0.0185560025274753571 -0.00590144935995340347
0.00930000003427267075 0.00957589782774448395 -0.00203727185726165771
0.00930000003427267075 0.0139404144138097763 -0.00277733523398637772
0.00930000003427267075 0.00611730292439460754 0.00141278654336929321
0.00930000003427267075 0.0100840479135513306 -0.000207050703465938568
0.00930000003427267075 -0.0160810314118862152 0.0158820059150457382
0.00930000003427267075 0.0281263943761587143 -0.00814997591078281403
0.00930000003427267075 0.0220261458307504654 -0.00680759036913514137
0.00930000003427267075 4.65307384729385376e-05 0.008182574063539505
0.00930000003427267075 -0.00199497677385807037 0.00649351254105567932
0.00930000003427267075 -0.00830347277224063873 0.0116841113194823265
0.00930000003427267075 0.01890532486140728 -0.00809280946850776672
0.00930000003427267075 0.0209166985005140305 -0.00435527879744768143
0.00930000003427267075 -0.00760048627853393555 0.0118089206516742706
0.00930000003427267075 0.014652663841843605 -0.000103091821074485779
0.00930000003427267075 0.0219955276697874069 -0.00960712786763906479
0.00930000003427267075 0.018164999783039093 -0.00472268601879477501
0.00930000003427267075 0.00320216082036495209 0.0040681036189198494
0.00930000003427267075 0.0274022761732339859 -0.0103915892541408539
0.00930000003427267075 0.0191092360764741898 -0.00303570833057165146
0.00930000003427267075 0.0070438086986541748 0.00125720258802175522
0.00930000003427267075 0.0258613359183073044 -0.0121390130370855331
0.00930000003427267075 0.0165603384375572205 -0.00173212029039859772
0.00930000003427267075 0.019590204581618309 -0.008496822789311409
0.00930000003427267075 -0.00778463669121265411 0.0108949774876236916
0.00930000003427267075 -0.0168001521378755569 0.0166728291660547256
0.00930000003427267075 0.00969299301505088806 -0.00162086915224790573
0.00930000003427267075 0.0222979504615068436 -0.0108744073659181595
0.00930000003427267075 0.0250175278633832932 -0.0100141521543264389
0.00930000003427267075 0.00318332947790622711 0.00447653979063034058
0.00930000003427267075 0.0198856741189956665 -0.00430972594767808914
0.00930000003427267075 0.0259874574840068817 -0.013207046315073967
0.00930000003427267075 0.00571597367525100708 0.00343344733119010925
0.00930000003427267075 0.0227363109588623047 -0.00913429073989391327
0.00930000003427267075 0.0144748231396079063 -0.000861598178744316101
0.00930000003427267075 -0.00494884513318538666 0.00867568328976631165
0.00930000003427267075 0.0225130040198564529 -0.00711537431925535202
0.00930000003427267075 0.0193305332213640213 -0.00743065495043992996
0.00930000003427267075 0.0278147831559181213 -0.00999201927334070206
0.00930000003427267075 0.0270958393812179565 -0.0116272922605276108
0.00930000003427267075 0.0177137032151222229 -0.00322469696402549744
0.00930000003427267075 0.0215365663170814514 -0.00688955560326576233
0.00930000003427267075 0.0233446229249238968 -0.00852496176958084106
0.00930000003427267075 0.013455389067530632 -0.00165119394659996033
0.00930000003427267075 0.0148016782477498055 -0.00022015860304236412
0.00930000003427267075 0.0127904526889324188 0.000726997852325439453
0.00930000003427267075 0.0152200916782021523 0.000313937198370695114
0.00930000003427267075 0.0195844881236553192 -0.00221259426325559616
0.00930000003427267075 0.0222527813166379929 -0.00743243284523487091
0.00930000003427267075 -0.00332189537584781647 0.00907234568148851395
0.00930000003427267075 -0.00717291422188282013 0.0114016644656658173
0.00930000003427267075 0.0246042311191558838 -0.00813070684671401978
0.00930000003427267075 0.0244171228259801865 -0.00958156399428844452
0.00930000003427267075 0.0111260060220956802 0.000247580930590629578
0.00930000003427267075 0.00739537551999092102 -0.000229596160352230072
0.00930000003427267075 0.0164147317409515381 -0.00679532298818230629
0.00930000003427267075 0.0157915037125349045 -0.00225046835839748383
0.00930000003427267075 0.0247872937470674515 -0.0113727990537881851
0.00930000003427267075 0.0107483770698308945 -0.002754933200776577
0.00930000003427267075 -0.0159169342368841171 0.0156109826639294624
0.00930000003427267075 0.0278486907482147217 -0.00782919581979513168
0.00930000003427267075 0.0197387412190437317 -0.00688780378550291061
0.00930000003427267075 0.0235843099653720856 -0.00896289944648742676
0.00930000003427267075 -0.00282771140336990356 0.0077146897092461586
0.00930000003427267075 -0.000691967085003852844 0.00760691892355680466
0.00930000003427267075 0.0140626989305019379 -0.000219041481614112854
0.00930000003427267075 -0.00763963349163532257 0.0104838013648986816
0.00930000003427267075 0.024672703817486763 -0.011175679974257946
0.00930000003427267075 -0.00105027481913566589 0.00819698348641395569
0.00930000003427267075 -0.003453107550740242 0.00708112772554159164
0.00930000003427267075 -0.0119159948080778122 0.0134547008201479912
0.00930000003427267075 0.0165576301515102386 -0.00235831039026379585
0.00930000003427267075 0.0183716025203466415 -0.00724302511662244797
0.00930000003427267075 0.0203162543475627899 -0.0042023402638733387
0.00930000003427267075 0.0271835159510374069 -0.00935571733862161636
0.00930000003427267075 -0.00938501954078674316 0.0129672344774007797
0.00930000003427267075 0.0260141640901565552 -0.00848285295069217682
0.00930000003427267075 0.00240663811564445496 0.0034906826913356781
0.00930000003427267075 0.0156402289867401123 -0.00159530295059084892
0.00930000003427267075 0.0135243870317935944 0.000521285459399223328
0.00930000003427267075 0.0147478459402918816 9.38773155212402344e-06
0.00930000003427267075 0.0082373153418302536 0.00338824000209569931
0.00930000003427267075 -1.87531113624572754e-05 0.00545874889940023422
0.00930000003427267075 -0.0129721909761428833 0.0145569602027535439
0.00930000003427267075 0.00610380619764328003 0.000715841539204120636
0.00930000003427267075 0.0255673285573720932 -0.00872359983623027802
0.00930000003427267075 0.00189640745520591736 0.00468546804040670395
0.00930000003427267075 0.0200253725051879883 -0.00478387670591473579
0.00930000003427267075 0.0104918349534273148 0.000213471241295337677
0.00930000003427267075 0.00529096461832523346 0.00389130879193544388
0.00930000003427267075 0.0143033424392342567 -0.00283699855208396912
0.00930000003427267075 0.0114134065806865692 0.00178172532469034195
0.00930000003427267075 0.0138269485905766487 -0.00345160532742738724
0.00930000003427267075 0.0184190180152654648 -0.00305278971791267395
0.00930000003427267075 0.0139123257249593735 1.36308372020721436e-05
0.00930000003427267075 0.0215160250663757324 -0.0085295848548412323
0.00930000003427267075 0.0219228193163871765 -0.00771762710064649582
0.00930000003427267075 0.0206495486199855804 -0.00637327414005994797
0.00930000003427267075 0.0249725095927715302 -0.00582859013229608536
0.00930000003427267075 0.0074556153267621994 0.00343627762049436569
0.00930000003427267075 0.00716320611536502838 0.00329287443310022354
0.00930000003427267075 -0.00826034881174564362 0.0104502448812127113
0.00930000003427267075 0.00461733154952526093 0.00390284974128007889
0.00930000003427267075 0.000413725152611732483 0.00691989902406930923
0.00930000003427267075 0.0149465408176183701 -0.0021949070505797863
0.00930000003427267075 0.0273030009120702744 -0.0065100034698843956
0.00930000003427267075 0.0186066441237926483 -0.00756514910608530045
0.00930000003427267075 -0.00406580232083797455 0.00872030854225158691
0.00930000003427267075 0.0217512324452400208 -0.00616469141095876694
0.00930000003427267075 -0.00778457336127758026 0.0111819515004754066
0.00930000003427267075 0.0214539635926485062 -0.00621117884293198586
0.00930000003427267075 0.0249897409230470657 -0.0089716445654630661
0.00930000003427267075 0.0171371549367904663 -0.00300653139129281044
0.00930000003427267075 0.0203850008547306061 -0.00647697504609823227
0.00930000003427267075 0.023855745792388916 -0.00964730605483055115
0.00930000003427267075 0.0253435336053371429 -0.0072313421405851841
0.00930000003427267075 0.000628247857093811035 0.00616660341620445251
0.00930000003427267075 0.0263646822422742844 -0.0095790419727563858
0.00930000003427267075 0.00627974234521389008 0.00204483699053525925
0.00930000003427267075 0.0121045764535665512 -0.00128540676087141037
0.00930000003427267075 0.0253019146621227264 -0.00743364868685603142
0.00930000003427267075 0.0195023491978645325 -0.00839237030595541
0.00930000003427267075 0.0124148204922676086 -0.00267621967941522598
0.00930000003427267075 0.00799567624926567078 0.00265743769705295563
0.00930000003427267075 0.0199455991387367249 -0.00689067831262946129
0.00930000003427267075 0.0250722579658031464 -0.00668867724016308784
0.00930000003427267075 -0.0119316056370735168 0.0136457961052656174
0.00930000003427267075 0.0159117914736270905 -0.00353005854412913322
0.00930000003427267075 -0.00248949229717254639 0.00712307728826999664
0.00930000003427267075 0.00560784526169300079 0.00286916922777891159
0.00930000003427267075 0.00517581216990947723 0.00368306506425142288
0.00930000003427267075 0.0161424428224563599 -0.000814272556453943253
0.00930000003427267075 0.00952962413430213928 0.00632181903347373009
0.00930000003427267075 0.0138750225305557251 0.00171157438308000565
0.00930000003427267075 0.0162310078740119934 0.000286081340163946152
0.00930000003427267075 0.0283038560301065445 -0.00305508077144622803
0.00930000003427267075 0.0185040980577468872 0.00428493274375796318
0.00930000003427267075 0.00649947300553321838 0.00709969270974397659
0.00930000003427267075 0.0208308938890695572 0.00222838064655661583
0.00930000003427267075 0.00695401430130004883 0.00780285662040114403
0.00930000003427267075 0.0285741724073886871 -0.00600875914096832275
0.00930000003427267075 0.0266020745038986206 0.0011872884351760149
0.00930000003427267075 0.0181348212063312531 0.00159826525487005711
0.00930000003427267075 0.00179749354720115662 0.00739280786365270615
0.00930000003427267075 0.0231284685432910919 -0.000763239804655313492
0.00930000003427267075 0.0219620447605848312 -6.91032037138938904e-05
0.00930000003427267075 0.0202308893203735352 0.00118066929280757904
0.00930000003427267075 0.0289879478514194489 -0.00126464711502194405
0.00930000003427267075 0.0280292462557554245 -0.00622307322919368744
0.00930000003427267075 -6.50193542242050171e-05 0.0110009144991636276
0.00930000003427267075 0.0142513103783130646 0.00615506572648882866
0.00930000003427267075 0.0145702585577964783 0.00425907503813505173
0.00930000003427267075 0.02087385393679142 -0.000148389721289277077
0.00930000003427267075 0.0226523987948894501 0.00296022230759263039
0.00930000003427267075 0.00585019588470458984 0.00913929473608732224
0.00930000003427267075 0.0204881411045789719 0.00379688572138547897
0.00930000003427267075 0.012341327965259552 0.00681182881817221642
0.00930000003427267075 0.0111316852271556854 0.00546925235539674759
0.00930000003427267075 0.0165188126266002655 0.00165649061091244221
0.00930000003427267075 0.0246365666389465332 -0.00390236335806548595
0.00930000003427267075 0.000680847093462944031 0.00903663039207458496
0.00930000003427267075 0.0226319506764411926 -0.00245464639738202095
0.00930000003427267075 0.0094930846244096756 0.0052555697038769722
0.00930000003427267075 0.0209089033305644989 -0.00198281276971101761
0.00930000003427267075 0.0246611163020133972 0.000651343027129769325
0.00930000003427267075 0.0268770996481180191 -0.00417156238108873367
0.00930000003427267075 0.0181414801627397537 -0.000539499800652265549
0.00930000003427267075 0.0247993431985378265 -0.00321909529156982899
0.00930000003427267075 0.0121193397790193558 0.00451460480690002441
0.00930000003427267075 0.0265254657715559006 -0.00542437657713890076
0.00930000003427267075 0.0117326434701681137 0.00472536589950323105
0.00930000003427267075 0.017045099288225174 0.00166311045177280903
0.00930000003427267075 0.00998749770224094391 0.00711160106584429741
0.00930000003427267075 0.00412609986960887909 0.00863568112254142761
0.00930000003427267075 0.00115676037967205048 0.0103761395439505577
0.00930000003427267075 -0.00682112015783786774 0.013640853576362133
0.00930000003427267075 -0.00997895188629627228 0.0144677739590406418
0.00930000003427267075 0.00540501251816749573 0.00639777490869164467
0.00930000003427267075 0.00142490677535533905 0.0104849999770522118
0.00930000003427267075 0.0177052952349185944 0.00135075696744024754
0.00930000003427267075 -0.0115366224199533463 0.0149453924968838692
0.00930000003427267075 0.0188909284770488739 0.000894307158887386322
0.00930000003427267075 0.00818388350307941437 0.00811434444040060043
0.00930000003427267075 0.0178891178220510483 0.000370317604392766953
0.00930000003427267075 0.0127433016896247864 0.00594284292310476303
0.00930000003427267075 0.0245012063533067703 0.00144045031629502773
0.00930000003427267075 0.0174024775624275208 0.000759586691856384277
0.00930000003427267075 0.014819655567407608 0.00560368504375219345
0.00930000003427267075 -0.00796722061932086945 0.0133918263018131256
0.00930000003427267075 0.00944116152822971344 0.00729132629930973053
0.00930000003427267075 0.0291991699486970901 -0.000680471130181103945
0.00930000003427267075 0.011710749939084053 0.0064213750883936882
0.00930000003427267075 0.00681092590093612671 0.0069353184662759304
0.00930000003427267075 0.0289576370269060135 -0.00229014386422932148
0.00930000003427267075 -0.013064652681350708 0.0165821649134159088
0.00930000003427267075 0.0297204609960317612 -0.00425830716267228127
0.00930000003427267075 0.0297362525016069412 -0.00301476381719112396
0.00930000003427267075 0.0297370273619890213 -0.000726928934454917908
0.00930000003427267075 0.0305393114686012268 -0.000810678815469145775
0.00930000003427267075 0.00336969830095767975 0.00998058170080184937
0.00930000003427267075 -0.00137226469814777374 0.0101331537589430809
0.00930000003427267075 0.0274004675447940826 -0.0042769494466483593
0.00930000003427267075 0.016518179327249527 0.00344846583902835846
0.00930000003427267075 0.0106777586042881012 0.00542142428457736969
0.00930000003427267075 0.0107183940708637238 0.00277171842753887177
0.00930000003427267075 -0.00366465188562870026 0.0118933282792568207
0.00930000003427267075 0.00761135481297969818 0.0060132024809718132
0.00930000003427267075 -0.00325151532888412476 0.010151127353310585
0.00930000003427267075 -0.0137141253799200058 0.0160664021968841553
0.00930000003427267075 0.00882277823984622955 0.00771550834178924561
0.00930000003427267075 -0.00527728535234928131 0.0130152683705091476
0.00930000003427267075 0.015784040093421936 0.00019773188978433609
0.00930000003427267075 -0.0066876877099275589 0.0140899764373898506
0.00930000003427267075 0.0260958746075630188 -0.0010863809147849679
0.00930000003427267075 0.0177702344954013824 0.000545106362551450729
0.00930000003427267075 -0.000402620062232017517 0.0088601335883140564
0.00930000003427267075 0.0259345062077045441 0.00174645474180579185
0.00930000003427267075 0.00470019690692424774 0.00892882701009511948
0.00930000003427267075 -0.0119878873229026794 0.0158469304442405701
0.00930000003427267075 0.0131394565105438232 0.00320459483191370964
0.00930000003427267075 0.00733946263790130615 0.00752977514639496803
0.00930000003427267075 0.02731318399310112 -0.00312085868790745735
0.00930000003427267075 0.0233236253261566162 0.00237572775222361088
0.00930000003427267075 0.0132684409618377686 0.00601441087201237679
0.00930000003427267075 -0.00500048324465751648 0.0115051651373505592
0.00930000003427267075 0.0183400139212608337 0.00406914111226797104
0.00930000003427267075 0.0299490652978420258 -0.00237494520843029022
0.00930000003427267075 0.00237807817757129669 0.00778600387275218964
0.00930000003427267075 0.0142116118222475052 0.00563739053905010223
0.00930000003427267075 0.0198774896562099457 0.000991112086921930313
0.00930000003427267075 -0.00459060072898864746 0.01238982193171978
0.00930000003427267075 0.00808162614703178406 0.00436919508501887321
0.00930000003427267075 0.00253844261169433594 0.0105080828070640564
0.00930000003427267075 0.00904283672571182251 0.00684160040691494942
0.00930000003427267075 0.0112612489610910416 0.00294675538316369057
0.00930000003427267075 0.0012006368488073349 0.010409211739897728
0.00930000003427267075 0.0236729271709918976 -0.00328681408427655697
0.00930000003427267075 -0.0163056887686252594 0.0173672586679458618
0.00930000003427267075 0.0267684329301118851 0.000979883596301078796
0.00930000003427267075 -0.0209986977279186249 0.0196214132010936737
0.00930000003427267075 -0.00258073024451732635 0.0124282324686646461
0.00930000003427267075 0.00552934780716896057 0.00641221180558204651
0.00930000003427267075 0.022587604820728302 0.00171889364719390869
0.00930000003427267075 -0.00197711214423179626 0.011185946874320507
0.00930000003427267075 0.026784917339682579 -0.00246404716745018959
0.00930000003427267075 0.0245862379670143127 0.0014077888336032629
0.00930000003427267075 0.000638816505670547485 0.0113258576020598412
0.00930000003427267075 0.0165443532168865204 0.00475316867232322693
0.00930000003427267075 0.00853963755071163177 0.00543164322152733803
0.00930000003427267075 0.00933920219540596008 0.00516093475744128227
0.00930000003427267075 0.00955105014145374298 0.00739209866151213646
0.00930000003427267075 0.0192312151193618774 0.00197901180945336819
0.00930000003427267075 0.0282812584191560745 -0.00431240256875753403
0.00930000003427267075 0.0153001677244901657 0.0035341575276106596
0.00930000003427267075 0.00379160232841968536 0.00693754013627767563
0.00930000003427267075 0.0226272400468587875 -0.00300301588140428066
0.00930000003427267075 0.00808864645659923553 0.00588959734886884689
0.00930000003427267075 0.0270429030060768127 -0.00375714944675564766
0.00930000003427267075 0.0235039331018924713 -0.00126410904340445995
0.00930000003427267075 0.0270361490547657013 -0.0032320595346391201
0.00930000003427267075 0.0276458635926246643 -0.00605915393680334091
0.00930000003427267075 0.0285876244306564331 -0.000979746924713253975
0.00930000003427267075 0.018538009375333786 0.00432906532660126686
0.00930000003427267075 -0.00694920308887958527 0.0141943236812949181
0.00930000003427267075 0.0152485370635986328 0.001618941780179739
0.00930000003427267075 0.0188630186021327972 0.00722890673205256462
0.00930000003427267075 0.0204444341361522675 0.00745443906635046005
0.00930000003427267075 0.02561197429895401 0.00600234931334853172
0.00930000003427267075 0.0235549844801425934 0.0040517980232834816
0.00930000003427267075 0.0256096404045820236 0.00337883364409208298
0.00930000003427267075 -0.0213798303157091141 0.0199677757918834686
0.00930000003427267075 -0.00453643128275871277 0.0137888342142105103
0.00930000003427267075 0.0279073789715766907 0.00344910076819360256
0.00930000003427267075 0.00287372991442680359 0.0117502501234412193
0.00930000003427267075 -0.00350046157836914062 0.0139331091195344925
0.00930000003427267075 -0.0118914693593978882 0.0165254734456539154
0.00930000003427267075 0.00630711019039154053 0.0110946530476212502
0.00930000003427267075 -0.0131061393767595291 0.0178673919290304184
0.00930000003427267075 0.0186087153851985931 0.00699325278401374817
0.00930000003427267075 0.022643236443400383 0.00349111645482480526
0.00930000003427267075 -0.0161533895879983902 0.0182241871953010559
0.00930000003427267075 0.0284415148198604584 0.00413718679919838905
0.00930000003427267075 0.0172615703195333481 0.0087680155411362648
0.00930000003427267075 0.0297966543585062027 0.00107994698919355869
0.00930000003427267075 0.00269501097500324249 0.012146814726293087
0.00930000003427267075 0.0166620053350925446 0.00984061788767576218
0.00930000003427267075 0.0270458050072193146 0.00436430471017956734
0.00930000003427267075 0.0105900168418884277 0.01163511723279953
0.00930000003427267075 0.0152128506451845169 0.00844944454729557037
0.00930000003427267075 0.0277152154594659805 0.00339538347907364368
0.00930000003427267075 0.0251579657196998596 0.00777603359892964363
0.00930000003427267075 0.0272388216108083725 0.00635658344253897667
0.00930000003427267075 0.0216315574944019318 0.00536104012280702591
0.00930000003427267075 0.0257837623357772827 0.00413280259817838669
0.00930000003427267075 0.00822625495493412018 0.0108489179983735085
0.00930000003427267075 0.0160437151789665222 0.00980987213551998138
0.00930000003427267075 0.0203332081437110901 0.00929037667810916901
0.00930000003427267075 -0.00989280454814434052 0.0157692618668079376
0.00930000003427267075 0.0282579809427261353 0.00585888372734189034
0.00930000003427267075 0.0116313435137271881 0.0111130662262439728
0.00930000003427267075 0.00998240150511264801 0.00963249336928129196
0.00930000003427267075 0.00769771076738834381 0.0115194953978061676
0.00930000003427267075 0.0107541587203741074 0.00825310871005058289
0.00930000003427267075 -0.00600362010300159454 0.0157552231103181839
0.00930000003427267075 0.0147239668294787407 0.00964652001857757568
0.00930000003427267075 -0.00876413844525814056 0.0166623033583164215
0.00930000003427267075 0.0100172366946935654 0.0102632567286491394
0.00930000003427267075 0.00378111936151981354 0.0110906027257442474
0.00930000003427267075 0.0254955701529979706 0.0028551474679261446
0.00930000003427267075 0.00395451486110687256 0.0135073401033878326
0.00930000003427267075 -0.00296085700392723083 0.0140311717987060547
0.00930000003427267075 -0.000197779387235641479 0.0117769604548811913
0.00930000003427267075 0.00762270763516426086 0.0122445691376924515
0.00930000003427267075 0.0153470421209931374 0.00743955466896295547
0.00930000003427267075 0.0227427389472723007 0.00498677603900432587
0.00930000003427267075 0.00868432223796844482 0.00938578322529792786
0.00930000003427267075 0.0039111655205488205 0.011914348229765892
0.00930000003427267075 0.00997803173959255219 0.0108610019087791443
0.00930000003427267075 0.00300037674605846405 0.0115239452570676804
0.00930000003427267075 0.0287841856479644775 0.00718134688213467598
0.00930000003427267075 0.0151246162131428719 0.00725833093747496605
0.00930000003427267075 0.00775302015244960785 0.0124161727726459503
0.00930000003427267075 0.0125250630080699921 0.0110534438863396645
0.00930000003427267075 0.00946793332695960999 0.0118781458586454391
0.00930000003427267075 0.0138494987040758133 0.00953840650618076324
0.00930000003427267075 0.0159919150173664093 0.00633922172710299492
0.00930000003427267075 0.0268741250038146973 0.004222148098051548
0.00930000003427267075 -0.00790634006261825562 0.0157174821943044662
0.00930000003427267075 0.0253317020833492279 0.00594287645071744919
0.00930000003427267075 0.0258735865354537964 0.00511268805712461472
0.00930000003427267075 0.0216147284954786301 0.00733621930703520775
0.00930000003427267075 0.0245181936770677567 0.00525427749380469322
0.00930000003427267075 0.0148997856304049492 0.0110436072573065758
0.00930000003427267075 0.027874581515789032 0.00514048431068658829
0.00930000003427267075 -0.010587599128484726 0.0161484405398368835
0.00930000003427267075 0.0133184175938367844 0.00802446343004703522
0.00930000003427267075 0.00384614989161491394 0.0115167591720819473
0.00930000003427267075 -0.00920469686388969421 0.0156180411577224731
0.00930000003427267075 0.0121028684079647064 0.0095116226002573967
0.00930000003427267075 0.0289086513221263885 0.00500824116170406342
0.00930000003427267075 0.00704855844378471375 0.00990590453147888184
0.00930000003427267075 0.0240771602839231491 0.00346995797008275986
0.00930000003427267075 0.0147548168897628784 0.00958440080285072327
0.00930000003427267075 0.0206736624240875244 0.00492782890796661377
0.00930000003427267075 0.0139715243130922318 0.00699099991470575333
0.00930000003427267075 0.00215828791260719299 0.0135224107652902603
0.00930000003427267075 0.0172817762941122055 0.00595477456226944923
0.00930000003427267075 0.0211717113852500916 0.00426775962114334106
0.00930000003427267075 0.0200520381331443787 0.00822615344077348709
0.00930000003427267075 0.013430371880531311 0.0102531425654888153
0.00930000003427267075 0.0105286892503499985 0.00806448422372341156
0.00930000003427267075 0.0065269172191619873 0.0115611664950847626
0.00930000003427267075 0.0149785177782177925 0.0071193380281329155
0.00930000003427267075 0.00936381146311759949 0.00900203734636306763
0.00930000003427267075 0.0284826233983039856 0.00579833472147583961
0.00930000003427267075 0.0116481482982635498 0.0103502487763762474
0.00930000003427267075 0.0026689581573009491 0.0126491673290729523
0.00930000003427267075 0.030382378026843071 0.00227877497673034668
0.00930000003427267075 -0.00281684286892414093 0.0153923239558935165
0.00930000003427267075 0.020923977717757225 0.00433263927698135376
0.00930000003427267075 0.0266471747308969498 0.0063716517761349678
0.00930000003427267075 0.0187036469578742981 0.0089752785861492157
0.00930000003427267075 0.014268137514591217 0.00740187754854559898
0.00930000003427267075 0.0158744398504495621 0.00935499370098114014
0.00930000003427267075 -0.00815393403172492981 0.0165281612426042557
0.00930000003427267075 0.0210775285959243774 0.00471267197281122208
0.00930000003427267075 0.0250822994858026505 0.00407818332314491272
0.00930000003427267075 -0.0139964316040277481 0.0176942702382802963
0.00930000003427267075 -0.00677523016929626465 0.0155916353687644005
0.00930000003427267075 0.0142306238412857056 0.00763976573944091797
0.00930000003427267075 0.0173468217253684998 0.00979920011013746262
0.00930000003427267075 0.0132895577698945999 0.00737445661798119545
0.00930000003427267075 0.0212425608187913895 0.00876005738973617554
0.00930000003427267075 0.000382756814360618591 0.0131658958271145821
0.00930000003427267075 0.0171276852488517761 0.0105114709585905075
0.00930000003427267075 0.026485612615942955 0.00474100466817617416
0.00930000003427267075 0.0169259849935770035 0.0097424481064081192
0.00930000003427267075 0.0244838818907737732 0.00778772123157978058
0.00930000003427267075 -0.005588507279753685 0.0155439451336860657
0.00930000003427267075 0.0102727897465229034 0.00888115540146827698
0.00930000003427267075 0.0290071964263916016 0.00250702374614775181
0.00930000003427267075 0.00938866101205348969 0.0115124955773353577
0.00930000003427267075 0.0111279785633087158 0.00909454002976417542
0.00930000003427267075 0.0203016400337219238 0.00696012610569596291
0.00930000003427267075 0.0281542688608169556 0.00289442832581698895
0.00930000003427267075 0.006764192134141922 0.01262709591537714
0.00930000003427267075 0.0189789049327373505 0.0137008614838123322
0.00930000003427267075 0.00983079522848129272 0.0128239449113607407
0.00930000003427267075 0.0201609600335359573 0.0103222327306866646
0.00930000003427267075 0.0202571935951709747 0.0135381957516074181
0.00930000003427267075 0.0146022327244281769 0.0113527672365307808
0.00930000003427267075 0.0211729425936937332 0.0113175055012106895
0.00930000003427267075 -0.00225635431706905365 0.0169194191694259644
0.00930000003427267075 0.0147103909403085709 0.0135584110394120216
0.00930000003427267075 0.00717811845242977142 0.0134305525571107864
0.00930000003427267075 0.00786317698657512665 0.0154754305258393288
0.00930000003427267075 0.0200679581612348557 0.00998760014772415161
0.00930000003427267075 0.00356497429311275482 0.0167617481201887131
0.00930000003427267075 0.0173990409821271896 0.0137102296575903893
0.00930000003427267075 0.0171375982463359833 0.0145465591922402382
0.00930000003427267075 0.0241672322154045105 0.0110712610185146332
0.00930000003427267075 0.0258576422929763794 0.0142346592620015144
0.00930000003427267075 0.0209868699312210083 0.0132377110421657562
0.00930000003427267075 0.0201686900109052658 0.0133908065035939217
0.00930000003427267075 -0.0131276436150074005 0.0185034051537513733
0.00930000003427267075 0.0264656636863946915 0.010468597523868084
0.00930000003427267075 -0.00101011805236339569 0.0154693881049752235
0.00930000003427267075 0.00516743957996368408 0.0158296935260295868
0.00930000003427267075 -0.00368902832269668579 0.0159757304936647415
0.00930000003427267075 0.0151235898956656456 0.0125266043469309807
0.00930000003427267075 0.0201871618628501892 0.00997207313776016235
0.00930000003427267075 0.0195510946214199066 0.0100606335327029228
0.00930000003427267075 -0.00242913886904716492 0.0159206092357635498
0.00930000003427267075 -0.0107234269380569458 0.0176209527999162674
0.00930000003427267075 0.0197415463626384735 0.0118615468963980675
0.00930000003427267075 0.00306661054491996765 0.0169382896274328232
0.00930000003427267075 0.0136635564267635345 0.0145151121541857719
0.00930000003427267075 0.00426580943167209625 0.0141600891947746277
0.00930000003427267075 -0.00170289352536201477 0.0169152505695819855
0.00930000003427267075 0.0238747242838144302 0.0138348545879125595
0.00930000003427267075 0.0138456197455525398 0.0140250604599714279
0.00930000003427267075 0.0109827257692813873 0.0133173009380698204
0.00930000003427267075 -0.0113022699952125549 0.0186648666858673096
0.00930000003427267075 0.0263668708503246307 0.0106024807319045067
0.00930000003427267075 0.00509259290993213654 0.0150056108832359314
0.00930000003427267075 0.0242264978587627411 0.0112706534564495087
0.00930000003427267075 -0.00595574267208576202 0.0175920911133289337
0.00930000003427267075 0.0126980897039175034 0.0156633555889129639
0.00930000003427267075 -0.0191634725779294968 0.0198274236172437668
0.00930000003427267075 0.0108344946056604385 0.0122918225824832916
0.00930000003427267075 0.00400615669786930084 0.0142625942826271057
0.00930000003427267075 0.0240214057266712189 0.01221456378698349
0.00930000003427267075 0.000329047441482543945 0.0157081298530101776
0.00930000003427267075 0.00661570020020008087 0.014147469773888588
0.00930000003427267075 0.0130532020702958107 0.0150824561715126038
0.00930000003427267075 0.021365433931350708 0.0141513003036379814
0.00930000003427267075 -0.0149022452533245087 0.0187833122909069061
0.00930000003427267075 0.0183953456580638885 0.0143375787883996964
0.00930000003427267075 0.00741883739829063416 0.0142552983015775681
0.00930000003427267075 0.0253271833062171936 0.0110707506537437439
0.00930000003427267075 0.0206168815493583679 0.0124681014567613602
0.00930000003427267075 -0.00418472848832607269 0.0171976909041404724
0.00930000003427267075 0.00964962318539619446 0.0126577978953719139
0.00930000003427267075 0.00210692360997200012 0.0154119124636054039
0.00930000003427267075 0.0170912612229585648 0.0145038440823554993
0.00930000003427267075 0.0212386921048164368 0.0147154722362756729
0.00930000003427267075 0.0260336287319660187 0.0116818435490131378
0.00930000003427267075 0.0182924047112464905 0.0126104783266782761
0.00930000003427267075 0.00185906141996383667 0.0153071312233805656
0.00930000003427267075 0.00565238110721111298 0.0142398625612258911
0.00930000003427267075 0.0166829582303762436 0.0111352801322937012
0.00930000003427267075 0.0045795198529958725 0.0142954960465431213
0.00930000003427267075 -0.00647178292274475098 0.0163845513015985489
0.00930000003427267075 0.0113064218312501907 0.0126239974051713943
0.00930000003427267075 0.0113305039703845978 0.0120305400341749191
0.00930000003427267075 -0.0131360925734043121 0.0191087853163480759
0.00930000003427267075 0.0262531545013189316 0.0096381092444062233
0.00930000003427267075 0.00286749191582202911 0.0169383697211742401
0.00930000003427267075 0.0267214644700288773 0.0123021900653839111
0.00930000003427267075 0.0182476043701171875 0.0152463987469673157
0.00930000003427267075 0.0246602483093738556 0.0124958697706460953
0.00930000003427267075 0.0178072545677423477 0.0150909861549735069
0.00930000003427267075 0.0262506231665611267 0.0104578053578734398
0.00930000003427267075 0.00354364700615406036 0.0166601762175559998
0.00930000003427267075 -0.00655490532517433167 0.0174288824200630188
0.00930000003427267075 -0.000775750726461410522 0.0159850548952817917
0.00930000003427267075 0.0232247002422809601 0.00997152179479598999
