ply
format ascii 1.0
element vertex 706
property float x
property float y
property float z
end_header
-0.00756554119288921356 0.0189882032573223114 0.00848793331533670425
-0.00878884363919496536 0.019000418484210968 0.00753564340993762016
-0.00916603859513998032 0.0190041866153478622 0.00222495920024812222
-0.00878657028079032898 0.0190003979951143265 0.00659299502149224281
-0.00593024957925081253 0.0189718753099441528 0.0144478967413306236
-0.00637267110869288445 0.0189762935042381287 0.0140337385237216949
-0.00924024265259504318 0.0190049260854721069 0.00127575453370809555
-0.00810592528432607651 0.0189935993403196335 0.00473137246444821358
-0.00502232834696769714 0.0189628098160028458 0.0176742821931838989
-0.0044204038567841053 0.0189568009227514267 0.0210704971104860306
-0.00669320393353700638 0.0189794935286045074 0.0141709158197045326
-0.00786504708230495453 0.0189911965280771255 0.00669337064027786255
-0.00981130078434944153 0.0190106295049190521 0.00443498603999614716
-0.00762593373656272888 0.0189888067543506622 0.0108572216704487801
-0.00429451605305075645 0.0189555436372756958 0.0222184844315052032
-0.00776341231539845467 0.0189901795238256454 0.00966307055205106735
-0.00497838295996189117 0.0189623702317476273 0.0180891193449497223
-0.0104595785960555077 0.0190171021968126297 0.00320646981708705425
-0.00932958722114562988 0.0190058201551437378 0.00759289367124438286
-0.00845524109899997711 0.0189970880746841431 0.00652607344090938568
-0.00962479598820209503 0.0190087668597698212 0.0013420425821095705
-0.00743907876312732697 0.018986942246556282 0.0120051736012101173
-0.00892239157110452652 0.0190017521381378174 0.00233384547755122185
-0.00897654704749584198 0.0190022941678762436 0.00569268455728888512
-0.00950885284692049026 0.0190076082944869995 0.00408879248425364494
-0.0070625627413392067 0.0189831815659999847 0.0124776279553771019
-0.00921980477869510651 0.0190047211945056915 0.00434803031384944916
-0.0086505301296710968 0.0189990382641553879 0.00493122730404138565
-0.00539973331615328789 0.01896657794713974 0.0183045044541358948
-0.00984722655266523361 0.0190109871327877045 0.00256206467747688293
-0.00779226934537291527 0.0189904682338237762 0.00701820570975542068
-0.00714998552575707436 0.0189840570092201233 0.0139638427644968033
-0.0097110280767083168 0.0190096274018287659 0.00596264097839593887
-0.00651632621884346008 0.0189777277410030365 0.0150796873494982719
-0.00641216430813074112 0.0189766883850097656 0.0142490137368440628
-0.00520166801288723946 0.0189646016806364059 0.00846580509096384048
-0.00555455312132835388 0.0189681239426136017 0.00730222929269075394
-0.00500476313754916191 0.0189626347273588181 0.0166200120002031326
-0.00605360791087150574 0.0189731065183877945 0.00991649460047483444
-0.00514122936874628067 0.0189639981836080551 0.0132372360676527023
-0.00566910440102219582 0.0189692676067352295 0.0132175171747803688
-0.00688109034672379494 0.0189813710749149323 0.00470241066068410873
-0.00624752417206764221 0.0189750436693429947 0.00675961188971996307
-0.00811628066003322601 0.0189937036484479904 0.00273624015972018242
-0.0039555584080517292 0.0189521573483943939 0.0201087016612291336
-0.00600777007639408112 0.0189726501703262329 0.00924357865005731583
-0.00556354271247982979 0.0189682133495807648 0.0120845194905996323
-0.00730023253709077835 0.018985554575920105 0.00339948269538581371
-0.00494831334799528122 0.0189620703458786011 0.0111912442371249199
-0.00645618932321667671 0.0189771279692649841 0.00323244952596724033
-0.00664483942091464996 0.0189790111035108566 0.00829717982560396194
-0.0053032292053103447 0.0189656149595975876 0.00966807268559932709
-0.00556655321270227432 0.0189682450145483017 0.0090711275115609169
-0.0045094415545463562 0.0189576894044876099 0.0162783283740282059
-0.00666086561977863312 0.0189791694283485413 0.00278401607647538185
-0.00677981041371822357 0.0189803577959537506 0.00918547529727220535
-0.00549853499978780746 0.0189675651490688324 0.0139047037810087204
-0.00511935679242014885 0.0189637783914804459 0.0148077020421624184
-0.00585877010598778725 0.0189711619168519974 0.00322153046727180481
-0.00374590884894132614 0.0189500637352466583 0.0227431263774633408
-0.00705819902941584587 0.0189831368625164032 0.00656886491924524307
-0.00580482929944992065 0.0189706236124038696 0.0110128223896026611
-0.00386727764271199703 0.0189512763172388077 0.0218832772225141525
-0.00537329632788896561 0.0189663153141736984 0.00864475779235363007
-0.0055233025923371315 0.0189678128808736801 0.0150697203353047371
-0.00519800698384642601 0.0189645644277334213 0.0123890573158860207
-0.00593579187989234924 0.0189719293266534805 0.00339741585776209831
-0.0048769158311188221 0.0189613588154315948 0.0156100811436772346
-0.00524150440469384193 0.0189649984240531921 0.00693113449960947037
-0.0067694452591240406 0.0189802553504705429 0.00420845812186598778
-0.00582774542272090912 0.018970852717757225 0.010405147448182106
-0.00484894588589668274 0.0189610794186592102 0.0180767346173524857
-0.00784321688115596771 0.0189909767359495163 0.00404683779925107956
-0.00383123639039695263 0.0189509168267250061 0.0215142387896776199
-0.00517458934336900711 0.0189643315970897675 0.0166284758597612381
-0.00704011460766196251 0.0189829561859369278 0.00420159986242651939
-0.00421063462272286415 0.0189547054469585419 0.0189706720411777496
-0.00532134110108017921 0.018965795636177063 0.00889527704566717148
-0.00493369204923510551 0.0189619250595569611 0.0171415992081165314
-0.00504685100167989731 0.018963053822517395 0.00975398626178503036
-0.00499636773020029068 0.0189625509083271027 0.0163988098502159119
-0.00494530564174056053 0.0189620405435562134 0.00992726534605026245
-0.00455789826810359955 0.0189581718295812607 0.0195073913782835007
-0.00447195954620838165 0.0189573150128126144 0.0143163911998271942
-0.00691012898460030556 0.018981659784913063 0.00598227512091398239
-0.00569874327629804611 0.0189695637673139572 0.00579393748193979263
-0.00500656990334391594 0.0189626514911651611 0.0109550673514604568
-0.00485263252630829811 0.0189611166715621948 0.0173457600176334381
-0.00609172694385051727 0.0189734864979982376 0.00607149442657828331
-0.00752135179936885834 0.0189877636730670929 0.00573345273733139038
-0.00491016218438744545 0.0189616885036230087 0.0123173985630273819
-0.0058272690512239933 0.0189708471298217773 0.0124801443889737129
-0.00509470514953136444 0.0189635325223207474 0.0105695193633437157
-0.00488838460296392441 0.0189614724367856979 0.0115662943571805954
-0.00370161049067974091 0.0189496222883462906 0.0217692907899618149
-0.00535008404403924942 0.0189660843461751938 0.0121603552252054214
-0.00441715074703097343 0.0189567673951387405 0.0160006135702133179
-0.00616515614092350006 0.0189742222428321838 0.0103994850069284439
-0.00534242857247591019 0.0189660061150789261 0.00729453377425670624
-0.00596247613430023193 0.0189721975475549698 0.0128047391772270203
-0.00534826470538973808 0.0189660657197237015 0.00511158816516399384
-0.00451275240629911423 0.0189577210694551468 0.015460750088095665
-0.00628706673160195351 0.0189754385501146317 0.00442792009562253952
-0.00561749516054987907 0.0189687535166740417 0.0145817827433347702
-0.00483388360589742661 0.0189609285444021225 0.0175397172570228577
-0.00511782150715589523 0.018963763490319252 0.0157054737210273743
-0.0082818884402513504 0.0189953558146953583 0.0022141127847135067
-0.00772209977731108665 0.0189897660166025162 0.00494418526068329811
-0.00742864888161420822 0.0189868379384279251 0.00333568453788757324
-0.00798954814672470093 0.0189924389123916626 0.00239430414512753487
-0.00408999621868133545 0.0189535003155469894 0.0192140545696020126
-0.00484247365966439247 0.0189610142260789871 0.0103438384830951691
-0.0050542033277451992 0.0189631283283233643 0.0104292109608650208
-0.00562671106308698654 0.0189688447862863541 0.0130580049008131027
-0.00514302495867013931 0.0189640149474143982 0.0107530970126390457
-0.00556405168026685715 0.0189682189375162125 0.00470191054046154022
-0.00643282756209373474 0.0189768951386213303 0.0051253344863653183
-0.00640297820791602135 0.0189765952527523041 0.00368264177814126015
-0.00589929986745119095 0.0189715679734945297 0.012844533659517765
-0.00431449338793754578 0.0189557410776615143 0.0171607956290245056
-0.00713150762021541595 0.018983868882060051 0.00295595079660415649
-0.00535220280289649963 0.0189661029726266861 0.0159567110240459442
-0.00595367839559912682 0.0189721100032329559 0.00741674564778804779
-0.00578930461779236794 0.0189704690128564835 0.00552707817405462265
-0.00374935590662062168 0.0189501009881496429 0.0221436005085706711
-0.00433474453166127205 0.0189559441059827805 0.0202773772180080414
-0.0046066921204328537 0.0189586598426103592 0.0166611261665821075
-0.00522943167015910149 0.0189648792147636414 0.0116116711869835854
-0.00412940932437777519 0.0189538933336734772 0.0193891245871782303
-0.00593064166605472565 0.0189718808978796005 0.0110574886202812195
-0.00506475009024143219 0.0189632326364517212 0.0145782288163900375
-0.00639552809298038483 0.0189765226095914841 0.00864963419735431671
-0.00577722629532217979 0.0189703479409217834 0.00376422889530658722
-0.00512190302833914757 0.0189638044685125351 0.0101824477314949036
-0.00645111827179789543 0.0189770758152008057 0.00620257947593927383
-0.00602987734600901604 0.0189728699624538422 0.0112629588693380356
-0.00420870166271924973 0.0189546868205070496 0.0209381598979234695
-0.00433939928188920021 0.0189559925347566605 0.0195128843188285828
-0.00418175477534532547 0.0189544167369604111 0.018624207004904747
-0.00586740300059318542 0.018971247598528862 0.00864685233682394028
-0.00677332514896988869 0.0189802944660186768 0.00696717575192451477
-0.00327925384044647217 0.0189454052597284317 0.0124648502096533775
-0.00367021397687494755 0.0189493093639612198 0.0200644508004188538
-0.00365895684808492661 0.0189491976052522659 0.0212907232344150543
-0.00347025948576629162 0.0189473126083612442 0.0130460355430841446
-0.00538132805377244949 0.0189663954079151154 0.00440497510135173798
-0.00420619640499353409 0.0189546607434749603 0.0144380191341042519
-0.00450138747692108154 0.0189576093107461929 0.00668198056519031525
-0.00386418192647397518 0.01895124651491642 0.00720316357910633087
-0.00438334187492728233 0.0189564302563667297 0.012438884936273098
-0.0039757508784532547 0.0189523603767156601 0.00560608226805925369
-0.00516946008428931236 0.018964279443025589 0.00612963363528251648
-0.00333175528794527054 0.0189459305256605148 0.0151004120707511902
-0.00380523456260561943 0.018950657919049263 0.0157957263290882111
-0.00386105524376034737 0.0189512148499488831 0.019799351692199707
-0.00414294982329010963 0.018954029306769371 0.0134017672389745712
-0.00392724480479955673 0.01895187608897686 0.0189318526536226273
-0.00409422582015395164 0.0189535431563854218 0.00713497679680585861
-0.00495658675208687782 0.0189621541649103165 0.0072065466083586216
-0.00369349820539355278 0.0189495421946048737 0.0103216450661420822
-0.00432865461334586143 0.0189558826386928558 0.0128067536279559135
-0.00362132466398179531 0.0189488213509321213 0.0152074787765741348
-0.00370047870092093945 0.0189496111124753952 0.0104396101087331772
-0.0032750649843364954 0.0189453642815351486 0.0171570014208555222
-0.00351149658672511578 0.0189477242529392242 0.0157232917845249176
-0.00352257024496793747 0.0189478360116481781 0.0126998759806156158
-0.00334909954108297825 0.0189461018890142441 0.0129197463393211365
-0.00351388310082256794 0.018947746604681015 0.009494047611951828
-0.00357241812162101269 0.0189483314752578735 0.0159760396927595139
-0.00474222470074892044 0.0189600121229887009 0.00898765120655298233
-0.00419259350746870041 0.0189545247703790665 0.0113575244322419167
-0.00325225223787128925 0.0189451370388269424 0.00842489302158355713
-0.00385784939862787724 0.0189511831849813461 0.0078312307596206665
-0.00360340089537203312 0.0189486425369977951 0.0162109024822711945
-0.00464452104642987251 0.0189590360969305038 0.00703847315162420273
-0.00332058104686439037 0.0189458169043064117 0.0144221819937229156
-0.00332370190881192684 0.0189458504319190979 0.020695224404335022
-0.00335606303997337818 0.0189461726695299149 0.0153621640056371689
-0.0041940789669752121 0.0189545396715402603 0.0054506910964846611
-0.00337999616749584675 0.0189464110881090164 0.0091520063579082489
-0.00467606866732239723 0.0189593527466058731 0.00567984906956553459
-0.00478272559121251106 0.0189604181796312332 0.00573829002678394318
-0.00328811933286488056 0.0189454946666955948 0.00702635291963815689
-0.00384603464044630527 0.0189510658383369446 0.0154709154739975929
-0.00392634747549891472 0.0189518667757511139 0.0158012434840202332
-0.00402867374941706657 0.0189528893679380417 0.0137825813144445419
-0.00433091307058930397 0.0189559049904346466 0.0148281808942556381
-0.00431390060111880302 0.0189557373523712158 0.00598336011171340942
-0.00523075554519891739 0.018964892253279686 0.00461552012711763382
-0.00361855793744325638 0.0189487934112548828 0.00786459818482398987
-0.00447048572823405266 0.0189573001116514206 0.00932974740862846375
-0.00323973526246845722 0.018945012241601944 0.0167034156620502472
-0.0041583990678191185 0.0189541839063167572 0.00782955065369606018
-0.00373921263962984085 0.018949996680021286 0.0168619994074106216
-0.00332198780961334705 0.0189458336681127548 0.00814267061650753021
-0.00381253357045352459 0.018950730562210083 0.010636194609105587
-0.004843167494982481 0.018961021676659584 0.00747928488999605179
-0.00373178604058921337 0.018949924036860466 0.00648393994197249413
-0.00349819660186767578 0.0189475920051336288 0.0207564271986484528
-0.00309642311185598373 0.0189435798674821854 0.00599220814183354378
-0.00418191449716687202 0.0189544185996055603 0.00626488169655203819
-0.00333510478958487511 0.0189459621906280518 0.0152986515313386917
-0.00537769868969917297 0.0189663581550121307 0.00411181757226586342
-0.00410028127953410149 0.0189536027610301971 0.0103759430348873138
-0.00324989785440266132 0.0189451109617948532 0.0151807395741343498
-0.00329863885417580605 0.0189455989748239517 0.0181750990450382233
-0.00472778500989079475 0.0189598686993122101 0.00526344263926148415
-0.00343719311058521271 0.0189469829201698303 0.00661297701299190521
-0.00523153040558099747 0.0189648978412151337 0.0048340759240090847
-0.00322995684109628201 0.0189449135214090347 0.00856560468673706055
-0.00399837829172611237 0.018952585756778717 0.0165968555957078934
-0.00403005257248878479 0.0189529024064540863 0.00602374691516160965
-0.00338484346866607666 0.0189464613795280457 0.0207549557089805603
-0.00432644737884402275 0.0189558621495962143 0.0126666510477662086
-0.00391397718340158463 0.0189517419785261154 0.00546532683074474335
-0.00385861657559871674 0.0189511906355619431 0.0113243181258440018
-0.00397216202691197395 0.0189523231238126755 0.00624715443700551987
-0.00445746304467320442 0.0189571697264909744 0.00766404718160629272
-0.00497204391285777092 0.0189623069018125534 0.00762454094365239143
-0.00416032783687114716 0.0189542043954133987 0.015835396945476532
-0.00453446852043271065 0.0189579389989376068 0.00522897718474268913
-0.00414130464196205139 0.0189540144056081772 0.017093634232878685
-0.00366266747005283833 0.0189492348581552505 0.00673249829560518265
-0.00389600824564695358 0.0189515650272369385 0.00524588441476225853
-0.00440283492207527161 0.0189566239714622498 0.0111919241026043892
-0.00270580640062689781 0.0189396794885396957 0.00877968687564134598
-0.00295950216241180897 0.0189422126859426498 0.0119659099727869034
-0.00180220697075128555 0.018930656835436821 0.00917065888643264771
-0.00312737748026847839 0.0189438890665769577 0.0172237828373908997
-0.00170526979491114616 0.0189296882599592209 0.00870105717331171036
-0.00136372167617082596 0.0189262796193361282 0.00998389720916748047
-0.0026444215327501297 0.0189390666782855988 0.0176370665431022644
-0.00304825487546622753 0.0189430993050336838 0.0179376490414142609
-0.00280207255855202675 0.0189406406134366989 0.00679320050403475761
-0.0028128547128289938 0.0189407486468553543 0.00660395855084061623
-0.00278468895703554153 0.0189404673874378204 0.0113509576767683029
-0.00257593439891934395 0.018938383087515831 0.0176311247050762177
-0.00307308277115225792 0.0189433470368385315 0.0215012580156326294
-0.00235222862102091312 0.0189361497759819031 0.012326706200838089
-0.0025567405391484499 0.0189381912350654602 0.00701050227507948875
-0.0023461771197617054 0.0189360883086919785 0.0166404489427804947
-0.00234070885926485062 0.0189360342919826508 0.0124173387885093689
-0.0022084179800003767 0.018934713676571846 0.0124916639178991318
-0.00215993216261267662 0.018934229388833046 0.0135458456352353096
-0.00296345516107976437 0.0189422518014907837 0.00794964656233787537
-0.00256843864917755127 0.0189383085817098618 0.0139275658875703812
-0.0032236089464277029 0.0189448501914739609 0.0172741450369358063
-0.0029728221707046032 0.0189423467963933945 0.0102338623255491257
-0.00244504492729902267 0.0189370755106210709 0.0135779203847050667
-0.00200079753994941711 0.018932640552520752 0.0104334382340312004
-0.00302937114611268044 0.0189429111778736115 0.0197698734700679779
-0.00222194148227572441 0.0189348477870225906 0.0153179522603750229
-0.00174174632411450148 0.0189300533384084702 0.0127989193424582481
-0.00206168461591005325 0.0189332477748394012 0.0114552825689315796
-0.00258383946493268013 0.0189384613186120987 0.0116955302655696869
-0.00153319572564214468 0.0189279709011316299 0.0090043218806385994
-0.00227502104826271534 0.0189353786408901215 0.011467399075627327
-0.00297529785893857479 0.0189423710107803345 0.0104072941467165947
-0.00258448813110589981 0.0189384687691926956 0.0190720539540052414
-0.00151033233851194382 0.0189277417957782745 0.011101260781288147
-0.00286613171920180321 0.0189412813633680344 0.00935518927872180939
-0.00272074458189308643 0.0189398285001516342 0.019327070564031601
-0.00177238998003304005 0.018930358812212944 0.0101561732590198517
-0.00201982166618108749 0.0189328305423259735 0.00990940723568201065
-0.00315356557257473469 0.0189441516995429993 0.0175791904330253601
-0.00194075738545507193 0.0189320407807826996 0.00965847261250019073
-0.00293957535177469254 0.0189420133829116821 0.0158052276819944382
-0.00216216500848531723 0.0189342498779296875 0.0139522626996040344
-0.0024989335797727108 0.0189376138150691986 0.014722190797328949
-0.00304800155572593212 0.0189430974423885345 0.0112200379371643066
-0.00280352332629263401 0.0189406555145978928 0.0100693106651306152
-0.00274420762434601784 0.0189400631934404373 0.0163762550801038742
-0.00295859621837735176 0.0189422052353620529 0.0168348364531993866
-0.00300538400188088417 0.0189426708966493607 0.0220447815954685211
-0.00164243369363248348 0.0189290624111890793 0.0106045175343751907
-0.00283599644899368286 0.0189409796148538589 0.0155572174116969109
-0.00263431156054139137 0.0189389660954475403 0.0152410799637436867
-0.00299857836216688156 0.0189426019787788391 0.00825455226004123688
-0.00280581857077777386 0.0189406778663396835 0.019587470218539238
-0.00246418174356222153 0.0189372673630714417 0.0100111551582813263
-0.00301110744476318359 0.0189427286386489868 0.0218969285488128662
-0.00209764181636273861 0.0189336072653532028 0.0100020291283726692
-0.00251009943895041943 0.0189377255737781525 0.0137809216976165771
-0.00316997012123465538 0.0189443137496709824 0.0230363886803388596
-0.00295989331789314747 0.0189422164112329483 0.0110332556068897247
-0.00234767282381653786 0.0189361032098531723 0.0100637003779411316
-0.00263645127415657043 0.0189389865845441818 0.0124785192310810089
-0.00274599087424576283 0.0189400818198919296 0.0145834898576140404
-0.00028074334841221571 0.0189154651015996933 0.0118713518604636192
-0.0010345246409997344 0.0189229920506477356 0.0151686761528253555
-0.000334019889123737812 0.0189159978181123734 0.0124938348308205605
-0.00127827422693371773 0.0189254246652126312 0.0114687336608767509
-0.00033081360743381083 0.0189159642904996872 0.0127203166484832764
-0.000723726116120815277 0.0189198870211839676 0.0116778938099741936
-0.00217178324237465858 0.0189343467354774475 0.0184576772153377533
-0.00233148084953427315 0.0189359411597251892 0.018555179238319397
-0.0017377117183059454 0.0189300123602151871 0.0137005243450403214
-0.00233575887978076935 0.0189359840005636215 0.0200325902551412582
-0.000530028599314391613 0.0189179535955190659 0.013233724981546402
-0.000591914518736302853 0.0189185719937086105 0.0128672067075967789
-0.00164496421348303556 0.0189290866255760193 0.0142989559099078178
-0.00131333828903734684 0.0189257748425006866 0.013753257691860199
-0.000959090015385299921 0.0189222376793622971 0.0149560887366533279
-0.000571104988921433687 0.0189183652400970459 0.0117551358416676521
-0.00109364371746778488 0.0189235825091600418 0.0122543377801775932
-0.002164497971534729 0.0189342759549617767 0.0178436059504747391
-0.000225605283048935235 0.0189149137586355209 0.0121585577726364136
-0.00165729445870965719 0.0189292095601558685 0.0124970078468322754
-0.001743119559250772 0.018930068239569664 0.0134162995964288712
-0.000865116657223552465 0.0189212989062070847 0.0106384698301553726
-0.0012452099472284317 0.0189250949770212173 0.0110213523730635643
-0.000271671597147360444 0.018915373831987381 0.0118687460198998451
-0.00189225468784570694 0.0189315564930438995 0.0156293399631977081
-0.00127266813069581985 0.0189253706485033035 0.0131696807220578194
-0.000859968480654060841 0.0189212486147880554 0.0108067858964204788
-0.00158620218280702829 0.0189284998923540115 0.0167111121118068695
-0.000609384616836905479 0.018918745219707489 0.0128868063911795616
-0.00152702897321432829 0.0189279094338417053 0.017071923241019249
-0.00114930630661547184 0.0189241375774145126 0.014510108157992363
-0.00211211340501904488 0.0189337525516748428 0.0184599943459033966
-0.00301523692905902863 0.0189427696168422699 0.0224349461495876312
-0.00128792657051235437 0.0189255215227603912 0.0146892685443162918
-0.00169505353551357985 0.0189295876771211624 0.0165619682520627975
-0.0015177939785644412 0.0189278163015842438 0.0161833036690950394
-0.00203264225274324417 0.0189329572021961212 0.0156120071187615395
-0.00200620829127728939 0.0189326945692300797 0.0177400484681129456
-0.00168499327264726162 0.0189294852316379547 0.0175173729658126831
-0.00174814276397228241 0.0189301185309886932 0.0159524083137512207
-0.0011856806231662631 0.0189245007932186127 0.0173421520739793777
-0.0020457033533602953 0.0189330875873565674 0.019913962110877037
-0.00139188498724251986 0.0189265590161085129 0.0188158676028251648
-0.00204324955120682716 0.0189330633729696274 0.0208141300827264786
-0.00201863516122102737 0.0189328193664550781 0.0199608206748962402
-0.00111817801371216774 0.0189238265156745911 0.0184352286159992218
-0.00151790189556777477 0.018927818164229393 0.0182204302400350571
-0.00170667143538594246 0.0189297031611204147 0.0203131958842277527
-0.0014345863601192832 0.018926987424492836 0.0192935597151517868
-0.000408219348173588514 0.018916737288236618 0.0134148029610514641
-0.00157743855379521847 0.0189284123480319977 0.0177719704806804657
-0.00121428968850523233 0.018924785777926445 0.0174893103539943695
-0.0022309361957013607 0.0189349371939897537 0.0208537764847278595
-0.000215415624552406371 0.0189148131757974625 0.0132766207680106163
-0.000947675900533795357 0.0189221259206533432 0.0174026042222976685
-0.00171726581174880266 0.0189298093318939209 0.0195103604346513748
-0.00036818761145696044 0.0189163386821746826 0.0158925056457519531
-0.00169564469251781702 0.0189295932650566101 0.0200120247900485992
-0.00259560416452586651 0.0189385786652565002 0.0221591442823410034
-0.00258623482659459114 0.0189384855329990387 0.0222694408148527145
-0.000750060949940234423 0.0189201515167951584 0.0148104941472411156
-0.0015002245781943202 0.0189276430755853653 0.0186298750340938568
-0.00247398321516811848 0.0189373642206192017 0.0223060790449380875
-0.000221229158341884613 0.0189148709177970886 0.0147158624604344368
-0.000399054639274254441 0.0189166460186243057 0.0158478375524282455
-0.0189117193222045898 0.00771473720669746399 0.014354754239320755
-0.0189117193222045898 0.0124824848026037216 0.00995910819619894028
-0.0189117193222045898 0.0042249755933880806 0.0148028843104839325
-0.0189117193222045898 0.00389171205461025238 0.0161718316376209259
-0.0189117193222045898 0.00747825391590595245 0.0135017987340688705
-0.0189117193222045898 0.0235010627657175064 0.00474416790530085564
-0.0189117193222045898 0.0118199046701192856 0.0109214773401618004
-0.0189117193222045898 0.0107477111741900444 0.0116885323077440262
-0.0189117193222045898 0.0199657008051872253 0.00693989638239145279
-0.0189117193222045898 0.00491028372198343277 0.0142331961542367935
-0.0189117193222045898 0.0112205334007740021 0.0120658185333013535
-0.0189117193222045898 0.0103820869699120522 0.0126979798078536987
-0.0189117193222045898 0.0170321967452764511 0.00810944754630327225
-0.0189117193222045898 0.00105122989043593407 0.0154452063143253326
-0.0189117193222045898 0.00415969919413328171 0.0144360754638910294
-0.0189117193222045898 0.0157437212765216827 0.00921866483986377716
-0.0189117193222045898 0.0155949555337429047 0.00912171415984630585
-0.0189117193222045898 0.00238769780844449997 0.0157738327980041504
-0.0189117193222045898 0.0124963829293847084 0.010777144692838192
-0.0189117193222045898 0.0132917799055576324 0.00942543335258960724
-0.0189117193222045898 0.00705586094409227371 0.0138162709772586823
-0.0189117193222045898 0.0215886179357767105 0.00609098095446825027
-0.0189117193222045898 0.0212423447519540787 0.0059925522655248642
-0.0189117193222045898 0.0102586736902594566 0.010971682146191597
-0.0189117193222045898 0.00731258466839790344 0.0136655345559120178
-0.0189117193222045898 0.00449198484420776367 0.0157111659646034241
-0.0189117193222045898 0.00118849426507949829 0.017321072518825531
-0.0189117193222045898 0.00848258379846811295 0.0116449343040585518
-0.0189117193222045898 0.0107039865106344223 0.0125785823911428452
-0.0189117193222045898 0.00607833638787269592 0.0151861459016799927
-0.0189117193222045898 0.0100427120923995972 0.0108102019876241684
-0.0189117193222045898 0.0105362124741077423 0.0120956264436244965
-0.0189117193222045898 0.00189736764878034592 0.015682026743888855
-0.0189117193222045898 0.0151758352294564247 0.00930685922503471375
-0.0189117193222045898 0.0127870757132768631 0.0102558722719550133
-0.0189117193222045898 0.0242659579962491989 0.00447352277114987373
-0.0189117193222045898 0.00299692526459693909 0.0147537877783179283
-0.0189117193222045898 0.00407646875828504562 0.0156211946159601212
-0.0189117193222045898 0.0132368728518486023 0.0105721838772296906
-0.0189117193222045898 0.00234899017959833145 0.015836816281080246
-0.0189117193222045898 0.0175697263330221176 0.00775217916816473007
-0.0189117193222045898 0.00891278591006994247 0.012616841122508049
-0.0189117193222045898 0.0158229917287826538 0.00825271196663379669
-0.0189117193222045898 0.0136523870751261711 0.0103498585522174835
-0.0189117193222045898 0.00060156453400850296 0.0166093241423368454
-0.0189117193222045898 0.0105528980493545532 0.0125553961843252182
-0.0189117193222045898 0.00786919798702001572 0.0128680374473333359
-0.0189117193222045898 0.0225539207458496094 0.00552010862156748772
-0.0189117193222045898 0.0179232936352491379 0.00732522923499345779
-0.0189117193222045898 0.0004680585116147995 0.0163444839417934418
-0.0189117193222045898 0.000425227917730808258 0.0165582131594419479
-0.0189117193222045898 0.023882109671831131 0.00469716964289546013
-0.0189117193222045898 0.0031357593834400177 0.0144755644723773003
-0.0189117193222045898 0.00650198850780725479 0.0135959330946207047
-0.0189117193222045898 0.00737232249230146408 0.0135377291589975357
-0.0189117193222045898 0.00645171571522951126 0.0145290130749344826
-0.0189117193222045898 0.00451536849141120911 0.0137811750173568726
-0.0189117193222045898 0.0137144913896918297 0.0104822386056184769
-0.0189117193222045898 0.0127111794427037239 0.0113085191696882248
-0.0189117193222045898 0.0103528816252946854 0.010995243676006794
-0.0189117193222045898 0.00763543928042054176 0.0125876413658261299
-0.0189117193222045898 0.0108658969402313232 0.0106935370713472366
-0.0189117193222045898 0.0215662010014057159 0.00562318367883563042
-0.0189117193222045898 0.000819922192022204399 0.01538890041410923
-0.0189117193222045898 0.00853523984551429749 0.0120102446526288986
-0.0189117193222045898 0.0161243528127670288 0.00900217797607183456
-0.0189117193222045898 0.010786810889840126 0.0112700294703245163
-0.0189117193222045898 0.00460180360823869705 0.0144948326051235199
-0.0189117193222045898 0.00682256091386079788 0.0130506372079253197
-0.0189117193222045898 0.00875269714742898941 0.0135535644367337227
-0.0189117193222045898 0.0019392259418964386 0.0172307528555393219
-0.0189117193222045898 0.00103868357837200165 0.0171695761382579803
-0.0189117193222045898 0.00046010245569050312 0.0155756250023841858
-0.0189117193222045898 0.00191859481856226921 0.0152897583320736885
-0.0189117193222045898 0.00341015774756669998 0.0150160361081361771
-0.0189117193222045898 0.0117104705423116684 0.0104335825890302658
-0.0189117193222045898 0.0133376875892281532 0.0110157663002610207
-0.0189117193222045898 0.011634044349193573 0.0106377582997083664
-0.0189117193222045898 0.0123704615980386734 0.0102065680548548698
-0.0189117193222045898 0.00235093012452125549 0.0169274546205997467
-0.0189117193222045898 0.00874704122543334961 0.01149714644998312
-0.0189117193222045898 0.00482530053704977036 0.0153128188103437424
-0.0189117193222045898 0.0222798995673656464 0.00565742049366235733
-0.0189117193222045898 0.00275378674268722534 0.0151808708906173706
-0.0189117193222045898 0.0172759927809238434 0.00835303682833909988
-0.0189117193222045898 0.00949798058718442917 0.0128933656960725784
-0.0189117193222045898 0.00899578537791967392 0.0130770858377218246
-0.0189117193222045898 0.0169454179704189301 0.00868035294115543365
-0.0189117193222045898 0.0118284039199352264 0.0118338605388998985
-0.0189117193222045898 0.0120930075645446777 0.010439201258122921
-0.0189117193222045898 0.00691218720749020576 0.0121533134952187538
-0.0189117193222045898 0.00933920871466398239 0.0115300249308347702
-0.0189117193222045898 0.001857733353972435 0.015537504106760025
-0.0189117193222045898 0.00602195784449577332 0.0130125721916556358
-0.0189117193222045898 0.0112580610439181328 0.0116582810878753662
-0.0189117193222045898 0.00879384391009807587 0.0132644511759281158
-0.0189117193222045898 0.00326867867261171341 0.0154311871156096458
-0.0189117193222045898 0.00722005963325500488 0.0126364035531878471
-0.0189117193222045898 0.00835402123630046844 0.0130205126479268074
-0.0189117193222045898 0.00154758105054497719 0.015604095533490181
-0.0189117193222045898 0.0101251117885112762 0.0122691448777914047
-0.0189117193222045898 0.00509386416524648666 0.0145301111042499542
-0.0189117193222045898 0.00293141696602106094 0.0158839374780654907
-0.0189117193222045898 0.0169001612812280655 0.00876082945615053177
-0.0189117193222045898 0.013706158846616745 0.0107738934457302094
-0.0189117193222045898 0.0210365988314151764 0.00621301867067813873
-0.0189117193222045898 0.000346934422850608826 0.0170102044939994812
-0.0189117193222045898 0.00906511396169662476 0.0123184230178594589
-0.0189117193222045898 0.0148158147931098938 0.00936347153037786484
-0.0189117193222045898 0.0139719201251864433 0.00908082723617553711
-0.0189117193222045898 0.000680002383887767792 0.0162681266665458679
-0.0189117193222045898 0.00106708705425262451 0.0177781432867050171
-0.0189117193222045898 0.0163561534136533737 0.00812226161360740662
-0.0189117193222045898 0.0137285161763429642 0.0103478552773594856
-0.0189117193222045898 0.0117225060239434242 0.0114577915519475937
-0.0189117193222045898 0.0178048945963382721 0.0072668115608394146
-0.0189117193222045898 0.000233291881158947945 0.0155015299096703529
-0.0189117193222045898 0.00149180728476494551 0.014623984694480896
-0.0189117193222045898 0.0047388225793838501 0.0144998952746391296
-0.0189117193222045898 0.00157516449689865112 0.0175418909639120102
-0.0189117193222045898 0.00301962904632091522 0.0158559996634721756
-0.0189117193222045898 0.00379463657736778259 0.0161889996379613876
-0.0189117193222045898 0.0141979232430458069 0.00916834268718957901
-0.0189117193222045898 0.00675375200808048248 0.0137773649767041206
-0.0189117193222045898 0.0188761614263057709 0.00707378145307302475
-0.0189117193222045898 0.0118055064231157303 0.011373850516974926
-0.0189117193222045898 0.00476547377184033394 0.0133310910314321518
-0.0189117193222045898 0.0109185278415679932 0.0118521489202976227
-0.0189117193222045898 0.00687052123248577118 0.0138277141377329826
-0.0189117193222045898 0.00249900482594966888 0.0162572897970676422
-0.0189117193222045898 0.00832176953554153442 0.0133660305291414261
-0.0189117193222045898 0.00888767093420028687 0.0123788826167583466
-0.0189117193222045898 0.0067333495244383812 0.0141945984214544296
-0.0189117193222045898 0.00374694913625717163 0.0152902035042643547
-0.0189117193222045898 0.0087650734931230545 0.0130067020654678345
-0.0189117193222045898 0.00603128643706440926 0.0125235011801123619
-0.0189117193222045898 0.00674502924084663391 0.013419274240732193
-0.0189117193222045898 0.00401527434587478638 0.0142030399292707443
-0.0189117193222045898 0.00566374137997627258 0.0143291465938091278
-0.0189117193222045898 0.00321000954136252403 0.0147948786616325378
-0.0189117193222045898 0.00318068452179431915 0.0169888827949762344
-0.0189117193222045898 0.0106315035372972488 0.0113509437069296837
-0.0189117193222045898 0.000870873220264911652 0.0157203078269958496
-0.0189117193222045898 0.0204170197248458862 0.0064918147400021553
-0.0189117193222045898 0.00691843871027231216 0.014187331311404705
-0.0189117193222045898 0.00735446345061063766 0.0134902037680149078
-0.0189117193222045898 0.00497881136834621429 0.0133688934147357941
-0.0189117193222045898 0.0175346806645393372 0.00747766252607107162
-0.0189117193222045898 0.0168221555650234222 0.00893859472125768661
-0.0189117193222045898 0.00651341676712036133 0.0127577437087893486
-0.0189117193222045898 0.00151987560093402863 0.0180349238216876984
-0.0189117193222045898 0.00108051951974630356 0.0163180120289325714
-0.0189117193222045898 0.0115171419456601143 0.0118570206686854362
-0.0189117193222045898 0.00190745340660214424 0.0151021219789981842
-0.0189117193222045898 0.00561341922730207443 0.0142599232494831085
-0.0189117193222045898 0.0189270004630088806 0.00693382229655981064
-0.0189117193222045898 0.00998739060014486313 0.0110703455284237862
-0.0189117193222045898 0.00126258865930140018 0.0149591825902462006
-0.0189117193222045898 0.0113686975091695786 0.0112167922779917717
-0.0189117193222045898 0.00589244067668914795 0.0152247445657849312
-0.0189117193222045898 0.00100835785269737244 0.0165273118764162064
-0.0189117193222045898 0.0195086486637592316 0.00794664397835731506
-0.0189117193222045898 0.00427056523039937019 0.0172972641885280609
-0.0189117193222045898 0.00326706003397703171 0.0193441323935985565
-0.0189117193222045898 0.00132381636649370193 0.020258437842130661
-0.0189117193222045898 0.00123797683045268059 0.0195339545607566833
-0.0189117193222045898 0.00258094444870948792 0.0200848132371902466
-0.0189117193222045898 0.0129845608025789261 0.0131061719730496407
-0.0189117193222045898 0.00703686987981200218 0.0159049853682518005
-0.0189117193222045898 0.00176889821887016296 0.0202303696423768997
-0.0189117193222045898 0.00398262403905391693 0.019660070538520813
-0.0189117193222045898 0.00506271142512559891 0.0184727031737565994
-0.0189117193222045898 0.00466087087988853455 0.0180750973522663116
-0.0189117193222045898 0.0165177639573812485 0.00960569176822900772
-0.0189117193222045898 0.00852016080170869827 0.0156890787184238434
-0.0189117193222045898 0.00566387362778186798 0.0173463132232427597
-0.0189117193222045898 0.00729080475866794586 0.0161092188209295273
-0.0189117193222045898 0.00179925933480262756 0.017934730276465416
-0.0189117193222045898 0.00711912941187620163 0.0165775734931230545
-0.0189117193222045898 0.0116759063675999641 0.0133811468258500099
-0.0189117193222045898 0.0019778604619204998 0.0185520686209201813
-0.0189117193222045898 0.00799022149294614792 0.0149651095271110535
-0.0189117193222045898 0.00262883538380265236 0.0176992453634738922
-0.0189117193222045898 0.00577883422374725342 0.0175559725612401962
-0.0189117193222045898 0.0103304535150527954 0.0152006791904568672
-0.0189117193222045898 0.0232697781175374985 0.00518185412511229515
-0.0189117193222045898 0.00983698293566703796 0.0155815379694104195
-0.0189117193222045898 0.00932724960148334503 0.0156948678195476532
-0.0189117193222045898 0.00289706327021121979 0.0205396264791488647
-0.0189117193222045898 0.00604282040148973465 0.0177253391593694687
-0.0189117193222045898 0.00368971563875675201 0.0203845333307981491
-0.0189117193222045898 0.00212141219526529312 0.0202470757067203522
-0.0189117193222045898 0.00153406825847923756 0.0180884096771478653
-0.0189117193222045898 0.0178765170276165009 0.00836211163550615311
-0.0189117193222045898 0.0188372135162353516 0.00801940727978944778
-0.0189117193222045898 0.0122636323794722557 0.012023107148706913
-0.0189117193222045898 0.000789010897278785706 0.0187727436423301697
-0.0189117193222045898 0.0211923792958259583 0.00674922764301300049
-0.0189117193222045898 0.00676916958764195442 0.0157779213041067123
-0.0189117193222045898 0.00924698635935783386 0.0137435533106327057
-0.0189117193222045898 0.0119135836139321327 0.0135981906205415726
-0.0189117193222045898 0.00757484976202249527 0.016088239848613739
-0.0189117193222045898 0.00151167623698711395 0.0202745739370584488
-0.0189117193222045898 0.0249449703842401505 0.00420508207753300667
-0.0189117193222045898 0.0155674079433083534 0.0100549068301916122
-0.0189117193222045898 0.0113737788051366806 0.0136969555169343948
-0.0189117193222045898 0.0081043606624007225 0.0163108557462692261
-0.0189117193222045898 0.000876601319760084152 0.0197521466761827469
-0.0189117193222045898 0.00995064247399568558 0.015214080922305584
-0.0189117193222045898 0.0106824403628706932 0.0148664768785238266
-0.0189117193222045898 0.0236009340733289719 0.00513003580272197723
-0.0189117193222045898 0.0178722143173217773 0.0089387502521276474
-0.0189117193222045898 0.00245684105902910233 0.0198876187205314636
-0.0189117193222045898 0.00364649808034300804 0.0171480346471071243
-0.0189117193222045898 0.0122561231255531311 0.0117257516831159592
-0.0189117193222045898 0.0113161439076066017 0.01378660649061203
-0.0189117193222045898 0.00940957572311162949 0.0143181784078478813
-0.0189117193222045898 0.00656030559912323952 0.0163146685808897018
-0.0189117193222045898 0.0117837656289339066 0.0120986765250563622
-0.0189117193222045898 0.0141162276268005371 0.0112619614228606224
-0.0189117193222045898 0.00784255564212799072 0.0149458777159452438
-0.0189117193222045898 0.0169203635305166245 0.0103370966389775276
-0.0189117193222045898 0.0202449765056371689 0.00707435701042413712
-0.0189117193222045898 0.00363967567682266235 0.0196517165750265121
-0.0189117193222045898 0.0128494566306471825 0.0120843667536973953
-0.0189117193222045898 0.00762445759028196335 0.0166134405881166458
-0.0189117193222045898 0.0054717441089451313 0.0168669465929269791
-0.0189117193222045898 0.00307770445942878723 0.0201359875500202179
-0.0189117193222045898 0.00824264809489250183 0.0165121778845787048
-0.0189117193222045898 0.00530511233955621719 0.017467644065618515
-0.0189117193222045898 0.00605054385960102081 0.0156062627211213112
-0.0189117193222045898 0.00493036815896630287 0.0163636710494756699
-0.0189117193222045898 0.0135826254263520241 0.0115564856678247452
-0.0189117193222045898 0.00729442713782191277 0.0157193131744861603
-0.0189117193222045898 0.00136936595663428307 0.0193419046700000763
-0.0189117193222045898 0.00322351977229118347 0.0191680379211902618
-0.0189117193222045898 0.00246790237724781036 0.0208191629499197006
-0.0189117193222045898 0.00277503859251737595 0.0194355975836515427
-0.0189117193222045898 0.00247838860377669334 0.0176303703337907791
-0.0189117193222045898 0.00138423871248960495 0.0193137861788272858
-0.0189117193222045898 0.0140109937638044357 0.0114976996555924416
-0.0189117193222045898 0.0110940746963024139 0.0134915439411997795
-0.0189117193222045898 0.0152250733226537704 0.0111668016761541367
-0.0189117193222045898 0.0145169012248516083 0.0110762622207403183
-0.0189117193222045898 0.00763669982552528381 0.0151969296857714653
-0.0189117193222045898 0.00396739039570093155 0.0187391266226768494
-0.0189117193222045898 0.0124819213524460793 0.0128821581602096558
-0.0189117193222045898 0.00378612242639064789 0.0195226669311523438
-0.0189117193222045898 0.0100198006257414818 0.0135711217299103737
-0.0189117193222045898 0.00979532115161418915 0.0145857613533735275
-0.0189117193222045898 0.0215030405670404434 0.00619517359882593155
-0.0189117193222045898 0.00126351602375507355 0.0184138193726539612
-0.0189117193222045898 0.0125433541834354401 0.0117549151182174683
-0.0189117193222045898 0.0169955138117074966 0.00970115605741739273
-0.0189117193222045898 0.00702789146453142166 0.0165489669889211655
-0.0189117193222045898 0.0184416957199573517 0.00846567656844854355
-0.0189117193222045898 0.00543561903759837151 0.0160479228943586349
-0.0189117193222045898 0.00946614425629377365 0.0145298708230257034
-0.0189117193222045898 0.00254306942224502563 0.0212405547499656677
-0.0189117193222045898 0.000878977123647928238 0.019156232476234436
-0.0189117193222045898 0.00337940920144319534 0.0193942226469516754
-0.0189117193222045898 0.0170564819127321243 0.00886288005858659744
-0.0189117193222045898 0.0123777119442820549 0.0130048943683505058
-0.0189117193222045898 0.00261628627777099609 0.0188672132790088654
-0.0189117193222045898 0.015231219120323658 0.0101801585406064987
-0.0189117193222045898 0.00936837773770093918 0.015675671398639679
-0.0189117193222045898 0.0103755304589867592 0.0151586560532450676
-0.0189117193222045898 0.00678481347858905792 0.0152673264965415001
-0.0189117193222045898 0.00290704867802560329 0.0176721177995204926
-0.0189117193222045898 0.0141053851693868637 0.0107468729838728905
-0.0189117193222045898 0.0227737762033939362 0.00558457151055335999
-0.0189117193222045898 0.0223534069955348969 0.00571630662307143211
-0.0189117193222045898 0.0189906097948551178 0.00815561972558498383
-0.0189117193222045898 0.00621160212904214859 0.0174564439803361893
-0.0189117193222045898 0.00310999015346169472 0.0174735765904188156
-0.0189117193222045898 0.021261582151055336 0.00674093468114733696
-0.0189117193222045898 0.00391735509037971497 0.0199307501316070557
-0.0189117193222045898 0.00625375378876924515 0.0174081586301326752
-0.0189117193222045898 0.016634088009595871 0.00989129114896059036
-0.0189117193222045898 0.00154470838606357574 0.0204837583005428314
-0.0189117193222045898 0.00222350354306399822 0.0179669875651597977
-0.0189117193222045898 0.00110538909211754799 0.019464004784822464
-0.0189117193222045898 0.00192010961472988129 0.0192197877913713455
-0.0189117193222045898 0.00252298219129443169 0.0187751986086368561
-0.0189117193222045898 0.00436768308281898499 0.0196245722472667694
-0.0189117193222045898 0.0020318739116191864 0.0215361267328262329
-0.0189117193222045898 0.00763094658032059669 0.0145111978054046631
-0.0189117193222045898 0.00291611533612012863 0.0181978866457939148
-0.0189117193222045898 0.00904922932386398315 0.0144133102148771286
-0.0189117193222045898 0.0224223043769598007 0.00583327608183026314
-0.0189117193222045898 0.00302972178906202316 0.018507096916437149
-0.0189117193222045898 0.00702277524396777153 0.0158052220940589905
-0.0189117193222045898 0.00228707585483789444 0.0191779658198356628
-0.0189117193222045898 0.00170462951064109802 0.0198680795729160309
-0.0189117193222045898 0.00241768453270196915 0.0184035766869783401
-0.0189117193222045898 0.0016017453745007515 0.0199720375239849091
-0.0189117193222045898 0.00411397125571966171 0.0191073473542928696
-0.0189117193222045898 0.0113085461780428886 0.0123610850423574448
-0.0189117193222045898 0.00284505635499954224 0.0187497381120920181
-0.0189117193222045898 0.0184833258390426636 0.00852124951779842377
-0.0189117193222045898 0.00807898864150047302 0.014558885246515274
-0.0189117193222045898 0.00716272974386811256 0.015476524829864502
-0.0189117193222045898 0.00947776343673467636 0.0158495604991912842
-0.0189117193222045898 0.0117707634344696999 0.0121948579326272011
-0.0189117193222045898 0.00916948355734348297 0.0156109388917684555
-0.0189117193222045898 0.0150939514860510826 0.0103808091953396797
-0.0189117193222045898 0.0101014347746968269 0.0131115168333053589
-0.0189117193222045898 0.0154308630153536797 0.0110484100878238678
-0.0189117193222045898 0.00664611253887414932 0.0163691695779561996
-0.0189117193222045898 0.00220622215420007706 0.017679508775472641
-0.0189117193222045898 0.0124535877257585526 0.0123574621975421906
-0.0189117193222045898 0.00784578453749418259 0.0158154945820569992
-0.0189117193222045898 0.0111736534163355827 0.0146497813984751701
-0.0189117193222045898 0.00323596224188804626 0.0171369500458240509
-0.0189117193222045898 0.00449688546359539032 0.0190862026065587997
-0.0189117193222045898 0.00278044864535331726 0.02007296122610569
-0.0189117193222045898 0.00358929112553596497 0.0199731811881065369
-0.0189117193222045898 0.0022504366934299469 0.0210904553532600403
-0.0189117193222045898 0.00355121446773409843 0.0174489282071590424
-0.0189117193222045898 0.00313760107383131981 0.0177859235554933548
-0.0189117193222045898 0.0211935825645923615 0.00665557477623224258
-0.0189117193222045898 0.00686603086069226265 0.0159338079392910004
-0.0189117193222045898 0.00434247590601444244 0.0170776955783367157
-0.0189117193222045898 0.0041190246120095253 0.0173080731183290482
-0.0189117193222045898 0.00650925515219569206 0.0155076887458562851
-0.0189117193222045898 0.00909794308245182037 0.0162636004388332367
-0.0189117193222045898 0.0211550258100032806 0.00689316820353269577
-0.0189117193222045898 0.00527109391987323761 0.0176644846796989441
-0.0189117193222045898 0.00192526355385780334 0.0216599535197019577
-0.0189117193222045898 0.00269274972379207611 0.0201233029365539551
-0.0189117193222045898 0.0101118562743067741 0.0139200054109096527
-0.0189117193222045898 0.0138155622407793999 0.0117837954312562943
-0.0189117193222045898 0.0132214277982711792 0.0129724461585283279
-0.0189117193222045898 0.00879457872360944748 0.015722423791885376
-0.0189117193222045898 0.00453662499785423279 0.02031729556620121
-0.0189117193222045898 0.0130427824333310127 0.0135918287560343742
-0.0189117193222045898 0.00655417283996939659 0.019763479009270668
-0.0189117193222045898 0.0161585435271263123 0.0123452302068471909
-0.0189117193222045898 0.00662539713084697723 0.021989770233631134
-0.0189117193222045898 0.0148660410195589066 0.0129260625690221786
-0.0189117193222045898 0.0128375319764018059 0.0154304848983883858
-0.0189117193222045898 0.0187525767832994461 0.00919622648507356644
-0.0189117193222045898 0.0193667728453874588 0.00949141383171081543
-0.0189117193222045898 0.00483598187565803528 0.0224363300949335098
-0.0189117193222045898 0.00796958710998296738 0.0195837654173374176
-0.0189117193222045898 0.0113646900281310081 0.0164879187941551208
-0.0189117193222045898 0.00689181871712207794 0.0201016142964363098
-0.0189117193222045898 0.0123472735285758972 0.0143722547218203545
-0.0189117193222045898 0.0050092027522623539 0.019815860316157341
-0.0189117193222045898 0.00373230129480361938 0.0246297549456357956
-0.0189117193222045898 0.0118468981236219406 0.0143860308453440666
-0.0189117193222045898 0.0192944183945655823 0.00946971029043197632
-0.0189117193222045898 0.00880971085280179977 0.0170425120741128922
