ply
format ascii 1.0
element vertex 736
property float x
property float y
property float z
end_header
0.0764473304152488708 0.0420894064009189606 0.0306732114404439926
0.101315237581729889 0.0656692087650299072 0.0307577624917030334
0.0745541006326675415 0.0399827733635902405 0.0288048721849918365
0.0466984398663043976 0.0136224441230297089 0.0290239006280899048
0.0951626002788543701 0.059875190258026123 0.0309754908084869385
0.0631220266222953796 0.0292727462947368622 0.029542507603764534
0.0885688513517379761 0.0536076277494430542 0.0308612510561943054
0.12160675972700119 0.0848036706447601318 0.0301929153501987457
0.0819821581244468689 0.0470168180763721466 0.0287747550755739212
0.0933814644813537598 0.0578158572316169739 0.0287549253553152084
0.0654499083757400513 0.0312520377337932587 0.0281874407082796097
0.107718966901302338 0.07169380784034729 0.0304959509521722794
0.0806534215807914734 0.0456283986568450928 0.0280020236968994141
0.0509116873145103455 0.0178737342357635498 0.0305702332407236099
0.0458086058497428894 0.0125559195876121521 0.0276891123503446579
0.0783108174800872803 0.0434801653027534485 0.0284306593239307404
0.068330913782119751 0.0338762328028678894 0.0275540780276060104
0.0482938475906848907 0.0154516715556383133 0.0309210605919361115
0.0553918778896331787 0.0216022804379463196 0.0274794362485408783
0.0617892742156982422 0.0281388498842716217 0.030314076691865921
0.0392735227942466736 0.00692304875701665878 0.0310367513447999954
0.0511609241366386414 0.0176883116364479065 0.0280498918145895004
0.0960535332560539246 0.0607647411525249481 0.0312461089342832565
0.0457037054002285004 0.0130137074738740921 0.0310199689120054245
0.0486726760864257812 0.0151286721229553223 0.0268441587686538696
0.0962514877319335938 0.0607933476567268372 0.0302957762032747269
0.049116089940071106 0.015694834291934967 0.0277167782187461853
0.0420584939420223236 0.00932705402374267578 0.0296311676502227783
0.0831928551197052002 0.0481004565954208374 0.0283942762762308121
0.0388869456946849823 0.00621963664889335632 0.029021676629781723
0.113148316740989685 0.0767917260527610779 0.0302142277359962463
0.0411768108606338501 0.00806768983602523804 0.0270973816514015198
0.0814345031976699829 0.046618141233921051 0.029493940994143486
0.0904369950294494629 0.0552128106355667114 0.0298741497099399567
0.0582166425883769989 0.0248410254716873169 0.0308384597301483154
0.0785032957792282104 0.043707478791475296 0.028699088841676712
0.0614072941243648529 0.0278733372688293457 0.0308907050639390945
0.10792919248342514 0.0717595964670181274 0.0296983662992715836
0.0918853878974914551 0.0564165636897087097 0.0288650821894407272
0.0461064092814922333 0.0131517909467220306 0.0295641403645277023
0.0461974591016769409 0.0133687090128660202 0.0303450804203748703
0.10092376172542572 0.0650161802768707275 0.0290716085582971573
0.0881468877196311951 0.0527985543012619019 0.0284150820225477219
0.117011815309524536 0.0805567577481269836 0.0308350976556539536
0.0511100888252258301 0.0177495591342449188 0.0287039652466773987
0.0806306451559066772 0.04607439786195755 0.030797228217124939
0.0755812898278236389 0.0407733991742134094 0.0277122184634208679
0.13584001362323761 0.09838886559009552 0.0307744871824979782
0.0547835156321525574 0.0213877484202384949 0.0296432953327894211
0.0643818303942680359 0.0301805213093757629 0.0278324130922555923
0.081897050142288208 0.047245856374502182 0.0306260623037815094
0.0354196541011333466 0.00304814800620079041 0.0297045409679412842
0.0943486392498016357 0.0591275990009307861 0.0311174206435680389
0.055501844733953476 0.022210046648979187 0.030489698052406311
0.0912886857986450195 0.0558193027973175049 0.0286749061197042465
0.0365874692797660828 0.00417216680943965912 0.0298083126544952393
0.0356362573802471161 0.00329419411718845367 0.029948381707072258
0.0711905732750892639 0.0367944911122322083 0.028799545019865036
0.0385846048593521118 0.00626709312200546265 0.0310181379318237305
0.0495563820004463196 0.0159077048301696777 0.0264951158314943314
0.10278087854385376 0.0669367983937263489 0.030032571405172348
0.0444408580660820007 0.0112804099917411804 0.0278123244643211365
0.0429864004254341125 0.0104775987565517426 0.0312525257468223572
0.109491430222988129 0.0734519213438034058 0.0309650059789419174
0.0397799238562583923 0.0067529827356338501 0.0271513704210519791
0.128356799483299255 0.0913274884223937988 0.0309536568820476532
0.110917635262012482 0.0747681856155395508 0.0307542309165000916
0.0696526914834976196 0.0352978967130184174 0.028564944863319397
0.0808548629283905029 0.0463702566921710968 0.0312956981360912323
0.0398069806396961212 0.0073116254061460495 0.0303376000374555588
0.0822834223508834839 0.0473720207810401917 0.0291914921253919601
0.0679609924554824829 0.0339448675513267517 0.0300599262118339539
0.120948359370231628 0.084253847599029541 0.0306359026581048965
0.0728861093521118164 0.0386310555040836334 0.0301734153181314468
0.0460029952228069305 0.0129169076681137085 0.0287458412349224091
0.0396436378359794617 0.00714122503995895386 0.0302443075925111771
0.0501725971698760986 0.0165152028203010559 0.0266359448432922363
0.0794548094272613525 0.0448724180459976196 0.0302728600800037384
0.0643428787589073181 0.0305571127682924271 0.0303043648600578308
0.0512919872999191284 0.0177699699997901917 0.0277955550700426102
0.0474720373749732971 0.0140271708369255066 0.0270609725266695023
0.0869384258985519409 0.0520418286323547363 0.0307372398674488068
0.110401362180709839 0.0741597414016723633 0.0300416871905326843
0.05042228102684021 0.0169869214296340942 0.0280413813889026642
0.0374115891754627228 0.00520620495080947876 0.0313212238252162933
0.100191697478294373 0.0643028765916824341 0.0289546307176351547
0.0962450206279754639 0.0608464255928993225 0.0306496918201446533
0.0341385006904602051 0.00210319273173809052 0.031313285231590271
0.0690795406699180603 0.0351077467203140259 0.0306750815361738205
0.111073538661003113 0.0747708603739738464 0.0298871006816625595
0.0376428812742233276 0.00489271432161331177 0.0281369611620903015
0.0549117587506771088 0.021333698183298111 0.0285936929285526276
0.114718891680240631 0.0784569904208183289 0.0312719643115997314
0.108534902334213257 0.0723389238119125366 0.0297302305698394775
0.109786555171012878 0.0734863653779029846 0.0294990874826908112
0.0385954231023788452 0.00620093103498220444 0.0305612701922655106
0.110002025961875916 0.0736930370330810547 0.0295139048248529434
0.071345992386341095 0.0371108725666999817 0.0298104025423526764
0.0793668106198310852 0.0449420660734176636 0.0311877336353063583
0.089232519268989563 0.0542473718523979187 0.0309260357171297073
0.116481475532054901 0.0800805836915969849 0.0309929046779870987
0.0474082864820957184 0.0143143273890018463 0.0291387159377336502
0.0580444000661373138 0.0243612863123416901 0.0289463624358177185
0.0769348740577697754 0.0421937555074691772 0.0285351146012544632
0.0569723248481750488 0.0231747403740882874 0.0279264394193887711
0.077031351625919342 0.0424173139035701752 0.029325045645236969
0.0779697149991989136 0.0431366078555583954 0.0283092167228460312
0.0683743804693222046 0.0341993607580661774 0.029239460825920105
0.0506875291466712952 0.0171147212386131287 0.0273026805371046066
0.0452532172203063965 0.0118343830108642578 0.0265220161527395248
0.0386952869594097137 0.00615931674838066101 0.02974681556224823
0.120937421917915344 0.0841654166579246521 0.0301692504435777664
0.0908281803131103516 0.0555394552648067474 0.029610777273774147
0.0752734169363975525 0.0406433045864105225 0.0286786817014217377
0.118957072496414185 0.082349434494972229 0.0305318664759397507
0.131959676742553711 0.0948053076863288879 0.0313340350985527039
0.128394037485122681 0.091348990797996521 0.0308713428676128387
0.120915986597537994 0.0842171236872673035 0.0305998306721448898
0.0413384251296520233 0.00842018425464630127 0.0282890573143959045
0.0355170220136642456 0.00288346782326698303 0.0281685665249824524
0.0884920209646224976 0.0535470806062221527 0.030934605747461319
0.0518725849688053131 0.0186487101018428802 0.0297596212476491928
0.0620984919369220734 0.0281522274017333984 0.0286423396319150925
0.059923417866230011 0.0260609574615955353 0.0284624248743057251
0.0741193369030952454 0.0394557341933250427 0.0281171351671218872
0.0462769418954849243 0.0129752233624458313 0.0275425873696804047
0.0349768698215484619 0.00210662186145782471 0.0265844631940126419
0.0658268406987190247 0.0314570367336273193 0.0272775478661060333
0.0543138086795806885 0.0204367786645889282 0.0266193263232707977
0.101093456149101257 0.064627625048160553 0.0257875435054302216
0.146169334650039673 0.107927493751049042 0.0292812827974557877
0.14439728856086731 0.106237813830375671 0.0292189586907625198
0.141601100564002991 0.103770434856414795 0.0303092990070581436
0.140899837017059326 0.102766677737236023 0.0282814223319292068
0.121470063924789429 0.0839440971612930298 0.0258288923650979996
0.123830065131187439 0.0867426693439483643 0.0291894357651472092
0.0951025635004043579 0.0592294894158840179 0.0274556241929531097
0.105126187205314636 0.068970903754234314 0.0289064683020114899
0.133185610175132751 0.0958063453435897827 0.0303732771426439285
0.0667580589652061462 0.0322896987199783325 0.0269798748195171356
0.107468977570533752 0.0707316100597381592 0.0261601656675338745
0.114950239658355713 0.0778363496065139771 0.0262512899935245514
0.0666241347789764404 0.0319730043411254883 0.0258454121649265289
0.128877639770507812 0.0909572243690490723 0.0257898084819316864
0.138205692172050476 0.100223608314990997 0.028341192752122879
0.132096901535987854 0.0941630899906158447 0.0267174262553453445
0.119556725025177002 0.0823163837194442749 0.026937408372759819
0.129733458161354065 0.0924984663724899292 0.0301550775766372681
0.0981662869453430176 0.0619315803050994873 0.0262528490275144577
0.094617798924446106 0.0588843226432800293 0.0281384196132421494
0.102246299386024475 0.0662153512239456177 0.0287482272833585739
0.147254824638366699 0.109237834811210632 0.0309651754796504974
0.0472797751426696777 0.0136789679527282715 0.0260685831308364868
0.144967555999755859 0.106607474386692047 0.0281983558088541031
0.130926042795181274 0.0934319645166397095 0.0289795771241188049
0.129317089915275574 0.0914928019046783447 0.0265020150691270828
0.126377806067466736 0.0892328768968582153 0.0296429935842752457
0.105790399014949799 0.0692499130964279175 0.0268115904182195663
0.0634685307741165161 0.029070630669593811 0.026371341198682785
0.143737167119979858 0.105362154543399811 0.0277238227427005768
0.133777916431427002 0.0961601883172988892 0.0291331838816404343
0.0706495568156242371 0.0359331220388412476 0.026715155690908432
0.0588250011205673218 0.0247045904397964478 0.0265765376389026642
0.060459434986114502 0.0261696279048919678 0.0260756127536296844
0.149728849530220032 0.111250728368759155 0.0289831794798374176
0.0952234119176864624 0.0592871494591236115 0.0271157305687665939
0.0844024866819381714 0.0490439087152481079 0.0271816402673721313
0.114881128072738647 0.0781225264072418213 0.0283534899353981018
0.120034962892532349 0.0829067826271057129 0.0277575552463531494
0.0987829640507698059 0.0627778768539428711 0.0278185456991195679
0.140320777893066406 0.101837523281574249 0.0260073132812976837
0.0997813418507575989 0.0638667643070220947 0.0286721773445606232
0.142938673496246338 0.1042943075299263 0.0258637554943561554
0.0893740057945251465 0.053500935435295105 0.0256623700261116028
0.145357772707939148 0.107297815382480621 0.0301145687699317932
0.0935734212398529053 0.0574848353862762451 0.0256886463612318039
0.129888787865638733 0.0926338136196136475 0.0300842318683862686
0.148565441370010376 0.109751395881175995 0.0266108494251966476
0.109985679388046265 0.0730333030223846436 0.025662686675786972
0.12631148099899292 0.0892394781112670898 0.030058177188038826
0.128750130534172058 0.0911698490381240845 0.0277831032872200012
0.0624497160315513611 0.0281007736921310425 0.0263450443744659424
0.055295698344707489 0.0212118327617645264 0.025690251961350441
0.0712439268827438354 0.0365759357810020447 0.0271908063441514969
0.0641581788659095764 0.0297814086079597473 0.0267136134207248688
0.119252026081085205 0.082027830183506012 0.0269385073333978653
0.110067330300807953 0.0736586004495620728 0.0289380867034196854
0.10348859429359436 0.0671404898166656494 0.0272410772740840912
0.113947674632072449 0.0774055272340774536 0.0293553024530410767
0.117425546050071716 0.0801774114370346069 0.0262236893177032471
0.100529342889785767 0.0641936063766479492 0.0263886377215385437
0.143866389989852905 0.105243951082229614 0.0262852255254983902
0.143717303872108459 0.105534426867961884 0.028866201639175415
0.105194538831710815 0.0688533559441566467 0.0278165321797132492
0.139452219009399414 0.101034544408321381 0.0261275302618741989
0.0825258940458297729 0.0473126545548439026 0.0274630319327116013
0.0954962968826293945 0.0596832074224948883 0.0279375351965427399
0.0924593508243560791 0.0565780699253082275 0.0265791192650794983
0.127018898725509644 0.0895874053239822388 0.028130730614066124
0.136892557144165039 0.0990048125386238098 0.0284941438585519791
0.0501412376761436462 0.0163863822817802429 0.0260434076189994812
0.0489618703722953796 0.0152827352285385132 0.0261269398033618927
0.134781643748283386 0.0966462492942810059 0.0263528283685445786
0.149728268384933472 0.111529164016246796 0.0306508652865886688
0.0941964089870452881 0.0584068857133388519 0.0276714377105236053
0.124696530401706696 0.0871903598308563232 0.0269572120159864426
0.103480532765388489 0.0670286044478416443 0.0266179125756025314
0.147189736366271973 0.109089717268943787 0.0304485484957695007
0.141480743885040283 0.102919533848762512 0.0259045399725437164
0.144722878932952881 0.106682904064655304 0.0300352349877357483
0.0938343405723571777 0.0577939487993717194 0.0260584596544504166
0.0941959097981452942 0.0580702908337116241 0.0256620906293392181
0.138769969344139099 0.100414484739303589 0.0262856930494308472
0.113834008574485779 0.0771499723196029663 0.028471505269408226
0.0765671655535697937 0.04169502854347229 0.0276367943733930588
0.0961489975452423096 0.0603599771857261658 0.0282856486737728119
0.107502773404121399 0.0708600878715515137 0.0267367269843816757
0.0832738727331161499 0.0478539466857910156 0.0264616850763559341
0.127961426973342896 0.0905571728944778442 0.0285885017365217209
0.12165079265832901 0.0845786407589912415 0.0285983700305223465
0.0651550367474555969 0.0306727215647697449 0.0263946466147899628
0.139599040150642395 0.101631768047809601 0.0288658924400806427
0.110111355781555176 0.0732709765434265137 0.0263715516775846481
0.0896457582712173462 0.0539241395890712738 0.0266528576612472534
0.119369290769100189 0.0824982598423957825 0.0290863737463951111
0.0472678914666175842 0.0136655047535896301 0.0260554272681474686
0.0642924606800079346 0.0297511592507362366 0.0257720593363046646
0.143669217824935913 0.105155862867832184 0.0268756076693534851
0.135580718517303467 0.0977017432451248169 0.0281358547508716583
0.119231164455413818 0.0821563079953193665 0.0278246812522411346
0.0709780454635620117 0.0361040458083152771 0.0258760079741477966
0.140613734722137451 0.102754607796669006 0.0298300664871931076
0.135971963405609131 0.0979004427790641785 0.0271073486655950546
0.128827288746833801 0.0915344282984733582 0.0295255333185195923
0.117891326546669006 0.0808990448713302612 0.0278988983482122421
0.0740411430597305298 0.0391001328825950623 0.0264343526214361191
0.0857351794838905334 0.0501582734286785126 0.0262936931103467941
0.0896329581737518311 0.054014839231967926 0.0272675715386867523
0.0900170058012008667 0.0544173866510391235 0.0274983849376440048
0.135721445083618164 0.0981480330228805542 0.0300065372139215469
0.115276917815208435 0.0781518891453742981 0.0262869540601968765
0.126198351383209229 0.0887650474905967712 0.027862943708896637
0.124930419027805328 0.087215125560760498 0.0257802940905094147
0.108057454228401184 0.0717685520648956299 0.0290252473205327988
0.081065155565738678 0.0459125488996505737 0.027368251234292984
0.131257727742195129 0.0938255041837692261 0.0294532012194395065
0.147870808839797974 0.109616696834564209 0.0297405607998371124
0.0797241553664207458 0.0446556881070137024 0.0274514239281415939
0.117563121020793915 0.0804513916373252869 0.0270821340382099152
0.113571286201477051 0.0766087844967842102 0.026724575087428093
0.147873654961585999 0.10928480327129364 0.0277404319494962692
0.131687119603157043 0.094025053083896637 0.0282136090099811554
0.104949489235877991 0.0685331523418426514 0.0272905305027961731
0.122548781335353851 0.0850477591156959534 0.026315661147236824
0.1047649085521698 0.0682051628828048706 0.0263754278421401978
0.091244235634803772 0.0556088201701641083 0.0276685375720262527
0.116307005286216736 0.0795714855194091797 0.0289378315210342407
0.0682864263653755188 0.0336251333355903625 0.0263050273060798645
0.127595216035842896 0.0903918296098709106 0.0296746976673603058
0.14400734007358551 0.105952546000480652 0.0297226607799530029
0.14854864776134491 0.109623536467552185 0.0259416401386260986
0.144028037786483765 0.106138750910758972 0.0307185910642147064
0.149247065186500549 0.110416814684867859 0.026727285236120224
0.0887314304709434509 0.0529216676950454712 0.0258396901190280914
0.12521064281463623 0.0880018621683120728 0.028895871713757515
0.131052404642105103 0.0933652520179748535 0.027864992618560791
0.104295983910560608 0.0680764690041542053 0.0282625891268253326
0.118779242038726807 0.0814434215426445007 0.0261232629418373108
0.14813542366027832 0.109348677098751068 0.0266393721103668213
0.101209834218025208 0.0651332885026931763 0.0281511284410953522
0.0864847376942634583 0.0510119311511516571 0.0271506607532501221
0.0756842494010925293 0.0406932160258293152 0.0266497023403644562
0.133469283580780029 0.0958220809698104858 0.0288603957742452621
0.116188123822212219 0.0789702832698822021 0.0260173100978136063
0.0761144384741783142 0.0409702733159065247 0.0258689410984516144
0.0958543568849563599 0.0599443688988685608 0.0274703055620193481
0.100428923964500427 0.0642883852124214172 0.0275241173803806305
0.132945463061332703 0.0951571241021156311 0.0278527475893497467
0.101056098937988281 0.064784705638885498 0.0269381310790777206
0.0795587599277496338 0.0442784056067466736 0.0261330287903547287
0.132516607642173767 0.0951860547065734863 0.0304550640285015106
0.0870128795504570007 0.0516726858913898468 0.0281088054180145264
0.133433014154434204 0.0960078760981559753 0.0301765501499176025
0.139652475714683533 0.101847365498542786 0.0298520121723413467
0.0924354195594787598 0.0564303025603294373 0.0258313436061143875
0.096231311559677124 0.060318872332572937 0.0275736544281244278
0.080907285213470459 0.045830950140953064 0.0277748163789510727
0.0790857374668121338 0.0441068410873413086 0.0277870632708072662
0.0952630043029785156 0.0593951195478439331 0.0275368578732013702
0.134833067655563354 0.0968907624483108521 0.0275232028216123581
0.12072213739156723 0.083773098886013031 0.029043540358543396
0.112204208970069885 0.0751788616180419922 0.0259209480136632919
0.0926242023706436157 0.056715257465839386 0.0264654196798801422
0.100332193076610565 0.0639652013778686523 0.0261400826275348663
0.147793292999267578 0.109669558703899384 0.0304957553744316101
0.0711252540349960327 0.0363678634166717529 0.0266192369163036346
0.114141330122947693 0.0771152526140213013 0.0265229456126689911
0.0978419780731201172 0.0620156563818454742 0.0225979071110486984
0.0851751342415809631 0.0495523251593112946 0.0253465082496404648
0.119566038250923157 0.0826729908585548401 0.0221741888672113419
0.0978799536824226379 0.0617588609457015991 0.0243480876088142395
0.0621605217456817627 0.0277864709496498108 0.025086062029004097
0.148746207356452942 0.110321149230003357 0.0221978500485420227
0.105119705200195312 0.068975694477558136 0.0222188271582126617
0.0396301522850990295 0.00636193901300430298 0.0255283713340759277
0.0705337226390838623 0.0357038378715515137 0.0251898225396871567
0.11103985458612442 0.0741555690765380859 0.0247908104211091995
0.0684299692511558533 0.0336858555674552917 0.0253356639295816422
0.120008371770381927 0.0831590518355369568 0.0217742454260587692
0.121543347835540771 0.0846363753080368042 0.0216384585946798325
0.125833407044410706 0.0881283432245254517 0.025066424161195755
0.14584602415561676 0.107103697955608368 0.0250022895634174347
0.129959627985954285 0.0923791080713272095 0.0230301991105079651
0.128279685974121094 0.0909057185053825378 0.0223213378340005875
0.135812819004058838 0.0980159342288970947 0.0224913284182548523
0.0794175788760185242 0.044148080050945282 0.0250368658453226089
0.105502977967262268 0.0689881518483161926 0.0243155471980571747
0.0637636259198188782 0.0292459726333618164 0.0254426859319210052
0.108635425567626953 0.0718664377927780151 0.0248541943728923798
0.117671892046928406 0.0807389542460441589 0.0230056121945381165
0.0838689357042312622 0.0483310595154762268 0.0252476930618286133
0.0910162627696990967 0.0552079752087593079 0.0246268156915903091
0.0748938918113708496 0.0397906601428985596 0.0254590176045894623
0.141981989145278931 0.103960737586021423 0.0219013839960098267
0.134448036551475525 0.0966830700635910034 0.0227277707308530807
0.113443657755851746 0.0764301866292953491 0.0248105451464653015
0.127097606658935547 0.0893473029136657715 0.0249410662800073624
0.0821191519498825073 0.0468016266822814941 0.0244782790541648865
0.129315108060836792 0.0914045125246047974 0.0252051334828138351
0.137278810143470764 0.0990770012140274048 0.0244530532509088516
0.13709615170955658 0.0989454835653305054 0.024204496294260025
0.0638627558946609497 0.0293464809656143188 0.0254034176468849182
0.0942867249250411987 0.0585792623460292816 0.0230003073811531067
0.0969726592302322388 0.061110328882932663 0.0230852868407964706
0.14959658682346344 0.111124955117702484 0.0222099721431732178
0.062874816358089447 0.0284999683499336243 0.0248672999441623688
0.118588954210281372 0.08181801438331604 0.021750057116150856
0.133102431893348694 0.0950047224760055542 0.0251380689442157745
0.080883711576461792 0.0455681756138801575 0.0248530637472867966
0.137389093637466431 0.0998383387923240662 0.0205265730619430542
0.141572847962379456 0.102977730333805084 0.0254600141197443008
0.103545680642127991 0.0674545019865036011 0.0223956778645515442
0.086324445903301239 0.050715859979391098 0.0249017495661973953
0.0968239158391952515 0.0609751231968402863 0.0230508949607610703
0.110480472445487976 0.0738019272685050964 0.0237360056489706039
0.0992743372917175293 0.0629221200942993164 0.0252932794392108917
0.135639354586601257 0.0980429425835609436 0.0213472023606300354
0.114758670330047607 0.077856115996837616 0.0237358659505844116
0.140697255730628967 0.102666124701499939 0.022362634539604187
0.096879325807094574 0.0607193373143672943 0.0248938314616680145
0.108935087919235229 0.0722672939300537109 0.0241555199027061462
0.114667870104312897 0.0778836458921432495 0.0230568982660770416
0.130945354700088501 0.0934512242674827576 0.0222052093595266342
0.113176144659519196 0.0763047337532043457 0.0240451768040657043
0.100143685936927795 0.0637221485376358032 0.0254354402422904968
0.113909199833869934 0.0771040916442871094 0.0234192926436662674
0.137125000357627869 0.099297739565372467 0.0222621876746416092
0.110914461314678192 0.0741599947214126587 0.0240539703518152237
0.0809906870126724243 0.0457968264818191528 0.0240922253578901291
0.080362759530544281 0.0452713146805763245 0.0236765425652265549
0.06158456951379776 0.0271569937467575073 0.025586368516087532
0.142016768455505371 0.103858642280101776 0.0227087177336215973
0.149759784340858459 0.111632116138935089 0.0201027113944292068
0.139579609036445618 0.101143717765808105 0.0251320879906415939
0.0817333981394767761 0.0462947040796279907 0.0253233201801776886
0.107522182166576385 0.0707999467849731445 0.024923352524638176
0.112125985324382782 0.0756334215402603149 0.0221091359853744507
0.124711707234382629 0.0875291824340820312 0.0222938712686300278
0.116440080106258392 0.0791923776268959045 0.0252727977931499481
0.100585289299488068 0.0644490942358970642 0.0235914997756481171
0.111159466207027435 0.074290543794631958 0.0246615111827850342
0.148427918553352356 0.110164821147918701 0.0213292203843593597
0.118257984519004822 0.0810906216502189636 0.0242234952747821808
0.0708739683032035828 0.0362122878432273865 0.0240778606384992599
0.117838628590106964 0.0805495977401733398 0.0250820871442556381
0.0984231904149055481 0.0624859482049942017 0.0230790618807077408
0.137293919920921326 0.099571816623210907 0.0215807054191827774
0.10651358962059021 0.0697945207357406616 0.0252201054245233536
0.118262380361557007 0.0813987404108047485 0.0224064867943525314
0.130332335829734802 0.0926899835467338562 0.0232832282781600952
0.111339882016181946 0.074439316987991333 0.0247942060232162476
0.116359472274780273 0.0792858749628067017 0.024257224053144455
0.14003029465675354 0.101767100393772125 0.023958621546626091
0.0583782196044921875 0.0241518691182136536 0.0253872014582157135
0.110504098236560822 0.0736053586006164551 0.0250449813902378082
0.119978196918964386 0.0831136256456375122 0.0218749549239873886
0.0942386165261268616 0.0582722984254360199 0.0245627034455537796
0.116119056940078735 0.0793543010950088501 0.0224863328039646149
0.135955721139907837 0.0983600392937660217 0.0212438460439443588
0.148936226963996887 0.110459379851818085 0.0224479157477617264
0.106172114610671997 0.0697461366653442383 0.02357487753033638
0.128596603870391846 0.091229461133480072 0.0221813507378101349
0.148475170135498047 0.110386364161968231 0.0202725790441036224
0.123421430587768555 0.0863846391439437866 0.0218265876173973083
0.119332917034626007 0.0821828097105026245 0.0237837862223386765
0.118577837944030762 0.081527218222618103 0.0234254617244005203
0.14279600977897644 0.104963503777980804 0.0205182693898677826
0.101470023393630981 0.065327279269695282 0.0233536846935749054
0.142559260129928589 0.104075782001018524 0.0244838669896125793
0.124333009123802185 0.0867023393511772156 0.0250913593918085098
0.136973649263381958 0.0987756550312042236 0.0245257169008255005
0.0681060478091239929 0.033554568886756897 0.0242855511605739594
0.0735770687460899353 0.0387381985783576965 0.0242908410727977753
0.124758929014205933 0.0873471722006797791 0.0236494205892086029
0.117666013538837433 0.080872759222984314 0.0221723783761262894
0.0831980854272842407 0.0478215068578720093 0.0244934912770986557
0.147024720907211304 0.108630582690238953 0.0225519202649593353
0.045068889856338501 0.0115121454000473022 0.0255506541579961777
0.103491008281707764 0.066885143518447876 0.0254895035177469254
0.0902916193008422852 0.0544987507164478302 0.0247614234685897827
0.132918447256088257 0.0953408554196357727 0.0220864079892635345
0.0536563694477081299 0.0197047442197799683 0.0252229943871498108
0.125439763069152832 0.0879641026258468628 0.0238182749599218369
0.123191267251968384 0.0858149081468582153 0.0239284709095954895
0.128395617008209229 0.0904813557863235474 0.0255148578435182571
0.126307591795921326 0.0890787467360496521 0.0220711864531040192
0.0425120219588279724 0.0091150328516960144 0.0253960788249969482
0.0941478312015533447 0.0582468658685684204 0.02420048788189888
0.111588031053543091 0.0746707990765571594 0.0248161852359771729
0.136100664734840393 0.0984328985214233398 0.02162938192486763
0.117544442415237427 0.0805464684963226318 0.0234342180192470551
0.0873360782861709595 0.0515802092850208282 0.0254655033349990845
0.140837505459785461 0.102900862693786621 0.0217538736760616302
0.142936527729034424 0.104315988719463348 0.0251850597560405731
0.0515197589993476868 0.0176954790949821472 0.0251305866986513138
0.0750828608870506287 0.0401829257607460022 0.0241844896227121353
0.105065897107124329 0.0684762895107269287 0.0248993411660194397
0.135289967060089111 0.097675807774066925 0.0215626712888479233
0.11207444965839386 0.075079500675201416 0.0251284316182136536
0.0915934294462203979 0.0557868927717208862 0.0244356840848922729
0.134414315223693848 0.0968455374240875244 0.021565508097410202
0.0585266351699829102 0.0242812186479568481 0.0254547186195850372
0.135544568300247192 0.0978134721517562866 0.0221820063889026642
0.0818096175789833069 0.0465520918369293213 0.0242163948714733124
0.0990322679281234741 0.0627111941576004028 0.0251829419285058975
0.113496899604797363 0.0766911059617996216 0.0235524680465459824
0.0747930556535720825 0.0399738103151321411 0.0237929355353116989
0.107808426022529602 0.0714486837387084961 0.0226667709648609161
0.100594639778137207 0.0642701089382171631 0.0247144792228937149
0.122578814625740051 0.0853813141584396362 0.0230510793626308441
0.136535555124282837 0.098798505961894989 0.0219073165208101273
0.0975547060370445251 0.061610005795955658 0.0233954507857561111
0.141159847378730774 0.102791719138622284 0.0242324154824018478
0.147392690181732178 0.108810126781463623 0.0235630348324775696
0.138980403542518616 0.100702553987503052 0.0243749693036079407
0.114443942904472351 0.0776807218790054321 0.0230014882981777191
0.122215405106544495 0.0850652903318405151 0.0228815414011478424
0.138589054346084595 0.100538015365600586 0.0231415685266256332
0.127765074372291565 0.0905661806464195251 0.0214358028024435043
0.129922270774841309 0.0919589847326278687 0.0253300555050373077
0.143415659666061401 0.104966320097446442 0.0240115486085414886
0.147062063217163086 0.108256518840789795 0.0249995458871126175
0.130964919924736023 0.0935861915349960327 0.0215091705322265625
0.127521917223930359 0.0899280756711959839 0.0238729417324066162
0.121940784156322479 0.0845146104693412781 0.0246177669614553452
0.0556419193744659424 0.0216687917709350586 0.0247299671173095703
0.092028789222240448 0.0563683360815048218 0.0234261471778154373
0.134450048208236694 0.0969563797116279602 0.0211053211241960526
0.146114885807037354 0.107629746198654175 0.0233807247132062912
0.119919061660766602 0.0825085639953613281 0.0251569133251905441
0.12841932475566864 0.0906297042965888977 0.0247623361647129059
0.132616505026817322 0.0951813459396362305 0.0213295482099056244
0.128006637096405029 0.0904675871133804321 0.023393675684928894
0.137175947427749634 0.0993630364537239075 0.0221603773534297943
0.122501492500305176 0.0852088034152984619 0.0236442405730485916
0.104305759072303772 0.0701395869255065918 0.0169056765735149384
0.133586302399635315 0.0971498042345046997 0.0183162819594144821
0.110504463315010071 0.0754979848861694336 0.0178927034139633179
0.129587799310684204 0.0926288217306137085 0.019717024639248848
0.13709355890750885 0.0998055785894393921 0.0195944514125585556
0.141272798180580139 0.106153219938278198 0.0150254266336560249
0.142458751797676086 0.105748690664768219 0.0179506409913301468
0.0989153534173965454 0.0640384405851364136 0.0188062433153390884
0.126270860433578491 0.0916307419538497925 0.0156113253906369209
0.0460831820964813232 0.0135173872113227844 0.0196780525147914886
0.129173591732978821 0.0933633148670196533 0.0175599902868270874
0.0994689017534255981 0.0649171322584152222 0.0181284546852111816
0.129090026021003723 0.0928841754794120789 0.0183254573494195938
0.110575273633003235 0.0760568231344223022 0.0169515497982501984
0.139975860714912415 0.102971486747264862 0.0187627412378787994
0.0884131491184234619 0.053892180323600769 0.0191775597631931305
0.128978729248046875 0.0941906347870826721 0.0156231457367539406
0.100969672203063965 0.0664780810475349426 0.0178628545254468918
0.116177916526794434 0.0815293639898300171 0.0166390296071767807
0.0931352823972702026 0.0589715726673603058 0.0180205367505550385
0.0967649742960929871 0.0616889409720897675 0.0194028615951538086
0.144160211086273193 0.10642310231924057 0.0197458043694496155
0.145468398928642273 0.109289109706878662 0.0166331417858600616
0.119887277483940125 0.0839455053210258484 0.0187423806637525558
0.101448088884353638 0.0665006190538406372 0.0186874549835920334
0.13015979528427124 0.0945730507373809814 0.0170333553105592728
0.135506540536880493 0.100174017250537872 0.0160109102725982666
0.0994483456015586853 0.0649099200963973999 0.0181049704551696777
0.11106523871421814 0.0766939669847488403 0.0166207533329725266
0.0624607652425765991 0.0291517898440361023 0.0194589998573064804
0.146574392914772034 0.110123522579669952 0.0170420445501804352
0.0892848074436187744 0.055423833429813385 0.017827032133936882
0.14194054901599884 0.104571327567100525 0.01926414854824543
0.143921852111816406 0.108668453991413116 0.0150160500779747963
0.062295280396938324 0.0288445651531219482 0.0197468381375074387
0.141438305377960205 0.104051291942596436 0.0193485375493764877
0.121503055095672607 0.087007671594619751 0.0158121827989816666
0.0899415165185928345 0.0557590536773204803 0.0183765124529600143
0.13415314257144928 0.096985355019569397 0.0196591150015592575
0.099795907735824585 0.0652903467416763306 0.0180072523653507233
0.141812250018119812 0.106255888938903809 0.0158073175698518753
0.0990936532616615295 0.064895235002040863 0.0174897816032171249
0.0779659673571586609 0.0437084734439849854 0.0197203867137432098
0.0844808667898178101 0.050118565559387207 0.0192680172622203827
0.0436055436730384827 0.0112486779689788818 0.0195264704525470734
0.129752248525619507 0.0937567204236984253 0.0178565718233585358
0.146439820528030396 0.110473230481147766 0.0161286611109972
0.118318416178226471 0.0823172479867935181 0.0190133173018693924
0.105537153780460358 0.0713160932064056396 0.0168873369693756104
0.0586577653884887695 0.0258745849132537842 0.0188338197767734528
0.137002825736999512 0.101499952375888824 0.0161869712173938751
0.086031593382358551 0.052096836268901825 0.0182943027466535568
0.146504208445549011 0.108617186546325684 0.01979779452085495
0.0786125287413597107 0.0449652150273323059 0.0184877235442399979
0.141711592674255371 0.104396983981132507 0.0191825795918703079
0.0560029968619346619 0.023117944598197937 0.0192948747426271439
0.0630708262324333191 0.0300632491707801819 0.0188209954649209976
0.0844800844788551331 0.0505049675703048706 0.0185270588845014572
0.080752156674861908 0.0467615649104118347 0.0189303122460842133
0.103078305721282959 0.067607581615447998 0.019525524228811264
0.0746528953313827515 0.041403546929359436 0.0181229021400213242
0.0811186134815216064 0.0468782782554626465 0.019371572881937027
0.091793455183506012 0.057242315262556076 0.0188965369015932083
0.134382724761962891 0.0974075719714164734 0.0192674249410629272
0.0461705923080444336 0.0136336535215377808 0.0196140538901090622
0.111353307962417603 0.0758732110261917114 0.0187140945345163345
0.0571113377809524536 0.0242312252521514893 0.0191743131726980209
0.126094818115234375 0.0914843380451202393 0.0155722368508577347
0.144850984215736389 0.108828075230121613 0.0163957029581069946
0.140719860792160034 0.105719931423664093 0.0148518430069088936
0.113273590803146362 0.0783205032348632812 0.0175129901617765427
0.0885786190629005432 0.0537658855319023132 0.0197194181382656097
0.132954254746437073 0.0979582071304321289 0.0156226828694343567
0.125577107071876526 0.0888284817337989807 0.0197163969278335571
0.0976076871156692505 0.0634188279509544373 0.0176204107701778412
0.143833130598068237 0.107274718582630157 0.0175226256251335144
0.120351463556289673 0.0844890773296356201 0.0185439363121986389
0.135658368468284607 0.0995635986328125 0.0174545757472515106
0.134358897805213928 0.0994003713130950928 0.0154101178050041199
0.118825167417526245 0.084401249885559082 0.0159437805414199829
0.141017332673072815 0.105765804648399353 0.0153035512194037437
0.122231319546699524 0.0861525088548660278 0.0187697410583496094
0.0962504297494888306 0.0623241662979125977 0.0172538533806800842
0.142084941267967224 0.106924228370189667 0.0150227341800928116
0.0713732913136482239 0.0382862314581871033 0.018140990287065506
0.128028005361557007 0.0929689556360244751 0.0162370428442955017
0.101029865443706512 0.0665647387504577637 0.0178062058985233307
0.148051038384437561 0.111057296395301819 0.0179330948740243912
0.132384121417999268 0.0962291955947875977 0.0178978592157363892
0.102416887879371643 0.0672829896211624146 0.0189471710473299026
0.0764405354857444763 0.0429826900362968445 0.0183428004384040833
0.124417707324028015 0.0878914743661880493 0.0194069352000951767
0.134661629796028137 0.0980814844369888306 0.018483426421880722
0.120266087353229523 0.0839894264936447144 0.0193454008549451828
0.0975145995616912842 0.0636460483074188232 0.017016703262925148
0.136604160070419312 0.101284459233283997 0.0158763248473405838
0.147253140807151794 0.110691152513027191 0.0171867106109857559
0.123183548450469971 0.0870638340711593628 0.0187525767832994461
0.0823861211538314819 0.0485863611102104187 0.0184012912213802338
0.111444167792797089 0.0759391933679580688 0.0187526121735572815
0.105255603790283203 0.0712028816342353821 0.0165933575481176376
0.119184128940105438 0.0842484235763549805 0.0168873369693756104
0.145445987582206726 0.10985361784696579 0.0155120408162474632
0.139704778790473938 0.102445043623447418 0.0192786902189254761
0.0966856405138969421 0.061884269118309021 0.0188851300626993179
0.0745852440595626831 0.0406924784183502197 0.0193611476570367813
0.0973843038082122803 0.0629289746284484863 0.018152821809053421
0.148128122091293335 0.112006418406963348 0.0162563398480415344
0.146712884306907654 0.110342927277088165 0.0168733131140470505
0.128539130091667175 0.0923649221658706665 0.0183201208710670471
0.0959252193570137024 0.0617608726024627686 0.0177421234548091888
0.092951558530330658 0.0591035708785057068 0.0174346808344125748
0.107015416026115417 0.0718687102198600769 0.018510773777961731
0.102665796875953674 0.0682071521878242493 0.0176298357546329498
0.12319260835647583 0.0875473320484161377 0.0178436748683452606
0.131452500820159912 0.095780298113822937 0.0170673690736293793
0.102737113833427429 0.0675621330738067627 0.018993699923157692
0.0576956942677497864 0.0245570912957191467 0.0196104943752288818
0.148909598588943481 0.112110249698162079 0.0174749791622161865
0.0631814524531364441 0.0297588333487510681 0.0196042470633983612
0.06889362633228302 0.0357684418559074402 0.0184624940156936646
0.125806927680969238 0.0893712788820266724 0.0190943628549575806
0.108691960573196411 0.0731964260339736938 0.0190103892236948013
0.147765591740608215 0.112236738204956055 0.0151579780504107475
0.13445475697517395 0.0992034822702407837 0.0159608125686645508
0.135865956544876099 0.099551863968372345 0.0178535301238298416
0.0776930749416351318 0.0443715602159500122 0.0179563127458095551
0.129927501082420349 0.094115041196346283 0.0174886081367731094
0.0972346514463424683 0.0625680312514305115 0.0185722168534994125
0.125198021531105042 0.089999467134475708 0.016787676140666008
0.0978160500526428223 0.0629332885146141052 0.018927624449133873
0.114432483911514282 0.0793625116348266602 0.0176205579191446304
0.111399844288825989 0.0763716250658035278 0.0178445763885974884
0.0812910422682762146 0.0469957888126373291 0.0194593872874975204
0.141170084476470947 0.103962607681751251 0.0190317761152982712
0.112296238541603088 0.0770731642842292786 0.0181276705116033554
0.11485791951417923 0.0793714672327041626 0.0183750148862600327
0.0938389599323272705 0.0587420240044593811 0.0197361595928668976
0.0456371158361434937 0.0131839662790298462 0.0195071510970592499
0.0936349034309387207 0.0588980801403522491 0.0190673694014549255
0.0449110567569732666 0.0123971626162528992 0.0196961760520935059
0.14895901083946228 0.111933231353759766 0.0179034098982810974
0.106281757354736328 0.070639878511428833 0.0195320304483175278
0.140693053603172302 0.104484193027019501 0.0171683281660079956
0.145585522055625916 0.108537934720516205 0.0182832330465316772
0.062218300998210907 0.0292396470904350281 0.0188510678708553314
0.100254058837890625 0.0648523867130279541 0.0196764301508665085
0.147481620311737061 0.11001906543970108 0.0188874155282974243
0.0624675452709197998 0.0294253528118133545 0.0189477205276489258
0.102579094469547272 0.0672575533390045166 0.0192900355905294418
0.127762213349342346 0.0917381122708320618 0.0181106980890035629
0.145562142133712769 0.108185030519962311 0.0189162921160459518
0.114062726497650146 0.0781947597861289978 0.0191848929971456528
0.124495506286621094 0.0888571292161941528 0.01769985631108284
0.0758802220225334167 0.0423523113131523132 0.0185330510139465332
0.112447977066040039 0.0782294422388076782 0.0161898471415042877
0.115769684314727783 0.0810486525297164917 0.016818661242723465
0.13794514536857605 0.101724244654178619 0.0174667872488498688
0.0821321383118629456 0.0477611050009727478 0.019520144909620285
0.140419945120811462 0.103300094604492188 0.0189392659813165665
0.121526636183261871 0.0853362083435058594 0.0190540030598640442
0.0564591512084007263 0.0237046033143997192 0.0189993530511856079
0.116818055510520935 0.0820366889238357544 0.016829073429107666
0.0427416861057281494 0.0102618858218193054 0.0198483522981405258
0.141643822193145752 0.106173224747180939 0.0156600270420312881
0.141509518027305603 0.105987429618835449 0.015772063285112381
0.145404964685440063 0.110184565186500549 0.0148042067885398865
0.0907159596681594849 0.0566148571670055389 0.0181431770324707031
0.0581295639276504517 0.0242209509015083313 0.0235655643045902252
0.0498234555125236511 0.0169038325548171997 0.0202536340802907944
0.0978938937187194824 0.0621577724814414978 0.0220424197614192963
0.0571882277727127075 0.0233238767832517624 0.0235956441611051559
0.0984020903706550598 0.0626221299171447754 0.0221453886479139328
0.0563492849469184875 0.0229519978165626526 0.0210661981254816055
0.107095852494239807 0.0709037184715270996 0.0218877736479043961
0.0428954586386680603 0.0095602869987487793 0.0249064862728118896
0.0687543675303459167 0.034855768084526062 0.0201796907931566238
0.105380192399024963 0.0694481879472732544 0.020869869738817215
0.0511843189597129822 0.0177341289818286896 0.0229992959648370743
0.0462467148900032043 0.0132523253560066223 0.0218202117830514908
0.0959184914827346802 0.0602990314364433289 0.0219633802771568298
0.0656676068902015686 0.0319074541330337524 0.0203183386474847794
0.0406388044357299805 0.00816840678453445435 0.0204432830214500427
0.131472036242485046 0.0942586511373519897 0.0203620120882987976
0.0691830068826675415 0.0352284833788871765 0.0203798152506351471
0.0967341139912605286 0.0610603131353855133 0.022032933309674263
0.0519318543374538422 0.0184860192239284515 0.0227392464876174927
0.0388015881180763245 0.00577467307448387146 0.0243452917784452438
0.0458267182111740112 0.0128115899860858917 0.0220756791532039642
0.0429683923721313477 0.0103654414415359497 0.0205064751207828522
0.112586095929145813 0.0761656388640403748 0.0215340778231620789
0.0625317990779876709 0.0284002609550952911 0.0235201120376586914
0.0825795233249664307 0.0477724634110927582 0.0212825387716293335
0.0707083791494369507 0.0364678651094436646 0.0216119401156902313
0.103054970502853394 0.067404821515083313 0.0199129190295934677
0.109128624200820923 0.072892606258392334 0.0215138588100671768
0.131110087037086487 0.0939133316278457642 0.0203759763389825821
0.118064790964126587 0.0813885927200317383 0.0213478077203035355
0.111634612083435059 0.0753988027572631836 0.0207281466573476791
0.134426981210708618 0.0970524773001670837 0.0204002074897289276
0.0419855676591396332 0.00880759395658969879 0.0242516007274389267
0.111690916121006012 0.07529401034116745 0.0216735154390335083
0.0588014312088489532 0.0251569300889968872 0.0217764284461736679
0.143257677555084229 0.105508841574192047 0.0198735669255256653
0.0881807804107666016 0.0532615296542644501 0.0201998911798000336
0.11670222133398056 0.0802905410528182983 0.0201930534094572067
0.0429984517395496368 0.00963119231164455414 0.025066077709197998
0.100212335586547852 0.0645499154925346375 0.0208760760724544525
0.134888827800750732 0.0974572524428367615 0.0205967724323272705
0.042058948427438736 0.00898878090083599091 0.0235841739922761917
0.0752481222152709961 0.0405786745250225067 0.0227549746632575989
0.0350803956389427185 0.00275205075740814209 0.0213341396301984787
0.0448587536811828613 0.0116958431899547577 0.0232621226459741592
0.0791691839694976807 0.0441959425806999207 0.0233435984700918198
0.0757849365472793579 0.0413245037198066711 0.0213374365121126175
0.104657441377639771 0.0688856542110443115 0.0201383121311664581
0.0560782253742218018 0.0228558406233787537 0.0201054755598306656
0.0813939943909645081 0.0468490906059741974 0.0200865194201469421
0.0351764485239982605 0.0028608366847038269 0.021227983757853508
0.106065273284912109 0.069917239248752594 0.0219467822462320328
0.105994589626789093 0.0700569301843643188 0.0207113102078437805
0.0984315648674964905 0.062842249870300293 0.0209965258836746216
0.083370596170425415 0.0486178174614906311 0.0207104906439781189
0.0545586422085762024 0.0213886648416519165 0.0202678833156824112
0.0396658405661582947 0.00659463182091712952 0.0243395436555147171
0.0893000960350036621 0.05425986647605896 0.0205726232379674911
0.0388224981725215912 0.00593024864792823792 0.0235337149351835251
0.134046733379364014 0.0966646373271942139 0.0205647051334381104
0.0364939719438552856 0.00380514562129974365 0.023046594113111496
0.0478165298700332642 0.0146081298589706421 0.0226081255823373795
0.0476170442998409271 0.0140357483178377151 0.0248997174203395844
0.101120010018348694 0.0655529424548149109 0.0200219564139842987
0.0447069145739078522 0.0113493455573916435 0.0244732983410358429
0.0468940064311027527 0.0137602128088474274 0.0224509574472904205
0.11129634827375412 0.0749737918376922607 0.0213525593280792236
0.0799883902072906494 0.0453249327838420868 0.0212352890521287918
0.0733477696776390076 0.0392040535807609558 0.0202070139348506927
0.0552923157811164856 0.0214348360896110535 0.0241480804979801178
0.0812962204217910767 0.0464959181845188141 0.0216439422219991684
0.0505149029195308685 0.0172294154763221741 0.0222242511808872223
0.107246086001396179 0.071344524621963501 0.02010379359126091
0.0765626281499862671 0.0418515577912330627 0.0225923024117946625
0.0978079885244369507 0.0620232075452804565 0.0223601870238780975
0.0432097427546977997 0.0100924596190452576 0.023505575954914093
0.0645395964384078979 0.0309033393859863281 0.0199308153241872787
0.129100695252418518 0.0920336320996284485 0.0202296879142522812
0.043308749794960022 0.0105011388659477234 0.0216233562678098679
0.0378338582813739777 0.00497934967279434204 0.0236175805330276489
0.0840845406055450439 0.0491251125931739807 0.0217222832143306732
0.0686447173357009888 0.0343808382749557495 0.0223975982517004013
0.0931849405169487 0.05762433260679245 0.0224672611802816391
0.132928937673568726 0.0956966578960418701 0.0200189277529716492
0.0604560673236846924 0.0269643887877464294 0.020344885066151619
0.0524462014436721802 0.0193830132484436035 0.0202907845377922058
0.0901446491479873657 0.0547020472586154938 0.0227136481553316116
0.0449941419064998627 0.0117600001394748688 0.0236455462872982025
0.0749390870332717896 0.0406133532524108887 0.0207970496267080307
0.0522429347038269043 0.0184909626841545105 0.0244719311594963074
0.060528092086315155 0.0268371328711509705 0.0215135961771011353
0.115376166999340057 0.079019695520401001 0.020278148353099823
0.0793316885828971863 0.0448212623596191406 0.0205259863287210464
0.0809632465243339539 0.0464302226901054382 0.0201503373682498932
0.0905344709753990173 0.0551560297608375549 0.0222080666571855545
0.100136980414390564 0.0643806755542755127 0.0214608814567327499
0.0741047561168670654 0.0393779650330543518 0.0234557315707206726
0.111959129571914673 0.0757338330149650574 0.020563637837767601
0.0434280373156070709 0.0102438069880008698 0.0238374434411525726
0.0674150213599205017 0.0335878431797027588 0.0201720446348190308
0.102568119764328003 0.0668657571077346802 0.0203773565590381622
0.0431812852621078491 0.0105041339993476868 0.0208834614604711533
0.130756005644798279 0.0936554744839668274 0.0199115518480539322
