ply
format ascii 1.0
element vertex 736
property float x
property float y
property float z
end_header
0.113640926778316498 -4.99600361081320443e-16 0.0729618817567825317
0.145407706499099731 -4.99600361081320443e-16 0.0612350255250930786
0.160367220640182495 -4.99600361081320443e-16 0.0357342958450317383
0.062120094895362854 -4.99600361081320443e-16 0.0988514646887779236
0.194007188081741333 -4.99600361081320443e-16 0.107163116335868835
0.106462158262729645 -4.99600361081320443e-16 0.096229061484336853
0.124695949256420135 -4.99600361081320443e-16 0.0579767189919948578
0.0903522521257400513 -4.99600361081320443e-16 0.0806846022605895996
0.201795190572738647 -4.99600361081320443e-16 0.0590936131775379181
0.0575491786003112793 -4.99600361081320443e-16 0.108705490827560425
0.19891020655632019 -4.99600361081320443e-16 0.0925947502255439758
0.123059689998626709 -4.99600361081320443e-16 0.077879980206489563
0.100959695875644684 -4.99600361081320443e-16 0.0851764082908630371
0.124486185610294342 -4.99600361081320443e-16 0.0550507605075836182
0.0334962606430053711 -4.99600361081320443e-16 0.103828445076942444
0.0984189808368682861 -4.99600361081320443e-16 0.0702501013875007629
0.203529924154281616 -4.99600361081320443e-16 0.0850126892328262329
0.152458369731903076 -4.99600361081320443e-16 0.0801442712545394897
0.0627757757902145386 -4.99600361081320443e-16 0.104778073728084564
0.0991605520248413086 -4.99600361081320443e-16 0.109334945678710938
0.20793074369430542 -4.99600361081320443e-16 0.0354494228959083557
0.190485268831253052 -4.99600361081320443e-16 0.0280576199293136597
0.201847448945045471 -4.99600361081320443e-16 0.0231037959456443787
0.167497336864471436 -4.99600361081320443e-16 0.0981372594833374023
0.0812810212373733521 -4.99600361081320443e-16 0.0836936533451080322
0.144692003726959229 -4.99600361081320443e-16 0.0567856505513191223
0.110810138285160065 -4.99600361081320443e-16 0.0709472373127937317
0.136025533080101013 -4.99600361081320443e-16 0.103200472891330719
0.183581873774528503 -4.99600361081320443e-16 0.0488728433847427368
0.203359216451644897 -4.99600361081320443e-16 0.11397194117307663
0.203351631760597229 -4.99600361081320443e-16 0.0450714677572250366
0.117347724735736847 -4.99600361081320443e-16 0.0827693790197372437
0.056774333119392395 -4.99600361081320443e-16 0.108609825372695923
0.111134238541126251 -4.99600361081320443e-16 0.104953199625015259
0.164101779460906982 -4.99600361081320443e-16 0.0617204457521438599
0.108271941542625427 -4.99600361081320443e-16 0.0588042251765727997
0.0517378896474838257 -4.99600361081320443e-16 0.106375813484191895
0.184396713972091675 -4.99600361081320443e-16 0.0190170183777809143
0.156039461493492126 -4.99600361081320443e-16 0.105337858200073242
0.164449125528335571 -4.99600361081320443e-16 0.0624586828052997589
0.192282766103744507 -4.99600361081320443e-16 0.0584032349288463593
0.130823269486427307 -4.99600361081320443e-16 0.079017147421836853
0.104924589395523071 -4.99600361081320443e-16 0.0890352800488471985
0.0686225295066833496 -4.99600361081320443e-16 0.0897899940609931946
0.1977643221616745 -4.99600361081320443e-16 0.0604187361896038055
0.149634867906570435 -4.99600361081320443e-16 0.092815011739730835
0.0496065914630889893 -4.99600361081320443e-16 0.0979617461562156677
0.128400504589080811 -4.99600361081320443e-16 0.0959077402949333191
0.112689271569252014 -4.99600361081320443e-16 0.104522638022899628
0.0862816721200942993 -4.99600361081320443e-16 0.109877824783325195
0.204833731055259705 -4.99600361081320443e-16 0.0124173462390899658
0.200832605361938477 -4.99600361081320443e-16 0.119948126375675201
0.187945038080215454 -4.99600361081320443e-16 0.0757884681224822998
0.0407838374376296997 -4.99600361081320443e-16 0.101162970066070557
0.192632183432579041 -4.99600361081320443e-16 0.0698302537202835083
0.155719161033630371 -4.99600361081320443e-16 0.0520548522472381592
0.0681303143501281738 -4.99600361081320443e-16 0.0950474813580513
0.152155190706253052 -4.99600361081320443e-16 0.0387614592909812927
0.15302082896232605 -4.99600361081320443e-16 0.117539390921592712
0.122483342885971069 -4.99600361081320443e-16 0.110152631998062134
0.119370102882385254 -4.99600361081320443e-16 0.0577313490211963654
0.098056301474571228 -4.99600361081320443e-16 0.090019814670085907
0.190062373876571655 -4.99600361081320443e-16 0.044329620897769928
0.13707733154296875 -4.99600361081320443e-16 0.0967254713177680969
0.0893059819936752319 -4.99600361081320443e-16 0.0903060734272003174
0.15894666314125061 -4.99600361081320443e-16 0.109155863523483276
0.116310954093933105 -4.99600361081320443e-16 0.0885581299662590027
0.166373312473297119 -4.99600361081320443e-16 0.111975438892841339
0.158332854509353638 -4.99600361081320443e-16 0.073375403881072998
0.132388174533843994 -4.99600361081320443e-16 0.107478201389312744
0.205018624663352966 -4.99600361081320443e-16 0.00905723869800567627
0.10040031373500824 -4.99600361081320443e-16 0.108418039977550507
0.0885935798287391663 -4.99600361081320443e-16 0.118557468056678772
0.160054445266723633 -4.99600361081320443e-16 0.0496776849031448364
0.185867205262184143 -4.99600361081320443e-16 0.0888949260115623474
0.193083018064498901 -4.99600361081320443e-16 0.067599073052406311
0.181675449013710022 -4.99600361081320443e-16 0.0366183891892433167
0.201627865433692932 -4.99600361081320443e-16 0.0266762524843215942
0.0736593753099441528 -4.99600361081320443e-16 0.106342725455760956
0.136524692177772522 -4.99600361081320443e-16 0.0694056302309036255
0.0300051867961883545 -4.99600361081320443e-16 0.112353354692459106
0.113440558314323425 -4.99600361081320443e-16 0.109447665512561798
0.103118486702442169 -4.99600361081320443e-16 0.0935919582843780518
0.131628483533859253 -4.99600361081320443e-16 0.100539617240428925
0.182323560118675232 -4.99600361081320443e-16 0.0717089027166366577
0.153475150465965271 -4.99600361081320443e-16 0.0570457503199577332
0.0877783223986625671 -4.99600361081320443e-16 0.0983587503433227539
0.102230846881866455 -4.99600361081320443e-16 0.0978603065013885498
0.140171200037002563 -4.99600361081320443e-16 0.0832514166831970215
0.193867072463035583 -4.99600361081320443e-16 0.0612529106438159943
0.177903085947036743 -4.99600361081320443e-16 0.0822066739201545715
0.062298014760017395 -4.99600361081320443e-16 0.0919823348522186279
0.176314115524291992 -4.99600361081320443e-16 0.0989425629377365112
0.140832275152206421 -4.99600361081320443e-16 0.0930031612515449524
0.131900578737258911 -4.99600361081320443e-16 0.0975390225648880005
0.113353490829467773 -4.99600361081320443e-16 0.0989384278655052185
0.128253757953643799 -4.99600361081320443e-16 0.0644951686263084412
0.170454233884811401 -4.99600361081320443e-16 0.0659156292676925659
0.195064887404441833 -4.99600361081320443e-16 0.0833718031644821167
0.17091311514377594 -4.99600361081320443e-16 0.0601766034960746765
0.184621453285217285 -4.99600361081320443e-16 0.0854171961545944214
0.1535453200340271 -4.99600361081320443e-16 0.0910850539803504944
0.106834195554256439 -4.99600361081320443e-16 0.0851180702447891235
0.0185721069574356079 -4.99600361081320443e-16 0.115737795829772949
0.195562273263931274 -4.99600361081320443e-16 0.0616121254861354828
0.0961282774806022644 -4.99600361081320443e-16 0.0729893594980239868
0.155897095799446106 -4.99600361081320443e-16 0.0708706006407737732
0.130109816789627075 -4.99600361081320443e-16 0.119522623717784882
0.150416642427444458 -4.99600361081320443e-16 0.0422857403755187988
0.175675377249717712 -4.99600361081320443e-16 0.0283300578594207764
0.136378020048141479 -4.99600361081320443e-16 0.0584620200097560883
0.148167312145233154 -4.99600361081320443e-16 0.0605450831353664398
0.0796494185924530029 -4.99600361081320443e-16 0.0749895572662353516
0.049655035138130188 -4.99600361081320443e-16 0.0915276780724525452
0.117442287504673004 -4.99600361081320443e-16 0.114535823464393616
0.206661432981491089 -4.99600361081320443e-16 0.030318334698677063
0.0577847957611083984 -4.99600361081320443e-16 0.0956116318702697754
0.195045024156570435 -4.99600361081320443e-16 0.0618883334100246429
0.207664608955383301 -4.99600361081320443e-16 0.112477689981460571
0.188850671052932739 -4.99600361081320443e-16 0.0712631866335868835
0.0956151485443115234 -4.99600361081320443e-16 0.119953013956546783
0.157943874597549438 -4.99600361081320443e-16 0.064470537006855011
0.16269288957118988 -4.99600361081320443e-16 0.0461694598197937012
0.177446141839027405 -4.99600361081320443e-16 0.0627574920654296875
0.190856799483299255 -4.99600361081320443e-16 0.0415149256587028503
0.0499698221683502197 -4.99600361081320443e-16 0.0913684144616127014
0.151451677083969116 -4.99600361081320443e-16 0.047022402286529541
0.0620102435350418091 -4.99600361081320443e-16 0.113920010626316071
0.170731410384178162 -4.99600361081320443e-16 0.0683007389307022095
0.172055453062057495 -4.99600361081320443e-16 0.0879304483532905579
0.170119330286979675 -4.99600361081320443e-16 0.0355316177010536194
0.142543703317642212 -4.99600361081320443e-16 0.0538852214813232422
0.0328979790210723877 -4.99600361081320443e-16 0.105177648365497589
0.179536536335945129 -4.99600361081320443e-16 0.0173928067088127136
0.0855554267764091492 -4.99600361081320443e-16 0.109191164374351501
0.0816529542207717896 -4.99600361081320443e-16 0.10171923041343689
0.0890576764941215515 -4.99600361081320443e-16 0.0740788429975509644
0.150030463933944702 -4.99600361081320443e-16 0.113602966070175171
0.172141134738922119 -4.99600361081320443e-16 0.0505250319838523865
0.120774902403354645 -4.99600361081320443e-16 0.0619359724223613739
0.152964279055595398 -4.99600361081320443e-16 0.0608772970736026764
0.195431321859359741 -4.99600361081320443e-16 0.0599121302366256714
0.161965712904930115 -4.99600361081320443e-16 0.0419375374913215637
0.180135130882263184 -4.99600361081320443e-16 0.0720193982124328613
0.183490931987762451 -4.99600361081320443e-16 0.0657687559723854065
0.0640237629413604736 -4.99600361081320443e-16 0.0929936915636062622
0.190350323915481567 -4.99600361081320443e-16 0.102385558187961578
0.0628064572811126709 -4.99600361081320443e-16 0.0850003212690353394
0.170601159334182739 -4.99600361081320443e-16 0.108370400965213776
0.0368040353059768677 -4.99600361081320443e-16 0.101833738386631012
0.15934811532497406 -4.99600361081320443e-16 0.0665775835514068604
0.0519983172416687012 -4.99600361081320443e-16 0.100735671818256378
0.0875918492674827576 -4.99600361081320443e-16 0.0923912972211837769
0.078473314642906189 -4.99600361081320443e-16 0.0988642945885658264
0.0544773787260055542 -4.99600361081320443e-16 0.0908586233854293823
0.143358111381530762 -4.99600361081320443e-16 0.0426823720335960388
0.158412933349609375 -4.99600361081320443e-16 0.076565086841583252
0.0728042125701904297 -4.99600361081320443e-16 0.115593664348125458
0.17618858814239502 -4.99600361081320443e-16 0.0583837293088436127
0.163849279284477234 -4.99600361081320443e-16 0.0340761393308639526
0.0584370642900466919 -4.99600361081320443e-16 0.101807206869125366
0.145756557583808899 -4.99600361081320443e-16 0.116867803037166595
0.208418220281600952 -4.99600361081320443e-16 0.0337102711200714111
0.166110843420028687 -4.99600361081320443e-16 0.0942810475826263428
0.146491721272468567 -4.99600361081320443e-16 0.115951135754585266
0.181145787239074707 -4.99600361081320443e-16 0.0816243439912796021
0.0530275106430053711 -4.99600361081320443e-16 0.0910207182168960571
0.16718640923500061 -4.99600361081320443e-16 0.0463395789265632629
0.161394089460372925 -4.99600361081320443e-16 0.0281526967883110046
0.188894689083099365 -4.99600361081320443e-16 0.0418154969811439514
0.113413937389850616 -4.99600361081320443e-16 0.0726907104253768921
0.0637615323066711426 -4.99600361081320443e-16 0.110265977680683136
0.040681496262550354 -4.99600361081320443e-16 0.112782806158065796
0.183585181832313538 -4.99600361081320443e-16 0.0498303398489952087
0.0754997730255126953 -4.99600361081320443e-16 0.112613014876842499
0.194479227066040039 -4.99600361081320443e-16 0.0167552828788757324
0.137189999222755432 -4.99600361081320443e-16 0.100721031427383423
0.15250907838344574 -4.99600361081320443e-16 0.113481424748897552
0.161423474550247192 -4.99600361081320443e-16 0.0577140972018241882
0.166362762451171875 -4.99600361081320443e-16 0.0303171351552009583
0.161074146628379822 -4.99600361081320443e-16 0.107070773839950562
0.0709963887929916382 -4.99600361081320443e-16 0.117331303656101227
0.179534941911697388 -4.99600361081320443e-16 0.0853719413280487061
0.146744281053543091 -4.99600361081320443e-16 0.0982692837715148926
0.172159597277641296 -4.99600361081320443e-16 0.0849144235253334045
0.195382699370384216 -4.99600361081320443e-16 0.088283538818359375
0.183089375495910645 -4.99600361081320443e-16 0.0556252598762512207
0.20035378634929657 -4.99600361081320443e-16 0.0176375284790992737
0.119787879288196564 -4.99600361081320443e-16 0.115793511271476746
0.0919363796710968018 -4.99600361081320443e-16 0.0885712951421737671
0.192098021507263184 -4.99600361081320443e-16 0.0754655823111534119
0.134337872266769409 -4.99600361081320443e-16 0.10632576048374176
0.129616111516952515 -4.99600361081320443e-16 0.0998169407248497009
0.171755120158195496 -4.99600361081320443e-16 0.0996653586626052856
0.204734072089195251 -4.99600361081320443e-16 0.0295542329549789429
0.20877547562122345 0.0238867513835430145 0.0919897854328155518
0.20877547562122345 0.0139988763257861137 0.0937995016574859619
0.20877547562122345 0.0805895999073982239 0.0170302912592887878
0.20877547562122345 0.0259741507470607758 0.0151546485722064972
0.20877547562122345 0.054223477840423584 0.0415684729814529419
0.20877547562122345 0.0028559383936226368 0.100109197199344635
0.20877547562122345 0.00843889731913805008 0.0694234520196914673
0.20877547562122345 0.00347987981513142586 0.00135959265753626823
0.20877547562122345 0.00393955083563923836 0.0208162032067775726
0.20877547562122345 0.0366152077913284302 0.0152600258588790894
0.20877547562122345 0.0597049258649349213 0.060088280588388443
0.20877547562122345 0.00447406666353344917 0.0694173127412796021
0.20877547562122345 0.00191827653907239437 0.0426922328770160675
0.20877547562122345 0.0124095166102051735 0.0798340365290641785
0.20877547562122345 0.0362020097672939301 0.0273873545229434967
0.20877547562122345 0.0158135909587144852 0.0705706030130386353
0.20877547562122345 0.0682736709713935852 0.0392267480492591858
0.20877547562122345 0.0180117171257734299 0.0633504465222358704
0.20877547562122345 0.00202539260499179363 0.0656040981411933899
0.20877547562122345 0.0807804986834526062 0.00159879028797149658
0.20877547562122345 0.0230463370680809021 0.0670056343078613281
0.20877547562122345 0.0118622155860066414 0.020665433257818222
0.20877547562122345 0.00192600686568766832 0.0328709445893764496
0.20877547562122345 0.0724243000149726868 0.0356788262724876404
0.20877547562122345 0.0246334560215473175 0.0694738775491714478
0.20877547562122345 0.010016794316470623 0.0791254714131355286
0.20877547562122345 0.0945155546069145203 0.00410927832126617432
0.20877547562122345 0.0297253485769033432 0.0764525830745697021
0.20877547562122345 0.00679976865649223328 0.0304617248475551605
0.20877547562122345 0.024222157895565033 0.053635723888874054
0.20877547562122345 0.00212580314837396145 0.0360845811665058136
0.20877547562122345 0.0252486802637577057 0.00801382586359977722
0.20877547562122345 0.0466282963752746582 0.0232256278395652771
0.20877547562122345 0.045447956770658493 0.0653922706842422485
0.20877547562122345 0.0132720340043306351 0.0134591367095708847
0.20877547562122345 0.0334882326424121857 0.0244177915155887604
0.20877547562122345 0.0582929961383342743 0.00513786450028419495
0.20877547562122345 0.0487462915480136871 0.0143509320914745331
0.20877547562122345 0.0249150935560464859 0.031333625316619873
0.20877547562122345 0.0715740397572517395 0.019100189208984375
0.20877547562122345 0.0453266873955726624 0.0455280542373657227
0.20877547562122345 0.0653034001588821411 0.00475603342056274414
0.20877547562122345 0.00217614858411252499 0.00350772053934633732
0.20877547562122345 0.0547900497913360596 0.0118896216154098511
0.20877547562122345 0.0279283635318279266 0.0239434503018856049
0.20877547562122345 0.00870693754404783249 0.0752349421381950378
0.20877547562122345 0.0191425066441297531 0.0786509215831756592
0.20877547562122345 0.0262293461710214615 0.0786382406949996948
0.20877547562122345 0.0212140548974275589 0.016994064673781395
0.20877547562122345 0.0876716971397399902 0.0201999396085739136
0.20877547562122345 0.0283597204834222794 0.0531444624066352844
0.20877547562122345 0.0858737826347351074 0.033655993640422821
0.20877547562122345 0.0185960531234741211 0.018141038715839386
0.20877547562122345 0.0128979766741394997 0.0863408148288726807
0.20877547562122345 0.0257765762507915497 0.0684087127447128296
0.20877547562122345 0.00131051696371287107 0.0723155215382575989
0.20877547562122345 0.0456108897924423218 0.0708676800131797791
0.20877547562122345 0.00220757885836064816 0.102333113551139832
0.20877547562122345 0.0300993192940950394 0.0318714380264282227
0.20877547562122345 0.00526261376217007637 0.089574471116065979
0.20877547562122345 0.0445249564945697784 0.00688252970576286316
0.20877547562122345 0.0303595233708620071 0.0247232671827077866
0.20877547562122345 0.0870129242539405823 0.00682687759399414062
0.20877547562122345 0.0977228507399559021 0.0118453651666641235
0.20877547562122345 0.0341898314654827118 0.0854048728942871094
0.20877547562122345 0.017709784209728241 0.0635543912649154663
0.20877547562122345 0.0721822082996368408 0.0468196570873260498
0.20877547562122345 0.0211976207792758942 0.00847367569804191589
0.20877547562122345 0.0592654906213283539 0.00816492363810539246
0.20877547562122345 0.0708276852965354919 0.0280458554625511169
0.20877547562122345 0.0630847886204719543 0.0145706906914710999
0.20877547562122345 0.0657030344009399414 0.0165541470050811768
0.20877547562122345 0.0271774474531412125 0.0358904972672462463
0.20877547562122345 0.0013022315688431263 0.0898919180035591125
0.20877547562122345 0.0666287168860435486 0.0257062837481498718
0.20877547562122345 0.0546317212283611298 0.0494432039558887482
0.20877547562122345 0.0880537852644920349 0.0305681079626083374
0.20877547562122345 0.0904886350035667419 0.0186511054635047913
0.20877547562122345 0.0181552711874246597 0.0507617294788360596
0.20877547562122345 0.0266139451414346695 0.0822236910462379456
0.20877547562122345 0.101313330233097076 0.00179041177034378052
0.20877547562122345 0.103960424661636353 0.00844267755746841431
0.20877547562122345 0.0628993213176727295 0.000131621956825256348
0.20877547562122345 0.0164810772985219955 0.0392668247222900391
0.20877547562122345 0.0487780831754207611 0.0577082894742488861
0.20877547562122345 0.0891701057553291321 0.023114718496799469
0.20877547562122345 0.0564304739236831665 0.0489484220743179321
0.20877547562122345 0.0144718801602721214 0.067499600350856781
0.20877547562122345 0.0444759614765644073 0.0556305460631847382
0.20877547562122345 0.0208486057817935944 0.0289838574826717377
0.20877547562122345 0.00559214036911725998 0.0569808892905712128
0.20877547562122345 0.0269561111927032471 0.0777838230133056641
0.20877547562122345 0.0510780028998851776 0.0650852620601654053
0.20877547562122345 0.087734706699848175 0.0117323771119117737
0.20877547562122345 0.0472289100289344788 0.0497454553842544556
0.20877547562122345 0.0669615194201469421 0.0282464921474456787
0.20877547562122345 0.00210239714942872524 0.0974942594766616821
0.20877547562122345 0.0754363983869552612 0.024532511830329895
0.20877547562122345 0.00865414924919605255 0.0107653569430112839
0.20877547562122345 0.0473455637693405151 0.0268301665782928467
0.20877547562122345 0.0453521944582462311 0.000529374927282333374
0.20877547562122345 0.0601822398602962494 0.0589671321213245392
0.20877547562122345 0.00779124768450856209 0.0100998692214488983
0.20877547562122345 0.00342150172218680382 0.099308602511882782
0.20877547562122345 0.0153728891164064407 0.0761438161134719849
0.20877547562122345 0.0565151609480381012 0.0386039279401302338
0.20877547562122345 0.0114665711298584938 0.00579959806054830551
0.20877547562122345 0.00221092067658901215 0.108361929655075073
0.20877547562122345 0.0305331293493509293 0.0492369011044502258
0.20877547562122345 0.0246633794158697128 0.0532009080052375793
0.20877547562122345 0.015715746209025383 0.0963943377137184143
0.20877547562122345 0.0747854113578796387 0.00214010477066040039
0.20877547562122345 0.00336455227807164192 0.00822052732110023499
0.20877547562122345 0.0858305618166923523 0.0127932876348495483
0.20877547562122345 0.0773544609546661377 0.0347141772508621216
0.20877547562122345 0.0617683902382850647 0.0256585404276847839
0.20877547562122345 0.0179175678640604019 0.0662740170955657959
0.20877547562122345 0.0155334500595927238 0.040528472512960434
0.20877547562122345 0.0654423236846923828 0.0215732157230377197
0.20877547562122345 0.0332320630550384521 0.007442474365234375
0.20877547562122345 0.0275098774582147598 0.0751761943101882935
0.20877547562122345 0.00695394491776823997 0.067572474479675293
0.20877547562122345 0.0292791202664375305 0.0410709455609321594
0.20877547562122345 0.0411971062421798706 0.0765277817845344543
0.20877547562122345 0.00489398790523409843 0.0899227708578109741
0.20877547562122345 0.055525951087474823 0.0557170063257217407
0.20877547562122345 0.0286856535822153091 0.0332577526569366455
0.20877547562122345 0.0588296167552471161 0.00481641665101051331
0.20877547562122345 0.0184716805815696716 0.0193782001733779907
0.20877547562122345 0.0149902123957872391 0.000122463330626487732
0.20877547562122345 0.0632073655724525452 0.0380794554948806763
0.20877547562122345 0.0587672106921672821 0.00856960192322731018
0.20877547562122345 0.035962570458650589 0.041784387081861496
0.20877547562122345 0.0944955572485923767 0.000328935682773590088
0.20877547562122345 0.0433443523943424225 0.0382041744887828827
0.20877547562122345 0.0134437968954443932 0.0279024690389633179
0.20877547562122345 0.0190725903958082199 0.0761434957385063171
0.20877547562122345 0.0411387644708156586 0.0660478174686431885
0.20877547562122345 0.0438140816986560822 0.0109053961932659149
0.20877547562122345 0.0215127989649772644 0.00997515767812728882
0.20877547562122345 0.0507433153688907623 0.0681840181350708008
0.20877547562122345 0.0193779468536376953 0.0713205188512802124
0.20877547562122345 0.0566979348659515381 0.00395898148417472839
0.20877547562122345 0.0348970517516136169 0.0682442411780357361
0.20877547562122345 0.0063917115330696106 0.0799636468291282654
0.20877547562122345 0.0681066140532493591 0.0432893931865692139
0.20877547562122345 0.0546421520411968231 0.051317121833562851
0.20877547562122345 0.0333950705826282501 0.0446575544774532318
0.20877547562122345 0.0946001634001731873 0.0127568617463111877
0.20877547562122345 0.00203084060922265053 0.115924835205078125
0.20877547562122345 0.0151941357180476189 0.0657945424318313599
0.20877547562122345 0.0224174000322818756 0.00484418496489524841
0.20877547562122345 0.00049717974616214633 0.0566937290132045746
0.20877547562122345 0.0253351405262947083 0.012725830078125
0.20877547562122345 0.00314152473583817482 0.0269076954573392868
0.20877547562122345 0.0104464404284954071 0.0815173685550689697
0.20877547562122345 0.0512463599443435669 0.0121595412492752075
0.20877547562122345 0.103863351047039032 0.0118383467197418213
0.20877547562122345 0.0225524939596652985 0.00706504657864570618
0.20877547562122345 0.0510912127792835236 0.0331266783177852631
0.20877547562122345 0.00239510159008204937 0.0811095237731933594
0.20877547562122345 0.0153600899502635002 0.01793694868683815
0.20877547562122345 0.0655772536993026733 0.0202408432960510254
0.20877547562122345 0.0312777422368526459 0.046649787575006485
0.20877547562122345 0.0713648200035095215 0.00673970580101013184
0.20877547562122345 0.0441615954041481018 0.0261810719966888428
0.20877547562122345 0.0372194796800613403 0.0730569362640380859
0.20877547562122345 0.00823395699262619019 0.0727008059620857239
0.20877547562122345 0.0166903063654899597 0.00339309871196746826
0.20877547562122345 0.0810483619570732117 0.0107701048254966736
0.20877547562122345 0.0355896800756454468 0.0387859195470809937
0.20877547562122345 0.0539677552878856659 0.0286605097353458405
0.20877547562122345 0.0760966315865516663 0.0227689892053604126
0.20877547562122345 0.0492747649550437927 0.04663800448179245
0.20877547562122345 0.00731182051822543144 0.0439479798078536987
0.20877547562122345 0.0137626724317669868 0.0793154165148735046
0.20877547562122345 0.080431722104549408 0.0287816748023033142
0.20877547562122345 0.000953129667323082685 0.0124694937840104103
0.20877547562122345 0.0293436329811811447 0.0268369261175394058
0.20877547562122345 0.0310926735401153564 0.0804563537240028381
0.20877547562122345 0.0888173952698707581 0.0215010717511177063
0.20877547562122345 0.064365975558757782 0.024716593325138092
0.20877547562122345 0.00565890083089470863 0.0268606562167406082
0.20877547562122345 0.004723323043435812 0.104435920715332031
0.20877547562122345 0.0592667162418365479 0.0532330945134162903
0.20877547562122345 0.114260517060756683 0.00404686480760574341
0.20877547562122345 0.0278179589658975601 0.0157464202493429184
0.20877547562122345 0.00185488257557153702 0.101434811949729919
0.20877547562122345 0.0587782897055149078 0.00261666625738143921
0.20877547562122345 0.03881072998046875 0.0753890872001647949
0.20877547562122345 0.0443146862089633942 0.0429432056844234467
0.20877547562122345 0.0116716967895627022 0.098836071789264679
0.20877547562122345 0.0161264371126890182 0.0788508206605911255
0.20877547562122345 0.0701517462730407715 0.0437958687543869019
0.20877547562122345 0.0756782218813896179 0.0429465919733047485
0.20877547562122345 0.0998027175664901733 0.00228347629308700562
0.20877547562122345 0.0209860783070325851 0.0514569580554962158
0.20877547562122345 0.0684987083077430725 0.0404919907450675964
0.20877547562122345 0.0559354647994041443 0.036654151976108551
0.20877547562122345 0.0373528338968753815 0.0468654893338680267
0.20877547562122345 0.0238219108432531357 0.0954557061195373535
0.20877547562122345 0.0133963832631707191 0.0514393001794815063
0.20877547562122345 0.0809583961963653564 0.0348595157265663147
0.20877547562122345 0.0618199370801448822 0.0517447702586650848
0.20877547562122345 0.0653869658708572388 0.00826935470104217529
0.20877547562122345 0.0743408575654029846 0.00333740562200546265
0.20877547562122345 0.0203724745661020279 0.0594632327556610107
0.20877547562122345 0.0212037917226552963 0.0614982172846794128
0.20877547562122345 0.0436848551034927368 0.0529937520623207092
0.20877547562122345 0.0269209221005439758 0.0805375277996063232
0.20877547562122345 0.0734619647264480591 0.031834334135055542
0.20877547562122345 0.0195946376770734787 0.0117630679160356522
0.20877547562122345 0.0448773838579654694 0.0404837243258953094
0.20877547562122345 0.0379126258194446564 0.045643780380487442
0.20877547562122345 0.0216297339648008347 0.0900253728032112122
0.20877547562122345 0.0095340656116604805 0.00460100453346967697
0.20877547562122345 0.0650107637047767639 0.0282718762755393982
0.20877547562122345 0.0285514034330844879 0.0332046523690223694
0.20877547562122345 0.0405821725726127625 0.0146570280194282532
0.20877547562122345 0.0831117182970046997 0.0109669864177703857
0.20877547562122345 0.0165581163018941879 0.0257544014602899551
0.20877547562122345 0.0658558160066604614 0.0140824615955352783
0.20877547562122345 0.00735569978132843971 0.0729134976863861084
0.20877547562122345 0.00667986832559108734 0.0910126715898513794
0.20877547562122345 0.0427241250872612 0.000253669917583465576
0.20877547562122345 0.0160627774894237518 0.0126324109733104706
0.20877547562122345 0.00190774747170507908 0.101890929043292999
0.20877547562122345 0.0507763437926769257 0.00592770799994468689
0.20877547562122345 0.0124168414622545242 0.0378292873501777649
0.20877547562122345 0.104192972183227539 0.012045152485370636
0.20877547562122345 0.0383930429816246033 0.0455575287342071533
0.20877547562122345 0.00685599585995078087 0.0270891021937131882
0.20877547562122345 0.0554367825388908386 0.0145257934927940369
0.20877547562122345 0.0762580856680870056 0.0161396190524101257
0.20877547562122345 0.0019232484046369791 0.00122482306323945522
0.20877547562122345 0.00465582031756639481 0.0374782197177410126
0.20877547562122345 0.0759377554059028625 0.0092470124363899231
0.20877547562122345 0.0127153815701603889 0.0323541127145290375
0.20877547562122345 0.0294839199632406235 0.0661235973238945007
0.20877547562122345 0.0452192649245262146 0.00763614475727081299
0.20877547562122345 0.0403437577188014984 0.0744029134511947632
0.20877547562122345 0.0878306850790977478 0.00799230486154556274
0.20877547562122345 0.0348276160657405853 0.0716068744659423828
0.20877547562122345 0.0117289973422884941 0.0417097993195056915
0.20877547562122345 0.0323256403207778931 0.00477560609579086304
0.20877547562122345 0.00952260661870241165 0.0549537055194377899
0.20877547562122345 0.0602305904030799866 0.058943822979927063
0.20877547562122345 0.0457282178103923798 0.0332906432449817657
0.20877547562122345 0.0628709271550178528 0.015057004988193512
0.20877547562122345 0.0273706670850515366 0.0282600913196802139
0.20877547562122345 0.00588674750179052353 0.0928845703601837158
0.20877547562122345 0.00964309927076101303 0.0709822997450828552
0.20877547562122345 0.0196284167468547821 0.0758928060531616211
0.20877547562122345 0.0423241257667541504 0.0144411548972129822
0.20877547562122345 0.0470406152307987213 0.0334608517587184906
0.20877547562122345 0.0216825772076845169 0.00214687548577785492
0.20877547562122345 0.0282915029674768448 0.0165322702378034592
0.20877547562122345 0.0516283512115478516 0.0644281879067420959
0.20877547562122345 0.032613750547170639 0.0458310879766941071
0.20877547562122345 0.0238533336669206619 0.0674535408616065979
0.20877547562122345 0.0553777962923049927 0.0146417990326881409
0.20877547562122345 0.00153585884254425764 0.0475244484841823578
0.20877547562122345 0.0164600536227226257 0.0871983841061592102
0.20877547562122345 0.0199513677507638931 0.0869041755795478821
0.20877547562122345 0.0704519376158714294 0.0304470658302307129
0.20877547562122345 0.000238513341173529625 0.0199090857058763504
0.20877547562122345 0.00220432551577687263 0.0402720905840396881
0.20877547562122345 0.054185379296541214 0.051621805876493454
0.20877547562122345 0.013247443363070488 0.0133350957185029984
0.20877547562122345 0.0292085669934749603 0.0405266471207141876
0.20877547562122345 0.00147880858276039362 0.100361697375774384
0.20877547562122345 0.0218421034514904022 0.0616558603942394257
0.20877547562122345 0.0824247002601623535 0.0142908990383148193
0.20877547562122345 0.0039966232143342495 0.0179621223360300064
0.20877547562122345 0.0591596849262714386 0.044943545013666153
0.20877547562122345 0.0294516030699014664 0.0313602983951568604
0.20877547562122345 0.0462396666407585144 0.018838733434677124
0.20877547562122345 0.00832913629710674286 0.0219737384468317032
0.20877547562122345 0.012331884354352951 0.0456341356039047241
0.20877547562122345 0.0464421100914478302 0.021890837699174881
0.20877547562122345 0.0534289814531803131 0.0524365045130252838
0.20877547562122345 0.012564878910779953 0.0379715748131275177
0.20877547562122345 0.0867201909422874451 0.0278503522276878357
0.20877547562122345 0.0176225323230028152 0.015095708891749382
0.20877547562122345 0.0617617033421993256 0.053030792623758316
0.20877547562122345 0.0652069002389907837 0.0213378295302391052
0.20877547562122345 0.0911531001329421997 0.0176940411329269409
0.20877547562122345 0.0129288528114557266 0.0998495742678642273
0.20877547562122345 0.027891622856259346 0.0645728558301925659
0.20877547562122345 0.0592010244727134705 0.0276596546173095703
0.20877547562122345 0.0304919052869081497 0.0538462325930595398
0.20877547562122345 0.0140075720846652985 0.00742674991488456726
0.20877547562122345 0.0239841677248477936 0.0163195021450519562
0.20877547562122345 0.0115023991093039513 0.0332405194640159607
0.20877547562122345 0.103583231568336487 0.0137028321623802185
0.20877547562122345 0.0871294289827346802 0.00644262135028839111
0.20877547562122345 0.018403245136141777 0.0540186315774917603
0.20877547562122345 0.0708442553877830505 0.0130382254719734192
0.20877547562122345 0.0450971908867359161 0.0701599270105361938
0.20877547562122345 0.039084799587726593 0.0255168750882148743
0.20877547562122345 0.00502046383917331696 0.0867370143532752991
0.20877547562122345 0.0562508665025234222 0.0183411948382854462
0.20877547562122345 0.056393403559923172 0.00762904807925224304
0.20877547562122345 0.0503387488424777985 0.0675491541624069214
0.20877547562122345 0.0371978804469108582 0.0593969449400901794
0.20877547562122345 0.0252115204930305481 0.0801849439740180969
0.20877547562122345 0.0095145590603351593 0.0253095142543315887
0.20877547562122345 0.0674727186560630798 0.0344692692160606384
0.20877547562122345 0.00327713903971016407 0.113502271473407745
0.20877547562122345 0.0173902064561843872 0.0361195579171180725
0.20877547562122345 0.0334574803709983826 0.0442988276481628418
0.20877547562122345 0.0141162220388650894 0.0231417771428823471
0.20877547562122345 0.0331569463014602661 0.0655950754880905151
0.20877547562122345 0.0726447626948356628 0.0295741558074951172
0.20877547562122345 0.0291312504559755325 0.0131411906331777573
0.20877547562122345 0.0388666018843650818 0.030840747058391571
0.20877547562122345 0.0130683556199073792 0.042802467942237854
0.20877547562122345 0.0687359422445297241 0.0241965502500534058
0.20877547562122345 0.0472681261599063873 0.062019001692533493
0.20877547562122345 0.0118810106068849564 0.0611413419246673584
0.20877547562122345 0.0485106632113456726 0.0107820108532905579
0.20877547562122345 0.0382429882884025574 0.0287483111023902893
0.20877547562122345 0.010812670923769474 0.069212108850479126
0.20877547562122345 0.00820088665932416916 0.0950810015201568604
0.20877547562122345 0.0170852430164813995 0.00834969058632850647
0.20877547562122345 0.0607634857296943665 0.00307019054889678955
0.20877547562122345 0.0339863710105419159 0.0237144604325294495
0.20877547562122345 0.0170185379683971405 0.070445522665977478
0.20877547562122345 0.00715341046452522278 0.00504698976874351501
0.20877547562122345 0.086257442831993103 0.0103390961885452271
0.20877547562122345 0.0830712094902992249 0.0125434324145317078
0.20877547562122345 0.0549452491104602814 0.0393293909728527069
0.20877547562122345 0.0355407185852527618 0.028683248907327652
0.20877547562122345 0.0277876146137714386 0.011528555303812027
0.20877547562122345 0.00546159781515598297 0.0219944994896650314
0.20877547562122345 0.0121403075754642487 0.0335330478847026825
0.20877547562122345 0.0356899462640285492 0.00419126078486442566
0.20877547562122345 0.0148513242602348328 0.0921481624245643616
0.20877547562122345 0.0107583412900567055 0.0307579785585403442
0.20877547562122345 0.0609965436160564423 8.27014446258544922e-07
0.20877547562122345 0.082401372492313385 0.0163284763693809509
0.20877547562122345 0.00337609089910984039 0.00776164792478084564
0.20877547562122345 0.0469864457845687866 0.025019913911819458
0.20877547562122345 0.0197177398949861526 0.0478952378034591675
0.20877547562122345 0.021747516468167305 0.0567658543586730957
0.20877547562122345 0.0666644424200057983 0.028473682701587677
0.20877547562122345 0.115607671439647675 0.00308263301849365234
0.20877547562122345 0.0491469576954841614 0.0654988214373588562
0.20877547562122345 0.0789025872945785522 0.0269385427236557007
0.20877547562122345 0.0792867168784141541 0.0386490821838378906
0.20877547562122345 0.00705330679193139076 0.0963676050305366516
0.20877547562122345 0.0677588582038879395 0.0500389114022254944
0.20877547562122345 0.105985037982463837 0.013971865177154541
0.20877547562122345 0.0420451685786247253 0.0667068064212799072
0.20877547562122345 0.0088588520884513855 0.0662159398198127747
0.20877547562122345 0.0828461050987243652 0.0224916264414787292
0.20877547562122345 0.0650084167718887329 0.0403237044811248779
0.20877547562122345 0.0377773530781269073 0.0278959386050701141
0.20877547562122345 0.0203478708863258362 0.0892938822507858276
0.20877547562122345 0.0489080660045146942 0.0413842238485813141
0.20877547562122345 0.0558379851281642914 0.0542251430451869965
0.20877547562122345 0.0316114909946918488 0.0202261321246623993
0.20877547562122345 0.0180922225117683411 0.0543698742985725403
0.20877547562122345 0.0278028789907693863 0.0483638271689414978
0.20877547562122345 0.0366125591099262238 0.00289891287684440613
0.20877547562122345 0.0471706241369247437 0.0184641778469085693
0.20877547562122345 0.102610133588314056 0.0102350711822509766
0.20877547562122345 0.0445027537643909454 0.00394630804657936096
0.20877547562122345 0.108678877353668213 0.00229711830615997314
0.20877547562122345 0.0235740076750516891 0.0610425323247909546
0.20877547562122345 0.0961382761597633362 0.0227111801505088806
0.20877547562122345 0.0183062497526407242 0.0648347064852714539
0.20877547562122345 0.0664083883166313171 0.00426728278398513794
0.20877547562122345 0.0374901890754699707 0.0387875139713287354
0.20877547562122345 0.0672099143266677856 0.03928336501121521
0.20877547562122345 0.0738720595836639404 0.0338329151272773743
0.20877547562122345 0.022699303925037384 0.02704639732837677
0.20877547562122345 0.0196836329996585846 0.0695984512567520142
0.20877547562122345 0.0531350076198577881 0.0589525103569030762
0.20877547562122345 0.0735052451491355896 0.00443401932716369629
0.20877547562122345 0.0196661986410617828 0.000996742397546768188
0.20877547562122345 0.0563274398446083069 0.0140245184302330017
0.20877547562122345 0.093924596905708313 0.0109319016337394714
0.20877547562122345 0.0374023020267486572 0.00691914558410644531
0.20877547562122345 0.013377239927649498 0.0895670130848884583
0.20877547562122345 0.0428663156926631927 0.009655047208070755
0.20877547562122345 0.0152446292340755463 0.0773161351680755615
0.20877547562122345 0.0283472444862127304 0.00137265957891941071
0.20877547562122345 0.00181000528391450644 0.0422746539115905762
0.20877547562122345 0.0382926054298877716 0.0182241015136241913
0.20877547562122345 0.0430373921990394592 0.0721568837761878967
0.20877547562122345 0.0151587920263409615 0.0284562818706035614
0.20877547562122345 0.0455113723874092102 0.0168591886758804321
0.20877547562122345 0.0337795540690422058 0.0242848694324493408
0.20877547562122345 0.0288753490895032883 0.0338646769523620605
0.20877547562122345 0.0156461987644433975 0.0175138097256422043
0.20877547562122345 0.0792642086744308472 0.0178157836198806763
0.20877547562122345 0.0422539934515953064 0.0283743813633918762
0.20877547562122345 0.0233354754745960236 0.00347533449530601501
0.20877547562122345 0.0992834120988845825 0.0183370709419250488
0.20877547562122345 0.00748671684414148331 0.105027854442596436
0.20877547562122345 0.0622869059443473816 0.0168599262833595276
0.20877547562122345 0.00293695228174328804 0.0573693066835403442
0.20877547562122345 0.108893968164920807 0.00875078141689300537
0.20877547562122345 0.0600289106369018555 0.0107219666242599487
0.20877547562122345 0.0333331003785133362 0.0352627187967300415
0.20877547562122345 0.0233986489474773407 0.00465199723839759827
0.20877547562122345 0.0197950098663568497 0.0603959783911705017
0.20877547562122345 0.0166217517107725143 0.0477813184261322021
0.20877547562122345 0.0402622446417808533 0.0264786109328269958
0.20877547562122345 0.00657454598695039749 0.0874867290258407593
0.20877547562122345 0.00153626152314245701 0.0722307562828063965
0.20877547562122345 0.0392505526542663574 0.0554227158427238464
0.20877547562122345 0.0342659801244735718 0.0361996740102767944
0.20877547562122345 0.0437160953879356384 0.0178482159972190857
0.20877547562122345 0.0333317294716835022 0.0425619706511497498
0.20877547562122345 0.0125258741900324821 0.0904198884963989258
0.20877547562122345 0.00222674012184143066 0.0394923761487007141
0.20877547562122345 0.0197378750890493393 0.0805406719446182251
0.20877547562122345 0.0434847176074981689 0.0721593424677848816
0.20877547562122345 0.0386844836175441742 0.0253953374922275543
0.20877547562122345 0.0522691719233989716 0.0588859505951404572
0.20877547562122345 0.0248250570148229599 0.0323403105139732361
0.20877547562122345 0.0242503508925437927 0.00829041004180908203
0.20877547562122345 0.0960907638072967529 0.0029346272349357605
0.20877547562122345 0.0414048880338668823 0.0671792253851890564
0.20877547562122345 0.0839167386293411255 0.0254532843828201294
0.20877547562122345 0.0343632921576499939 0.0479527935385704041
0.20877547562122345 0.0881385132670402527 0.0307788252830505371
0.20877547562122345 0.0264691896736621857 0.0171434246003627777
0.20877547562122345 0.0463324747979640961 0.00759792700409889221
0.20877547562122345 0.0285875331610441208 0.0209173355251550674
0.20877547562122345 0.01578543521463871 0.0506993308663368225
0.20877547562122345 0.102317720651626587 0.0126006677746772766
0.20877547562122345 0.0630959495902061462 0.0153303071856498718
0.20877547562122345 0.0516439937055110931 0.03229566290974617
0.20877547562122345 0.0196303781121969223 0.00408822484314441681
0.20877547562122345 0.0441697724163532257 0.0508220233023166656
0.20877547562122345 0.0359793603420257568 0.0558746755123138428
0.20877547562122345 0.0391558520495891571 0.0381929241120815277
0.20877547562122345 0.0415145121514797211 0.0360432155430316925
0.20877547562122345 0.0427096821367740631 0.038558419793844223
0.20877547562122345 0.0323062650859355927 0.0443208850920200348
0.20877547562122345 0.0326232574880123138 0.0538883395493030548
0.20877547562122345 0.0817086175084114075 0.0190210044384002686
0.20877547562122345 0.00101247325073927641 0.107076153159141541
0.20877547562122345 0.042834162712097168 0.0186233706772327423
0.20877547562122345 0.0133184231817722321 0.0750706940889358521
0.20877547562122345 0.0508858710527420044 0.0619297772645950317
0.20877547562122345 0.000685015751514583826 0.109698526561260223
0.20877547562122345 0.0136238820850849152 0.0294510088860988617
0.20877547562122345 0.0132012693211436272 0.100442662835121155
0.20877547562122345 0.0871269479393959045 0.0120633319020271301
0.20877547562122345 0.0190616622567176819 0.045024774968624115
0.20877547562122345 0.0158908907324075699 0.0395151302218437195
0.20877547562122345 0.0579344145953655243 0.026049349457025528
0.20877547562122345 0.0281566623598337173 0.00817688368260860443
0.20877547562122345 0.0592508949339389801 0.048441719263792038
0.20877547562122345 0.0535459443926811218 0.00700433924794197083
0.20877547562122345 6.3468251028098166e-05 0.0361116416752338409
0.20877547562122345 0.0815542638301849365 0.00508481264114379883
0.20877547562122345 0.0587179921567440033 0.0583204589784145355
0.20877547562122345 0.0168137885630130768 0.0613612495362758636
0.20877547562122345 0.051652323454618454 0.0500696860253810883
0.20877547562122345 0.00779199693351984024 0.0354348272085189819
0.20877547562122345 0.0468470267951488495 0.0325190462172031403
0.20877547562122345 0.0418634042143821716 0.0324649885296821594
0.20877547562122345 0.0169353783130645752 0.0246838703751564026
0.20877547562122345 0.0427363812923431396 0.0106039270758628845
0.20877547562122345 0.0624366812407970428 0.00414692983031272888
0.20877547562122345 0.0354073755443096161 0.0226407758891582489
0.20877547562122345 0.0253754239529371262 0.0482835099101066589
0.20877547562122345 0.0466972291469573975 0.0164108127355575562
0.20877547562122345 0.111865721642971039 0.00683766603469848633
0.20877547562122345 0.0606082938611507416 0.0127514787018299103
0.20877547562122345 0.08644896000623703 0.0331104174256324768
0.20877547562122345 0.0987310782074928284 0.0118787810206413269
0.20877547562122345 0.0588258467614650726 0.0207819156348705292
0.20877547562122345 0.0373551696538925171 0.0426834374666213989
0.20877547562122345 0.0574298575520515442 0.0316446349024772644
0.20877547562122345 0.0965639501810073853 0.00439491122961044312
0.20877547562122345 0.100198261439800262 0.00178825110197067261
0.20877547562122345 0.0629951953887939453 0.0538864806294441223
0.20877547562122345 0.00534712709486484528 0.0866905972361564636
0.20877547562122345 0.0260730907320976257 0.0162630602717399597
0.20877547562122345 0.0655563399195671082 0.0142334029078483582
0.20877547562122345 0.00253104115836322308 0.00175851886160671711
0.20877547562122345 0.0518889389932155609 0.0370985455811023712
0.20877547562122345 0.000661219295579940081 0.0326936729252338409
0.20877547562122345 0.0977644026279449463 0.0196220949292182922
0.20877547562122345 0.00697576813399791718 0.0229372847825288773
0.20877547562122345 0.079802289605140686 0.0309678986668586731
0.20877547562122345 0.02833571657538414 0.078968927264213562
0.20877547562122345 0.0234853308647871017 0.058513350784778595
0.20877547562122345 0.102023355662822723 0.012826092541217804
0.20877547562122345 0.0873438641428947449 0.0197500735521316528
0.20877547562122345 0.0238937921822071075 0.0177938304841518402
0.20877547562122345 0.0894366726279258728 0.00530684739351272583
0.20877547562122345 0.0577475428581237793 0.00374007970094680786
0.20877547562122345 0.0768819823861122131 0.0241687968373298645
0.20877547562122345 0.0867121368646621704 0.000546842813491821289
0.20877547562122345 0.00341995968483388424 0.112169109284877777
0.20877547562122345 0.0069646686315536499 0.0296922549605369568
0.20877547562122345 0.017275102436542511 0.0431171506643295288
0.20877547562122345 0.0301143079996109009 0.0258643478155136108
0.20877547562122345 0.059262353926897049 0.050915893167257309
0.20877547562122345 0.0642150565981864929 0.0249216333031654358
0.20877547562122345 0.0402108989655971527 0.0260265953838825226
0.20877547562122345 0.0630951300263404846 0.00602514296770095825
0.20877547562122345 0.0394952110946178436 0.0461269654333591461
0.20877547562122345 0.0405511669814586639 0.0505710728466510773
0.20877547562122345 0.0604125224053859711 0.0269151218235492706
0.20877547562122345 0.00429101893678307533 0.0114609245210886002
0.20877547562122345 0.00717548374086618423 0.0695796087384223938
0.20877547562122345 0.0125034153461456299 0.0406504720449447632
0.20877547562122345 0.039262332022190094 0.0549205988645553589
0.20877547562122345 0.0598455406725406647 0.059986751526594162
0.20877547562122345 0.0116075035184621811 0.0450457632541656494
0.20877547562122345 0.0518467724323272705 0.0246961340308189392
0.20877547562122345 0.0447177588939666748 0.0157333351671695709
0.20877547562122345 0.0710323452949523926 0.0221478790044784546
0.20877547562122345 0.0125030418857932091 0.0972019284963607788
0.20877547562122345 0.0439700894057750702 0.0543329603970050812
0.20877547562122345 0.00126453163102269173 0.027553018182516098
0.20877547562122345 0.0789914131164550781 0.0117463693022727966
0.20877547562122345 0.0662686154246330261 0.0303713753819465637
0.20877547562122345 0.0171054992824792862 0.0639623329043388367
0.20877547562122345 0.0197298489511013031 0.0702315866947174072
0.20877547562122345 0.0240980144590139389 0.0279606599360704422
0.20877547562122345 0.0633159428834915161 0.0314955413341522217
0.20877547562122345 0.0481882914900779724 0.0440159663558006287
0.20877547562122345 0.0265501160174608231 0.0418194681406021118
0.20877547562122345 0.0158226434141397476 0.0427915453910827637
0.20877547562122345 0.0717124044895172119 0.0478773340582847595
0.20877547562122345 0.0961725339293479919 0.00392267853021621704
0.20877547562122345 0.0478100329637527466 0.0391896516084671021
0.20877547562122345 0.0497450605034828186 0.0324078351259231567
0.20877547562122345 0.0487741157412528992 0.0622932314872741699
0.20877547562122345 0.0584192872047424316 0.0544010326266288757
0.20877547562122345 0.0291396807879209518 0.0846025645732879639
0.20877547562122345 0.0214882362633943558 0.0371846035122871399
