ply
format ascii 1.0
element vertex 938
property float x
property float y
property float z
end_header
0.25 0.718155860900878906 0.197164297103881836
0.25 1.01005327701568604 0.113342933356761932
0.25 0.580230593681335449 0.146242812275886536
0.25 0.894601225852966309 0.124032266438007355
0.25 0.793509960174560547 0.0832587480545043945
0.25 0.871184051036834717 0.141181141138076782
0.25 0.786875307559967041 0.141033798456192017
0.25 0.821506142616271973 0.165420711040496826
0.25 1.00078380107879639 0.0507250279188156128
0.25 0.441071510314941406 0.149414300918579102
0.25 0.244134366512298584 0.18233354389667511
0.25 1.08074557781219482 0.123036198318004608
0.25 0.946928083896636963 0.156516984105110168
0.25 0.557665884494781494 0.137592226266860962
0.25 0.715076684951782227 0.0798578038811683655
0.25 0.0765260457992553711 0.192834228277206421
0.25 0.749921858310699463 0.069110870361328125
0.25 0.931700706481933594 0.0502129346132278442
0.25 0.57161027193069458 0.10151740163564682
0.25 1.0839308500289917 0.123665101826190948
0.25 0.885010838508605957 0.0860505923628807068
0.25 0.945877671241760254 0.053302571177482605
0.25 0.532852530479431152 0.189857140183448792
0.25 0.729264497756958008 0.0966299697756767273
0.25 1.06836879253387451 0.199446827173233032
0.25 0.915786385536193848 0.0435484945774078369
0.25 1.06980776786804199 0.153892695903778076
0.25 0.10377812385559082 0.193348929286003113
0.25 1.08183765411376953 0.0125274211168289185
0.25 0.991369009017944336 0.0563639551401138306
0.25 0.582525730133056641 0.113604791462421417
0.25 0.589995801448822021 0.153348192572593689
0.25 0.995214521884918213 0.0845068320631980896
0.25 0.0951563119888305664 0.191837623715400696
0.25 0.667446374893188477 0.112057022750377655
0.25 0.884537220001220703 0.191913694143295288
0.25 0.511330544948577881 0.175895959138870239
0.25 0.573894321918487549 0.156879216432571411
0.25 0.870180010795593262 0.182042226195335388
0.25 1.05742144584655762 0.185983091592788696
0.25 1.03718841075897217 0.07437857985496521
0.25 0.907330214977264404 0.147912889719009399
0.25 0.680858254432678223 0.186874404549598694
0.25 0.972165584564208984 0.024405255913734436
0.25 0.84461057186126709 0.124168857932090759
0.25 0.613514900207519531 0.171046212315559387
0.25 0.816166043281555176 0.0527923405170440674
0.25 0.669626057147979736 0.14963918924331665
0.25 0.574184298515319824 0.123980626463890076
0.25 0.951743483543395996 0.0402968376874923706
0.25 0.830698251724243164 0.103379033505916595
0.25 0.628531932830810547 0.0872673764824867249
0.25 0.358875155448913574 0.191486954689025879
0.25 0.989571154117584229 0.102495297789573669
0.25 0.968435883522033691 0.144817590713500977
0.25 0.86746978759765625 0.126442968845367432
0.25 0.171584129333496094 0.195264413952827454
0.25 0.540612518787384033 0.145359799265861511
0.25 0.976436257362365723 0.0339500010013580322
0.25 0.931710600852966309 0.148345097899436951
0.25 0.953927099704742432 0.0273408442735671997
0.25 1.06742954254150391 0.0669719278812408447
0.25 0.86231541633605957 0.103948585689067841
0.25 0.763687849044799805 0.0908458009362220764
0.25 1.09056758880615234 0.196220844984054565
0.25 0.715556979179382324 0.144546076655387878
0.25 0.760869681835174561 0.146492421627044678
0.25 0.11586993932723999 0.189020588994026184
0.25 0.444987356662750244 0.167380452156066895
0.25 0.638320684432983398 0.147111251950263977
0.25 0.913421571254730225 0.130642026662826538
0.25 0.212460875511169434 0.165579959750175476
0.25 0.135869920253753662 0.180015444755554199
0.25 0.754137396812438965 0.067285582423210144
0.25 0.568835198879241943 0.177878797054290771
0.25 0.761775732040405273 0.108006805181503296
0.25 0.160197436809539795 0.181484729051589966
0.25 0.733752131462097168 0.193172484636306763
0.25 0.516395151615142822 0.123410895466804504
0.25 0.416582286357879639 0.196419596672058105
0.25 0.841402173042297363 0.147686123847961426
0.25 0.962036609649658203 0.0912900790572166443
0.25 0.738222360610961914 0.0899904593825340271
0.25 0.57225412130355835 0.139079675078392029
0.25 0.988471388816833496 0.0902118608355522156
0.25 0.867323875427246094 0.190834283828735352
0.25 0.945985615253448486 0.170877143740653992
0.25 0.707835018634796143 0.154026806354522705
0.25 1.04146111011505127 0.128714531660079956
0.25 0.750172257423400879 0.140907987952232361
0.25 0.394263982772827148 0.128646522760391235
0.25 0.888128995895385742 0.110644042491912842
0.25 1.01833391189575195 0.0594642311334609985
0.25 0.786782264709472656 0.0781530067324638367
0.25 0.805728673934936523 0.0604798197746276855
0.25 1.05980551242828369 0.167687132954597473
0.25 0.975867152214050293 0.158614546060562134
0.25 0.975901365280151367 0.125339418649673462
0.25 0.50208592414855957 0.127101719379425049
0.25 0.905399680137634277 0.0370988994836807251
0.25 0.240453839302062988 0.190521776676177979
0.25 0.952211380004882812 0.190595239400863647
0.25 0.357256412506103516 0.149742677807807922
0.25 0.922079145908355713 0.185955032706260681
0.25 0.273235082626342773 0.169593796133995056
0.25 0.913559794425964355 0.0474299490451812744
0.25 0.59262770414352417 0.150452166795730591
0.25 1.08953499794006348 0.0210811197757720947
0.25 1.00830316543579102 0.063497394323348999
0.25 0.396876752376556396 0.17467169463634491
0.25 0.107523858547210693 0.192365199327468872
0.25 0.549122929573059082 0.139417082071304321
0.25 0.817839682102203369 0.0710819065570831299
0.25 0.756439328193664551 0.178052693605422974
0.25 0.45789104700088501 0.192107424139976501
0.25 0.299098551273345947 0.153521880507469177
0.25 1.02415323257446289 0.123347587883472443
0.25 0.217915058135986328 0.172672286629676819
0.25 0.459153175354003906 0.165620863437652588
0.25 0.86137855052947998 0.0887318253517150879
0.25 0.862363696098327637 0.195583522319793701
0.25 0.679561972618103027 0.18113081157207489
0.25 0.41926497220993042 0.16198045015335083
0.25 0.987216353416442871 0.0972207412123680115
0.25 0.531269252300262451 0.18050171434879303
0.25 1.07801365852355957 0.1161060631275177
0.25 0.688149929046630859 0.0821624770760536194
0.25 0.806803286075592041 0.0644280165433883667
0.25 0.145325601100921631 0.180641129612922668
0.25 0.701224446296691895 0.0828787684440612793
0.25 1.04440879821777344 0.197899535298347473
0.25 0.912634730339050293 0.198940157890319824
0.25 1.08051955699920654 0.0786905065178871155
0.25 0.97162705659866333 0.178684502840042114
0.25 0.598919570446014404 0.131092995405197144
0.25 0.777666449546813965 0.177777409553527832
0.25 1.04409027099609375 0.182985991239547729
0.25 0.421756505966186523 0.150223314762115479
0.25 0.962316393852233887 0.074672996997833252
0.25 0.671516656875610352 0.116470634937286377
0.25 0.506703555583953857 0.127295732498168945
0.25 0.685596644878387451 0.116194568574428558
0.25 0.853989601135253906 0.0668258219957351685
0.25 1.04055655002593994 0.0872490778565406799
0.25 0.661121010780334473 0.161031082272529602
0.25 0.746515512466430664 0.189419463276863098
0.25 0.548492848873138428 0.142852112650871277
0.25 0.84500730037689209 0.183542013168334961
0.25 0.398956596851348877 0.158831179141998291
0.25 0.717434883117675781 0.160132899880409241
0.25 0.465808451175689697 0.123033992946147919
0.25 0.578486084938049316 0.117976151406764984
0.25 0.562931060791015625 0.146100401878356934
0.25 0.225104212760925293 0.197034016251564026
0.25 1.00608599185943604 0.0765100643038749695
0.25 0.802400469779968262 0.136007755994796753
0.25 0.825011849403381348 0.171748176217079163
0.25 0.601972579956054688 0.134359747171401978
0.25 1.02198433876037598 0.18352210521697998
0.25 0.470697522163391113 0.119418315589427948
0.25 0.675652742385864258 0.090758003294467926
0.25 0.706551909446716309 0.125809118151664734
0.25 0.579363763332366943 0.170376807451248169
0.25 0.756020069122314453 0.16456390917301178
0.25 1.06815600395202637 0.0277015268802642822
0.25 0.88451850414276123 0.122894071042537689
0.25 0.95663374662399292 0.116046018898487091
0.25 0.995290517807006836 0.067173391580581665
0.25 0.711937367916107178 0.15856170654296875
0.25 0.902038991451263428 0.165048792958259583
0.25 0.767824888229370117 0.121361978352069855
0.25 0.0786784887313842773 0.19926731288433075
0.25 0.60365062952041626 0.168918535113334656
0.25 0.604121208190917969 0.118489637970924377
0.25 0.589508354663848877 0.114133700728416443
0.25 0.739966869354248047 0.195739910006523132
0.25 0.837367117404937744 0.18011242151260376
0.25 1.08164358139038086 0.148949310183525085
0.25 0.847928285598754883 0.0645766109228134155
0.25 0.718263328075408936 0.178769513964653015
0.25 0.664226055145263672 0.139315053820610046
0.25 0.911007106304168701 0.0626006871461868286
0.25 0.788344860076904297 0.101890094578266144
0.25 0.268103182315826416 0.194295302033424377
0.25 0.981418788433074951 0.0685731321573257446
0.25 0.875212132930755615 0.118459463119506836
0.25 0.727666378021240234 0.122184067964553833
0.25 0.915273845195770264 0.0908830314874649048
0.25 0.992653965950012207 0.138315588235855103
0.25 0.221862912178039551 0.199790894985198975
0.25 1.02183020114898682 0.029814109206199646
0.25 1.02204811573028564 0.154152363538742065
0.25 0.154622673988342285 0.198807418346405029
0.25 0.970417201519012451 0.149117797613143921
0.25 1.03886985778808594 0.0666320174932479858
0.25 0.921540975570678711 0.0936233773827552795
0.25 0.134124875068664551 0.198052138090133667
0.25 0.640849292278289795 0.124206386506557465
0.25 0.985596656799316406 0.121894396841526031
0.25 0.925164163112640381 0.139857098460197449
0.25 1.01981079578399658 0.0601299405097961426
0.25 0.751664996147155762 0.1695222407579422
0.25 0.79327094554901123 0.159326434135437012
0.25 0.818635702133178711 0.135836988687515259
0.25 0.824657917022705078 0.175123587250709534
0.25 0.73833918571472168 0.138513296842575073
0.25 1.05377697944641113 0.0821453109383583069
0.25 0.280316948890686035 0.151895329356193542
0.25 1.01153218746185303 0.016759723424911499
0.25 0.722077369689941406 0.149014681577682495
0.25 0.99670863151550293 0.180643066763877869
0.25 1.01513814926147461 0.0646058619022369385
0.25 0.596740126609802246 0.103479109704494476
0.25 1.09039413928985596 0.0928194299340248108
0.25 0.958014965057373047 0.0977875366806983948
0.25 1.06715607643127441 0.0593769103288650513
0.25 1.01449489593505859 0.171665191650390625
0.25 0.17738264799118042 0.182645440101623535
0.25 0.575231850147247314 0.1959056556224823
0.25 0.676927089691162109 0.136136263608932495
0.25 0.73779141902923584 0.184657931327819824
0.25 0.615561485290527344 0.152226760983467102
0.25 1.05365002155303955 0.00874498486518859863
0.25 0.753038167953491211 0.151343867182731628
0.25 0.588394522666931152 0.110596135258674622
0.25 1.02626907825469971 0.121468387544155121
0.25 0.460735082626342773 0.173425525426864624
0.25 0.602024853229522705 0.14593583345413208
0.25 0.697586297988891602 0.148984536528587341
0.25 0.749330103397369385 0.180069461464881897
0.25 0.094374537467956543 0.191900819540023804
0.25 1.08522319793701172 0.187657609581947327
0.25 0.843520402908325195 0.154664963483810425
0.25 0.908830046653747559 0.0656439214944839478
0.25 0.693131327629089355 0.190944850444793701
0.25 0.618905305862426758 0.0920733213424682617
0.25 0.92089545726776123 0.186889141798019409
0.25 0.768586874008178711 0.145406484603881836
0.25 0.847610950469970703 0.138245716691017151
0.25 0.275139331817626953 0.167634978890419006
0.25 0.429045498371124268 0.137168735265731812
0.25 0.266994655132293701 0.183366924524307251
0.25 0.164287745952606201 0.178255364298820496
0.25 0.936747312545776367 0.0938966423273086548
0.25 0.808621764183044434 0.0833034664392471313
0.25 0.511182785034179688 0.171550452709197998
0.25 0.909842610359191895 0.199390456080436707
0.25 0.548186421394348145 0.188834607601165771
0.25 0.335623800754547119 0.178715810179710388
0.25 0.73399507999420166 0.10787663608789444
0.25 0.989475548267364502 0.159303247928619385
0.25 0.928565323352813721 0.14317043125629425
0.25 0.731559872627258301 0.12597048282623291
0.25 0.739825129508972168 0.117655247449874878
0.25 0.663512289524078369 0.097075141966342926
0.25 0.481498777866363525 0.159280374646186829
0.25 0.387933254241943359 0.169313162565231323
0.25 0.936824381351470947 0.10511402040719986
0.25 1.01655316352844238 0.178975999355316162
0.25 0.441640496253967285 0.142821609973907471
0.25 0.930105924606323242 0.17355819046497345
0.25 0.918135464191436768 0.114482305943965912
0.25 0.739106893539428711 0.166626855731010437
0.25 0.32729107141494751 0.148343712091445923
0.25 0.73755180835723877 0.132443130016326904
0.25 1.04527008533477783 0.0947264432907104492
0.25 0.849306285381317139 0.134821921586990356
0.25 0.861157000064849854 0.185391366481781006
0.25 0.838644742965698242 0.117778994143009186
0.25 0.994443714618682861 0.172014400362968445
0.25 0.217806577682495117 0.185443103313446045
0.25 0.987331151962280273 0.120245791971683502
0.25 0.918460488319396973 0.064784124493598938
0.25 0.72444915771484375 0.0972044467926025391
0.25 0.628718137741088867 0.152931720018386841
0.25 0.436768054962158203 0.173080846667289734
0.25 0.992990016937255859 0.0213823020458221436
0.25 1.08977830410003662 0.00183069705963134766
0.25 0.572093069553375244 0.173261120915412903
0.25 0.681637108325958252 0.199412152171134949
0.25 0.994475424289703369 0.0884623527526855469
0.25 0.93826138973236084 0.0613851249217987061
0.25 0.870833277702331543 0.148176625370979309
0.25 0.731316924095153809 0.102664195001125336
0.25 0.517121613025665283 0.17171141505241394
0.25 0.846401333808898926 0.0647474229335784912
0.25 0.635176301002502441 0.174823537468910217
0.25 0.769943475723266602 0.109606802463531494
0.25 0.888699173927307129 0.108652330935001373
0.25 0.543552994728088379 0.152140885591506958
0.25 0.588888943195343018 0.194949716329574585
0.25 0.219412684440612793 0.185155287384986877
0.25 0.160647809505462646 0.186769783496856689
0.25 0.828331708908081055 0.0960347652435302734
0.25 0.248400330543518066 0.160921603441238403
0.25 0.973650693893432617 0.045175209641456604
0.25 1.07073915004730225 0.0421232283115386963
0.25 1.02947485446929932 0.133763819932937622
0.25 0.841341137886047363 0.118531577289104462
0.25 0.910888731479644775 0.0720163732767105103
0.25 0.279231846332550049 0.158446058630943298
0.25 0.395785152912139893 0.187411785125732422
0.25 0.713683962821960449 0.135719627141952515
0.25 0.996332764625549316 0.0510827451944351196
0.25 0.880832791328430176 0.0766254663467407227
0.25 1.01973080635070801 0.109903246164321899
0.25 0.98394697904586792 0.0763727352023124695
0.25 0.589278221130371094 0.11672084778547287
0.25 1.08388173580169678 0.0890715047717094421
0.25 1.0601036548614502 0.0846441909670829773
0.25 0.539369523525238037 0.160805210471153259
0.25 0.99634474515914917 0.11307380348443985
0.25 0.956020057201385498 0.137934982776641846
0.25 0.973739206790924072 0.0463777929544448853
0.25 0.541637122631072998 0.140805512666702271
0.25 1.09234678745269775 0.00439354777336120605
0.25 0.398997843265533447 0.137329965829849243
0.25 0.763162016868591309 0.189497604966163635
0.25 0.534109175205230713 0.149686500430107117
0.25 0.274364233016967773 0.156776800751686096
0.25 0.753093123435974121 0.15537029504776001
0.25 0.718822479248046875 0.0798360034823417664
0.25 0.896709620952606201 0.0947620868682861328
0.25 1.00673031806945801 0.0449052751064300537
0.25 0.916415929794311523 0.115058563649654388
0.25 1.02966916561126709 0.178958907723426819
0.25 0.957011520862579346 0.0505930036306381226
0.25 0.279209315776824951 0.167098358273506165
0.25 0.668973803520202637 0.172203496098518372
0.25 0.963572561740875244 0.178665220737457275
0.25 0.33739393949508667 0.189254730939865112
0.25 0.920102834701538086 0.148922771215438843
0.25 1.06666088104248047 0.0678112059831619263
0.25 1.04194068908691406 0.0639305710792541504
0.25 0.236522495746612549 0.180577963590621948
0.25 0.797810494899749756 0.19299335777759552
0.25 0.924541115760803223 0.0996594205498695374
0.25 1.07527649402618408 0.012048378586769104
0.25 0.959479093551635742 0.0397888422012329102
0.25 0.748695075511932373 0.162092253565788269
0.25 0.817728281021118164 0.0894646644592285156
0.25 0.592324018478393555 0.128499791026115417
0.25 0.217473924160003662 0.166565477848052979
0.25 0.754396915435791016 0.198910906910896301
0.25 0.66662442684173584 0.0820354819297790527
0.25 0.854432821273803711 0.104235157370567322
0.25 1.08484339714050293 0.00974088907241821289
0.25 0.808748245239257812 0.0678386092185974121
0.25 0.405378043651580811 0.168114557862281799
0.25 0.716426372528076172 0.133137181401252747
0.25 0.43595278263092041 0.148779258131980896
0.25 0.869311034679412842 0.0553950369358062744
0.25 0.807191848754882812 0.168133318424224854
0.25 1.0180279016494751 0.139302194118499756
0.25 1.06330275535583496 0.0283030867576599121
0.25 0.846686840057373047 0.127428501844406128
0.25 0.830082833766937256 0.0686452686786651611
0.25 0.680538415908813477 0.156120777130126953
0.25 0.892131149768829346 0.150761783123016357
0.25 0.879042744636535645 0.0503517091274261475
0.25 0.567137837409973145 0.136142998933792114
0.25 0.584553003311157227 0.146962165832519531
0.25 0.765109658241271973 0.154597923159599304
0.25 0.89897000789642334 0.195902630686759949
0.25 0.693741798400878906 0.166493266820907593
0.25 0.757601737976074219 0.0758175477385520935
0.25 1.04092049598693848 0.15619070827960968
0.25 0.492258667945861816 0.189142048358917236
0.25 0.521551668643951416 0.194866955280303955
0.25 0.628182888031005859 0.127659738063812256
0.25 0.646724939346313477 0.123531214892864227
0.25 0.825000643730163574 0.143660083413124084
0.25 0.693111419677734375 0.128955841064453125
0.25 0.759015917778015137 0.125811129808425903
0.25 0.810222506523132324 0.149686932563781738
0.25 0.647486686706542969 0.152206331491470337
0.25 0.941269874572753906 0.101552471518516541
0.25 0.959566950798034668 0.192207053303718567
0.25 0.821273565292358398 0.122770205140113831
0.25 0.593248188495635986 0.185736477375030518
0.25 1.00140464305877686 0.167328611016273499
0.25 0.911237120628356934 0.190201163291931152
0.25 1.05433332920074463 0.183320090174674988
0.25 0.966071069240570068 0.140124008059501648
0.25 0.595886945724487305 0.098713412880897522
0.25 1.03380310535430908 0.0275093317031860352
0.25 0.336911797523498535 0.158357173204421997
0.25 0.70651555061340332 0.179567426443099976
0.25 0.606083869934082031 0.163518846035003662
0.25 0.933034539222717285 0.0593886375427246094
0.25 0.282499730587005615 0.199388906359672546
0.25 0.878018856048583984 0.187176376581192017
0.25 0.588631629943847656 0.0976349860429763794
0.25 0.827038764953613281 0.199521467089653015
0.25 0.2820090651512146 0.156557187438011169
0.25 0.766780972480773926 0.1467570960521698
0.25 0.136215746402740479 0.193888485431671143
0.25 0.54633939266204834 0.154595762491226196
0.25 0.817710399627685547 0.143840193748474121
0.25 0.499327659606933594 0.135729074478149414
0.25 0.764775514602661133 0.108106128871440887
0.25 0.676454067230224609 0.0962598249316215515
0.25 0.960009157657623291 0.0529067814350128174
0.25 0.33971405029296875 0.177447080612182617
0.25 0.900606513023376465 0.0952510759234428406
0.25 0.272727370262145996 0.1902780681848526
0.25 0.267664730548858643 0.18990790843963623
0.25 1.06967747211456299 0.106254450976848602
0.25 0.856882750988006592 0.144492506980895996
0.25 0.328462958335876465 0.18605022132396698
0.25 0.582032263278961182 0.143358483910560608
0.25 0.487994074821472168 0.132731810212135315
0.25 0.600980043411254883 0.0908911377191543579
0.25 0.900045871734619141 0.0399542152881622314
0.25 0.475915729999542236 0.145897015929222107
0.25 0.501577019691467285 0.155024424195289612
0.25 0.317213714122772217 0.146790429949760437
0.25 0.678531646728515625 0.180846810340881348
0.25 0.892347335815429688 0.117878533899784088
0.25 0.594085454940795898 0.111681066453456879
0.25 1.07231152057647705 0.133881032466888428
0.25 0.582796454429626465 0.125203236937522888
0.25 1.09211480617523193 0.102227389812469482
0.25 0.886979758739471436 0.120944380760192871
0.25 0.477858603000640869 0.147459641098976135
0.25 0.348328173160552979 0.161015063524246216
0.25 0.381621658802032471 0.162184447050094604
0.25 0.432368278503417969 0.151945888996124268
0.25 1.08573126792907715 0.061629563570022583
0.25 0.93642956018447876 0.197249650955200195
0.25 0.805265367031097412 0.126117289066314697
0.25 0.928758919239044189 0.18970412015914917
0.25 0.554792821407318115 0.141688615083694458
0.25 0.702751517295837402 0.127133399248123169
0.25 0.916906237602233887 0.114448212087154388
0.25 0.195252299308776855 0.182453379034996033
0.25 0.901593863964080811 0.0784835368394851685
0.25 1.0551227331161499 0.195847064256668091
0.25 0.84640812873840332 0.0491313636302947998
0.25 0.850345075130462646 0.197437137365341187
0.25 0.688130974769592285 0.0829318687319755554
0.25 0.884397506713867188 0.171194836497306824
0.25 0.543899416923522949 0.154401049017906189
0.25 0.400311529636383057 0.142536073923110962
0.25 0.562888920307159424 0.139548853039741516
0.25 0.178933143615722656 0.195106163620948792
0.25 1.00284254550933838 0.186725139617919922
0.25 0.576702713966369629 0.119072221219539642
0.25 0.943881988525390625 0.0674535483121871948
0.25 0.230759799480438232 0.170307263731956482
0.25 0.547324478626251221 0.168048709630966187
0.25 1.01813006401062012 0.117147058248519897
0.25 0.625657737255096436 0.144890755414962769
0.25 0.732496440410614014 0.135134264826774597
0.25 0.64463353157043457 0.193523615598678589
0.25 1.04639577865600586 0.0475212037563323975
0.25 0.10094606876373291 0.182065591216087341
0.25 0.968355953693389893 0.0269823819398880005
0.25 0.989632308483123779 0.0379609018564224243
0.25 0.74822080135345459 0.100214220583438873
0.25 0.171466588973999023 0.182197064161300659
0.25 0.977549433708190918 0.05995139479637146
0.25 0.163913369178771973 0.1867380291223526
0.25 1.08808910846710205 0.0770950913429260254
0.25 0.998147249221801758 0.106800712645053864
0.25 0.94850468635559082 0.0486373305320739746
0.25 0.670557677745819092 0.133175104856491089
0.25 0.482479989528656006 0.198370262980461121
0.25 0.928852498531341553 0.156812995672225952
0.25 0.762849688529968262 0.15350806713104248
0.25 0.996358513832092285 0.0786384940147399902
0.25 1.09272098541259766 0.033596917986869812
0.25 0.262393712997436523 0.196977496147155762
0.25 0.946433126926422119 0.0349284112453460693
0.25 0.758450090885162354 0.15668255090713501
0.25 0.875661253929138184 0.155162051320075989
0.25 0.772291064262390137 0.0677539408206939697
0.25 0.415659427642822266 0.137148261070251465
0.25 0.767448186874389648 0.194876894354820251
0.25 0.698421955108642578 0.0960709601640701294
0.25 0.852907657623291016 0.131787240505218506
0.25 0.884444236755371094 0.145882338285446167
0.25 0.258387506008148193 0.154399275779724121
0.25 1.08196544647216797 0.0356765091419219971
0.25 0.0409007072448730469 0.194743618369102478
0.25 0.78813701868057251 0.187739089131355286
0.25 0.990018010139465332 0.0776339173316955566
0.25 0.569318473339080811 0.148711159825325012
0.25 0.667389512062072754 0.199757978320121765
0.25 0.827553272247314453 0.0921889171004295349
0.25 0.936550736427307129 0.144384384155273438
0.25 0.950110733509063721 0.0914786681532859802
0.25 0.729101300239562988 0.0974197909235954285
0.25 0.74419867992401123 0.12633061408996582
0.25 0.171015381813049316 0.195322617888450623
0.25 0.730669140815734863 0.0996716246008872986
0.25 1.06684589385986328 0.0455857366323471069
0.25 0.884294509887695312 0.166822686791419983
0.25 0.358060717582702637 0.158272802829742432
0.25 0.647925972938537598 0.115378014743328094
0.25 0.918584525585174561 0.0621727108955383301
0.25 1.03926646709442139 0.0692745298147201538
0.25 1.0007927417755127 0.10385122150182724
0.25 0.733304381370544434 0.156722888350486755
0.25 0.664881467819213867 0.178871378302574158
0.25 1.00879502296447754 0.164187848567962646
0.25 0.559112787246704102 0.105790793895721436
0.25 0.904992938041687012 0.141412138938903809
0.25 0.615529179573059082 0.13116455078125
0.25 0.511032283306121826 0.198361888527870178
0.25 0.521992504596710205 0.122971437871456146
0.25 0.885951519012451172 0.119116909801959991
0.25 0.835695147514343262 0.111841998994350433
0.25 0.947530031204223633 0.0605422407388687134
0.25 0.414783000946044922 0.163769751787185669
0.25 0.872885942459106445 0.17209528386592865
0.25 1.00599455833435059 0.1330547034740448
0.25 0.555852890014648438 0.152135252952575684
0.25 0.447581887245178223 0.150090828537940979
0.25 0.614513874053955078 0.149974316358566284
0.25 0.926588296890258789 0.085661962628364563
0.25 0.758528530597686768 0.134878873825073242
0.25 0.733991026878356934 0.0787841826677322388
0.25 0.374555647373199463 0.185705006122589111
0.25 0.917884945869445801 0.132800966501235962
0.25 0.902342259883880615 0.187752127647399902
0.25 0.693355560302734375 0.0828539654612541199
0.25 0.498004496097564697 0.185291007161140442
0.25 0.769014835357666016 0.122452482581138611
0.25 0.941846609115600586 0.155670180916786194
0.25 0.584229588508605957 0.102234199643135071
0.25 0.588158130645751953 0.199808806180953979
0.25 0.899347364902496338 0.0674148499965667725
0.25 1.05419886112213135 0.0308245718479156494
0.25 0.733604073524475098 0.153367564082145691
0.25 0.822151422500610352 0.110579811036586761
0.25 0.504678130149841309 0.161152616143226624
0.25 0.722796440124511719 0.191359281539916992
0.25 0.714070498943328857 0.115285232663154602
0.25 0.974877059459686279 0.126518130302429199
0.25 0.778859376907348633 0.185605496168136597
0.25 0.135295271873474121 0.180100187659263611
0.25 0.599323511123657227 0.167313307523727417
0.25 1.03621315956115723 0.127178192138671875
0.25 0.999132275581359863 0.0655415207147598267
0.25 0.917794585227966309 0.0337794721126556396
0.25 0.871694028377532959 0.0421363264322280884
0.25 0.240683138370513916 0.172279208898544312
0.25 0.534764885902404785 0.176090121269226074
0.25 0.178882777690887451 0.198636651039123535
0.25 0.799406886100769043 0.0712357908487319946
0.25 0.726944148540496826 0.0775435343384742737
0.25 1.05699849128723145 0.154937326908111572
0.25 0.705410361289978027 0.149364888668060303
0.25 0.244793891906738281 0.197107523679733276
0.25 1.08105671405792236 0.199926242232322693
0.25 0.919066488742828369 0.16449756920337677
0.25 0.664899945259094238 0.0903722271323204041
0.25 1.06559181213378906 0.167961925268173218
0.25 1.09248340129852295 0.0607871711254119873
0.25 0.469598889350891113 0.151659414172172546
0.25 0.42348867654800415 0.126957684755325317
0.25 0.978945076465606689 0.189062222838401794
0.25 0.622641563415527344 0.115748040378093719
0.25 0.958661973476409912 0.0387713164091110229
0.25 0.380083739757537842 0.132186427712440491
0.25 0.989775240421295166 0.178304076194763184
0.25 0.82265937328338623 0.0678248703479766846
0.25 0.594239592552185059 0.193064749240875244
0.25 0.685457706451416016 0.177199482917785645
0.25 0.860088109970092773 0.0673717409372329712
0.25 0.998313546180725098 0.145579367876052856
0.25 0.594597458839416504 0.14502282440662384
0.25 0.34424978494644165 0.145859062671661377
0.25 1.02534389495849609 0.168709725141525269
0.25 0.737457633018493652 0.127202600240707397
0.25 0.673036456108093262 0.198560953140258789
0.25 0.963944792747497559 0.115367256104946136
0.25 0.410952389240264893 0.164359360933303833
0.25 0.899407863616943359 0.0781667456030845642
0.25 0.757192730903625488 0.0645643174648284912
0.25 0.982427060604095459 0.147874891757965088
0.25 1.04716050624847412 0.0834227129817008972
0.25 0.846492171287536621 0.135595828294754028
0.25 0.686127007007598877 0.111663989722728729
0.25 0.668323636054992676 0.139283940196037292
0.25 0.7728462815284729 0.188292145729064941
0.25 0.856427192687988281 0.136391758918762207
0.25 1.02090561389923096 0.182791292667388916
0.25 1.05353748798370361 0.174243345856666565
0.25 0.79133760929107666 0.187288373708724976
0.25 0.626464605331420898 0.174856275320053101
0.25 0.597212553024291992 0.111622847616672516
0.25 0.112936317920684814 0.180914849042892456
0.25 0.80069732666015625 0.104137293994426727
0.25 0.7537689208984375 0.0986225754022598267
0.25 0.294838666915893555 0.180604085326194763
0.25 0.499248862266540527 0.156291931867599487
0.25 0.842257142066955566 0.114199280738830566
0.25 0.718143939971923828 0.168590053915977478
0.25 0.663928985595703125 0.145054355263710022
0.25 0.595691561698913574 0.197141081094741821
0.25 0.583108782768249512 0.187811464071273804
0.25 0.862953305244445801 0.0773608088493347168
0.25 1.06759178638458252 0.0964677929878234863
0.25 0.253182590007781982 0.177363693714141846
0.25 0.41976696252822876 0.177221238613128662
0.25 0.981687247753143311 0.0676919072866439819
0.25 0.0878919363021850586 0.1981402188539505
0.25 0.922026872634887695 0.128689408302307129
0.25 0.91233295202255249 0.0504435896873474121
0.25 0.544067502021789551 0.137175664305686951
0.25 0.697914004325866699 0.148542553186416626
0.25 0.9489288330078125 0.129202976822853088
0.25 0.724454224109649658 0.130342587828636169
0.25 1.05129432678222656 0.110380470752716064
0.25 0.682894587516784668 0.159537434577941895
0.25 0.736185550689697266 0.159338802099227905
0.25 0.444804251194000244 0.128173023462295532
0.25 0.906452417373657227 0.0625576227903366089
0.25 0.976714491844177246 0.182253032922744751
0.25 0.579422056674957275 0.163486853241920471
0.25 0.653406262397766113 0.149976655840873718
0.25 1.06108808517456055 0.191176190972328186
0.25 0.978833913803100586 0.0368988364934921265
0.25 0.0783623456954956055 0.195829510688781738
0.25 0.399790167808532715 0.187825486063957214
0.25 0.963265776634216309 0.0564322918653488159
0.25 0.719427049160003662 0.0986110568046569824
0.25 0.984914481639862061 0.162831693887710571
0.25 1.09139549732208252 0.0099277794361114502
0.25 1.0208590030670166 0.147054240107536316
0.25 1.04010915756225586 0.0277786552906036377
0.25 0.789585113525390625 0.0994506999850273132
0.25 1.0140911340713501 0.0838250666856765747
0.25 0.86898040771484375 0.107953436672687531
0.25 0.88173753023147583 0.120628833770751953
0.25 1.07714283466339111 0.0215050578117370605
0.25 0.697577834129333496 0.0978745594620704651
0.25 0.744875788688659668 0.166450470685958862
0.25 0.594503939151763916 0.1185716912150383
0.25 0.263292968273162842 0.192170292139053345
0.25 1.01806092262268066 0.0478329360485076904
0.25 0.661525487899780273 0.108554981648921967
0.25 0.969839811325073242 0.143688976764678955
0.25 0.500346839427947998 0.15906679630279541
0.25 0.476480543613433838 0.162557780742645264
0.25 0.898508071899414062 0.160067364573478699
0.25 0.942368984222412109 0.0347387492656707764
0.25 0.692666411399841309 0.124322786927223206
0.25 1.03661835193634033 0.130575940012931824
0.25 0.596045970916748047 0.117959417402744293
0.25 0.568404436111450195 0.155742287635803223
0.25 0.294494092464447021 0.165618240833282471
0.25 0.608376264572143555 0.14579617977142334
0.25 1.06653320789337158 0.0438794642686843872
0.25 0.625175893306732178 0.090593092143535614
0.25 0.72427058219909668 0.135006219148635864
0.25 1.0379101037979126 0.0500665903091430664
0.25 0.916951298713684082 0.195455744862556458
0.25 0.709446489810943604 0.119590908288955688
0.25 0.948401689529418945 0.148238956928253174
0.25 0.571502685546875 0.18421529233455658
0.25 0.507300078868865967 0.131828337907791138
0.25 1.07707202434539795 0.13783930242061615
0.25 1.04137098789215088 0.198920115828514099
0.25 0.684606313705444336 0.0935270562767982483
0.25 0.680191576480865479 0.137577727437019348
0.25 0.676003336906433105 0.109346203505992889
0.25 0.612202763557434082 0.194781646132469177
0.25 0.284862160682678223 0.163878157734870911
0.25 0.739288032054901123 0.0982492789626121521
0.25 1.00282132625579834 0.0541564524173736572
0.25 0.568439781665802002 0.13098299503326416
0.25 0.547036170959472656 0.103424720466136932
0.25 0.677192807197570801 0.130289316177368164
0.25 0.950971722602844238 0.0282461047172546387
0.25 0.546164453029632568 0.111524023115634918
0.25 0.804381012916564941 0.134379297494888306
0.25 1.07223451137542725 0.148849263787269592
0.25 1.05098855495452881 0.182269692420959473
0.25 0.842806816101074219 0.0600776821374893188
0.25 0.474227190017700195 0.121855571866035461
0.25 1.05423545837402344 0.127384543418884277
0.25 0.408601522445678711 0.128779157996177673
0.25 0.523710906505584717 0.173927456140518188
0.25 1.0778120756149292 0.149309977889060974
0.25 0.117046236991882324 0.185788005590438843
0.25 0.998476266860961914 0.115861579775810242
0.25 0.40166550874710083 0.171613380312919617
0.25 1.08803427219390869 0.158639460802078247
0.25 0.309626162052154541 0.155767232179641724
0.25 0.851432561874389648 0.0705280601978302002
0.25 0.715793371200561523 0.191839590668678284
0.25 0.924708962440490723 0.164641141891479492
0.25 0.166366875171661377 0.184859126806259155
0.0975479185581207275 1.09599995613098145 0.0560200214385986328
0.193557143211364746 1.09599995613098145 0.113207578659057617
0.192934721708297729 1.09599995613098145 0.119749680161476135
0.121189385652542114 1.09599995613098145 0.01219138503074646
0.205859452486038208 1.09599995613098145 0.0438727699220180511
0.215393111109733582 1.09599995613098145 0.0245566759258508682
0.249573230743408203 1.09599995613098145 0.00710931839421391487
0.149932831525802612 1.09599995613098145 0.0705768391489982605
0.0433801263570785522 1.09599995613098145 0.0311328619718551636
0.223873823881149292 1.09599995613098145 0.115983501076698303
0.148669108748435974 1.09599995613098145 0.0564464181661605835
0.195244789123535156 1.09599995613098145 0.0116711147129535675
0.210208877921104431 1.09599995613098145 0.158051729202270508
0.200875699520111084 1.09599995613098145 0.108079634606838226
0.0526729375123977661 1.09599995613098145 0.020014539361000061
0.207462787628173828 1.09599995613098145 0.0628666430711746216
0.18306809663772583 1.09599995613098145 0.136323556303977966
0.0373395681381225586 1.09599995613098145 0.0199826657772064209
0.234545245766639709 1.09599995613098145 0.084021247923374176
0.217382892966270447 1.09599995613098145 0.0998812094330787659
0.206992059946060181 1.09599995613098145 0.0498772934079170227
0.232557803392410278 1.09599995613098145 0.0399110838770866394
0.116966068744659424 1.09599995613098145 0.00586405396461486816
0.22208598256111145 1.09599995613098145 0.0519844777882099152
0.150490552186965942 1.09599995613098145 0.0848360061645507812
0.166428223252296448 1.09599995613098145 0.0571349859237670898
0.242711663246154785 1.09599995613098145 0.0379616394639015198
0.111747980117797852 1.09599995613098145 0.00625075399875640869
0.0736894160509109497 1.09599995613098145 0.0460669845342636108
0.124869078397750854 1.09599995613098145 0.0253424420952796936
0.21984805166721344 1.09599995613098145 0.0721089616417884827
0.110924556851387024 1.09599995613098145 0.0053127780556678772
0.136439383029937744 1.09599995613098145 0.0425057783722877502
0.213386714458465576 1.09599995613098145 0.113978490233421326
0.0795301347970962524 1.09599995613098145 0.0573424696922302246
0.051958426833152771 1.09599995613098145 0.0172170102596282959
0.228768467903137207 1.09599995613098145 0.179679065942764282
0.0784990936517715454 1.09599995613098145 0.031737104058265686
0.0643687993288040161 1.09599995613098145 0.0272734761238098145
0.249643906950950623 1.09599995613098145 0.102892428636550903
0.214048430323600769 1.09599995613098145 0.151854857802391052
0.0845269113779067993 1.09599995613098145 0.0087474435567855835
0.101685196161270142 1.09599995613098145 0.0278559699654579163
0.194277286529541016 1.09599995613098145 0.13006870448589325
0.148427605628967285 1.09599995613098145 0.0915418416261672974
0.0922307968139648438 1.09599995613098145 0.0548932254314422607
0.177325814962387085 1.09599995613098145 0.120322734117507935
0.2336997389793396 1.09599995613098145 0.171923473477363586
0.230230256915092468 1.09599995613098145 0.160796105861663818
0.23920653760433197 1.09599995613098145 0.145966440439224243
0.243406221270561218 1.09599995613098145 0.111934468150138855
0.182295083999633789 1.09599995613098145 0.0838955268263816833
0.194196805357933044 1.09599995613098145 0.0659665316343307495
0.190923690795898438 1.09599995613098145 0.0973537787795066833
0.125892519950866699 1.09599995613098145 0.0355386435985565186
0.214439883828163147 1.09599995613098145 0.0522575713694095612
0.236327379941940308 1.09599995613098145 0.039709240198135376
0.222593769431114197 1.09599995613098145 0.125166192650794983
0.0465300232172012329 1.09599995613098145 0.00855962932109832764
0.0792204886674880981 1.09599995613098145 0.0536773800849914551
0.249996796250343323 1.09599995613098145 0.0333130136132240295
0.0829346030950546265 1.09599995613098145 0.0441839247941970825
0.205054521560668945 1.09599995613098145 0.124191693961620331
0.208465397357940674 1.09599995613098145 0.159226372838020325
0.217624500393867493 1.09599995613098145 0.0627656206488609314
0.217018350958824158 1.09599995613098145 0.0417658239603042603
0.102758005261421204 1.09599995613098145 0.0711800381541252136
0.215749263763427734 1.09599995613098145 0.0822263732552528381
0.142088741064071655 1.09599995613098145 0.0647835060954093933
0.153377234935760498 1.09599995613098145 0.0582528784871101379
0.210736051201820374 1.09599995613098145 0.156553134322166443
0.121537894010543823 1.09599995613098145 0.0857024788856506348
0.112250298261642456 1.09599995613098145 0.0763875693082809448
0.19511103630065918 1.09599995613098145 0.133119642734527588
0.132756441831588745 1.09599995613098145 0.0649498030543327332
0.241853684186935425 1.09599995613098145 0.128946274518966675
0.0608532130718231201 1.09599995613098145 0.0366086512804031372
0.229495152831077576 1.09599995613098145 0.116165407001972198
0.222985312342643738 1.09599995613098145 0.00447553582489490509
0.0557687878608703613 1.09599995613098145 0.0156180858612060547
0.205375432968139648 1.09599995613098145 0.0533815436065196991
0.111595258116722107 1.09599995613098145 0.02801474928855896
0.063639715313911438 1.09599995613098145 0.0497812628746032715
0.234160706400871277 1.09599995613098145 0.00509286019951105118
0.168420314788818359 1.09599995613098145 0.0197451785206794739
0.232292085886001587 1.09599995613098145 0.0635440871119499207
0.166825070977210999 1.09599995613098145 0.100781083106994629
0.0796227604150772095 1.09599995613098145 0.0336792618036270142
0.177135378122329712 1.09599995613098145 0.052362833172082901
0.039810478687286377 1.09599995613098145 0.0052156597375869751
0.0658728033304214478 1.09599995613098145 0.0371095836162567139
0.193461939692497253 1.09599995613098145 0.0980846583843231201
0.135710626840591431 1.09599995613098145 0.0912100896239280701
0.181962937116622925 1.09599995613098145 0.0517464838922023773
0.172625720500946045 1.09599995613098145 0.00361651554703712463
0.236239254474639893 1.09599995613098145 0.188746392726898193
0.142377302050590515 1.09599995613098145 0.0332919806241989136
0.190104246139526367 1.09599995613098145 0.123473882675170898
0.14569091796875 1.09599995613098145 0.0567131564021110535
0.172820389270782471 1.09599995613098145 0.00887725502252578735
0.185030907392501831 1.09599995613098145 0.0775042325258255005
0.118310138583183289 1.09599995613098145 0.0489739254117012024
0.222356110811233521 1.09599995613098145 0.158209890127182007
0.244209259748458862 1.09599995613098145 0.163456454873085022
0.0825941860675811768 1.09599995613098145 0.00105638802051544189
0.156038194894790649 1.09599995613098145 0.0516371056437492371
0.0930200815200805664 1.09599995613098145 0.0277030020952224731
0.220485135912895203 1.09599995613098145 0.064387880265712738
0.126121282577514648 1.09599995613098145 0.0870945826172828674
0.217498049139976501 1.09599995613098145 0.165639981627464294
0.16438719630241394 1.09599995613098145 0.0328541845083236694
0.226245567202568054 1.09599995613098145 0.0862054452300071716
0.246100887656211853 1.09599995613098145 0.0943173915147781372
0.21808934211730957 1.09599995613098145 0.00636135973036289215
0.139873653650283813 1.09599995613098145 0.111381322145462036
0.198492348194122314 1.09599995613098145 0.0430960841476917267
0.2061118483543396 1.09599995613098145 0.0820022821426391602
0.203515365719795227 1.09599995613098145 0.0558983162045478821
0.133940398693084717 1.09599995613098145 0.0441865399479866028
0.23047088086605072 1.09599995613098145 0.0653177499771118164
0.153311699628829956 1.09599995613098145 0.0276233330368995667
0.108053490519523621 1.09599995613098145 0.0795913264155387878
0.165374845266342163 1.09599995613098145 0.0356603935360908508
0.0787245333194732666 1.09599995613098145 0.003986358642578125
0.012815818190574646 1.09599995613098145 0.00582922995090484619
0.231180772185325623 1.09599995613098145 0.144340693950653076
0.23405805230140686 1.09599995613098145 0.163718640804290771
0.226270720362663269 1.09599995613098145 0.180240705609321594
0.249764040112495422 1.09599995613098145 0.147153317928314209
0.222423553466796875 1.09599995613098145 0.157670453190803528
0.248063266277313232 1.09599995613098145 0.130948051810264587
0.240620359778404236 1.09599995613098145 0.0395146757364273071
0.244193330407142639 1.09599995613098145 0.0396608114242553711
0.2399798184633255 1.09599995613098145 0.032019488513469696
0.168873071670532227 1.09599995613098145 0.00714091956615447998
0.201280713081359863 1.09599995613098145 0.0940124243497848511
0.116258502006530762 1.09599995613098145 0.00893019884824752808
0.155822902917861938 1.09599995613098145 0.0507280975580215454
0.0483891516923904419 1.09599995613098145 0.0349307209253311157
0.171474114060401917 1.09599995613098145 0.00241046398878097534
0.188057631254196167 1.09599995613098145 0.0687118694186210632
0.104441434144973755 1.09599995613098145 0.0642701536417007446
0.0347523391246795654 1.09599995613098145 0.0101985335350036621
0.103284895420074463 1.09599995613098145 0.0380964204668998718
0.0664968639612197876 1.09599995613098145 0.0059204399585723877
0.203035175800323486 1.09599995613098145 0.145411252975463867
0.240062713623046875 1.09599995613098145 0.063511289656162262
0.247682705521583557 1.09599995613098145 0.0370766371488571167
0.171682834625244141 1.09599995613098145 0.0375052094459533691
0.17890593409538269 1.09599995613098145 0.0791761875152587891
0.21064487099647522 1.09599995613098145 0.148638814687728882
0.0817275494337081909 1.09599995613098145 0.0615925788879394531
0.17559891939163208 1.09599995613098145 0.0761164575815200806
0.200842738151550293 1.09599995613098145 0.128365933895111084
0.120227441191673279 1.09599995613098145 0.0371743813157081604
0.179444819688796997 1.09599995613098145 0.130789637565612793
0.206642806529998779 1.09599995613098145 0.164805173873901367
0.106872335076332092 1.09599995613098145 0.0186304152011871338
0.15336298942565918 1.09599995613098145 0.068506486713886261
0.121045798063278198 1.09599995613098145 0.0369265526533126831
0.118544667959213257 1.09599995613098145 0.0552776530385017395
0.245027720928192139 1.09599995613098145 0.0724364221096038818
0.0989132225513458252 1.09599995613098145 0.0692058280110359192
0.165495216846466064 1.09599995613098145 0.015310823917388916
0.0662914663553237915 1.09599995613098145 0.0415691882371902466
0.0525186061859130859 1.09599995613098145 0.00254984200000762939
0.228812143206596375 1.09599995613098145 0.0715413540601730347
0.248474791646003723 1.09599995613098145 0.060639452189207077
0.076091766357421875 1.09599995613098145 0.0166241377592086792
0.127157360315322876 1.09599995613098145 0.0124603956937789917
0.190510183572769165 1.09599995613098145 0.0981430560350418091
0.135080277919769287 1.09599995613098145 0.00644022971391677856
0.210735708475112915 1.09599995613098145 0.101742833852767944
0.240151256322860718 1.09599995613098145 0.013030526228249073
0.204915553331375122 1.09599995613098145 0.0593366697430610657
0.130168721079826355 1.09599995613098145 0.0901734679937362671
0.155187427997589111 1.09599995613098145 0.0880760028958320618
0.109909564256668091 1.09599995613098145 0.0379401445388793945
0.153191879391670227 1.09599995613098145 0.108006589114665985
0.236740991473197937 1.09599995613098145 0.121536307036876678
0.210000991821289062 1.09599995613098145 0.153645902872085571
0.203332662582397461 1.09599995613098145 0.11404002457857132
0.204725801944732666 1.09599995613098145 0.0546411201357841492
0.0583461225032806396 1.09599995613098145 0.00752466917037963867
0.109927922487258911 1.09599995613098145 0.0428457930684089661
0.232130005955696106 1.09599995613098145 0.142045438289642334
0.175961196422576904 1.09599995613098145 0.100323133170604706
0.0403457283973693848 1.09599995613098145 0.0199704617261886597
0.0667335838079452515 1.09599995613098145 0.0354861319065093994
0.143432140350341797 1.09599995613098145 0.0155652910470962524
0.0991004705429077148 1.09599995613098145 0.0314886271953582764
0.21143224835395813 1.09599995613098145 0.0236198324710130692
0.134244993329048157 1.09599995613098145 0.0722178593277931213
0.177293822169303894 1.09599995613098145 0.0221237055957317352
0.23620954155921936 1.09599995613098145 0.138170614838600159
0.107907429337501526 1.09599995613098145 0.0445907860994338989
0.110129103064537048 1.09599995613098145 0.0525237694382667542
0.206457957625389099 1.09599995613098145 0.0643676891922950745
0.112566635012626648 1.09599995613098145 0.00657048821449279785
0.170967459678649902 1.09599995613098145 0.0968657806515693665
0.236198678612709045 1.09599995613098145 0.174303233623504639
0.193208128213882446 1.09599995613098145 0.115794286131858826
0.183177322149276733 1.09599995613098145 0.115758389234542847
0.0627510547637939453 1.09599995613098145 0.0131274759769439697
0.235592737793922424 1.09599995613098145 0.116027593612670898
0.0520581454038619995 1.09599995613098145 0.00362351536750793457
0.173584729433059692 1.09599995613098145 0.0880638808012008667
0.134427279233932495 1.09599995613098145 0.0723873451352119446
0.128434985876083374 1.09599995613098145 0.0981453508138656616
0.128858685493469238 1.09599995613098145 0.100342221558094025
0.129054531455039978 1.09599995613098145 0.0849036797881126404
0.101835012435913086 1.09599995613098145 0.0624364390969276428
0.189005523920059204 1.09599995613098145 0.0140030346810817719
0.123687073588371277 1.09599995613098145 0.0393313989043235779
0.199791058897972107 1.09599995613098145 0.108670413494110107
0.170838907361030579 1.09599995613098145 0.127286776900291443
0.182170450687408447 1.09599995613098145 0.0695695579051971436
0.085585370659828186 1.09599995613098145 0.0444835275411605835
0.0545091032981872559 1.09599995613098145 0.0255462676286697388
0.181722164154052734 1.09599995613098145 0.133957713842391968
0.213936775922775269 1.09599995613098145 0.103117115795612335
0.187666416168212891 1.09599995613098145 0.0262244008481502533
0.223402470350265503 1.09599995613098145 0.103270433843135834
0.120614930987358093 1.09599995613098145 0.0765542834997177124
0.121310442686080933 1.09599995613098145 0.0354239940643310547
0.160487383604049683 1.09599995613098145 0.0543578341603279114
0.114988759160041809 1.09599995613098145 0.0658000409603118896
0.222207099199295044 1.09599995613098145 0.0268405340611934662
0.239921674132347107 1.09599995613098145 0.185049951076507568
0.149923965334892273 1.09599995613098145 0.00322964787483215332
0.000997312250547111034 1.09599995613098145 0.0156863033771514893
0.0289005562663078308 1.09599995613098145 0.0472803413867950439
0.0429477430880069733 1.09599995613098145 0.170298352837562561
0.216028705239295959 1.09599995613098145 0.185399308800697327
0.157735511660575867 1.09599995613098145 0.155988037586212158
0.0319232530891895294 1.09599995613098145 0.184412688016891479
0.129924416542053223 1.09599995613098145 0.120888695120811462
0.0903934240341186523 1.09599995613098145 0.124761469662189484
0.0258790720254182816 1.09599995613098145 0.0484488904476165771
0.157084375619888306 1.09599995613098145 0.193763762712478638
0.0848995968699455261 1.09599995613098145 0.0782924294471740723
0.0528299137949943542 1.09599995613098145 0.186760962009429932
