ply
format ascii 1.0
element vertex 714
property float x
property float y
property float z
end_header
9.99200722162640886e-16 0.0518322400748729706 0.205589398741722107
9.99200722162640886e-16 0.0276456624269485474 0.0421686172485351562
9.99200722162640886e-16 0.344705313444137573 0.353554695844650269
9.99200722162640886e-16 0.0993828102946281433 0.39131435751914978
9.99200722162640886e-16 0.33099856972694397 0.357676446437835693
9.99200722162640886e-16 0.0609475262463092804 0.134844481945037842
9.99200722162640886e-16 0.0509177930653095245 0.270986825227737427
9.99200722162640886e-16 0.128282904624938965 0.289328575134277344
9.99200722162640886e-16 0.181523606181144714 0.185527011752128601
9.99200722162640886e-16 0.00726888282224535942 0.389380216598510742
9.99200722162640886e-16 0.0192369278520345688 0.130018919706344604
9.99200722162640886e-16 0.291285455226898193 0.349575936794281006
9.99200722162640886e-16 0.211589962244033813 0.290999412536621094
9.99200722162640886e-16 0.0638258755207061768 0.220651879906654358
9.99200722162640886e-16 0.0583384111523628235 0.0757073163986206055
9.99200722162640886e-16 0.03686557337641716 0.267641842365264893
9.99200722162640886e-16 0.0356039106845855713 0.146564900875091553
9.99200722162640886e-16 0.0243008453398942947 0.0875640213489532471
9.99200722162640886e-16 0.0493831895291805267 0.0752546191215515137
9.99200722162640886e-16 0.0195849742740392685 0.251361429691314697
9.99200722162640886e-16 0.0547380819916725159 0.0551644563674926758
9.99200722162640886e-16 0.271646678447723389 0.319403856992721558
9.99200722162640886e-16 0.116992667317390442 0.266130983829498291
9.99200722162640886e-16 0.0546769201755523682 0.060190349817276001
9.99200722162640886e-16 0.0505341403186321259 0.0813898742198944092
9.99200722162640886e-16 0.274799346923828125 0.357051074504852295
9.99200722162640886e-16 0.184941947460174561 0.247846812009811401
9.99200722162640886e-16 0.129752591252326965 0.177065461874008179
9.99200722162640886e-16 0.0403820611536502838 0.299282997846603394
9.99200722162640886e-16 0.0260667335242033005 0.257321000099182129
9.99200722162640886e-16 0.194410607218742371 0.23128896951675415
9.99200722162640886e-16 0.108631692826747894 0.195656105875968933
9.99200722162640886e-16 0.0255377385765314102 0.106984883546829224
9.99200722162640886e-16 0.347221314907073975 0.379633665084838867
9.99200722162640886e-16 0.0354291610419750214 0.322547078132629395
9.99200722162640886e-16 0.000363843981176614761 0.000869512557983398438
9.99200722162640886e-16 0.284346491098403931 0.383303999900817871
9.99200722162640886e-16 0.00533646112307906151 0.252133965492248535
9.99200722162640886e-16 0.0504509396851062775 0.255891203880310059
9.99200722162640886e-16 0.168093100190162659 0.259963691234588623
9.99200722162640886e-16 0.0913873016834259033 0.185512229800224304
9.99200722162640886e-16 0.342238098382949829 0.353546828031539917
9.99200722162640886e-16 0.131490886211395264 0.199847936630249023
9.99200722162640886e-16 0.181700915098190308 0.398479700088500977
9.99200722162640886e-16 0.21143341064453125 0.271709918975830078
9.99200722162640886e-16 0.0359735414385795593 0.157871022820472717
9.99200722162640886e-16 0.0299093909561634064 0.227874785661697388
9.99200722162640886e-16 0.076809316873550415 0.135868757963180542
9.99200722162640886e-16 0.0935051366686820984 0.380488067865371704
9.99200722162640886e-16 0.326481252908706665 0.329915702342987061
9.99200722162640886e-16 0.0309253484010696411 0.055196911096572876
9.99200722162640886e-16 0.00897397007793188095 0.108062624931335449
9.99200722162640886e-16 0.0497337877750396729 0.282070636749267578
9.99200722162640886e-16 0.0805611982941627502 0.186760619282722473
9.99200722162640886e-16 0.054875500500202179 0.381861060857772827
9.99200722162640886e-16 0.0308330748230218887 0.376238971948623657
9.99200722162640886e-16 0.0965633243322372437 0.372833251953125
9.99200722162640886e-16 0.0293267872184514999 0.286600828170776367
9.99200722162640886e-16 0.134841367602348328 0.137087106704711914
9.99200722162640886e-16 0.19423694908618927 0.261962085962295532
9.99200722162640886e-16 0.237113997340202332 0.290590167045593262
9.99200722162640886e-16 0.0966187343001365662 0.257105231285095215
9.99200722162640886e-16 0.00629374152049422264 0.359839588403701782
9.99200722162640886e-16 0.293006300926208496 0.358878463506698608
9.99200722162640886e-16 0.047438841313123703 0.370667964220046997
9.99200722162640886e-16 0.00155807740520685911 0.144990503787994385
9.99200722162640886e-16 0.0823746249079704285 0.162172809243202209
9.99200722162640886e-16 0.290262311697006226 0.347204327583312988
9.99200722162640886e-16 0.0169283952564001083 0.172866210341453552
9.99200722162640886e-16 0.0845850259065628052 0.147185802459716797
9.99200722162640886e-16 0.0901907682418823242 0.398022592067718506
9.99200722162640886e-16 0.181864365935325623 0.346536964178085327
9.99200722162640886e-16 0.103445090353488922 0.125120878219604492
9.99200722162640886e-16 0.0734478309750556946 0.0963474512100219727
9.99200722162640886e-16 0.0661369487643241882 0.342782586812973022
9.99200722162640886e-16 0.0260377917438745499 0.352323949337005615
9.99200722162640886e-16 0.146517470479011536 0.261108100414276123
0.0258249435573816299 5.27355936696949357e-16 0.0784691646695137024
0.108492195606231689 5.27355936696949357e-16 0.141426786780357361
0.0572325475513935089 5.27355936696949357e-16 0.247847706079483032
0.0194139238446950912 5.27355936696949357e-16 0.27406272292137146
0.0531826876103878021 5.27355936696949357e-16 0.0595899522304534912
0.0260430816560983658 5.27355936696949357e-16 0.0546648427844047546
0.0336637981235980988 5.27355936696949357e-16 0.140704303979873657
0.029356837272644043 5.27355936696949357e-16 0.21825563907623291
0.0152073251083493233 5.27355936696949357e-16 0.140822276473045349
0.0373053364455699921 5.27355936696949357e-16 0.138299167156219482
0.00317483395338058472 5.27355936696949357e-16 0.378898888826370239
0.0526950061321258545 5.27355936696949357e-16 0.230724766850471497
0.0243462231010198593 5.27355936696949357e-16 0.276924014091491699
0.0191427599638700485 5.27355936696949357e-16 0.335346728563308716
0.0214257296174764633 5.27355936696949357e-16 0.351626187562942505
0.0602496340870857239 5.27355936696949357e-16 0.134344696998596191
0.00244345865212380886 5.27355936696949357e-16 0.322504490613937378
0.0333247408270835876 5.27355936696949357e-16 0.069222472608089447
0.148935124278068542 5.27355936696949357e-16 0.0196703076362609863
0.0563176646828651428 5.27355936696949357e-16 0.129338040947914124
0.0105133596807718277 5.27355936696949357e-16 0.165359020233154297
0.111838757991790771 5.27355936696949357e-16 0.111388161778450012
0.138759732246398926 5.27355936696949357e-16 0.0573693215847015381
0.157508224248886108 5.27355936696949357e-16 0.0841355323791503906
0.138230279088020325 5.27355936696949357e-16 0.0414919853210449219
0.0869041606783866882 5.27355936696949357e-16 0.158267632126808167
0.104098036885261536 5.27355936696949357e-16 0.179987415671348572
0.123150289058685303 5.27355936696949357e-16 0.113843053579330444
0.0174001287668943405 5.27355936696949357e-16 0.213678330183029175
0.0342095457017421722 5.27355936696949357e-16 0.100955136120319366
0.0553716421127319336 5.27355936696949357e-16 0.0119381099939346313
0.196433424949645996 5.27355936696949357e-16 0.00207731127738952637
0.0675793588161468506 5.27355936696949357e-16 0.200944364070892334
0.0454746000468730927 5.27355936696949357e-16 0.119667589664459229
0.0883752331137657166 5.27355936696949357e-16 0.0702864676713943481
0.108859442174434662 5.27355936696949357e-16 0.0209739208221435547
0.0411337427794933319 5.27355936696949357e-16 0.0689728632569313049
0.161946028470993042 5.27355936696949357e-16 0.02481880784034729
0.0536605007946491241 5.27355936696949357e-16 0.185723811388015747
0.059795726090669632 5.27355936696949357e-16 0.219258576631546021
0.0754220783710479736 5.27355936696949357e-16 0.212939411401748657
0.0903656557202339172 5.27355936696949357e-16 0.0177862495183944702
0.0894710347056388855 5.27355936696949357e-16 0.189732328057289124
0.0255017280578613281 5.27355936696949357e-16 0.0905322432518005371
0.00856380816549062729 5.27355936696949357e-16 0.0070454087108373642
0.0926511958241462708 5.27355936696949357e-16 0.042124330997467041
0.095520317554473877 5.27355936696949357e-16 0.0704676359891891479
0.0679346546530723572 5.27355936696949357e-16 0.0147938281297683716
0.0133345304057002068 5.27355936696949357e-16 0.196851730346679688
0.0434429831802845001 5.27355936696949357e-16 0.000949554145336151123
0.108542799949645996 5.27355936696949357e-16 0.157743930816650391
0.105436526238918304 5.27355936696949357e-16 0.188855737447738647
0.0410834550857543945 5.27355936696949357e-16 0.232495427131652832
0.124305211007595062 5.27355936696949357e-16 0.00997304916381835938
0.126047208905220032 5.27355936696949357e-16 0.109608978033065796
0.00561914779245853424 5.27355936696949357e-16 0.0384334102272987366
0.0493713170289993286 5.27355936696949357e-16 0.129171311855316162
0.0623452439904212952 5.27355936696949357e-16 0.103836938738822937
0.0815344899892807007 5.27355936696949357e-16 0.103803873062133789
0.0646321401000022888 5.27355936696949357e-16 0.262252181768417358
0.153549879789352417 5.27355936696949357e-16 0.0190914571285247803
0.00188849458936601877 5.27355936696949357e-16 0.217669695615768433
0.0713875517249107361 5.27355936696949357e-16 0.173447132110595703
0.0914015397429466248 5.27355936696949357e-16 0.0786688029766082764
0.103528939187526703 5.27355936696949357e-16 0.183930248022079468
0.0827696695923805237 5.27355936696949357e-16 0.108776435256004333
0.019040549173951149 5.27355936696949357e-16 0.309807926416397095
0.0131360543891787529 5.27355936696949357e-16 0.265278041362762451
0.0297980103641748428 5.27355936696949357e-16 0.285165131092071533
0.142085760831832886 5.27355936696949357e-16 0.0974015593528747559
0.0125942109152674675 5.27355936696949357e-16 0.0392385199666023254
0.0916422381997108459 5.27355936696949357e-16 0.173287838697433472
0.0805899426341056824 5.27355936696949357e-16 0.0500488579273223877
0.00100451870821416378 5.27355936696949357e-16 0.266437351703643799
0.0901004821062088013 5.27355936696949357e-16 0.0238480865955352783
0.179941028356552124 5.27355936696949357e-16 0.0266814827919006348
0.0919103026390075684 5.27355936696949357e-16 0.0500154048204421997
0.0389311425387859344 5.27355936696949357e-16 0.216232210397720337
0.0313275717198848724 5.27355936696949357e-16 0.164739340543746948
0.0696081742644309998 5.27355936696949357e-16 0.260725975036621094
0.0428625084459781647 5.27355936696949357e-16 0.212590664625167847
0.0119162630289793015 5.27355936696949357e-16 0.10258878767490387
0.0808647572994232178 5.27355936696949357e-16 0.191692143678665161
0.0317366085946559906 5.27355936696949357e-16 0.0504105314612388611
0.0669360682368278503 5.27355936696949357e-16 0.137535333633422852
0.0958449766039848328 5.27355936696949357e-16 0.132758572697639465
0.0248119104653596878 5.27355936696949357e-16 0.190640956163406372
0.0961996838450431824 5.27355936696949357e-16 0.171796873211860657
0.0630207210779190063 5.27355936696949357e-16 0.241502746939659119
0.0935804322361946106 5.27355936696949357e-16 0.168887361884117126
0.00496897241100668907 5.27355936696949357e-16 0.12497439980506897
0.0073124617338180542 5.27355936696949357e-16 0.278595894575119019
0.0214858353137969971 5.27355936696949357e-16 0.292330741882324219
0.141798317432403564 5.27355936696949357e-16 0.0599377453327178955
0.0556382350623607635 5.27355936696949357e-16 0.160810455679893494
0.0682998150587081909 5.27355936696949357e-16 0.0797052085399627686
0.0582629330456256866 5.27355936696949357e-16 0.0648557394742965698
0.00765429949387907982 5.27355936696949357e-16 0.303751736879348755
0.0149592040106654167 5.27355936696949357e-16 0.153513997793197632
0.0486385375261306763 5.27355936696949357e-16 0.186471223831176758
0.114795461297035217 5.27355936696949357e-16 0.114484384655952454
0.077119484543800354 5.27355936696949357e-16 0.190550863742828369
0.0529725328087806702 5.27355936696949357e-16 0.154612690210342407
0.0929565876722335815 5.27355936696949357e-16 0.191481351852416992
0.156650424003601074 5.27355936696949357e-16 0.0487793982028961182
0.101946569979190826 5.27355936696949357e-16 0.00135031342506408691
0.0338251814246177673 5.27355936696949357e-16 0.0696919038891792297
0.0373637638986110687 5.27355936696949357e-16 0.242617666721343994
0.0990827158093452454 5.27355936696949357e-16 0.00319541990756988525
0.101357594132423401 5.27355936696949357e-16 0.159086614847183228
0.0846002772450447083 5.27355936696949357e-16 0.0314232558012008667
0.120538093149662018 5.27355936696949357e-16 0.0199058651924133301
0.114027202129364014 5.27355936696949357e-16 0.102276057004928589
0.12161283940076828 5.27355936696949357e-16 0.0916729271411895752
0.0589125528931617737 5.27355936696949357e-16 0.21563306450843811
0.128962934017181396 5.27355936696949357e-16 0.0442459285259246826
0.061111796647310257 5.27355936696949357e-16 0.194950476288795471
0.14822174608707428 5.27355936696949357e-16 0.0355485677719116211
0.00752693274989724159 5.27355936696949357e-16 0.164204314351081848
0.0256780441850423813 5.27355936696949357e-16 0.267750084400177002
0.108631633222103119 5.27355936696949357e-16 0.00791098177433013916
0.0716822147369384766 5.27355936696949357e-16 0.00919134914875030518
0.0685550570487976074 5.27355936696949357e-16 0.0813019871711730957
0.13172498345375061 5.27355936696949357e-16 0.100670814514160156
0.0268907733261585236 5.27355936696949357e-16 0.0778799951076507568
0.0498619042336940765 5.27355936696949357e-16 0.293079733848571777
0.0136574776843190193 5.27355936696949357e-16 0.191431209444999695
0.110368981957435608 5.27355936696949357e-16 0.0466656237840652466
0.0456826500594615936 5.27355936696949357e-16 0.190713047981262207
0.078377164900302887 5.27355936696949357e-16 0.12791164219379425
0.00906158424913883209 5.27355936696949357e-16 0.362695664167404175
0.0897306129336357117 5.27355936696949357e-16 0.164703056216239929
0.082398340106010437 5.27355936696949357e-16 0.0740419477224349976
0.16886061429977417 5.27355936696949357e-16 0.0458074510097503662
0.0855307504534721375 5.27355936696949357e-16 0.218204453587532043
0.103509865701198578 5.27355936696949357e-16 0.0303800851106643677
0.0457282550632953644 5.27355936696949357e-16 0.286845564842224121
0.00270888837985694408 5.27355936696949357e-16 0.184231221675872803
0.0533202774822711945 5.27355936696949357e-16 0.275308132171630859
0.0343236923217773438 5.27355936696949357e-16 0.101984985172748566
0.00953114219009876251 5.27355936696949357e-16 0.129877999424934387
0.0293665621429681778 5.27355936696949357e-16 0.289649069309234619
0.119005754590034485 5.27355936696949357e-16 0.0785757899284362793
0.0182000454515218735 5.27355936696949357e-16 0.0537729896605014801
0.0144357951357960701 5.27355936696949357e-16 0.137756586074829102
0.00302219949662685394 5.27355936696949357e-16 0.0206669345498085022
0.00412396201863884926 5.27355936696949357e-16 0.0741364955902099609
0.0985931679606437683 5.27355936696949357e-16 0.132404178380966187
0.0360864214599132538 5.27355936696949357e-16 0.00232753902673721313
0.0575323961675167084 5.27355936696949357e-16 0.00263202190399169922
0.171080514788627625 5.27355936696949357e-16 0.0124407410621643066
0.077481493353843689 5.27355936696949357e-16 0.226544633507728577
0.0246697347611188889 5.27355936696949357e-16 0.100970275700092316
0.0089324144646525383 5.27355936696949357e-16 0.233575299382209778
0.0233532190322875977 5.27355936696949357e-16 0.147056668996810913
0.0120661817491054535 5.27355936696949357e-16 0.0121690016239881516
0.0224477816373109818 5.27355936696949357e-16 0.143185138702392578
0.116482257843017578 5.27355936696949357e-16 0.104352280497550964
0.0180668234825134277 5.27355936696949357e-16 0.359340429306030273
0.095808468759059906 5.27355936696949357e-16 0.0175707340240478516
0.094886384904384613 5.27355936696949357e-16 0.0228421241044998169
0.092959873378276825 5.27355936696949357e-16 0.152884036302566528
0.100358270108699799 5.27355936696949357e-16 0.163807883858680725
0.0206150244921445847 5.27355936696949357e-16 0.20894932746887207
0.0359465070068836212 5.27355936696949357e-16 0.282808810472488403
0.00953975412994623184 5.27355936696949357e-16 0.0289215147495269775
0.00147418293636292219 5.27355936696949357e-16 0.0520380847156047821
0.0664279833436012268 5.27355936696949357e-16 0.0937480777502059937
0.0714112222194671631 5.27355936696949357e-16 0.232264414429664612
0.0446665249764919281 5.27355936696949357e-16 0.170620381832122803
0.0274389069527387619 5.27355936696949357e-16 0.283355027437210083
0.0673177093267440796 5.27355936696949357e-16 0.263338088989257812
0.100073873996734619 5.27355936696949357e-16 0.0626642107963562012
0.0801000222563743591 5.27355936696949357e-16 0.106410473585128784
0.0312293525785207748 5.27355936696949357e-16 0.10257045179605484
0.0496863760054111481 5.27355936696949357e-16 0.115279361605644226
0.0641968175768852234 5.27355936696949357e-16 0.2703133225440979
0.0255339276045560837 5.27355936696949357e-16 0.260444432497024536
0.0939868539571762085 5.27355936696949357e-16 0.0133235156536102295
0.18013407289981842 5.27355936696949357e-16 0.0323077142238616943
0.0037606656551361084 5.27355936696949357e-16 0.309469014406204224
0.0194961186498403549 5.27355936696949357e-16 0.245144158601760864
0.020884733647108078 5.27355936696949357e-16 0.241003513336181641
0.0889479368925094604 5.27355936696949357e-16 0.186260178685188293
0.0183715131133794785 5.27355936696949357e-16 0.115464285016059875
0.0138225378468632698 5.27355936696949357e-16 0.277192026376724243
0.137353405356407166 5.27355936696949357e-16 0.1089305579662323
0.0261177513748407364 5.27355936696949357e-16 0.0862688720226287842
0.077127799391746521 5.27355936696949357e-16 0.029874950647354126
0.00195637182332575321 5.27355936696949357e-16 0.0559318810701370239
0.163790389895439148 5.27355936696949357e-16 0.0569786131381988525
0.0244855266064405441 5.27355936696949357e-16 0.184433236718177795
0.0513205118477344513 5.27355936696949357e-16 0.257324159145355225
0.0577132068574428558 5.27355936696949357e-16 0.0222439020872116089
0.108551196753978729 5.27355936696949357e-16 0.0536177605390548706
0.0966515839099884033 5.27355936696949357e-16 0.101926237344741821
0.0459854714572429657 5.27355936696949357e-16 0.0555538162589073181
0.0900096967816352844 5.27355936696949357e-16 0.0323027223348617554
0.0183590073138475418 5.27355936696949357e-16 0.304733753204345703
0.129845306277275085 5.27355936696949357e-16 0.0955010354518890381
0.00564134307205677032 5.27355936696949357e-16 0.23353596031665802
0.133978202939033508 5.27355936696949357e-16 0.0212438106536865234
0.0910272747278213501 5.27355936696949357e-16 0.218227565288543701
0.106730081140995026 5.27355936696949357e-16 0.0859379023313522339
0.0164784528315067291 5.27355936696949357e-16 0.0312696993350982666
0.0961946770548820496 5.27355936696949357e-16 0.055837586522102356
0.101746775209903717 5.27355936696949357e-16 0.00980532169342041016
0.121740899980068207 5.27355936696949357e-16 0.119771048426628113
0.0697593018412590027 5.27355936696949357e-16 0.217011019587516785
0.0522252880036830902 5.27355936696949357e-16 0.210140913724899292
0.0304520111531019211 5.27355936696949357e-16 0.180632948875427246
0.0600479841232299805 5.27355936696949357e-16 0.0508148893713951111
0.0643949657678604126 5.27355936696949357e-16 0.158759251236915588
0.0706433281302452087 5.27355936696949357e-16 0.0386710762977600098
0.127259716391563416 5.27355936696949357e-16 0.0186408460140228271
0.00343716866336762905 5.27355936696949357e-16 0.0144894681870937347
0.141650393605232239 5.27355936696949357e-16 0.0325088202953338623
0.0151027292013168335 5.27355936696949357e-16 0.239402025938034058
0.0119073949754238129 5.27355936696949357e-16 0.0969896763563156128
0.0256421398371458054 5.27355936696949357e-16 0.162479221820831299
0.169780239462852478 5.27355936696949357e-16 0.0405640304088592529
0.0728893280029296875 5.27355936696949357e-16 0.128757938742637634
0.11195894330739975 5.27355936696949357e-16 0.107035622000694275
0.0676525682210922241 5.27355936696949357e-16 0.0289489477872848511
0.0649623945355415344 5.27355936696949357e-16 0.0544025003910064697
0.0744802579283714294 5.27355936696949357e-16 0.152260065078735352
0.0561290457844734192 5.27355936696949357e-16 0.074222177267074585
0.0799659714102745056 5.27355936696949357e-16 0.172173544764518738
0.0154488980770111084 5.27355936696949357e-16 0.354059398174285889
0.0116183916106820107 5.27355936696949357e-16 0.36018824577331543
0.00183097261469811201 5.27355936696949357e-16 0.274735748767852783
0.000907043868210166693 5.27355936696949357e-16 0.130862504243850708
0.00175822735764086246 5.27355936696949357e-16 0.336600750684738159
0.0310635548084974289 5.27355936696949357e-16 0.129894018173217773
0.0309484582394361496 5.27355936696949357e-16 0.120426952838897705
0.0172172151505947113 5.27355936696949357e-16 0.0107861459255218506
0.164921417832374573 5.27355936696949357e-16 0.000783652067184448242
0.155045673251152039 5.27355936696949357e-16 0.0345449447631835938
0.0323980413377285004 5.27355936696949357e-16 0.0338012799620628357
0.0575706548988819122 5.27355936696949357e-16 0.0864052847027778625
0.0762853547930717468 5.27355936696949357e-16 0.141030967235565186
0.0127004804089665413 5.27355936696949357e-16 0.129143595695495605
0.121594421565532684 5.27355936696949357e-16 0.0743192583322525024
0.00261794775724411011 5.27355936696949357e-16 0.318842917680740356
0.0756995975971221924 5.27355936696949357e-16 0.0231052786111831665
0.104179657995700836 5.27355936696949357e-16 0.149544939398765564
0.030919266864657402 5.27355936696949357e-16 0.313614696264266968
0.000384176702937111259 5.27355936696949357e-16 0.105014413595199585
0.134052321314811707 5.27355936696949357e-16 0.0658260881900787354
0.00148061593063175678 5.27355936696949357e-16 0.249459519982337952
0.0451866611838340759 5.27355936696949357e-16 0.142227590084075928
0.0564970187842845917 5.27355936696949357e-16 0.158988505601882935
0.104379795491695404 5.27355936696949357e-16 0.172684058547019958
0.00360156712122261524 5.27355936696949357e-16 0.0719568729400634766
0.122038915753364563 5.27355936696949357e-16 0.124550595879554749
0.16664530336856842 5.27355936696949357e-16 0.0121819376945495605
0.0257461667060852051 5.27355936696949357e-16 0.108256533741950989
0.113345161080360413 5.27355936696949357e-16 0.170955464243888855
0.0117715997621417046 5.27355936696949357e-16 0.339478373527526855
0.0303337462246417999 5.27355936696949357e-16 0.329797416925430298
0.0240193381905555725 5.27355936696949357e-16 0.287734359502792358
0.032886069267988205 5.27355936696949357e-16 0.0773993581533432007
0.0893613919615745544 5.27355936696949357e-16 0.106207191944122314
0.143225967884063721 5.27355936696949357e-16 0.00867599248886108398
0.0862203463912010193 5.27355936696949357e-16 0.189373299479484558
0.0823154672980308533 5.27355936696949357e-16 0.0156696736812591553
0.0242735054343938828 5.27355936696949357e-16 0.0239638127386569977
0.0546883344650268555 5.27355936696949357e-16 0.242112070322036743
0.0474735908210277557 5.27355936696949357e-16 0.295110881328582764
0.0647655576467514038 5.27355936696949357e-16 0.0043728947639465332
0.0621438920497894287 5.27355936696949357e-16 0.116782985627651215
0.0120828030630946159 5.27355936696949357e-16 0.151110336184501648
0.0120544284582138062 5.27355936696949357e-16 0.0781226009130477905
0.13707318902015686 5.27355936696949357e-16 0.0630342066287994385
0.169719353318214417 5.27355936696949357e-16 0.0353399217128753662
0.0681223496794700623 5.27355936696949357e-16 0.239570274949073792
0.00903558172285556793 5.27355936696949357e-16 0.178158655762672424
0.0402892865240573883 5.27355936696949357e-16 0.20607265830039978
0.0755811333656311035 5.27355936696949357e-16 0.147393956780433655
0.0417898520827293396 5.27355936696949357e-16 0.0515361875295639038
0.114506863057613373 5.27355936696949357e-16 0.0553456097841262817
0.0216181445866823196 5.27355936696949357e-16 0.348903805017471313
0.197330012917518616 5.27355936696949357e-16 0.0044040381908416748
0.115090683102607727 5.27355936696949357e-16 0.00486972928047180176
0.0248926710337400436 5.27355936696949357e-16 0.0975443720817565918
0.0119428504258394241 5.27355936696949357e-16 0.116121143102645874
0.0270745661109685898 5.27355936696949357e-16 0.0722264945507049561
0.133871480822563171 5.27355936696949357e-16 0.00215831398963928223
0.113081328570842743 5.27355936696949357e-16 0.117875650525093079
0.0945899933576583862 5.27355936696949357e-16 0.100264281034469604
0.00833329558372497559 5.27355936696949357e-16 0.166706636548042297
0.00515718664973974228 5.27355936696949357e-16 0.236405760049819946
0.107367031276226044 5.27355936696949357e-16 0.0296829491853713989
0.115430571138858795 5.27355936696949357e-16 0.0696073919534683228
0.0124609516933560371 5.27355936696949357e-16 0.165636613965034485
0.0665345713496208191 5.27355936696949357e-16 0.177165612578392029
0.0347043126821517944 5.27355936696949357e-16 0.295879483222961426
0.0668943151831626892 5.27355936696949357e-16 0.00120347738265991211
0.0825922414660453796 5.27355936696949357e-16 0.206242024898529053
0.0662457868456840515 5.27355936696949357e-16 0.00532209873199462891
0.056876104325056076 5.27355936696949357e-16 0.0246414840221405029
0.0441071987152099609 5.27355936696949357e-16 0.158762350678443909
0.0290785375982522964 5.27355936696949357e-16 0.307941436767578125
0.0135698048397898674 5.27355936696949357e-16 0.109171964228153229
0.0509490929543972015 5.27355936696949357e-16 0.0697603970766067505
0.0304022934287786484 5.27355936696949357e-16 0.0123806111514568329
0.0236304942518472672 5.27355936696949357e-16 0.148646771907806396
0.120558522641658783 5.27355936696949357e-16 0.0671284943819046021
0.0586959682404994965 5.27355936696949357e-16 0.15638577938079834
0.152187541127204895 5.27355936696949357e-16 0.0723947584629058838
0.0694443285465240479 5.27355936696949357e-16 0.14065687358379364
0.155906230211257935 5.27355936696949357e-16 0.0751607120037078857
0.0837332531809806824 5.27355936696949357e-16 0.0897567570209503174
0.0356867052614688873 5.27355936696949357e-16 0.283509373664855957
0.112065188586711884 5.27355936696949357e-16 0.0259018838405609131
0.121810786426067352 5.27355936696949357e-16 0.0984425395727157593
0.0731862187385559082 5.27355936696949357e-16 0.175114288926124573
0.0307677034288644791 5.27355936696949357e-16 0.245600998401641846
0.0550699047744274139 5.27355936696949357e-16 0.289815574884414673
0.118945397436618805 5.27355936696949357e-16 0.0314605832099914551
0.110089771449565887 5.27355936696949357e-16 0.0746190845966339111
0.0916609391570091248 5.27355936696949357e-16 0.13968348503112793
0.0389900319278240204 5.27355936696949357e-16 0.181493893265724182
0.0377369038760662079 5.27355936696949357e-16 0.00701514631509780884
0.0875922366976737976 5.27355936696949357e-16 0.0137553364038467407
0.00212189648300409317 5.27355936696949357e-16 0.213005870580673218
0.0535209774971008301 5.27355936696949357e-16 0.010815449059009552
0.0884160324931144714 5.27355936696949357e-16 0.122846856713294983
0.142542392015457153 5.27355936696949357e-16 0.0226659178733825684
0.0950213000178337097 5.27355936696949357e-16 0.0859796106815338135
0.0944675728678703308 5.27355936696949357e-16 0.146172791719436646
0.0578938238322734833 5.27355936696949357e-16 0.123902708292007446
0.129533693194389343 5.27355936696949357e-16 0.0370970368385314941
0.0968150720000267029 5.27355936696949357e-16 0.115165933966636658
0.0596888065338134766 5.27355936696949357e-16 0.103394903242588043
0.163260713219642639 5.27355936696949357e-16 0.0302746891975402832
0.0154357133433222771 5.27355936696949357e-16 0.0958558171987533569
0.0612984597682952881 5.27355936696949357e-16 0.221017897129058838
0.000512808910571038723 5.27355936696949357e-16 0.0682383626699447632
0.0276342872530221939 5.27355936696949357e-16 0.125156685709953308
0.0673325881361961365 5.27355936696949357e-16 0.136432111263275146
0.0590467341244220734 5.27355936696949357e-16 0.0305914506316184998
0.035695202648639679 5.27355936696949357e-16 0.313648521900177002
0.148990020155906677 5.27355936696949357e-16 0.0796575546264648438
0.0110282870009541512 5.27355936696949357e-16 0.255488067865371704
0.0942912399768829346 5.27355936696949357e-16 0.125982165336608887
0.0665223672986030579 5.27355936696949357e-16 0.113783478736877441
0.0869073495268821716 5.27355936696949357e-16 0.123976752161979675
0.0983779355883598328 5.27355936696949357e-16 0.0289092808961868286
0.0343496315181255341 5.27355936696949357e-16 0.106672279536724091
0.073872298002243042 5.27355936696949357e-16 0.155583560466766357
0.137215703725814819 5.27355936696949357e-16 0.0631458163261413574
0.0485724322497844696 5.27355936696949357e-16 0.123418509960174561
0.133395880460739136 5.27355936696949357e-16 0.042311251163482666
0.0156655088067054749 5.27355936696949357e-16 0.0053891502320766449
0.129192396998405457 5.27355936696949357e-16 0.0479682385921478271
0.166797444224357605 5.27355936696949357e-16 0.0505804121494293213
0.00338624464347958565 5.27355936696949357e-16 0.107099100947380066
0.0469085089862346649 5.27355936696949357e-16 0.196689322590827942
0.0727792307734489441 5.27355936696949357e-16 0.163376972079277039
0.0568436086177825928 5.27355936696949357e-16 0.162226825952529907
0.00256292405538260937 5.27355936696949357e-16 0.117518991231918335
0.0426151715219020844 5.27355936696949357e-16 0.220589041709899902
0.0366730280220508575 5.27355936696949357e-16 0.164043456315994263
0.0675390362739562988 5.27355936696949357e-16 0.0124186277389526367
0.0671738386154174805 5.27355936696949357e-16 0.145025566220283508
0.0142881497740745544 5.27355936696949357e-16 0.16398988664150238
0.043542962521314621 5.27355936696949357e-16 0.265891373157501221
0.00696317246183753014 5.27355936696949357e-16 0.257391989231109619
0.180362224578857422 5.27355936696949357e-16 0.0347436070442199707
0.120651818811893463 5.27355936696949357e-16 0.0586412250995635986
0.077895723283290863 5.27355936696949357e-16 0.22049790620803833
0.157437905669212341 5.27355936696949357e-16 0.0214371383190155029
0.133530065417289734 5.27355936696949357e-16 0.0865440964698791504
0.0311387684196233749 5.27355936696949357e-16 0.0603971332311630249
0.0838521569967269897 5.27355936696949357e-16 0.129218220710754395
0.0393767207860946655 5.27355936696949357e-16 0.172025352716445923
0.0821628198027610779 5.27355936696949357e-16 0.111211642622947693
0.00770144257694482803 5.27355936696949357e-16 0.329324156045913696
0.00334969954565167427 5.27355936696949357e-16 0.389152705669403076
0.110171794891357422 5.27355936696949357e-16 0.129617005586624146
0.0811184123158454895 5.27355936696949357e-16 0.076281622052192688
0.00933452881872653961 5.27355936696949357e-16 0.117524832487106323
0.121144168078899384 5.27355936696949357e-16 0.0801919400691986084
0.114369489252567291 5.27355936696949357e-16 0.0630805045366287231
0.110861219465732574 5.27355936696949357e-16 0.100407242774963379
0.0346898660063743591 5.27355936696949357e-16 0.0288880094885826111
0.144651457667350769 5.27355936696949357e-16 0.0435166060924530029
0.0834079533815383911 5.27355936696949357e-16 0.0842587202787399292
0.0514154024422168732 5.27355936696949357e-16 0.0453446283936500549
0.081397421658039093 5.27355936696949357e-16 0.169161766767501831
0.0803990885615348816 5.27355936696949357e-16 0.228284180164337158
0.0902319550514221191 5.27355936696949357e-16 0.175588518381118774
0.0572005882859230042 5.27355936696949357e-16 0.108339056372642517
0.0823969319462776184 5.27355936696949357e-16 0.116415068507194519
0.0887292101979255676 5.27355936696949357e-16 0.122085258364677429
0.037641528993844986 5.27355936696949357e-16 0.236848771572113037
0.0654794126749038696 5.27355936696949357e-16 0.103440389037132263
0.0793385431170463562 5.27355936696949357e-16 0.240049153566360474
0.0722042769193649292 5.27355936696949357e-16 0.213554829359054565
0.00166908744722604752 5.27355936696949357e-16 0.0106512121856212616
0.00680959736928343773 5.27355936696949357e-16 0.0900456011295318604
0.0588535331189632416 5.27355936696949357e-16 0.0648849904537200928
0.0549700260162353516 5.27355936696949357e-16 0.0760394483804702759
0.0395853333175182343 5.27355936696949357e-16 0.229981929063796997
0.0575930774211883545 5.27355936696949357e-16 0.230772018432617188
0.111797511577606201 5.27355936696949357e-16 0.0723474323749542236
0.0542127862572669983 5.27355936696949357e-16 0.0813889205455780029
0.16587422788143158 5.27355936696949357e-16 0.0616428852081298828
0.0240974500775337219 5.27355936696949357e-16 0.0433480441570281982
0.0121340593323111534 5.27355936696949357e-16 0.100723601877689362
0.00221845111809670925 5.27355936696949357e-16 0.213959172368049622
0.0837055295705795288 5.27355936696949357e-16 0.103144720196723938
0.100962810218334198 5.27355936696949357e-16 0.108239129185676575
0.145090073347091675 5.27355936696949357e-16 0.0504080653190612793
0.00875963084399700165 5.27355936696949357e-16 0.0756889283657073975
0.0527533851563930511 5.27355936696949357e-16 0.202868416905403137
0.0160161778330802917 5.27355936696949357e-16 0.341773629188537598
0.0170437470078468323 5.27355936696949357e-16 0.00549297034740447998
0.0618268512189388275 5.27355936696949357e-16 0.0731494724750518799
0.119715645909309387 5.27355936696949357e-16 0.0471623241901397705
0.084266074001789093 5.27355936696949357e-16 0.193265721201896667
0.0146753331646323204 5.27355936696949357e-16 0.187641173601150513
0.0380759388208389282 5.27355936696949357e-16 0.254008173942565918
0.0210462678223848343 5.27355936696949357e-16 0.25184902548789978
0.0796035900712013245 5.27355936696949357e-16 0.0573203712701797485
0.0318075940012931824 5.27355936696949357e-16 0.100404426455497742
0.0210660044103860855 5.27355936696949357e-16 0.0619915798306465149
0.10151074081659317 5.27355936696949357e-16 0.192422434687614441
0.00528797833248972893 5.27355936696949357e-16 0.35857430100440979
0.123108409345149994 5.27355936696949357e-16 0.0145487338304519653
0.0515643768012523651 5.27355936696949357e-16 0.15754351019859314
0.100018613040447235 5.27355936696949357e-16 0.158773794770240784
0.104430310428142548 5.27355936696949357e-16 0.0343947410583496094
0.0891847908496856689 5.27355936696949357e-16 0.0628536641597747803
0.167905420064926147 5.27355936696949357e-16 0.0511392354965209961
0.00517107127234339714 5.27355936696949357e-16 0.0875301063060760498
0.0300937145948410034 5.27355936696949357e-16 0.046321038156747818
0.0653604790568351746 5.27355936696949357e-16 0.222191601991653442
0.000287732429569587111 5.27355936696949357e-16 0.275059551000595093
0.0236861053854227066 5.27355936696949357e-16 0.133073002099990845
0.171000853180885315 5.27355936696949357e-16 0.0476265549659729004
0.0521328523755073547 5.27355936696949357e-16 0.116336733102798462
0.00877643655985593796 5.27355936696949357e-16 0.156762361526489258
0.0111945020034909248 5.27355936696949357e-16 0.121773786842823029
0.0160951446741819382 5.27355936696949357e-16 0.219335749745368958
0.0245820861309766769 5.27355936696949357e-16 0.163833945989608765
0.0244403257966041565 5.27355936696949357e-16 0.299144864082336426
0.0332486182451248169 5.27355936696949357e-16 0.276583671569824219
0.00520674232393503189 5.27355936696949357e-16 0.271630048751831055
0.0159707050770521164 5.27355936696949357e-16 0.060926143079996109
0.0177318379282951355 5.27355936696949357e-16 0.103463716804981232
0.160736128687858582 5.27355936696949357e-16 0.054832160472869873
0.0693227276206016541 5.27355936696949357e-16 0.0105361789464950562
0.10422777384519577 5.27355936696949357e-16 0.0408275574445724487
0.0984041094779968262 5.27355936696949357e-16 0.070481419563293457
0.0922663137316703796 5.27355936696949357e-16 0.17463374137878418
0.120628155767917633 5.27355936696949357e-16 0.105809137225151062
0.0862173736095428467 5.27355936696949357e-16 0.077699512243270874
0.1236720010638237 5.27355936696949357e-16 0.0507083684206008911
0.121230877935886383 5.27355936696949357e-16 0.0420931428670883179
0.0764767751097679138 5.27355936696949357e-16 0.0971102267503738403
0.0653807893395423889 5.27355936696949357e-16 0.0637872815132141113
0.175331622362136841 5.27355936696949357e-16 0.0379480719566345215
0.192626953125 5.27355936696949357e-16 0.0113928914070129395
0.108985841274261475 5.27355936696949357e-16 0.0111428648233413696
0.0550887584686279297 5.27355936696949357e-16 0.0260502547025680542
0.176665395498275757 5.27355936696949357e-16 0.0354790091514587402
0.05244407057762146 5.27355936696949357e-16 0.0789997577667236328
0.0269318018108606339 5.27355936696949357e-16 0.279553651809692383
0.0617700293660163879 5.27355936696949357e-16 0.185381963849067688
0.0819456428289413452 5.27355936696949357e-16 0.0503132045269012451
0.0374618209898471832 5.27355936696949357e-16 0.0779865607619285583
0.0786569640040397644 5.27355936696949357e-16 0.229384362697601318
0.127641692757606506 5.27355936696949357e-16 0.0107372701168060303
0.0427588783204555511 5.27355936696949357e-16 0.0181497111916542053
0.0263028442859649658 5.27355936696949357e-16 0.293869316577911377
0.0889104455709457397 5.27355936696949357e-16 0.188377156853675842
0.0795352980494499207 5.27355936696949357e-16 0.19968356192111969
0.0166402403265237808 5.27355936696949357e-16 0.363368183374404907
0.124786965548992157 5.27355936696949357e-16 0.044487297534942627
0.109923854470252991 5.27355936696949357e-16 0.0698255002498626709
0.0213957112282514572 5.27355936696949357e-16 0.100066095590591431
0.0946586579084396362 5.27355936696949357e-16 0.177648723125457764
0.0862429291009902954 5.27355936696949357e-16 0.163234233856201172
0.0237117111682891846 5.27355936696949357e-16 0.334416449069976807
0.0119413239881396294 5.27355936696949357e-16 0.27702900767326355
0.0953455567359924316 5.27355936696949357e-16 0.0624279677867889404
0.114610277116298676 5.27355936696949357e-16 0.0106528103351593018
0.159762784838676453 5.27355936696949357e-16 0.0274149775505065918
0.0496659167110919952 5.27355936696949357e-16 0.069882512092590332
0.0638274401426315308 5.27355936696949357e-16 0.00969576835632324219
0.0173250231891870499 5.27355936696949357e-16 0.140663802623748779
0.0505134761333465576 5.27355936696949357e-16 0.137206673622131348
0.0430322997272014618 5.27355936696949357e-16 0.0729902535676956177
0.102946117520332336 5.27355936696949357e-16 0.0212025493383407593
0.108078896999359131 5.27355936696949357e-16 0.0132914334535598755
0.108175076544284821 5.27355936696949357e-16 0.14219135046005249
0.0468142479658126831 5.27355936696949357e-16 0.110405929386615753
0.104575097560882568 5.27355936696949357e-16 0.117982387542724609
0.0442885756492614746 5.27355936696949357e-16 0.206651896238327026
0.0928372293710708618 5.27355936696949357e-16 0.0893300175666809082
0.0443264618515968323 5.27355936696949357e-16 0.103416584432125092
0.0566570833325386047 5.27355936696949357e-16 0.158218264579772949
0.0282644778490066528 5.27355936696949357e-16 0.172842562198638916
0.0848141685128211975 5.27355936696949357e-16 0.0901142805814743042
0.0864001810550689697 5.27355936696949357e-16 0.185846790671348572
0.0580135397613048553 5.27355936696949357e-16 0.109646588563919067
0.0866210982203483582 5.27355936696949357e-16 0.072191581130027771
0.0914469584822654724 5.27355936696949357e-16 0.0901210904121398926
0.111774399876594543 5.27355936696949357e-16 0.0905744880437850952
0.127334624528884888 5.27355936696949357e-16 0.00134685635566711426
0.0288935359567403793 5.27355936696949357e-16 0.120589166879653931
0.157770410180091858 5.27355936696949357e-16 0.0769185125827789307
0.157591059803962708 5.27355936696949357e-16 0.000624507665634155273
0.088207148015499115 5.27355936696949357e-16 0.0609481334686279297
0.0216459166258573532 5.27355936696949357e-16 0.259504050016403198
0.0345906727015972137 5.27355936696949357e-16 0.0799054205417633057
0.0792304873466491699 5.27355936696949357e-16 0.200569331645965576
0.0015389368636533618 5.27355936696949357e-16 0.0142998434603214264
0.157411172986030579 5.27355936696949357e-16 0.0442439913749694824
0.0951972454786300659 5.27355936696949357e-16 0.00694267451763153076
0.0792002379894256592 5.27355936696949357e-16 0.0377098917961120605
0.0425127707421779633 5.27355936696949357e-16 0.142021417617797852
0.146982535719871521 5.27355936696949357e-16 0.0459607541561126709
0.152839139103889465 5.27355936696949357e-16 0.0717490613460540771
0.0447021238505840302 5.27355936696949357e-16 0.251936107873916626
0.0750716030597686768 5.27355936696949357e-16 0.00260594487190246582
0.0153281865641474724 5.27355936696949357e-16 0.21725781261920929
0.0438066087663173676 5.27355936696949357e-16 0.0286596789956092834
0.169056102633476257 5.27355936696949357e-16 0.0578487217426300049
0.0497763529419898987 5.27355936696949357e-16 0.133267790079116821
0.0169926341623067856 5.27355936696949357e-16 0.0959238708019256592
0.025436917319893837 5.27355936696949357e-16 0.188000857830047607
0.108604632318019867 5.27355936696949357e-16 0.0321806967258453369
0.0115926256403326988 5.27355936696949357e-16 0.331781089305877686
0.0397206731140613556 5.27355936696949357e-16 0.267341822385787964
0.112643294036388397 5.27355936696949357e-16 0.174955934286117554
0.0011904699495062232 5.27355936696949357e-16 0.276933461427688599
0.120325140655040741 5.27355936696949357e-16 0.0585460960865020752
0.141444370150566101 5.27355936696949357e-16 0.0745011568069458008
0.0294942688196897507 5.27355936696949357e-16 0.240665599703788757
0.0768231377005577087 5.27355936696949357e-16 0.233928471803665161
0.102785781025886536 5.27355936696949357e-16 0.0732434839010238647
0.0515820756554603577 5.27355936696949357e-16 0.149229645729064941
0.00762045755982398987 5.27355936696949357e-16 0.0990538746118545532
0.13047395646572113 5.27355936696949357e-16 0.133425116539001465
0.0560512207448482513 5.27355936696949357e-16 0.165167123079299927
0.0176898576319217682 5.27355936696949357e-16 0.207550510764122009
0.00124745152425020933 5.27355936696949357e-16 0.0746516063809394836
0.079071342945098877 5.27355936696949357e-16 0.184166207909584045
0.0765914246439933777 5.27355936696949357e-16 0.0783141404390335083
0.105710498988628387 5.27355936696949357e-16 0.132541120052337646
0.029656851664185524 5.27355936696949357e-16 0.170591920614242554
0.000341682200087234378 5.27355936696949357e-16 0.210432291030883789
0.0402802564203739166 5.27355936696949357e-16 0.241822093725204468
0.00857555493712425232 5.27355936696949357e-16 0.25787392258644104
0.0257644094526767731 5.27355936696949357e-16 0.0123735964298248291
0.051989477127790451 5.27355936696949357e-16 0.142205536365509033
0.033658396452665329 5.27355936696949357e-16 0.184069156646728516
0.022882828488945961 5.27355936696949357e-16 0.186128541827201843
0.0809165388345718384 5.27355936696949357e-16 0.0791161954402923584
0.0235094111412763596 5.27355936696949357e-16 0.123858101665973663
0.0142392488196492195 5.27355936696949357e-16 0.279702216386795044
0.120779670774936676 5.27355936696949357e-16 0.0441303253173828125
0.0438998192548751831 5.27355936696949357e-16 0.21551397442817688
0.00919588841497898102 5.27355936696949357e-16 0.367773264646530151
0.110846869647502899 5.27355936696949357e-16 0.0241101235151290894
0.0546205528080463409 5.27355936696949357e-16 0.171979546546936035
0.00668559223413467407 5.27355936696949357e-16 0.188508868217468262
0.0327867083251476288 5.27355936696949357e-16 0.135386377573013306
0.0636046826839447021 5.27355936696949357e-16 0.165014535188674927
0.136788472533226013 5.27355936696949357e-16 0.071742624044418335
0.0806354507803916931 5.27355936696949357e-16 0.148575887084007263
0.0204552393406629562 5.27355936696949357e-16 0.0989186987280845642
0.0783923864364624023 5.27355936696949357e-16 0.138184189796447754
0.0359719358384609222 5.27355936696949357e-16 0.313989043235778809
0.0530735962092876434 5.27355936696949357e-16 0.00624749809503555298
0.010565667413175106 5.27355936696949357e-16 0.34874233603477478
0.0313490703701972961 5.27355936696949357e-16 0.0383806973695755005
0.163315117359161377 5.27355936696949357e-16 0.00710269808769226074
0.0484518371522426605 5.27355936696949357e-16 0.18398226797580719
0.00225606444291770458 5.27355936696949357e-16 0.122381150722503662
0.129679873585700989 5.27355936696949357e-16 0.000597625970840454102
0.126482352614402771 5.27355936696949357e-16 0.140074372291564941
0.170661807060241699 5.27355936696949357e-16 0.00185462832450866699
0.120203949511051178 5.27355936696949357e-16 0.049798920750617981
0.0675717815756797791 5.27355936696949357e-16 0.0531743317842483521
0.134351715445518494 5.27355936696949357e-16 0.106270670890808105
0.160556107759475708 5.27355936696949357e-16 0.0113934874534606934
0.0364731661975383759 5.27355936696949357e-16 0.205462664365768433
0.0837270468473434448 5.27355936696949357e-16 0.20806574821472168
0.0827432721853256226 5.27355936696949357e-16 0.019646868109703064
0.0492291264235973358 5.27355936696949357e-16 0.129334479570388794
0.0236546136438846588 5.27355936696949357e-16 0.157972827553749084
0.127028688788414001 5.27355936696949357e-16 0.114694744348526001
0.0894877016544342041 5.27355936696949357e-16 0.0856651216745376587
0.00408878456801176071 5.27355936696949357e-16 0.0791643261909484863
0.0228658467531204224 5.27355936696949357e-16 0.181232362985610962
0.0253600869327783585 5.27355936696949357e-16 0.190256461501121521
0.110801391303539276 5.27355936696949357e-16 0.0430573523044586182
0.0354576706886291504 5.27355936696949357e-16 0.195597201585769653
0.0391779355704784393 5.27355936696949357e-16 0.319370806217193604
0.164328709244728088 5.27355936696949357e-16 0.00975558161735534668
0.0779571309685707092 5.27355936696949357e-16 0.195599183440208435
0.041218634694814682 5.27355936696949357e-16 0.0498943924903869629
0.0328191444277763367 5.27355936696949357e-16 0.295872658491134644
0.0996491536498069763 5.27355936696949357e-16 0.0753735452890396118
0.0279924310743808746 5.27355936696949357e-16 0.28925815224647522
0.00256198830902576447 5.27355936696949357e-16 0.11292961984872818
0.161430135369300842 5.27355936696949357e-16 0.0299938619136810303
0.107978180050849915 5.27355936696949357e-16 0.173093363642692566
0.105269089341163635 5.27355936696949357e-16 0.133738338947296143
0.025121346116065979 5.27355936696949357e-16 0.140261158347129822
0.0255302488803863525 5.27355936696949357e-16 0.237955749034881592
0.0825530737638473511 5.27355936696949357e-16 0.183920472860336304
0.0438920892775058746 5.27355936696949357e-16 0.149243846535682678
0.0845597162842750549 5.27355936696949357e-16 0.0495894551277160645
0.00508657610043883324 5.27355936696949357e-16 0.183781743049621582
0.0592244751751422882 5.27355936696949357e-16 0.030946880578994751
0.0400580726563930511 5.27355936696949357e-16 0.109798401594161987
0.0081150224432349205 5.27355936696949357e-16 0.320282131433486938
0.0478194877505302429 5.27355936696949357e-16 0.22682306170463562
0.0638924688100814819 5.27355936696949357e-16 0.0897992998361587524
0.0636126026511192322 5.27355936696949357e-16 0.0290324091911315918
0.0170591250061988831 5.27355936696949357e-16 0.250777602195739746
0.119962766766548157 5.27355936696949357e-16 0.189282655715942383
0.156799882650375366 5.27355936696949357e-16 0.264997541904449463
0.0846728309988975525 5.27355936696949357e-16 0.323543459177017212
0.162934795022010803 5.27355936696949357e-16 0.12472572922706604
0.0997740998864173889 5.27355936696949357e-16 0.212015703320503235
0.114402137696743011 5.27355936696949357e-16 0.391021370887756348
0.149095684289932251 5.27355936696949357e-16 0.149160265922546387
0.119399845600128174 5.27355936696949357e-16 0.315798819065093994
0.0401792973279953003 5.27355936696949357e-16 0.369663387537002563
0.116401247680187225 5.27355936696949357e-16 0.217332899570465088
0.053850218653678894 5.27355936696949357e-16 0.350701600313186646
