ply
format ascii 1.0
element vertex 744
property float x
property float y
property float z
end_header
0.119370579719543457 0.210846066474914551 0.0318103581666946411
0.118324048817157745 0.211800947785377502 0.0207620337605476379
0.126176491379737854 0.204636171460151672 0.021420113742351532
0.109484516084194183 0.219866380095481873 0.0994506329298019409
0.208480924367904663 0.129539355635643005 0.108009465038776398
0.11355937272310257 0.21614837646484375 0.029691353440284729
0.149636372923851013 0.183230727910995483 0.110477209091186523
0.164302557706832886 0.169848904013633728 0.106910809874534607
0.154353126883506775 0.178927034139633179 0.118714980781078339
0.169822424650192261 0.164812430739402771 0.0915274173021316528
0.133480370044708252 0.197971910238265991 0.0582047551870346069
0.123407058417797089 0.20716308057308197 0.0766903162002563477
0.193960666656494141 0.142788022756576538 0.102610349655151367
0.139911606907844543 0.192103877663612366 0.0802474915981292725
0.130712628364562988 0.200497269630432129 0.10116288810968399
0.165599241852760315 0.168665766716003418 0.101482771337032318
0.129753470420837402 0.201372444629669189 0.107551969587802887
0.119995951652526855 0.210275456309318542 0.0352383032441139221
0.1104293093085289 0.219004333019256592 0.0171994343400001526
0.11808641254901886 0.21201777458190918 0.0269335359334945679
0.111509539186954498 0.218018695712089539 0.00640852004289627075
0.197018682956695557 0.139997825026512146 0.112856052815914154
0.170726418495178223 0.163987591862678528 0.0888291597366333008
0.176864460110664368 0.158387079834938049 0.0851790159940719604
0.178492367267608643 0.156901717185974121 0.110623538494110107
0.175115227699279785 0.159983128309249878 0.116283662617206573
0.171588808298110962 0.163200721144676208 0.0990222245454788208
0.141390606760978699 0.190754398703575134 0.0555245876312255859
0.188196003437042236 0.148047864437103271 0.118586219847202301
0.131929308176040649 0.199387133121490479 0.0968982800841331482
0.129876792430877686 0.201259911060333252 0.113475695252418518
0.110345840454101562 0.219080492854118347 0.0634635835886001587
0.164856076240539551 0.169343858957290649 0.0952181369066238403
0.142994314432144165 0.189291119575500488 0.0468326359987258911
0.123111754655838013 0.207432523369789124 0.115875579416751862
0.160201951861381531 0.173590406775474548 0.0653754845261573792
0.146407276391983032 0.186177045106887817 0.0936480313539505005
0.117414690554141998 0.212630674242973328 0.0780262798070907593
0.185449138283729553 0.150554180145263672 0.102262645959854126
0.163150101900100708 0.170900434255599976 0.0935033783316612244
0.150017306208610535 0.182883158326148987 0.0764994919300079346
0.130814775824546814 0.200404062867164612 0.0805375427007675171
0.170844584703445435 0.163879767060279846 0.0719878152012825012
0.137776494026184082 0.194052010774612427 0.0989451780915260315
0.182320713996887207 0.153408646583557129 0.111678555607795715
0.177362412214279175 0.15793272852897644 0.0978703498840332031
0.11249031126499176 0.217123821377754211 0.00821706652641296387
0.176012128591537476 0.159164756536483765 0.0966089144349098206
0.151793301105499268 0.181262686848640442 0.0481006503105163574
0.12853066623210907 0.202488154172897339 0.103684291243553162
0.123818561434745789 0.206787616014480591 0.0790329426527023315
0.109673544764518738 0.21969391405582428 0.0164795294404029846
0.114261791110038757 0.215507462620735168 0.102849535644054413
0.182596534490585327 0.153156965970993042 0.0884371176362037659
0.107963323593139648 0.221254363656044006 0.034639313817024231
0.117089070379734039 0.212927773594856262 0.0930497795343399048
0.119127258658409119 0.211068078875541687 0.0427312254905700684
0.209851205348968506 0.128289058804512024 0.11927071213722229
0.161251381039619446 0.172632873058319092 0.0633454695343971252
0.16041739284992218 0.17339383065700531 0.0581783764064311981
0.109721824526786804 0.219649866223335266 0.0292902663350105286
0.175859913229942322 0.159303650259971619 0.117033861577510834
0.139636263251304626 0.192355111241340637 0.113603100180625916
0.196714997291564941 0.140274912118911743 0.101775608956813812
0.126154214143753052 0.204656481742858887 0.0423661395907402039
0.163176625967025757 0.170876234769821167 0.0902366861701011658
0.132806777954101562 0.198586523532867432 0.0280775800347328186
0.142201349139213562 0.190014645457267761 0.0578121393918991089
0.131483301520347595 0.199794083833694458 0.0732159465551376343
0.119564302265644073 0.21066930890083313 0.0955117344856262207
0.124286949634552002 0.206360235810279846 0.0852660834789276123
0.192300692200660706 0.144302636384963989 0.114577837288379669
0.14778900146484375 0.184916317462921143 0.0995267406105995178
0.169673934578895569 0.164947912096977234 0.0961169525980949402
0.131428420543670654 0.199844151735305786 0.0423358604311943054
0.166868686676025391 0.16750749945640564 0.0699968487024307251
0.124282762408256531 0.206364050507545471 0.0712667703628540039
0.177146837115287781 0.158129423856735229 0.0821825861930847168
0.108098030090332031 0.221131443977355957 0.0893981605768203735
0.163265153765678406 0.170795470476150513 0.102954231202602386
0.161876514554023743 0.172062486410140991 0.103843465447425842
0.119522899389266968 0.210707098245620728 0.0266724750399589539
0.150201141834259033 0.182715415954589844 0.0703584849834442139
0.153276741504669189 0.179909154772758484 0.115442477166652679
0.173395156860351562 0.161552578210830688 0.0718241557478904724
0.148957669734954834 0.183850005269050598 0.108682863414287567
0.196487724781036377 0.140482276678085327 0.10532592236995697
0.121724769473075867 0.208698049187660217 0.0744756832718849182
0.116188354790210724 0.213749617338180542 0.0954727232456207275
0.110949546098709106 0.218529656529426575 0.0224639102816581726
0.141279071569442749 0.190856173634529114 0.050423741340637207
0.111452311277389526 0.218070909380912781 0.0321735292673110962
0.121964789927005768 0.208479031920433044 0.0372434034943580627
0.149624601006507874 0.183241471648216248 0.114419266581535339
0.112526074051856995 0.217091187834739685 0.0802285820245742798
0.130841836333274841 0.2003793865442276 0.0710869133472442627
0.198281735181808472 0.138845384120941162 0.0983347445726394653
0.201462715864181519 0.135942965745925903 0.108105123043060303
0.152879878878593445 0.180271267890930176 0.0766817107796669006
0.205351561307907104 0.132394671440124512 0.114361248910427094
0.137308135628700256 0.19447934627532959 0.111460067331790924
0.186918586492538452 0.149213433265686035 0.105067692697048187
0.112839832901954651 0.216804906725883484 0.0763690173625946045
0.143981203436851501 0.188390657305717468 0.047961406409740448
0.124877415597438812 0.205821484327316284 0.0555748939514160156
0.193952560424804688 0.14279542863368988 0.0979202836751937866
0.208049774169921875 0.129932746291160583 0.109742559492588043
0.114752091467380524 0.215060099959373474 0.109680809080600739
0.122324347496032715 0.208150967955589294 0.119340978562831879
0.174275964498519897 0.160748884081840515 0.108200699090957642
0.159505397081375122 0.174225956201553345 0.0577061884105205536
0.160045802593231201 0.17373289167881012 0.110127381980419159
0.168234676122665405 0.166261136531829834 0.0977317094802856445
0.171906054019927979 0.162911266088485718 0.0894630700349807739
0.118748798966407776 0.211413398385047913 0.0587637089192867279
0.156134665012359619 0.177301511168479919 0.0663755536079406738
0.110588639974594116 0.218858957290649414 0.0361660793423652649
0.169805139303207397 0.164828196167945862 0.116987906396389008
0.14675275981426239 0.185861825942993164 0.100510388612747192
0.117039725184440613 0.21297280490398407 0.108828917145729065
0.169509649276733398 0.165097802877426147 0.0910582989454269409
0.110487103462219238 0.218951597809791565 0.0511436685919761658
0.162761718034744263 0.171254813671112061 0.0722343623638153076
0.151021271944046021 0.181967109441757202 0.0786406099796295166
0.118952624499797821 0.2112274169921875 0.0634662583470344543
0.144594043493270874 0.187831491231918335 0.0517781302332878113
0.126252591609954834 0.204566732048988342 0.0962109193205833435
0.11097601056098938 0.218505501747131348 0.0910525470972061157
0.134276121854782104 0.197245851159095764 0.0422193482518196106
0.190083518624305725 0.146325647830963135 0.0873498320579528809
0.125325590372085571 0.205412551760673523 0.118967011570930481
0.116721466183662415 0.213263183832168579 0.0346662029623985291
0.127799913287162781 0.203154921531677246 0.105827458202838898
0.111290194094181061 0.218218833208084106 0.112485878169536591
0.195512309670448303 0.141372263431549072 0.102921098470687866
0.17779289186000824 0.15753994882106781 0.114063084125518799
0.139006227254867554 0.192929968237876892 0.0750496238470077515
0.113708831369876862 0.216012001037597656 0.0900541916489601135
0.167281582951545715 0.167130753397941589 0.0967851877212524414
0.135952815413475037 0.195715993642807007 0.0321284681558609009
0.131928548216819763 0.199387833476066589 0.100713923573493958
0.173718541860580444 0.161257505416870117 0.0788777023553848267
0.114388450980186462 0.21539190411567688 0.104980051517486572
0.128903791308403015 0.202147707343101501 0.0507933273911476135
0.117633536458015442 0.212430998682975769 0.117591686546802521
0.147855490446090698 0.184855654835700989 0.045767664909362793
0.145974189043045044 0.18657219409942627 0.113590329885482788
0.126440271735191345 0.204395487904548645 0.10901758074760437
0.182968676090240479 0.152817428112030029 0.119714938104152679
0.121833823621273041 0.208598539233207703 0.028797544538974762
0.147760182619094849 0.184942618012428284 0.0995242893695831299
0.124298848211765289 0.206349387764930725 0.0310179218649864197
0.17550387978553772 0.159628510475158691 0.119622297585010529
0.204694420099258423 0.132994264364242554 0.10304713249206543
0.155502423644065857 0.177878379821777344 0.0525922328233718872
0.125970408320426941 0.204824209213256836 0.057339005172252655
0.184712573885917664 0.151226252317428589 0.0917007699608802795
0.169064030051231384 0.165504395961761475 0.0658144056797027588
0.168740257620811462 0.165799826383590698 0.0964154452085494995
0.179319173097610474 0.15614733099937439 0.10281749814748764
0.141650453209877014 0.190517306327819824 0.0655690431594848633
0.117622420191764832 0.212441131472587585 0.0298714935779571533
0.128938227891921997 0.202116280794143677 0.0323397815227508545
0.134670794010162354 0.196885734796524048 0.0555407255887985229
0.175487220287322998 0.159643709659576416 0.100315749645233154
0.145311981439590454 0.187176421284675598 0.119503773748874664
0.114146322011947632 0.215612828731536865 0.111172527074813843
0.185258150100708008 0.150728434324264526 0.0824305340647697449
0.176233142614364624 0.158963114023208618 0.107373185455799103
0.118374869227409363 0.211754590272903442 0.0567076131701469421
0.137878194451332092 0.193959206342697144 0.0679778233170509338
0.109756343066692352 0.219618365168571472 0.100075028836727142
0.130014315247535706 0.201134428381919861 0.0586787424981594086
0.167962312698364258 0.166509643197059631 0.0944095104932785034
0.139404579997062683 0.19256649911403656 0.092188812792301178
0.12137632817029953 0.209015965461730957 0.048329770565032959
0.108609184622764587 0.220665067434310913 0.0968035683035850525
0.11558089405298233 0.214303880929946899 0.0192217081785202026
0.134084329009056091 0.197420850396156311 0.0348528549075126648
0.176873788237571716 0.158378571271896362 0.0939871668815612793
0.133780241012573242 0.197698310017585754 0.0536071732640266418
0.143872380256652832 0.188489943742752075 0.0619342103600502014
0.173703700304031372 0.161271035671234131 0.0854548662900924683
0.118672639131546021 0.211482882499694824 0.0847328752279281616
0.155006974935531616 0.178330451250076294 0.0501925572752952576
0.137088373303413391 0.194679871201515198 0.0384664237499237061
0.112197436392307281 0.217391043901443481 0.104733631014823914
0.116922661662101746 0.21307961642742157 0.103793658316135406
0.116926565766334534 0.21307605504989624 0.0719353184103965759
0.217026680707931519 0.121741965413093567 0.119078435003757477
0.120047613978385925 0.210228323936462402 0.0418387874960899353
0.167159393429756165 0.167242243885993958 0.102929197251796722
0.133030474185943604 0.198382407426834106 0.119216881692409515
0.170794367790222168 0.163925588130950928 0.0876701176166534424
0.111596457660198212 0.217939391732215881 0.056801527738571167
0.19029688835144043 0.146130949258804321 0.10945061594247818
0.120751634240150452 0.209585964679718018 0.0900754779577255249
0.137831017374992371 0.194002270698547363 0.0961546450853347778
0.185096204280853271 0.15087619423866272 0.106456145644187927
0.17661738395690918 0.158612519502639771 0.0793509632349014282
0.113846935331821442 0.21588599681854248 0.0718385130167007446
0.132374659180641174 0.198980793356895447 0.0493138208985328674
0.113164566457271576 0.216508597135543823 0.0824441239237785339
0.111501730978488922 0.218025818467140198 0.0719863101840019226
0.141888886690139771 0.190299749374389648 0.106134325265884399
0.197983339428901672 0.139117628335952759 0.0991151556372642517
0.149710297584533691 0.183163270354270935 0.092894427478313446
0.181131929159164429 0.1544933021068573 0.110400550067424774
0.145817220211029053 0.186715438961982727 0.0884102582931518555
0.1535043865442276 0.179701447486877441 0.0860064253211021423
0.116667740046977997 0.213312223553657532 0.0180710703134536743
0.145850837230682373 0.186684757471084595 0.106305599212646484
0.151809290051460266 0.181248098611831665 0.0663380175828933716
0.11653590202331543 0.21343250572681427 0.0511436015367507935
0.0655484944581985474 0.175009548664093018 0.0496455803513526917
0.0345660150051116943 0.141053453087806702 0.0354491844773292542
0.0926131159067153931 0.204671770334243774 0.0484624393284320831
0.0207130834460258484 0.125870943069458008 0.0122633799910545349
0.0658124238252639771 0.175298810005187988 0.00699316337704658508
0.092716023325920105 0.204784557223320007 0.00114911608397960663
0.0507418401539325714 0.15878179669380188 0.0175450295209884644
0.079671129584312439 0.190487638115882874 0.0539986751973628998
0.0717138871550559998 0.181766688823699951 0.0535938963294029236
0.074156634509563446 0.184443876147270203 0.0265889056026935577
0.0428010895848274231 0.150078922510147095 0.0453101694583892822
0.0885813608765602112 0.20025305449962616 0.0945905596017837524
0.0447546765208244324 0.152220010757446289 0.027310587465763092
0.0435775816440582275 0.150929927825927734 0.019217170774936676
0.080334886908531189 0.191215097904205322 0.0825831890106201172
0.0614970065653324127 0.17056921124458313 0.0275538265705108643
0.0860338509082794189 0.197461038827896118 0.00437378697097301483
0.044331081211566925 0.151755750179290771 0.00925779342651367188
0.0583623498678207397 0.167133703827857971 0.0440333709120750427
0.0477154403924942017 0.155464917421340942 0.0442913845181465149
0.100797869265079498 0.213642075657844543 0.089694194495677948
0.0925589427351951599 0.204612389206886292 0.0499938912689685822
0.0879773572087287903 0.199591085314750671 0.037983916699886322
0.101753413677215576 0.214689329266548157 0.0301693100482225418
0.104388140141963959 0.217576920986175537 0.0132129490375518799
0.104627929627895355 0.217839732766151428 0.115239068865776062
0.0786718875169754028 0.189392492175102234 0.00198908522725105286
0.0559691190719604492 0.164510771632194519 0.00570622459053993225
0.0535261668264865875 0.161833345890045166 0.0285990461707115173
0.0860825777053833008 0.197514444589614868 0.042873479425907135
0.0883493870496749878 0.199998810887336731 0.0485279001295566559
0.0955705642700195312 0.207913070917129517 0.0559760443866252899
0.0363240614533424377 0.142980232834815979 0.0303453654050827026
0.0900359451770782471 0.201847255229949951 0.0735198035836219788
0.107109986245632172 0.220560014247894287 0.0978021100163459778
0.0277844071388244629 0.133620977401733398 0.00725062191486358643
0.0826745703816413879 0.193779349327087402 0.0893101990222930908
0.0988215208053588867 0.211476042866706848 0.0998986512422561646
0.0561071746051311493 0.164662078022956848 0.00463409721851348877
0.107394509017467499 0.220871835947036743 0.118888616561889648
0.102040380239486694 0.215003833174705505 0.0668942034244537354
0.0972613394260406494 0.209766119718551636 0.098384268581867218
0.103046245872974396 0.216106250882148743 0.0322325229644775391
0.0508251599967479706 0.158873111009597778 0.0380824804306030273
0.055225517600774765 0.163695812225341797 0.0331784598529338837
0.0579210072755813599 0.166649997234344482 0.00409719720482826233
0.0359934866428375244 0.142617940902709961 0.00260297209024429321
0.0818047374486923218 0.192826032638549805 0.0800662711262702942
0.105770885944366455 0.219092383980751038 0.0567927248775959015
0.0962765291333198547 0.208686783909797668 0.0976893231272697449
0.0949749797582626343 0.20726032555103302 0.072107464075088501
0.0843164548277854919 0.195578813552856445 0.0845909491181373596
0.0669423043727874756 0.17653714120388031 0.0650920867919921875
0.0398487076163291931 0.146843165159225464 0.0241686776280403137
0.0979286432266235352 0.210497468709945679 0.0349106863141059875
0.0806234106421470642 0.191531315445899963 0.0227096844464540482
0.102605067193508148 0.21562272310256958 0.0767029225826263428
0.081339620053768158 0.19231627881526947 0.0612318739295005798
0.0838791429996490479 0.195099532604217529 0.0393137075006961823
0.0362639203667640686 0.142914324998855591 0.00861764699220657349
0.0764925777912139893 0.187004014849662781 0.0493787862360477448
0.0739114731550216675 0.184175193309783936 8.35098326206207275e-05
0.02336922287940979 0.128782033920288086 0.00848711282014846802
0.0839348509907722473 0.195160582661628723 0.00315232947468757629
0.0915635302662849426 0.203521445393562317 0.0448458939790725708
0.018593713641166687 0.123548172414302826 0.00163051486015319824
0.0979053452610969543 0.210471928119659424 0.0199374593794345856
0.100009925663471222 0.21277850866317749 0.000933161936700344086
0.0626044496893882751 0.171782940626144409 0.0462554730474948883
0.0372499227523803711 0.143994957208633423 0.0170037746429443359
0.0722915530204772949 0.182399794459342957 0.0683473572134971619
0.102429494261741638 0.215430289506912231 0.0415943935513496399
0.0717696845531463623 0.181827843189239502 0.0469908975064754486
0.0922087132930755615 0.20422855019569397 0.0481256134808063507
0.101284362375736237 0.214175254106521606 0.060270555317401886
0.0547573305666446686 0.163182675838470459 0.0355725735425949097
0.101717613637447357 0.214650094509124756 0.0184864792972803116
0.0786941796541213989 0.189416930079460144 0.0709767788648605347
0.0603100880980491638 0.169268369674682617 0.00199384614825248718
0.0687472075223922729 0.178515270352363586 0.0634704306721687317
0.107674174010753632 0.221178337931632996 0.0222809277474880219
0.034821629524230957 0.141333609819412231 0.0229829698801040649
0.102252461016178131 0.215236276388168335 0.0674993768334388733
0.0815774500370025635 0.192576929926872253 0.0681972503662109375
0.094043537974357605 0.206239476799964905 0.0118769528344273567
0.0298869162797927856 0.135925263166427612 0.00869508832693099976
0.0978820621967315674 0.210446417331695557 0.0527716614305973053
0.0478532165288925171 0.155615925788879395 0.0492540895938873291
0.0597022362053394318 0.16860218346118927 0.0454087108373641968
0.100669153034687042 0.213501006364822388 0.0915519818663597107
0.0730137154459953308 0.183191269636154175 0.0591285377740859985
0.0901141911745071411 0.201932996511459351 0.0618119463324546814
0.0493647456169128418 0.15727253258228302 0.0176337063312530518
0.0461905896663665771 0.15379372239112854 0.0235084891319274902
0.105962738394737244 0.219302654266357422 0.0778556615114212036
0.00717443972826004028 0.11103290319442749 0.0073156505823135376
0.0564095713198184967 0.164993494749069214 0.017575286328792572
0.0637420117855072021 0.173029690980911255 0.045231010764837265
0.0952771827578544617 0.207591518759727478 0.0787513479590415955
0.0810557156801223755 0.192005127668380737 0.0331809818744659424
0.021508924663066864 0.126743167638778687 0.0201935172080993652
0.0135729983448982239 0.118045583367347717 0.00218266993761062622
0.0707100480794906616 0.180666491389274597 0.0638766512274742126
0.0901375412940979004 0.201958596706390381 0.0364609844982624054
0.0934504643082618713 0.205589473247528076 0.00487537682056427002
0.0887463837862014771 0.200433909893035889 0.0122773908078670502
0.0423717126250267029 0.149608328938484192 0.0323083773255348206
0.101995334029197693 0.214954465627670288 0.0127770006656646729
0.0878016352653503418 0.19939848780632019 0.0163758881390094757
0.100478410720825195 0.213291943073272705 0.0183122102171182632
0.093547627329826355 0.205695971846580505 0.0977910757064819336
0.049420677125453949 0.157333821058273315 0.0234430506825447083
0.0351926013827323914 0.141740173101425171 0.030667133629322052
0.0772145539522171021 0.187795296311378479 0.0428588911890983582
0.0543804876506328583 0.162769675254821777 0.0400126837193965912
0.0495229624211788177 0.157445937395095825 0.00858439505100250244
0.086183890700340271 0.197625488042831421 0.050596039742231369
0.1060170978307724 0.219362229108810425 0.0208699740469455719
0.0696955174207687378 0.179554596543312073 0.0697559714317321777
0.106649063527584076 0.220054849982261658 0.111062981188297272
0.0266146808862686157 0.132338970899581909 0.00127352774143218994
0.0980450883507728577 0.21062508225440979 0.0850521773099899292
0.0924958363175392151 0.204543232917785645 0.0548553839325904846
0.0236747637391090393 0.12911689281463623 0.0184183046221733093
0.0722711607813835144 0.182377442717552185 0.0749154835939407349
0.0787894129753112793 0.189521297812461853 0.0521662086248397827
0.0703497901558876038 0.18027167022228241 0.000589594244956970215
0.089769706130027771 0.201555460691452026 0.014504479244351387
0.0244331732392311096 0.129948094487190247 0.0157880187034606934
0.103903070092201233 0.217045307159423828 0.0772839784622192383
0.0813565999269485474 0.192334890365600586 0.0866585001349449158
0.0366476252675056458 0.143334850668907166 0.0342429280281066895
0.0326339900493621826 0.13893599808216095 0.0189287438988685608
0.0743410289287567139 0.184645980596542358 0.0679901614785194397
0.0798964500427246094 0.190734595060348511 0.038080848753452301
0.0472543463110923767 0.154959589242935181 0.0386825576424598694
0.084651261568069458 0.195945754647254944 0.0877330899238586426
0.0829684585332870483 0.194101437926292419 0.0522619858384132385
0.0692393407225608826 0.179054632782936096 0.0684775412082672119
0.0526796914637088776 0.160905629396438599 0.030053064227104187
0.0219914093613624573 0.127271980047225952 7.2740018367767334e-05
0.0675288885831832886 0.177180022001266479 0.00138338655233383179
0.0682370811700820923 0.177956178784370422 0.0386991389095783234
0.0290777310729026794 0.135038405656814575 0.012114107608795166
0.0502018071711063385 0.158189922571182251 0.0460548549890518188
0.0882561281323432922 0.19989660382270813 0.0640239864587783813
0.10455746203660965 0.217762500047683716 0.0207350440323352814
0.0205273479223251343 0.125667393207550049 0.00384006649255752563
0.0704107731580734253 0.180338501930236816 0.00658642128109931946
0.101219318807125092 0.214103966951370239 0.0834236815571784973
0.087303943932056427 0.198853030800819397 0.0630103796720504761
0.0548950172960758209 0.163333579897880554 0.0312036275863647461
0.100922845304012299 0.213779047131538391 0.0232656113803386688
0.0846725404262542725 0.195969074964523315 0.0424209833145141602
0.0789237320423126221 0.189668506383895874 0.021116599440574646
0.0719545260071754456 0.182030424475669861 0.0611861124634742737
0.063093036413192749 0.172318428754806519 0.0165891498327255249
0.0299005508422851562 0.135940223932266235 0.00101912766695022583
0.0613848865032196045 0.170446336269378662 0.0509555414319038391
0.094891183078289032 0.207168474793434143 0.0658130943775177002
0.0869510024785995483 0.198466211557388306 0.0219593346118927002
0.105608835816383362 0.218914791941642761 0.0920984670519828796
0.0586660914123058319 0.167466595768928528 0.0274961590766906738
0.0839544162154197693 0.19518202543258667 0.0482237115502357483
0.0925584733486175537 0.204611882567405701 0.0646039247512817383
0.0876670330762863159 0.199250981211662292 0.0924106687307357788
0.103316538035869598 0.21640247106552124 0.0216513276100158691
0.0743602961301803589 0.184667080640792847 0.0440160296857357025
0.0996560677886009216 0.212390691041946411 0.075764387845993042
0.0662970319390296936 0.1758299320936203 0.00798574090003967285
0.0708571150898933411 0.180827677249908447 0.0548566244542598724
0.0712945982813835144 0.181307151913642883 0.0165138877928256989
0.0962112247943878174 0.208615213632583618 0.0706587433815002441
0.0792456120252609253 0.190021276473999023 0.0324712507426738739
0.0858313664793968201 0.197239115834236145 0.0474966950714588165
0.0639410316944122314 0.173247814178466797 0.0567148402333259583
0.106415040791034698 0.219798356294631958 0.0325268879532814026
0.105857290327548981 0.219187080860137939 0.0390532016754150391
0.0962975248694419861 0.208709791302680969 0.0172733832150697708
0.102977722883224487 0.21603114902973175 0.0683938711881637573
0.00465852022171020508 0.108275517821311951 0.00412409752607345581
0.0993564575910568237 0.21206231415271759 0.106589667499065399
0.0332802310585975647 0.139644265174865723 0.0346155539155006409
0.0860742703080177307 0.197505339980125427 0.0708664953708648682
0.0480978265404701233 0.155884012579917908 0.0333336219191551208
0.0322686806321144104 0.138535618782043457 0.0141824185848236084
0.0256391018629074097 0.131269752979278564 0.00424094498157501221
0.0168112590909004211 0.121594645082950592 0.00108251720666885376
0.0858329832553863525 0.197240889072418213 0.0156180486083030701
0.0965842157602310181 0.209023997187614441 0.0252538435161113739
0.0893198400735855103 0.201062411069869995 0.090798303484916687
0.0981386378407478333 0.210727617144584656 0.0436351224780082703
0.0270897895097732544 0.132859677076339722 0.0207452774047851562
0.06963309645652771 0.179486185312271118 0.00399022176861763
0.106450974941253662 0.219837740063667297 0.0736536905169487
0.106055624783039093 0.219404444098472595 0.0511265285313129425
0.0995139777660369873 0.212234959006309509 0.0126138273626565933
0.0798322558403015137 0.190664231777191162 0.0593981891870498657
0.066104397177696228 0.175618797540664673 0.0605137348175048828
0.0529862158000469208 0.161241576075553894 0.0157934501767158508
0.0713864788413047791 0.181407853960990906 0.0289631858468055725
0.0853343158960342407 0.196694359183311462 0.0128885526210069656
0.0713040083646774292 0.181317463517189026 0.0370773822069168091
0.046613350510597229 0.154257059097290039 0.0471134483814239502
0.10764940083026886 0.221151202917098999 0.0789110288023948669
0.105146139860153198 0.218407675623893738 0.0553588531911373138
0.0956339091062545776 0.207982495427131653 0.085638388991355896
0.0580332949757575989 0.16677306592464447 0.0368252918124198914
0.0286001339554786682 0.134514987468719482 0.0234994664788246155
0.0912068039178848267 0.203130483627319336 0.053593512624502182
0.100474156439304352 0.213287293910980225 0.0609576627612113953
0.0816625282168388367 0.192670166492462158 0.0205357372760772705
0.0242676660418510437 0.129766702651977539 0.0231605544686317444
0.0876991823315620422 0.199286207556724548 0.0838354676961898804
0.0802098661661148071 0.191078081727027893 0.0514746680855751038
0.0368729010224342346 0.143581748008728027 0.0282022282481193542
0.0996188148856163025 0.212349861860275269 0.028840869665145874
0.0560880377888679504 0.164641112089157104 0.0259793587028980255
0.0483451150357723236 0.156155034899711609 0.0196399614214897156
0.081537984311580658 0.192533671855926514 0.0638901963829994202
0.053364194929599762 0.161655843257904053 0.00231457874178886414
0.0970198214054107666 0.209501415491104126 0.00270148366689682007
0.0931225121021270752 0.205230057239532471 0.0561560392379760742
0.0830466076731681824 0.194187089800834656 0.0394527539610862732
0.0613762736320495605 0.170436888933181763 0.00269785895943641663
0.0384662002325057983 0.145327970385551453 0.0313015654683113098
0.0463148616254329681 0.153929919004440308 0.0489672198891639709
0.061552196741104126 0.170629695057868958 0.0658844113349914551
0.0549654960632324219 0.16341082751750946 0.00939317047595977783
0.0875018835067749023 0.199069976806640625 0.0721828639507293701
0.0751741379499435425 0.18555903434753418 0.00763337686657905579
0.0686972513794898987 0.17846052348613739 0.0123265869915485382
0.0754363685846328735 0.185846447944641113 0.0189586691558361053
0.0768316611647605896 0.187375649809837341 0.0417170561850070953
0.0767651945352554321 0.18730279803276062 0.00867222249507904053
0.0923456922173500061 0.204378679394721985 0.0799104571342468262
0.0253364592790603638 0.130938068032264709 0.0261034443974494934
0.0197096168994903564 0.124771177768707275 0.00983869284391403198
0.02719096839427948 0.132970571517944336 0.00426802784204483032
0.0821915864944458008 0.193250000476837158 0.0127580724656581879
0.0489247515797615051 0.156790316104888916 0.0371361076831817627
0.045480877161026001 0.153015896677970886 0.00496339797973632812
0.038067646324634552 0.144891172647476196 0.0230501145124435425
0.0485346764326095581 0.156362801790237427 0.0538774728775024414
0.0743934512138366699 0.184703424572944641 0.0341420471668243408
0.0961305201053619385 0.208526760339736938 0.0782808437943458557
0.103932060301303864 0.217077076435089111 0.0975937694311141968
0.0975874066352844238 0.21012347936630249 0.107209958136081696
0.0970074012875556946 0.209487795829772949 0.0104463780298829079
0.100856684148311615 0.213706538081169128 0.102886170148849487
0.0894600078463554382 0.201216027140617371 0.0727606862783432007
0.103233367204666138 0.216311320662498474 0.0212678499519824982
0.0458809211850166321 0.153454333543777466 0.0269992351531982422
0.0999621972441673279 0.212726190686225891 0.0251451767981052399
0.10347188264131546 0.216572731733322144 0.0885166153311729431
0.0797240510582923889 0.190545648336410522 0.0770730674266815186
0.0929718390107154846 0.205064922571182251 0.0586519911885261536
0.0647799819707870483 0.174167275428771973 0.0107825100421905518
0.074487343430519104 0.184806331992149353 0.0500603802502155304
0.0809146687388420105 0.191850528120994568 0.000670254230499267578
0.0885371193289756775 0.200204566121101379 0.0663239657878875732
0.0614211410284042358 0.17048606276512146 0.0407730787992477417
0.0683556050062179565 0.178086072206497192 0.0384109616279602051
0.0770952627062797546 0.18766455352306366 0.0354218520224094391
0.0940744057297706604 0.206273302435874939 0.0883433669805526733
0.101944088935852051 0.214898303151130676 0.0831076055765151978
0.104672953486442566 0.217889070510864258 0.0899936407804489136
0.067577362060546875 0.177233144640922546 0.0092840045690536499
0.104725390672683716 0.217946544289588928 0.0031500405166298151
0.098916858434677124 0.211580529808998108 0.0990608185529708862
0.103046298027038574 0.216106295585632324 0.0636307373642921448
0.0810866206884384155 0.192038983106613159 0.0158574748784303665
0.0359296128153800964 0.142547935247421265 0.0228027775883674622
0.0776458382606506348 0.188267961144447327 0.00167184323072433472
0.0546444989740848541 0.163059026002883911 0.0498687438666820526
0.077467694878578186 0.188072726130485535 0.0693902894854545593
0.05973019078373909 0.168632820248603821 0.0382165685296058655
0.0743051469326019287 0.184606641530990601 0.0787443742156028748
0.0330217927694320679 0.139361023902893066 0.0327279791235923767
0.0751774460077285767 0.185562670230865479 0.0717295855283737183
0.0831988006830215454 0.194353893399238586 0.0430902503430843353
0.0740882456302642822 0.184368923306465149 0.0407327748835086823
0.0513936355710029602 0.159496143460273743 0.0374315530061721802
0.0880132988095283508 0.199630469083786011 0.0429040230810642242
0.0766356363892555237 0.187160804867744446 0.0213231407105922699
0.0984302088618278503 0.211047172546386719 0.0989224687218666077
0.0239579156041145325 0.129427224397659302 0.000291943550109863281
0.0503316745162010193 0.158332258462905884 0.00969060510396957397
0.0315296873450279236 0.137725710868835449 0.00215223431587219238
0.0964330285787582397 0.208858311176300049 0.0751827731728553772
0.0634023845195770264 0.17265745997428894 0.0542100481688976288
0.0875176116824150085 0.199087217450141907 0.0819694548845291138
0.0655137896537780762 0.174971520900726318 0.028340410441160202
0.0935110971331596375 0.205655932426452637 0.0258291531354188919
0.0823858007788658142 0.193462863564491272 0.0877819657325744629
0.0834152400493621826 0.194591104984283447 0.0559541210532188416
0.0209065303206443787 0.126082956790924072 0.0226953998208045959
0.0236092433333396912 0.129045084118843079 0.0167674869298934937
0.107286155223846436 0.220753088593482971 0.0294091515243053436
0.0266202092170715332 0.132345020771026611 0.0142318978905677795
0.0899229496717453003 0.201723411679267883 0.0363730117678642273
0.0441256687045097351 0.151530623435974121 0.0032466500997543335
0.073755308985710144 0.184004038572311401 0.025945223867893219
0.100754767656326294 0.213594824075698853 0.105357594788074493
0.0684682726860046387 0.178209558129310608 0.0619890987873077393
0.0902473777532577515 0.202078968286514282 0.0992135331034660339
0.0567419566214084625 0.165357783436775208 0.0290093384683132172
0.0740376561880111694 0.184313476085662842 0.049517609179019928
0.0990014299750328064 0.21167321503162384 0.0574630163609981537
0.0948571264743804932 0.207131162285804749 0.0502937957644462585
0.083040483295917511 0.194180384278297424 0.0277809184044599533
0.0941777154803276062 0.206386536359786987 0.0367731861770153046
0.081354483962059021 0.192332565784454346 0.00200510956346988678
0.0687276273965835571 0.178493812680244446 0.0661168694496154785
0.0775447189807891846 0.188157141208648682 0.0453308112919330597
0.0249768868088722229 0.130543977022171021 0.0192678570747375488
0.0935769528150558472 0.205728113651275635 0.016087070107460022
0.0486101396381855011 0.156445503234863281 0.00785131752490997314
0.0486630164086818695 0.156503453850746155 0.00589885562658309937
0.0285671651363372803 0.134478837251663208 0.0295664742588996887
0.0561786741018295288 0.164740443229675293 0.00137896835803985596
0.0427256524562835693 0.149996235966682434 0.0338196009397506714
0.101665183901786804 0.214592620730400085 0.02989996038377285
0.0879309177398681641 0.199540182948112488 0.0526743084192276001
0.0635297000408172607 0.17279699444770813 0.00109908357262611389
0.0908306688070297241 0.202718243002891541 0.0603236258029937744
0.0406663864850997925 0.147739320993423462 9.25287604331970215e-05
0.0359734371304512024 0.142595961689949036 0.000973269343376159668
0.0596043616533279419 0.168494910001754761 0.00376906618475914001
0.105611130595207214 0.218917295336723328 0.04155769944190979
0.0754242017865180969 0.185833096504211426 0.0562968850135803223
0.0793261975049972534 0.190109610557556152 0.0729048848152160645
0.105100005865097046 0.218357115983963013 0.0636840909719467163
0.0871920138597488403 0.198730364441871643 0.0909138023853302002
0.0910968109965324402 0.203009933233261108 0.0811322256922721863
0.101162843406200409 0.21404208242893219 0.0158148054033517838
0.0703574866056442261 0.180280104279518127 0.0514420941472053528
0.0531364195048809052 0.161406189203262329 0.0360533446073532104
0.0780274122953414917 0.188686162233352661 0.0331032052636146545
0.0699471160769462585 0.179830342531204224 0.0306531339883804321
0.0616747811436653137 0.170764058828353882 0.00829954445362091064
0.0711869224905967712 0.181189149618148804 0.0483949556946754456
0.0316736027598381042 0.137883439660072327 0.00307735055685043335
0.071087568998336792 0.181080251932144165 0.0615491382777690887
0.00738987326622009277 0.111269012093544006 0.00325637310743331909
0.103343367576599121 0.216431871056556702 0.0213421285152435303
0.105215117335319519 0.218483284115791321 0.097765117883682251
0.0201002135872840881 0.125199258327484131 0.0214267894625663757
0.0954041630029678345 0.207730695605278015 0.050387214869260788
0.0467080734670162201 0.154360875487327576 0.0395749881863594055
0.102023787796497345 0.214985653758049011 0.0905842781066894531
0.0794844403862953186 0.190283030271530151 0.00853202491998672485
0.0638684555888175964 0.173168271780014038 0.0497316904366016388
0.0947499573230743408 0.207013696432113647 0.0249909982085227966
0.0871852636337280273 0.198722973465919495 0.0877603814005851746
0.041217215359210968 0.148343026638031006 0.0390291810035705566
0.0393863990902900696 0.146336495876312256 0.00492147356271743774
0.0462990477681159973 0.153912603855133057 0.00118944048881530762
0.0928692072629928589 0.204952433705329895 0.0891972631216049194
0.0358918830752372742 0.142506569623947144 0.00633487105369567871
0.094573676586151123 0.206820502877235413 0.0775446817278862
0.0398977100849151611 0.146896868944168091 0.0393964573740959167
0.0942341461777687073 0.206448376178741455 0.00482335872948169708
0.0355508998036384583 0.142132863402366638 0.0198738574981689453
0.0485156439244747162 0.15634194016456604 0.0143332108855247498
0.0805563479661941528 0.191457822918891907 0.0246690623462200165
0.0779680386185646057 0.188621088862419128 0.0216795355081558228
0.0569623932242393494 0.16559937596321106 0.0533194504678249359
0.099032282829284668 0.211707025766372681 0.0411353111267089844
0.0539464205503463745 0.162293940782546997 0.00463693216443061829
0.103179141879081726 0.21625189483165741 0.0332724675536155701
0.0893891900777816772 0.201138421893119812 0.0468788780272006989
0.105196744203567505 0.218463137745857239 0.0162568837404251099
0.0141080692410469055 0.118632003664970398 0.00031204521656036377
0.0353818759322166443 0.141947627067565918 0.0145202428102493286
0.0357199311256408691 0.142318114638328552 0.0372815877199172974
0.104222461581230164 0.217395350337028503 0.100624747574329376
0.0430519580841064453 0.150353848934173584 0.0281532257795333862
0.0952067822217941284 0.207514360547065735 0.0304119475185871124
0.0948348939418792725 0.207106783986091614 0.0101696867495775223
0.0391911417245864868 0.146122485399246216 0.0235062167048454285
0.0914613604545593262 0.203409463167190552 0.00825636833906173706
0.10541842132806778 0.218706086277961731 0.109212256968021393
0.104016862809658051 0.217170014977455139 0.010806424543261528
0.0934625789523124695 0.205602765083312988 0.0276693180203437805
0.0966859087347984314 0.209135457873344421 0.0562202185392379761
0.066144213080406189 0.175662443041801453 0.00826526805758476257
0.016701921820640564 0.121474809944629669 0.0137667730450630188
0.0774756073951721191 0.188081398606300354 0.0853757485747337341
0.083901621401309967 0.195124164223670959 0.0573365762829780579
0.0612008646130561829 0.170244649052619934 0.0583398155868053436
0.0350795015692710876 0.141616225242614746 0.00132726877927780151
0.0608696714043617249 0.169881671667098999 0.00814132764935493469
0.0789829939603805542 0.189733460545539856 0.053420383483171463
0.106903016567230225 0.220333173871040344 0.00573752354830503464
0.0490144155919551849 0.156888574361801147 0.011220097541809082
0.0749869197607040405 0.185353860259056091 0.0721633583307266235
0.0462184809148311615 0.153824299573898315 0.0464713647961616516
0.0523019209504127502 0.160491615533828735 0.0481555834412574768
0.0406508296728134155 0.1477222740650177 0.035752028226852417
0.0915329605340957642 0.203487947583198547 0.0149416495114564896
0.032159075140953064 0.138415515422821045 0.0159507319331169128
0.0469894260168075562 0.154669225215911865 0.0233336836099624634
0.0412640199065208435 0.148394316434860229 0.0155376344919204712
0.0793410986661911011 0.190125942230224609 0.0813907161355018616
0.02868613600730896 0.134609252214431763 0.00769399851560592651
0.0905363559722900391 0.20239567756652832 0.0550045967102050781
0.0903800949454307556 0.202224433422088623 0.0184590425342321396
0.0433129817247390747 0.150639936327934265 0.0239280685782432556
0.0995173603296279907 0.212238669395446777 0.0888966768980026245
0.0938221365213394165 0.20599682629108429 0.0967670977115631104
0.102174349129199982 0.215150654315948486 0.0800848826766014099
0.0725816637277603149 0.182717740535736084 0.0163999758660793304
0.0333349034190177917 0.139704182744026184 0.0248623266816139221
0.094678044319152832 0.206934884190559387 0.0847123041749000549
0.0658771097660064697 0.175369709730148315 0.0443956628441810608
0.105154410004615784 0.218416750431060791 0.00405538827180862427
0.070775836706161499 0.180738598108291626 0.0695860832929611206
0.0716920942068099976 0.181742802262306213 0.0742754489183425903
0.0845943987369537354 0.195883437991142273 0.00993279553949832916
0.0929823145270347595 0.205076396465301514 0.070782586932182312
0.105570204555988312 0.218872442841529846 0.00314420508220791817
0.088575415313243866 0.200246542692184448 0.00773463957011699677
0.0987461209297180176 0.211393401026725769 0.0658981651067733765
0.0755033046007156372 0.185919791460037231 0.0764075219631195068
0.0857746303081512451 0.197176933288574219 0.0507749132812023163
0.0472156144678592682 0.154917120933532715 0.0100441575050354004
0.0659710615873336792 0.175472676753997803 0.0731872618198394775
0.105934120714664459 0.219271287322044373 0.0755419880151748657
0.0441405326128005981 0.151546910405158997 0.0239379554986953735
0.0877016410231590271 0.199288904666900635 0.0887751802802085876
0.106917977333068848 0.220349580049514771 0.0961689502000808716
0.0804168730974197388 0.191304966807365417 0.0509637631475925446
0.0806335210800170898 0.191542401909828186 0.0258758943527936935
0.0362588986754417419 0.142908811569213867 0.00585588067770004272
0.106309942901134491 0.219683185219764709 0.0510492362082004547
0.0966760516166687012 0.209124654531478882 0.0510053113102912903
0.072339765727519989 0.18245263397693634 0.0142641142010688782
0.0803982540965080261 0.191284552216529846 0.0551436915993690491
0.0576785430312156677 0.166384264826774597 0.0191434212028980255
0.0806905031204223633 0.191604852676391602 0.0662291795015335083
0.0397828817367553711 0.146771028637886047 0.0394077375531196594
0.0122732967138290405 0.116621136665344238 0.0127873271703720093
0.0464623980224132538 0.154091626405715942 0.0334013327956199646
0.0952616184949874878 0.207574471831321716 0.030018094927072525
0.0418103262782096863 0.148993059992790222 0.0091991722583770752
0.0500215925276279449 0.157992422580718994 0.0251737311482429504
0.101660214364528656 0.214587181806564331 0.0368104800581932068
0.0860145241022109985 0.197439864277839661 0.0134808402508497238
0.0861464589834213257 0.197584465146064758 0.080232575535774231
0.0969004034996032715 0.209370538592338562 0.0933959633111953735
0.105092503130435944 0.218348890542984009 0.00825356040149927139
0.106722220778465271 0.220135033130645752 0.111497581005096436
0.0686364471912384033 0.17839387059211731 0.0607627183198928833
0.0656323134899139404 0.175101414322853088 0.0427661724388599396
0.0520695634186267853 0.160236954689025879 0.0209839791059494019
0.0686979293823242188 0.178461253643035889 0.0622805841267108917
0.0397716835141181946 0.146758750081062317 0.0109328031539916992
0.0420182347297668457 0.149220913648605347 0.0325616598129272461
0.0899311304092407227 0.201732367277145386 0.0228567849844694138
0.0526836328208446503 0.160909950733184814 0.00231490656733512878
0.0742997005581855774 0.184600681066513062 0.0317168571054935455
0.0562412254512310028 0.164808988571166992 0.0193517766892910004
0.0450591519474983215 0.15255369246006012 0.00381306558847427368
0.0623855963349342346 0.171543091535568237 0.0289142057299613953
0.0979083850979804993 0.210475265979766846 0.0563608519732952118
0.0816955640912055969 0.192706376314163208 0.00927696377038955688
0.0660909265279769897 0.175604045391082764 0.0451123528182506561
0.0521675720810890198 0.160344362258911133 0.0263469889760017395
0.107323557138442993 0.220794081687927246 0.0984662696719169617
0.0380526557564735413 0.144874736666679382 0.0137104839086532593
0.0667038410902023315 0.176275789737701416 0.0188066735863685608
0.0227009877562522888 0.128049641847610474 0.00164562463760375977
0.0466080978512763977 0.154251307249069214 0.00770103931427001953
0.0601135566830635071 0.169052988290786743 0.0112117752432823181
0.0869533717632293701 0.198468819260597229 0.0825586318969726562
0.053155556321144104 0.161427170038223267 0.0520579591393470764
0.0631736442446708679 0.172406762838363647 0.00260553881525993347
0.044793352484703064 0.152262389659881592 0.00028384476900100708
0.072839491069316864 0.183000326156616211 0.00315053015947341919
0.0587138645350933075 0.167518943548202515 0.0413184501230716705
0.0839204713702201843 0.195144817233085632 0.0867130309343338013
0.0312230363488197327 0.137389630079269409 0.0233162492513656616
0.0741493701934814453 0.184435904026031494 0.07735462486743927
0.0887233465909957886 0.200408667325973511 0.0616978108882904053
0.0743204206228256226 0.184623390436172485 0.0116440393030643463
0.091035008430480957 0.202942192554473877 0.0673841759562492371
0.0334767326712608337 0.139859616756439209 0.0289889723062515259
0.0306503549218177795 0.136761978268623352 0.0221585184335708618
0.0518649406731128693 0.160012692213058472 0.0340301059186458588
0.0556470267474651337 0.164157763123512268 0.00198078528046607971
0.0328746214509010315 0.139199733734130859 0.0241043120622634888
0.0933418944478034973 0.205470487475395203 0.0755465775728225708
0.0982625484466552734 0.210863411426544189 0.0237856060266494751
0.066961437463760376 0.176558107137680054 0.0258608199656009674
0.0853916257619857788 0.196757182478904724 0.00375230796635150909
0.106679722666740417 0.220088452100753784 0.0122647937387228012
0.107450135052204132 0.220932796597480774 0.0731869712471961975
0.0746634602546691895 0.184999346733093262 0.0380740538239479065
0.0859871506690979004 0.197409868240356445 0.0437742993235588074
0.0402527153491973877 0.147285953164100647 0.0150506198406219482
0.104962073266506195 0.218205943703651428 0.073247082531452179
0.0926391631364822388 0.204700320959091187 0.00156816840171813965
0.033254668116569519 0.139616250991821289 0.0256135314702987671
0.02580270916223526 0.131449073553085327 0.00355170667171478271
0.105458267033100128 0.218749761581420898 0.0576490946114063263
0.0422800108790397644 0.149507820606231689 0.0336301475763320923
0.105642281472682953 0.218951433897018433 0.0152104934677481651
0.0651624947786331177 0.174586504697799683 0.0439910814166069031
0.0152479261159896851 0.119881264865398407 0.00543359667062759399
0.0829266384243965149 0.194055616855621338 0.0324309989809989929
0.100014388561248779 0.212783396244049072 0.0701150000095367432
0.106528498232364655 0.219922706484794617 0.0266276877373456955
0.0355273932218551636 0.142107099294662476 0.0213949456810951233
0.105068109929561615 0.218322157859802246 0.0784790515899658203
0.0972228348255157471 0.209723919630050659 0.0064898589625954628
0.0907921865582466125 0.202676072716712952 0.0379094071686267853
0.0777753815054893494 0.188409939408302307 0.0232680849730968475
0.0524874851107597351 0.160694986581802368 0.00664031133055686951
0.0604769624769687653 0.169451266527175903 0.0516001954674720764
0.0390484333038330078 0.145966082811355591 0.0262975692749023438
0.0587361864745616913 0.167543411254882812 0.0049592144787311554
0.106847308576107025 0.22027212381362915 0.0465844757854938507
0.0740725100040435791 0.184351682662963867 0.0441457368433475494
0.0575968846678733826 0.166294768452644348 0.00440066680312156677
0.0206650495529174805 0.125818312168121338 0.00138375163078308105
0.085080169141292572 0.196415826678276062 0.0944247469305992126
0.0748244449496269226 0.185175776481628418 0.0135722123086452484
0.0958203151822090149 0.208186790347099304 0.0240418501198291779
0.0817811936140060425 0.192800223827362061 0.0112174041569232941
