ply
format ascii 1.0
element vertex 843
property float x
property float y
property float z
end_header
-0.0456321984529495239 -0.074103720486164093 -0.0869285091757774353
-0.0457442887127399445 -0.0785212442278862 -0.0868685990571975708
-0.0429428443312644958 -0.0712747722864151001 -0.0883660018444061279
-0.0497524291276931763 -0.0719191804528236389 -0.0847262069582939148
-0.0499356836080551147 -0.0710175558924674988 -0.0846282467246055603
-0.0642049685120582581 -0.0790861546993255615 -0.074311770498752594
-0.0648149996995925903 -0.0847831070423126221 -0.0738111212849617004
-0.066468559205532074 -0.0846725776791572571 -0.0724540874361991882
-0.0599942468106746674 -0.0848905891180038452 -0.0777674168348312378
-0.0659247487783432007 -0.0869305357336997986 -0.0729003772139549255
-0.0595197677612304688 -0.0878903716802597046 -0.0781568139791488647
-0.0655309706926345825 -0.0892970114946365356 -0.0732235461473464966
-0.0681556388735771179 -0.0877351462841033936 -0.0710695385932922363
-0.0677379220724105835 -0.0896978527307510376 -0.0714123472571372986
-0.0669718906283378601 -0.0771548748016357422 -0.0720410123467445374
-0.0644290819764137268 -0.0786714106798171997 -0.0741278454661369324
-0.055301174521446228 -0.0859493538737297058 -0.0816189199686050415
-0.0612850189208984375 -0.0738582983613014221 -0.0767081081867218018
-0.0658814236521720886 -0.0706395059823989868 -0.072935931384563446
-0.0558434277772903442 -0.0859236419200897217 -0.0811739116907119751
-0.0572674907743930817 -0.0753130614757537842 -0.0800052061676979065
-0.0613425858318805695 -0.0702990442514419556 -0.0766608640551567078
-0.0574244372546672821 -0.0821067988872528076 -0.0798764005303382874
-0.0590288601815700531 -0.0772705376148223877 -0.0785596892237663269
-0.0676628872752189636 -0.0697966516017913818 -0.071473926305770874
-0.0572825632989406586 -0.0696148723363876343 -0.0799928382039070129
-0.062756955623626709 -0.0731428563594818115 -0.0755001157522201538
-0.0805999189615249634 -0.0794890671968460083 -0.0565428324043750763
-0.0819162875413894653 -0.0690305158495903015 -0.0549388304352760315
-0.0781667903065681458 -0.08386211097240448 -0.0595076046884059906
-0.0750358551740646362 -0.0903339385986328125 -0.0633226633071899414
-0.0794535204768180847 -0.0876199156045913696 -0.0579397231340408325
-0.0742277354001998901 -0.086777128279209137 -0.0643073618412017822
-0.0774164348840713501 -0.0900934264063835144 -0.0604219213128089905
-0.0809390991926193237 -0.0774420201778411865 -0.0561295412480831146
-0.0761072486639022827 -0.0838404148817062378 -0.0620171688497066498
-0.0737369358539581299 -0.0912604629993438721 -0.0649053975939750671
-0.0787517949938774109 -0.088872961699962616 -0.0587947741150856018
-0.0718130767345428467 -0.0740248784422874451 -0.0672496333718299866
-0.0704596638679504395 -0.0689714550971984863 -0.0688987672328948975
-0.0741188451647758484 -0.0696673095226287842 -0.0644400492310523987
-0.0794950947165489197 -0.0732698962092399597 -0.0578890703618526459
-0.0718544870615005493 -0.078999154269695282 -0.0671991780400276184
-0.0720847621560096741 -0.0786234736442565918 -0.0669185817241668701
-0.0718147754669189453 -0.0721312910318374634 -0.0672475546598434448
-0.069819234311580658 -0.0727131590247154236 -0.0696791335940361023
-0.0707499757409095764 -0.074738427996635437 -0.0685450136661529541
-0.0722395181655883789 -0.0820586308836936951 -0.066730007529258728
-0.0705451592803001404 -0.0787794589996337891 -0.0687945857644081116
-0.0856056138873100281 -0.0870612636208534241 -0.0481071658432483673
-0.0878097862005233765 -0.0803929716348648071 -0.0439834520220756531
-0.0891605541110038757 -0.0756490826606750488 -0.0414563454687595367
-0.0893250256776809692 -0.0811662822961807251 -0.0411486439406871796
-0.0834382399916648865 -0.0885184034705162048 -0.0521620400249958038
-0.0871631279587745667 -0.0861946418881416321 -0.0451932661235332489
-0.0889970138669013977 -0.0792987719178199768 -0.0417623035609722137
-0.0885167047381401062 -0.0798377543687820435 -0.0426608957350254059
-0.0834540948271751404 -0.0879868939518928528 -0.0521323829889297485
-0.0892193615436553955 -0.0826601088047027588 -0.0413463227450847626
-0.0886432528495788574 -0.0890602096915245056 -0.0424241498112678528
-0.0876460373401641846 -0.0857306495308876038 -0.0442898087203502655
-0.0838046446442604065 -0.0768128335475921631 -0.0514765381813049316
-0.0874017775058746338 -0.0719173550605773926 -0.04474678635597229
-0.0823038220405578613 -0.0826606377959251404 -0.0542843900620937347
-0.0841360464692115784 -0.0740763470530509949 -0.0508565269410610199
-0.0878872200846672058 -0.06991596519947052 -0.0438385829329490662
-0.0879990532994270325 -0.0738548487424850464 -0.0436293631792068481
-0.0835114195942878723 -0.0808525830507278442 -0.052025139331817627
-0.0858453512191772461 -0.0728733688592910767 -0.0476586446166038513
-0.0872215181589126587 -0.0710314288735389709 -0.0450840219855308533
-0.0838475748896598816 -0.0758695900440216064 -0.0513962171971797943
-0.0850026458501815796 -0.0744729340076446533 -0.0492352470755577087
-0.0842923372983932495 -0.0819337069988250732 -0.0505641363561153412
-0.0966406315565109253 -0.0909845679998397827 -0.019620923325419426
-0.096325211226940155 -0.0747881233692169189 -0.02066073939204216
-0.0959236994385719299 -0.0891426801681518555 -0.0219843313097953796
-0.0941648408770561218 -0.084700852632522583 -0.0277825277298688889
-0.0914955809712409973 -0.090786762535572052 -0.0365818999707698822
-0.0966888666152954102 -0.0760309025645256042 -0.0194619186222553253
-0.0937874689698219299 -0.0911033302545547485 -0.0290265381336212158
-0.0957767143845558167 -0.0877270326018333435 -0.022468889132142067
-0.0956963449716567993 -0.0746892690658569336 -0.0227338224649429321
-0.0956300795078277588 -0.0857022702693939209 -0.0229522809386253357
-0.0953394621610641479 -0.091289810836315155 -0.0239103026688098907
-0.09494781494140625 -0.08162660151720047 -0.0252013951539993286
-0.0943827629089355469 -0.077539689838886261 -0.0270641427487134933
-0.0919522270560264587 -0.0736520513892173767 -0.0350765138864517212
-0.0952780544757843018 -0.0700774714350700378 -0.024112749844789505
-0.0926336050033569336 -0.0816206783056259155 -0.0328303128480911255
-0.0915352106094360352 -0.0854608714580535889 -0.0364512503147125244
-0.0933738872408866882 -0.0717456638813018799 -0.030389934778213501
-0.0916961356997489929 -0.076187916100025177 -0.0359207503497600555
-0.0917471796274185181 -0.0735468640923500061 -0.0357524678111076355
-0.09238424152135849 -0.0844193100929260254 -0.033652380108833313
-0.0955378115177154541 -0.0735545381903648376 -0.0232564415782690048
-0.0935808047652244568 -0.0799115449190139771 -0.0297078229486942291
-0.0911514014005661011 -0.0875541269779205322 -0.0377165041863918304
-0.0968957692384719849 -0.0794375985860824585 -0.0178110580891370773
-0.0972416102886199951 -0.0836817249655723572 -0.0142995985224843025
-0.096944764256477356 -0.0702529475092887878 -0.0173135343939065933
-0.0975228101015090942 -0.0728364810347557068 -0.0114445965737104416
-0.0974084362387657166 -0.0805171653628349304 -0.0126058198511600494
-0.0973286554217338562 -0.0735550150275230408 -0.0134158842265605927
-0.0968183353543281555 -0.0872848927974700928 -0.0185971930623054504
-0.097285538911819458 -0.0810152813792228699 -0.0138536477461457253
-0.0977777987718582153 -0.0746691226959228516 -0.00885557476431131363
-0.0969419479370117188 -0.0771590396761894226 -0.0173421483486890793
-0.0970893651247024536 -0.0694640800356864929 -0.0158453676849603653
-0.096820145845413208 -0.0767295956611633301 -0.0185788385570049286
-0.0972753316164016724 -0.0861299261450767517 -0.0139572406187653542
-0.0976081416010856628 -0.0859275311231613159 -0.0105781443417072296
-0.097619175910949707 -0.0822685137391090393 -0.0104661807417869568
-0.0972522720694541931 -0.089456610381603241 -0.0141913918778300285
-0.0985049158334732056 -0.0736604183912277222 -0.00147304264828562737
-0.098186790943145752 -0.0907616019248962402 -0.00470308540388941765
-0.0975002869963645935 -0.0835274979472160339 -0.0116732101887464523
-0.0977748781442642212 -0.0811979398131370544 -0.00888526067137718201
-0.0975661426782608032 -0.0837164297699928284 -0.0110046174377202988
-0.0984326228499412537 -0.0897258147597312927 -0.00220705009996891022
-0.0973243862390518188 -0.0861779153347015381 -0.0134591804817318916
-0.0976558178663253784 -0.0904803872108459473 -0.0100941089913249016
0.0182601585984230042 0 -0.0583914630115032196
-0.0467650368809700012 0 -0.0711081549525260925
-0.0135265067219734192 0 -0.0590981841087341309
-0.0525770857930183411 0 -0.0704151615500450134
-0.0524078868329524994 0 -0.0627621486783027649
-0.0128866955637931824 0 -0.0637702345848083496
-0.0101999156177043915 0 -0.0599764734506607056
-0.0585005953907966614 0 -0.0622731335461139679
0.0330535098910331726 0 -0.0582999140024185181
-0.0335374623537063599 0 -0.0640752613544464111
-0.00317515339702367783 0 -0.0647420510649681091
-0.00502076977863907814 0 -0.0656681805849075317
-0.0280837602913379669 0 -0.0651568397879600525
-0.0296500697731971741 0 -0.061838541179895401
0.011408807709813118 0 -0.0600837841629981995
-0.0259850583970546722 0 -0.0655681416392326355
-0.0319273583590984344 0 -0.06272076815366745
-0.0411508269608020782 0 -0.0638252124190330505
0.0528752058744430542 0 -0.0546217523515224457
0.00655836611986160278 0 -0.0575601831078529358
0.0113534741103649139 0 -0.057553563266992569
0.0344829261302947998 0 -0.0556115098297595978
-0.0447837933897972107 0 -0.0602300949394702911
-0.0287803858518600464 0 -0.0645100846886634827
-0.0253456160426139832 0 -0.0605442970991134644
-0.0107418056577444077 0 -0.0639646649360656738
-0.0444896146655082703 0 -0.0718132108449935913
-0.0450933650135993958 0 -0.0613247454166412354
-0.0244008637964725494 0 -0.0604947730898857117
-0.0309258699417114258 0 -0.0620835348963737488
0.0279046241194009781 0 -0.0578967370092868805
0.0583153441548347473 0 -0.0548994950950145721
-0.0590078160166740417 0 -0.0649058148264884949
-0.0234655961394309998 0 -0.0607584118843078613
-0.00421352684497833252 0 -0.0592530891299247742
-0.0523599907755851746 0 -0.0651156753301620483
-0.0510212033987045288 0 -0.0618626922369003296
-0.0291811227798461914 0 -0.0647955760359764099
0.0607877671718597412 0 -0.053478095680475235
-0.0363372787833213806 0 -0.0680946558713912964
-0.028306916356086731 0 -0.0626453310251235962
-0.0302882418036460876 0 -0.0686069205403327942
-0.0578250512480735779 0 -0.0675792470574378967
-0.0294540561735630035 0 -0.0687183812260627747
-0.0593540742993354797 0 -0.0647711977362632751
0.0468682311475276947 0 -0.0557914972305297852
0.00967735052108764648 0 -0.0565973557531833649
-0.0622286014258861542 0 -0.067522682249546051
-7.34925270080566406e-05 0 -0.0575813353061676025
-0.0204574130475521088 0 -0.0617281347513198853
-0.000432029366493225098 0 -0.0647523552179336548
0.0525357350707054138 0 -0.058094564825296402
-0.0485206916928291321 0 -0.0764972344040870667
-0.025052141398191452 0 -0.0797773823142051697
0.0192512199282646179 0 -0.0624695345759391785
0.0257839858531951904 0 -0.0626591816544532776
-0.0180503278970718384 0 -0.0712056010961532593
-0.0188864096999168396 0 -0.0697452723979949951
0.0055485256016254425 0 -0.0677979812026023865
0.0267482250928878784 0 -0.0637504085898399353
-0.0127175450325012207 0 -0.0733336135745048523
0.0423975437879562378 0 -0.0593535378575325012
-0.0395669080317020416 0 -0.0761775970458984375
0.0187984928488731384 0 -0.0640220046043395996
-0.0354839712381362915 0 -0.0719797462224960327
-0.0335868000984191895 0 -0.0721017420291900635
-0.0422230549156665802 0 -0.0789592936635017395
0.0287085473537445068 0 -0.0617336705327033997
-0.0285403560847043991 0 -0.0788153558969497681
0.0485860742628574371 0 -0.057547740638256073
0.0538329258561134338 0 -0.0583277232944965363
-0.0159258954226970673 0 -0.0707755982875823975
0.0130324726924300194 0 -0.068205617368221283
0.00551496446132659912 0 -0.0678667649626731873
-0.0305383987724781036 0 -0.076878376305103302
0.032250475138425827 0 -0.0630742385983467102
-0.05002564936876297 0 -0.0765007436275482178
-0.0121785085648298264 0 -0.0744055211544036865
0.0393435209989547729 0 -0.0619703345000743866
0.0244690775871276855 0 -0.0631273016333580017
0.00946237519383430481 0 -0.067206650972366333
-0.0154781043529510498 0 -0.0745407938957214355
0.0372320413589477539 0 -0.0614635758101940155
-0.0432989075779914856 0 -0.076237700879573822
0.0240194536745548248 0 -0.0610565058887004852
-0.0372010692954063416 0 -0.0734759494662284851
-0.0196182951331138611 0 -0.0727700516581535339
0.0123844770714640617 0 -0.0683702528476715088
0.0200065430253744125 0 -0.0644034892320632935
0.00759663991630077362 0 -0.0690163075923919678
-0.0169141367077827454 0 -0.0686265155673027039
0.0573958754539489746 0 -0.0560819618403911591
0.0217582620680332184 0 -0.0619489587843418121
-0.0206992998719215393 0 -0.0807154104113578796
-0.0234138462692499161 0 -0.0878620967268943787
0.0171830151230096817 0 -0.0748454555869102478
-0.00301944464445114136 0 -0.0751076489686965942
-0.0062040574848651886 0 -0.0814083963632583618
-0.0182458795607089996 0 -0.0831986218690872192
0.0425564944744110107 0 -0.0620111115276813507
-0.034170001745223999 0 -0.0842358693480491638
0.0153476744890213013 0 -0.0711794942617416382
0.0142698967829346657 0 -0.0755207538604736328
0.0280310772359371185 0 -0.0692031905055046082
-0.00986180081963539124 0 -0.0841204226016998291
-0.0227981060743331909 0 -0.0826404094696044922
0.0220790691673755646 0 -0.0707915946841239929
-0.0261124409735202789 0 -0.0862570926547050476
-0.0251289904117584229 0 -0.0853608995676040649
-0.014291372150182724 0 -0.0812307074666023254
-0.0244905278086662292 0 -0.0856076106429100037
-0.0199286043643951416 0 -0.0827191472053527832
0.0323668830096721649 0 -0.0673401057720184326
-0.0241187959909439087 0 -0.0829741209745407104
-0.014597870409488678 0 -0.0782262459397315979
0.0263983011245727539 0 -0.0668061822652816772
0.0295878946781158447 0 -0.0659261271357536316
0.0405515506863594055 0 -0.0625553429126739502
-0.0288965515792369843 0 -0.0849335342645645142
-0.0227113105356693268 0 -0.0837912112474441528
0.0361338965594768524 0 -0.0674855262041091919
-0.0203929394483566284 0 -0.0800148025155067444
-0.0251949280500411987 0 -0.0850387737154960632
-0.0210674069821834564 0 -0.0871372893452644348
-0.0188319776207208633 0 -0.0865692049264907837
0.00792239978909492493 0 -0.0751815140247344971
-0.012233927845954895 0 -0.0912528336048126221
0.0573105216026306152 0 -0.0600578300654888153
0.0410273857414722443 0 -0.0678865090012550354
0.0468924194574356079 0 -0.0648285597562789917
0.0203578956425189972 0 -0.0747797787189483643
0.0195626690983772278 0 -0.0749543756246566772
0.0237677395343780518 0 -0.073018878698348999
-0.00304073840379714966 0 -0.086587175726890564
0.0266583450138568878 0 -0.0769130662083625793
0.0404748246073722839 0 -0.0684055984020233154
0.00384488329291343689 0 -0.0819407925009727478
0.0273004006594419479 0 -0.0736706554889678955
0.0466024614870548248 0 -0.0668996721506118774
0.0382325798273086548 0 -0.0685909762978553772
0.0335011370480060577 0 -0.0735966339707374573
0.0401990935206413269 0 -0.0698898211121559143
0.0222582779824733734 0 -0.07962818443775177
-0.00841866433620452881 0 -0.0905361846089363098
0.0120660532265901566 0 -0.0826628878712654114
0.00664421683177351952 0 -0.0871165767312049866
0.0572692900896072388 0 -0.0603179782629013062
0.0306224897503852844 0 -0.0709904283285140991
0.013731611892580986 0 -0.0813399553298950195
-0.00332701951265335083 0 -0.0859695002436637878
0.0267171896994113922 0 -0.0755986645817756653
0.0104210861027240753 0 -0.0898800641298294067
0.0059258975088596344 0 -0.0894805788993835449
0.0564902201294898987 0 -0.0644392222166061401
0.0136356186121702194 0 -0.0883307009935379028
0.0312003232538700104 0 -0.07976580411195755
0.0104215703904628754 0 -0.0880519673228263855
0.0604679062962532043 0 -0.0618327409029006958
0.00886552594602108002 0 -0.0914904624223709106
0.0442258864641189575 0 -0.0701003670692443848
0.0132468901574611664 0 -0.0873339623212814331
0.0330692008137702942 0 -0.0742693766951560974
0.0649107769131660461 0 -0.0589613355696201324
0.0357873812317848206 0 -0.0756396204233169556
0.0153937628492712975 0 -0.0910548046231269836
0.0617552362382411957 0 -0.061543688178062439
0.0342447124421596527 0 -0.0785194188356399536
0.0251519232988357544 0 -0.0805203169584274292
0.0721611231565475464 0 -0.0553515180945396423
0.0296785905957221985 0 -0.0829791724681854248
0.0615865848958492279 0 -0.0623146258294582367
0.0644995942711830139 0 -0.0612737424671649933
0.0346065685153007507 0 -0.0823700949549674988
0.061108022928237915 0 -0.0642838254570960999
0.0229118801653385162 0 -0.0870821177959442139
0.0329342633485794067 0 -0.0854689180850982666
0.0360287465155124664 0 -0.0791738033294677734
0.0671014189720153809 0 -0.0594794377684593201
0.0729662850499153137 0 -0.0554256513714790344
0.0531542636454105377 0 -0.0737749636173248291
0.0525409914553165436 0 -0.0747979804873466492
0.0479512624442577362 0 -0.077039182186126709
0.0469010248780250549 0 -0.0765134990215301514
0.0588459819555282593 0 -0.070569746196269989
0.0683202147483825684 0 -0.0613934770226478577
0.0473671741783618927 0 0.0775442719459533691
0.0529670454561710358 0 0.0747794881463050842
0.0580075271427631378 0 0.0702653005719184875
0.0339288115501403809 0 0.0843891948461532593
0.0356775075197219849 0 0.0841429382562637329
0.0607116967439651489 0 0.0686816871166229248
0.0337562710046768188 0 0.0844001695513725281
0.017200930044054985 0 0.0864263251423835754
0.00637509487569332123 0 0.0905723273754119873
0.0122815538197755814 0 0.0897081717848777771
0.0530424080789089203 0 0.0714361220598220825
0.0385715886950492859 0 0.0766530632972717285
0.0121849142014980316 0 0.0912879630923271179
0.0103184152394533157 0 0.0899103060364723206
0.0248408447951078415 0 0.0840596407651901245
0.0418908447027206421 0 0.075629889965057373
0.00771293928846716881 0 0.0888756737112998962
0.0347990058362483978 0 0.0760702714323997498
-0.0146410660818219185 0 0.0894508138298988342
0.000191848725080490112 0 0.0849867537617683411
0.0445417687296867371 0 0.0736449360847473145
0.00728951022028923035 0 0.0854043513536453247
0.0352069810032844543 0 0.0762438774108886719
-0.0022686198353767395 0 0.0919505581259727478
0.00480100512504577637 0 0.0869199261069297791
0.046683233231306076 0 0.0715926960110664368
-0.000870708376169204712 0 0.0879423245787620544
0.0258952174335718155 0 0.0800535678863525391
-0.0163584500551223755 0 0.0903198197484016418
0.00148106366395950317 0 0.090018831193447113
-0.00155495805665850639 0 0.0852909088134765625
0.0193437673151493073 0 0.0825124830007553101
0.00852035731077194214 0 0.0858014002442359924
0.0121555626392364502 0 0.0865946188569068909
0.00311997160315513611 0 0.0811873450875282288
-0.0297458898276090622 0 0.0844615548849105835
0.0111927948892116547 0 0.0766957253217697144
0.0297146942466497421 0 0.0745043084025382996
-0.0191909335553646088 0 0.0848961994051933289
-0.0150969326496124268 0 0.0867014527320861816
-0.0362901091575622559 0 0.0846249088644981384
-0.00975373014807701111 0 0.0838953033089637756
0.0191249102354049683 0 0.0776391699910163879
0.00451026111841201782 0 0.082600325345993042
-0.00862187519669532776 0 0.0809800103306770325
0.0146007481962442398 0 0.0769285336136817932
0.034976031631231308 0 0.073228396475315094
0.0142994467169046402 0 0.0758448466658592224
0.00753236375749111176 0 0.0779730901122093201
0.0251643285155296326 0 0.0736395716667175293
-0.0168599355965852737 0 0.0831924527883529663
-0.023891521617770195 0 0.0818154141306877136
-0.0154750384390354156 0 0.0863588675856590271
0.035688154399394989 0 0.0740199312567710876
0.0354207009077072144 0 0.0716005638241767883
-0.0139676444232463837 0 0.0837922096252441406
0.0252646487206220627 0 0.0752349868416786194
-0.0245982091873884201 0 0.084273993968963623
-0.0153562668710947037 0 0.0804498195648193359
-0.0385452732443809509 0 0.082753695547580719
0.0104396669194102287 0 0.0715321376919746399
-0.0445843897759914398 0 0.0799546912312507629
-0.0239998027682304382 0 0.0750913619995117188
0.0276286564767360687 0 0.0695238113403320312
-0.00798051804304122925 0 0.0751053765416145325
-0.017150314524769783 0 0.0743694975972175598
0.00790913775563240051 0 0.0735957473516464233
0.0301297847181558609 0 0.0695029795169830322
-0.000940268160775303841 0 0.0709516331553459167
0.0254165399819612503 0 0.0694133639335632324
-0.040037054568529129 0 0.079417012631893158
0.0177239701151847839 0 0.0697302296757698059
-0.000791879370808601379 0 0.0738615840673446655
-0.0253372639417648315 0 0.0814749300479888916
-0.0208820253610610962 0 0.0791812166571617126
-0.00267021730542182922 0 0.0736706480383872986
-0.0121247768402099609 0 0.0752634480595588684
-0.0356911048293113708 0 0.0753437504172325134
-0.0084276832640171051 0 0.0755517557263374329
-0.037110351026058197 0 0.0776416882872581482
-0.0394107773900032043 0 0.0737279877066612244
-0.0524031408131122589 0 0.0757324397563934326
-0.0355746597051620483 0 0.0780944079160690308
0.00130434334278106689 0 0.0756815001368522644
-0.0153420520946383476 0 0.0729617699980735779
-0.013788565993309021 0 0.077573433518409729
-0.0100991688668727875 0 0.0786059200763702393
0.00168923218734562397 0 0.0707033872604370117
-0.0167114231735467911 0 0.074583493173122406
-0.0220680199563503265 0 0.0737525671720504761
-0.0423199683427810669 0 0.0741884484887123108
0.00488998740911483765 0 0.0748518258333206177
-0.009211711585521698 0 0.0691489279270172119
-0.0440008491277694702 0 0.0732663273811340332
0.0123364850878715515 0 0.0678007081151008606
-0.0524580888450145721 0 0.0717815160751342773
-0.0410133153200149536 0 0.0646708458662033081
-0.0321047231554985046 0 0.0705522596836090088
-0.0299803093075752258 0 0.0689923837780952454
-0.0497717559337615967 0 0.069896399974822998
-0.0410815924406051636 0 0.0733199045062065125
0.000397704541683197021 0 0.0683403164148330688
0.00110198184847831726 0 0.0652048289775848389
-0.0469690896570682526 0 0.0673427209258079529
0.0238020233809947968 0 0.065388806164264679
0.000109761953353881836 0 0.0700209885835647583
-0.0192120037972927094 0 0.0667000189423561096
-0.0370898135006427765 0 0.0651878193020820618
-0.0274745635688304901 0 0.0638904944062232971
-0.0433632954955101013 0 0.0628311410546302795
-0.0255326610058546066 0 0.0633421167731285095
0.0331640169024467468 0 0.0679435878992080688
0.00764048099517822266 0 0.0693929940462112427
-0.0336252786219120026 0 0.064271390438079834
-0.0131199974566698074 0 0.0668168738484382629
-0.00312347523868083954 0 0.0648625642061233521
-0.00349755212664604187 0 0.0678947716951370239
0.0224366001784801483 0 0.0684145614504814148
0.0129918698221445084 0 0.0677087604999542236
0.0184091813862323761 0 0.068705439567565918
0.0451629608869552612 0 0.0661744698882102966
-0.00485743582248687744 0 0.0680696070194244385
-0.0360093042254447937 0 0.0712906420230865479
0.0293791554868221283 0 0.0658413022756576538
-0.0357164852321147919 0 0.0675121992826461792
-0.0389498434960842133 0 0.0688932985067367554
-0.0141210202127695084 0 0.0637901127338409424
-0.0465526841580867767 0 0.0674805492162704468
0.0105670765042304993 0 0.0646902620792388916
-0.0425236821174621582 0 0.0707382932305335999
0.0177089758217334747 0 0.0663302317261695862
-0.0253903493285179138 0 0.0649667978286743164
-0.0380923785269260406 0 0.0658570155501365662
0.00113045051693916321 0 0.0680037587881088257
0.022924274206161499 0 0.0627874657511711121
0.059338100254535675 0 0.0571603141725063324
0.0225809291005134583 0 0.0623302049934864044
-0.0248943120241165161 0 0.0591466426849365234
-0.0566582903265953064 0 0.0612169653177261353
0.0613154768943786621 0 0.0617766976356506348
0.0129168517887592316 0 0.0642019957304000854
0.0210558734834194183 0 0.0623149685561656952
0.00134550034999847412 0 0.0618681758642196655
-0.0457179397344589233 0 0.0620400607585906982
0.067335277795791626 0 0.0551148802042007446
-0.0120779499411582947 0 0.0625322610139846802
0.0315055586397647858 0 0.0595563724637031555
0.0501946285367012024 0 0.0625263303518295288
0.00841759145259857178 0 0.0584991276264190674
0.0358167067170143127 0 0.0584127269685268402
0.00986858457326889038 0 0.0574739724397659302
0.0103867650032043457 0 0.0570836141705513
-0.0572110190987586975 0 0.0612211786210536957
0.0692757442593574524 0 0.0584590397775173187
0.0390861555933952332 0 0.0649390816688537598
0.0264559797942638397 0 0.0598073936998844147
0.0678457021713256836 0 0.0581349171698093414
-0.0535146519541740417 0 0.06073746457695961
0.0176195167005062103 0 0.0615739896893501282
0.0605162903666496277 0 0.0639606565237045288
0.00867334380745887756 0 0.0642184242606163025
-0.0125677511096000671 0 0.0628977790474891663
0.0638154596090316772 0 0.0572682768106460571
0.00772783532738685608 0 0.0629486516118049622
0.0150226801633834839 0 0.0563829317688941956
0.0663216933608055115 0 0.0530867762863636017
0.0249208845198154449 0 0.0566004104912281036
0.00813500583171844482 0 0.0603316947817802429
0.0592706277966499329 0 0.0534582175314426422
0.00347737222909927368 0 0.0579728558659553528
0.018793892115354538 0 0.0604505054652690887
0.058703836053609848 0 0.0555866695940494537
-0.0336281582713127136 0 0.0628871023654937744
-0.0326559096574783325 0 0.0594935081899166107
0.0679201856255531311 0 0.0613443963229656219
0.050896085798740387 0 0.0638418495655059814
0.0699690431356430054 0 0.0569364018738269806
-0.00781536847352981567 0 0.0591747462749481201
0.0392061099410057068 0 0.0624558068811893463
-0.0236668512225151062 0 0.0594807863235473633
0.012440267950296402 0 0.0585511922836303711
0.0393854901194572449 0 0.0651860013604164124
0.0529264956712722778 0 0.0625033378601074219
0.0178363323211669922 0 0.0564495325088500977
0.0445533841848373413 0 0.0576992630958557129
-0.120958596467971802 -0.068599998950958252 0
-0.120958596467971802 -0.066880054771900177 0.0152649357914924622
-0.120958596467971802 -0.0618064627051353455 0.0297644250094890594
-0.120958596467971802 -0.0536336414515972137 0.0427713990211486816
-0.120958596467971802 -0.0427713990211486816 0.0536336414515972137
-0.120958596467971802 -0.0297644250094890594 0.0618064627051353455
-0.120958596467971802 -0.0152649357914924622 0.066880054771900177
-0.120958596467971802 -1.26016152131288708e-17 0.068599998950958252
-0.120958596467971802 0.0152649357914924622 0.066880054771900177
-0.120958596467971802 0.0297644250094890594 0.0618064627051353455
-0.120958596467971802 0.0427713990211486816 0.0536336414515972137
-0.120958596467971802 0.0536336414515972137 0.0427713990211486816
-0.120958596467971802 0.0618064627051353455 0.0297644250094890594
-0.120958596467971802 0.066880054771900177 0.0152649357914924622
-0.120958596467971802 0.068599998950958252 0
-0.120958596467971802 0.066880054771900177 -0.0152649357914924622
-0.120958596467971802 0.0618064627051353455 -0.0297644250094890594
-0.120958596467971802 0.0536336414515972137 -0.0427713990211486816
-0.120958596467971802 0.0427713990211486816 -0.0536336414515972137
-0.120958596467971802 0.0297644250094890594 -0.0618064627051353455
-0.120958596467971802 0.0152649357914924622 -0.066880054771900177
-0.120958596467971802 4.20053854223972568e-18 -0.068599998950958252
-0.120958596467971802 -0.0152649357914924622 -0.066880054771900177
-0.120958596467971802 -0.0297644250094890594 -0.0618064627051353455
-0.120958596467971802 -0.0427713990211486816 -0.0536336414515972137
-0.120958596467971802 -0.0536336414515972137 -0.0427713990211486816
-0.120958596467971802 -0.0618064627051353455 -0.0297644250094890594
-0.120958596467971802 -0.066880054771900177 -0.0152649357914924622
-0.104158595204353333 -0.068599998950958252 0
-0.104158595204353333 -0.066880054771900177 -0.0152649357914924622
-0.104158595204353333 -0.0618064627051353455 -0.0297644250094890594
-0.104158595204353333 -0.0536336414515972137 -0.0427713990211486816
-0.104158595204353333 -0.0427713990211486816 -0.0536336414515972137
-0.104158595204353333 -0.0297644250094890594 -0.0618064627051353455
-0.104158595204353333 -0.0152649357914924622 -0.066880054771900177
-0.104158595204353333 -1.26016152131288708e-17 -0.068599998950958252
-0.104158595204353333 0.0152649357914924622 -0.066880054771900177
-0.104158595204353333 0.0297644250094890594 -0.0618064627051353455
-0.104158595204353333 0.0427713990211486816 -0.0536336414515972137
-0.104158595204353333 0.0536336414515972137 -0.0427713990211486816
-0.104158595204353333 0.0618064627051353455 -0.0297644250094890594
-0.104158595204353333 0.066880054771900177 -0.0152649357914924622
-0.104158595204353333 0.068599998950958252 0
-0.104158595204353333 0.066880054771900177 0.0152649357914924622
-0.104158595204353333 0.0618064627051353455 0.0297644250094890594
-0.104158595204353333 0.0536336414515972137 0.0427713990211486816
-0.104158595204353333 0.0427713990211486816 0.0536336414515972137
-0.104158595204353333 0.0297644250094890594 0.0618064627051353455
-0.104158595204353333 0.0152649357914924622 0.066880054771900177
-0.104158595204353333 4.20053854223972568e-18 0.068599998950958252
-0.104158595204353333 -0.0152649357914924622 0.066880054771900177
-0.104158595204353333 -0.0297644250094890594 0.0618064627051353455
-0.104158595204353333 -0.0427713990211486816 0.0536336414515972137
-0.104158595204353333 -0.0536336414515972137 0.0427713990211486816
-0.104158595204353333 -0.0618064627051353455 0.0297644250094890594
-0.104158595204353333 -0.066880054771900177 0.0152649357914924622
-0.104158595204353333 0.0639299973845481873 0
-0.104158595204353333 0.062072310596704483 -0.0152994506061077118
-0.104158595204353333 0.0566072054207324982 -0.0297097526490688324
-0.104158595204353333 0.0478522926568984985 -0.0423934310674667358
-0.104158595204353333 0.0363163799047470093 -0.0526133589446544647
-0.104158595204353333 0.022669890895485878 -0.0597755871713161469
-0.104158595204353333 0.00770591013133525848 -0.0634638816118240356
-0.104158595204353333 -0.00770591013133525848 -0.0634638816118240356
-0.104158595204353333 -0.022669890895485878 -0.0597755871713161469
-0.104158595204353333 -0.0363163799047470093 -0.0526133589446544647
-0.104158595204353333 -0.0478522926568984985 -0.0423934310674667358
-0.104158595204353333 -0.0566072054207324982 -0.0297097526490688324
-0.104158595204353333 -0.062072310596704483 -0.0152994506061077118
-0.104158595204353333 -0.0639299973845481873 0
-0.104158595204353333 -0.062072310596704483 0.0152994506061077118
-0.104158595204353333 -0.0566072054207324982 0.0297097526490688324
-0.104158595204353333 -0.0478522926568984985 0.0423934310674667358
-0.104158595204353333 -0.0363163799047470093 0.0526133589446544647
-0.104158595204353333 -0.022669890895485878 0.0597755871713161469
-0.104158595204353333 -0.00770591013133525848 0.0634638816118240356
-0.104158595204353333 0.00770591013133525848 0.0634638816118240356
-0.104158595204353333 0.022669890895485878 0.0597755871713161469
-0.104158595204353333 0.0363163799047470093 0.0526133589446544647
-0.104158595204353333 0.0478522926568984985 0.0423934310674667358
-0.104158595204353333 0.0566072054207324982 0.0297097526490688324
-0.104158595204353333 0.062072310596704483 0.0152994506061077118
-0.120958596467971802 -0.068599998950958252 0
-0.120958596467971802 -0.066880054771900177 0.0152649357914924622
-0.120958596467971802 -0.0618064627051353455 0.0297644250094890594
-0.120958596467971802 -0.0536336414515972137 0.0427713990211486816
-0.120958596467971802 -0.0427713990211486816 0.0536336414515972137
-0.120958596467971802 -0.0297644250094890594 0.0618064627051353455
-0.120958596467971802 -0.0152649357914924622 0.066880054771900177
-0.120958596467971802 -1.26016152131288708e-17 0.068599998950958252
-0.120958596467971802 0.0152649357914924622 0.066880054771900177
-0.120958596467971802 0.0297644250094890594 0.0618064627051353455
-0.120958596467971802 0.0427713990211486816 0.0536336414515972137
-0.120958596467971802 0.0536336414515972137 0.0427713990211486816
-0.120958596467971802 0.0618064627051353455 0.0297644250094890594
-0.120958596467971802 0.066880054771900177 0.0152649357914924622
-0.120958596467971802 0.068599998950958252 0
-0.104158595204353333 -0.068599998950958252 0
-0.104158595204353333 0.068599998950958252 0
-0.104158595204353333 0.066880054771900177 0.0152649357914924622
-0.104158595204353333 0.0618064627051353455 0.0297644250094890594
-0.104158595204353333 0.0536336414515972137 0.0427713990211486816
-0.104158595204353333 0.0427713990211486816 0.0536336414515972137
-0.104158595204353333 0.0297644250094890594 0.0618064627051353455
-0.104158595204353333 0.0152649357914924622 0.066880054771900177
-0.104158595204353333 4.20053854223972568e-18 0.068599998950958252
-0.104158595204353333 -0.0152649357914924622 0.066880054771900177
-0.104158595204353333 -0.0297644250094890594 0.0618064627051353455
-0.104158595204353333 -0.0427713990211486816 0.0536336414515972137
-0.104158595204353333 -0.0536336414515972137 0.0427713990211486816
-0.104158595204353333 -0.0618064627051353455 0.0297644250094890594
-0.104158595204353333 -0.066880054771900177 0.0152649357914924622
-0.120958596467971802 0.068599998950958252 0
-0.120958596467971802 0.066880054771900177 -0.0152649357914924622
-0.120958596467971802 0.0618064627051353455 -0.0297644250094890594
-0.120958596467971802 0.0536336414515972137 -0.0427713990211486816
-0.120958596467971802 0.0427713990211486816 -0.0536336414515972137
-0.120958596467971802 0.0297644250094890594 -0.0618064627051353455
-0.120958596467971802 0.0152649357914924622 -0.066880054771900177
-0.120958596467971802 4.20053854223972568e-18 -0.068599998950958252
-0.120958596467971802 -0.0152649357914924622 -0.066880054771900177
-0.120958596467971802 -0.0297644250094890594 -0.0618064627051353455
-0.120958596467971802 -0.0427713990211486816 -0.0536336414515972137
-0.120958596467971802 -0.0536336414515972137 -0.0427713990211486816
-0.120958596467971802 -0.0618064627051353455 -0.0297644250094890594
-0.120958596467971802 -0.066880054771900177 -0.0152649357914924622
-0.120958596467971802 -0.068599998950958252 0
-0.104158595204353333 0.068599998950958252 0
-0.104158595204353333 -0.068599998950958252 0
-0.104158595204353333 -0.066880054771900177 -0.0152649357914924622
-0.104158595204353333 -0.0618064627051353455 -0.0297644250094890594
-0.104158595204353333 -0.0536336414515972137 -0.0427713990211486816
-0.104158595204353333 -0.0427713990211486816 -0.0536336414515972137
-0.104158595204353333 -0.0297644250094890594 -0.0618064627051353455
-0.104158595204353333 -0.0152649357914924622 -0.066880054771900177
-0.104158595204353333 -1.26016152131288708e-17 -0.068599998950958252
-0.104158595204353333 0.0152649357914924622 -0.066880054771900177
-0.104158595204353333 0.0297644250094890594 -0.0618064627051353455
-0.104158595204353333 0.0427713990211486816 -0.0536336414515972137
-0.104158595204353333 0.0536336414515972137 -0.0427713990211486816
-0.104158595204353333 0.0618064627051353455 -0.0297644250094890594
-0.104158595204353333 0.066880054771900177 -0.0152649357914924622
0.104963280260562897 -0.0503199994564056396 0
0.104963280260562897 -0.0488577932119369507 0.0120423641055822372
0.104963280260562897 -0.0445561483502388 0.0233848690986633301
0.104963280260562897 -0.0376650616526603699 0.0333683304488658905
0.104963280260562897 -0.028585018590092659 0.04141254723072052
0.104963280260562897 -0.0178437177091836929 0.0470500178635120392
0.104963280260562897 -0.00606540590524673462 0.0499531105160713196
0.104963280260562897 0.00606540590524673462 0.0499531105160713196
0.104963280260562897 0.0178437177091836929 0.0470500178635120392
0.104963280260562897 0.028585018590092659 0.04141254723072052
0.104963280260562897 0.0376650616526603699 0.0333683304488658905
0.104963280260562897 0.0445561483502388 0.0233848690986633301
0.104963280260562897 0.0488577932119369507 0.0120423641055822372
0.104963280260562897 0.0503199994564056396 0
0.104963280260562897 0.0488577932119369507 -0.0120423641055822372
0.104963280260562897 0.0445561483502388 -0.0233848690986633301
0.104963280260562897 0.0376650616526603699 -0.0333683304488658905
0.104963280260562897 0.028585018590092659 -0.04141254723072052
0.104963280260562897 0.0178437177091836929 -0.0470500178635120392
0.104963280260562897 0.00606540590524673462 -0.0499531105160713196
0.104963280260562897 -0.00606540590524673462 -0.0499531105160713196
0.104963280260562897 -0.0178437177091836929 -0.0470500178635120392
0.104963280260562897 -0.028585018590092659 -0.04141254723072052
0.104963280260562897 -0.0376650616526603699 -0.0333683304488658905
0.104963280260562897 -0.0445561483502388 -0.0233848690986633301
0.104963280260562897 -0.0488577932119369507 -0.0120423641055822372
0.104963280260562897 -0.0544000007212162018 0
0.104963280260562897 -0.0528192333877086639 0.0130187720060348511
0.104963280260562897 -0.0481688082218170166 0.0252809412777423859
0.104963280260562897 -0.0407189838588237762 0.0360738709568977356
0.104963280260562897 -0.0309027228504419327 0.0447703227400779724
0.104963280260562897 -0.019290504977107048 0.05086488276720047
0.104963280260562897 -0.00655719544738531113 0.0540033616125583649
0.104963280260562897 0.00655719544738531113 0.0540033616125583649
0.104963280260562897 0.019290504977107048 0.05086488276720047
0.104963280260562897 0.0309027228504419327 0.0447703227400779724
0.104963280260562897 0.0407189838588237762 0.0360738709568977356
0.104963280260562897 0.0481688082218170166 0.0252809412777423859
0.104963280260562897 0.0528192333877086639 0.0130187720060348511
0.104963280260562897 0.0544000007212162018 0
0.104963280260562897 0.0528192333877086639 -0.0130187720060348511
0.104963280260562897 0.0481688082218170166 -0.0252809412777423859
0.104963280260562897 0.0407189838588237762 -0.0360738709568977356
0.104963280260562897 0.0309027228504419327 -0.0447703227400779724
0.104963280260562897 0.019290504977107048 -0.05086488276720047
0.104963280260562897 0.00655719544738531113 -0.0540033616125583649
0.104963280260562897 -0.00655719544738531113 -0.0540033616125583649
0.104963280260562897 -0.019290504977107048 -0.05086488276720047
0.104963280260562897 -0.0309027228504419327 -0.0447703227400779724
0.104963280260562897 -0.0407189838588237762 -0.0360738709568977356
0.104963280260562897 -0.0481688082218170166 -0.0252809412777423859
0.104963280260562897 -0.0528192333877086639 -0.0130187720060348511
0.118863284587860107 -0.0544000007212162018 0
0.118863284587860107 -0.0528192333877086639 -0.0130187720060348511
0.118863284587860107 -0.0481688082218170166 -0.0252809412777423859
0.118863284587860107 -0.0407189838588237762 -0.0360738709568977356
0.118863284587860107 -0.0309027228504419327 -0.0447703227400779724
0.118863284587860107 -0.019290504977107048 -0.05086488276720047
0.118863284587860107 -0.00655719544738531113 -0.0540033616125583649
0.118863284587860107 0.00655719544738531113 -0.0540033616125583649
0.118863284587860107 0.019290504977107048 -0.05086488276720047
0.118863284587860107 0.0309027228504419327 -0.0447703227400779724
0.118863284587860107 0.0407189838588237762 -0.0360738709568977356
0.118863284587860107 0.0481688082218170166 -0.0252809412777423859
0.118863284587860107 0.0528192333877086639 -0.0130187720060348511
0.118863284587860107 0.0544000007212162018 0
0.118863284587860107 0.0528192333877086639 0.0130187720060348511
0.118863284587860107 0.0481688082218170166 0.0252809412777423859
0.118863284587860107 0.0407189838588237762 0.0360738709568977356
0.118863284587860107 0.0309027228504419327 0.0447703227400779724
0.118863284587860107 0.019290504977107048 0.05086488276720047
0.118863284587860107 0.00655719544738531113 0.0540033616125583649
0.118863284587860107 -0.00655719544738531113 0.0540033616125583649
0.118863284587860107 -0.019290504977107048 0.05086488276720047
0.118863284587860107 -0.0309027228504419327 0.0447703227400779724
0.118863284587860107 -0.0407189838588237762 0.0360738709568977356
0.118863284587860107 -0.0481688082218170166 0.0252809412777423859
0.118863284587860107 -0.0528192333877086639 0.0130187720060348511
0.104963280260562897 -0.0544000007212162018 0
0.104963280260562897 -0.0528192333877086639 0.0130187720060348511
0.104963280260562897 -0.0481688082218170166 0.0252809412777423859
0.104963280260562897 -0.0407189838588237762 0.0360738709568977356
0.104963280260562897 -0.0309027228504419327 0.0447703227400779724
0.104963280260562897 -0.019290504977107048 0.05086488276720047
0.104963280260562897 -0.00655719544738531113 0.0540033616125583649
0.104963280260562897 0.00655719544738531113 0.0540033616125583649
0.104963280260562897 0.019290504977107048 0.05086488276720047
0.104963280260562897 0.0309027228504419327 0.0447703227400779724
0.104963280260562897 0.0407189838588237762 0.0360738709568977356
0.104963280260562897 0.0481688082218170166 0.0252809412777423859
0.104963280260562897 0.0528192333877086639 0.0130187720060348511
0.104963280260562897 0.0544000007212162018 0
0.118863284587860107 -0.0544000007212162018 0
0.118863284587860107 0.0544000007212162018 0
0.118863284587860107 0.0528192333877086639 0.0130187720060348511
0.118863284587860107 0.0481688082218170166 0.0252809412777423859
0.118863284587860107 0.0407189838588237762 0.0360738709568977356
0.118863284587860107 0.0309027228504419327 0.0447703227400779724
0.118863284587860107 0.019290504977107048 0.05086488276720047
0.118863284587860107 0.00655719544738531113 0.0540033616125583649
0.118863284587860107 -0.00655719544738531113 0.0540033616125583649
0.118863284587860107 -0.019290504977107048 0.05086488276720047
0.118863284587860107 -0.0309027228504419327 0.0447703227400779724
0.118863284587860107 -0.0407189838588237762 0.0360738709568977356
0.118863284587860107 -0.0481688082218170166 0.0252809412777423859
0.118863284587860107 -0.0528192333877086639 0.0130187720060348511
0.104963280260562897 0.0544000007212162018 0
0.104963280260562897 0.0528192333877086639 -0.0130187720060348511
0.104963280260562897 0.0481688082218170166 -0.0252809412777423859
0.104963280260562897 0.0407189838588237762 -0.0360738709568977356
0.104963280260562897 0.0309027228504419327 -0.0447703227400779724
0.104963280260562897 0.019290504977107048 -0.05086488276720047
0.104963280260562897 0.00655719544738531113 -0.0540033616125583649
0.104963280260562897 -0.00655719544738531113 -0.0540033616125583649
0.104963280260562897 -0.019290504977107048 -0.05086488276720047
0.104963280260562897 -0.0309027228504419327 -0.0447703227400779724
0.104963280260562897 -0.0407189838588237762 -0.0360738709568977356
0.104963280260562897 -0.0481688082218170166 -0.0252809412777423859
0.104963280260562897 -0.0528192333877086639 -0.0130187720060348511
0.104963280260562897 -0.0544000007212162018 0
0.118863284587860107 0.0544000007212162018 0
0.118863284587860107 -0.0544000007212162018 0
0.118863284587860107 -0.0528192333877086639 -0.0130187720060348511
0.118863284587860107 -0.0481688082218170166 -0.0252809412777423859
0.118863284587860107 -0.0407189838588237762 -0.0360738709568977356
0.118863284587860107 -0.0309027228504419327 -0.0447703227400779724
0.118863284587860107 -0.019290504977107048 -0.05086488276720047
0.118863284587860107 -0.00655719544738531113 -0.0540033616125583649
0.118863284587860107 0.00655719544738531113 -0.0540033616125583649
0.118863284587860107 0.019290504977107048 -0.05086488276720047
0.118863284587860107 0.0309027228504419327 -0.0447703227400779724
0.118863284587860107 0.0407189838588237762 -0.0360738709568977356
0.118863284587860107 0.0481688082218170166 -0.0252809412777423859
0.118863284587860107 0.0528192333877086639 -0.0130187720060348511
-0.0926799997687339783 -0.0631829574704170227 0
-0.0926799997687339783 -0.068599998950958252 0
-0.0908991768956184387 -0.068599998950958252 0.0180809702724218369
-0.0856251567602157593 -0.068599998950958252 0.0354670993983745575
-0.077060602605342865 -0.068599998950958252 0.0514902509748935699
-0.0655346587300300598 -0.068599998950958252 0.0655346587300300598
-0.0514902509748935699 -0.068599998950958252 0.077060602605342865
-0.0354670993983745575 -0.068599998950958252 0.0856251567602157593
-0.0180809702724218369 -0.068599998950958252 0.0908991768956184387
1.47607706862348017e-16 -0.068599998950958252 0.0926799997687339783
0.0180809702724218369 -0.068599998950958252 0.0908991768956184387
0.0354670993983745575 -0.068599998950958252 0.0856251567602157593
0.0514902509748935699 -0.068599998950958252 0.077060602605342865
0.0655346587300300598 -0.068599998950958252 0.0655346587300300598
0.077060602605342865 -0.068599998950958252 0.0514902509748935699
0.0856251567602157593 -0.068599998950958252 0.0354670993983745575
0.0908991768956184387 -0.068599998950958252 0.0180809702724218369
0.0926799997687339783 -0.068599998950958252 0
0.0926799997687339783 -0.0511194169521331787 0
0.0766050443053245544 0 0.0521656014025211334
0.0773707777261734009 -0.0105673698708415031 0.0510331429541110992
0.0794367194175720215 -0.020510941743850708 0.0477635599672794342
0.0823035687208175659 -0.0294188316911458969 0.042628951370716095
0.0854560583829879761 -0.0370677374303340912 0.03588128462433815
0.0884338617324829102 -0.0432773120701313019 0.0277236122637987137
0.0908330157399177551 -0.0478318706154823303 0.0183741934597492218
0.0921995192766189575 -0.0502828657627105713 0.0093815196305513382
0.0645967647433280945 0 0.0664593130350112915
0.0499675683677196503 0 0.0780565440654754639
0.033311016857624054 0 0.0864867568016052246
0.0153029235079884529 0 0.0914078950881958008
-0.00332606257870793343 0 0.0926202982664108276
-0.0218201000243425369 0 0.0900747776031494141
-0.0394288189709186554 0 0.0838746130466461182
-0.0554377734661102295 0 0.0742713660001754761
-0.069197431206703186 0 0.0616546683013439178
-0.0917772799730300903 -0.0617906786501407623 0.0129065178334712982
-0.0892402231693267822 -0.057772364467382431 0.0250240080058574677
-0.0854914411902427673 -0.0514941327273845673 0.035798586905002594
-0.081063881516456604 -0.0433359034359455109 0.0449346452951431274
-0.0765377432107925415 -0.0335794724524021149 0.0522766821086406708
-0.0725639238953590393 -0.0224180798977613449 0.0576696768403053284
-0.0701002851128578186 -0.0114956069737672806 0.0606333091855049133
-0.0926799997687339783 -0.0631829574704170227 0
-0.0926799997687339783 -0.068599998950958252 0
-0.069197431206703186 0 -0.0616546683013439178
-0.0702991709113121033 -0.0127551788464188576 -0.0603941269218921661
-0.07326497882604599 -0.0247528832405805588 -0.0567565485835075378
-0.0773644596338272095 -0.0355439484119415283 -0.051026955246925354
-0.0818741247057914734 -0.044924221932888031 -0.0434226356446743011
-0.0861800983548164368 -0.0526975616812705994 -0.0340848155319690704
-0.0897300764918327332 -0.0585717000067234039 -0.0231779478490352631
-0.0919116288423538208 -0.0620007701218128204 -0.0119025232270359993
-0.0554377734661102295 0 -0.0742713660001754761
-0.0394288189709186554 0 -0.0838746130466461182
-0.0218201000243425369 0 -0.0900747776031494141
-0.00332606257870793343 0 -0.0926202982664108276
0.0153029235079884529 0 -0.0914078950881958008
0.033311016857624054 0 -0.0864867568016052246
0.0499675683677196503 0 -0.0780565440654754639
0.0645967647433280945 0 -0.0664593130350112915
0.0766050443053245544 0 -0.0521656014025211334
0.0926799997687339783 -0.0511194169521331787 0
0.0920225903391838074 -0.0499633513391017914 -0.011010526679456234
0.0901666805148124695 -0.046598680317401886 -0.0214127786457538605
0.0874232426285743713 -0.0412690676748752594 -0.0307433381676673889
0.0842031016945838928 -0.0342411883175373077 -0.0386968255043029785
0.0809836685657501221 -0.0257335621863603592 -0.0450486913323402405
0.0783189088106155396 -0.0159465484321117401 -0.0495513081550598145
0.0770780518651008606 -0.00812490750104188919 -0.0514977835118770599
0.0926799997687339783 -0.068599998950958252 0
0.0908991768956184387 -0.068599998950958252 -0.0180809702724218369
0.0856251567602157593 -0.068599998950958252 -0.0354670993983745575
0.077060602605342865 -0.068599998950958252 -0.0514902509748935699
0.0655346587300300598 -0.068599998950958252 -0.0655346587300300598
0.0514902509748935699 -0.068599998950958252 -0.077060602605342865
