ply
format ascii 1.0
element vertex 718
property float x
property float y
property float z
end_header
4.99600361081320443e-16 0.13728022575378418 0.0379149839282035828
4.99600361081320443e-16 0.127862423658370972 0.000816509127616882324
4.99600361081320443e-16 0.216807931661605835 0.0222536772489547729
4.99600361081320443e-16 0.249162748456001282 0.0840016528964042664
4.99600361081320443e-16 0.12955889105796814 0.0285786688327789307
4.99600361081320443e-16 0.198205873370170593 0.136021509766578674
4.99600361081320443e-16 0.145952388644218445 0.0169778838753700256
4.99600361081320443e-16 0.129135504364967346 0.0213154405355453491
4.99600361081320443e-16 0.235827773809432983 0.177175328135490417
4.99600361081320443e-16 0.083879426121711731 0.00326769053936004639
4.99600361081320443e-16 0.10748252272605896 0.00635357201099395752
4.99600361081320443e-16 0.222503378987312317 0.145333424210548401
4.99600361081320443e-16 0.230752348899841309 0.214453116059303284
4.99600361081320443e-16 0.151850700378417969 0.0573838651180267334
4.99600361081320443e-16 0.238262876868247986 0.18952314555644989
4.99600361081320443e-16 0.169778823852539062 0.0726910606026649475
4.99600361081320443e-16 0.115270018577575684 0.041600644588470459
4.99600361081320443e-16 0.100962191820144653 0.0479134172201156616
4.99600361081320443e-16 0.125005453824996948 0.0423889234662055969
4.99600361081320443e-16 0.0615266263484954834 0.0350735187530517578
4.99600361081320443e-16 0.124612167477607727 0.0473754703998565674
4.99600361081320443e-16 0.159962236881256104 0.0570557937026023865
4.99600361081320443e-16 0.164674460887908936 0.142520219087600708
4.99600361081320443e-16 0.087721019983291626 0.0735576599836349487
4.99600361081320443e-16 0.157007098197937012 0.0487837791442871094
4.99600361081320443e-16 0.11449114978313446 0.0821328014135360718
4.99600361081320443e-16 0.241554588079452515 0.207389235496520996
4.99600361081320443e-16 0.214405283331871033 0.110288508236408234
4.99600361081320443e-16 0.125007152557373047 0.110850155353546143
4.99600361081320443e-16 0.209848880767822266 0.0405764877796173096
4.99600361081320443e-16 0.191398918628692627 0.0691084414720535278
4.99600361081320443e-16 0.125780254602432251 0.0720386356115341187
4.99600361081320443e-16 0.114882811903953552 0.0256609320640563965
4.99600361081320443e-16 0.139079362154006958 0.105199187994003296
4.99600361081320443e-16 0.210047155618667603 0.157215431332588196
4.99600361081320443e-16 0.222066625952720642 0.0114357676357030869
4.99600361081320443e-16 0.163617432117462158 0.138620346784591675
4.99600361081320443e-16 0.146631106734275818 0.132091403007507324
4.99600361081320443e-16 0.124612301588058472 0.0105722323060035706
4.99600361081320443e-16 0.197394505143165588 0.168994322419166565
4.99600361081320443e-16 0.19533461332321167 0.0420738160610198975
4.99600361081320443e-16 0.203112512826919556 0.03275270015001297
4.99600361081320443e-16 0.18670518696308136 0.0616195276379585266
4.99600361081320443e-16 0.0266150385141372681 0.00306321680545806885
4.99600361081320443e-16 0.232673615217208862 0.137795597314834595
4.99600361081320443e-16 0.09289589524269104 0.00529327988624572754
4.99600361081320443e-16 0.150477558374404907 0.077684253454208374
4.99600361081320443e-16 0.196065545082092285 0.145957246422767639
4.99600361081320443e-16 0.226468369364738464 0.0925128832459449768
4.99600361081320443e-16 0.0736270248889923096 0.0331083089113235474
4.99600361081320443e-16 0.0953705757856369019 0.0807828456163406372
4.99600361081320443e-16 0.150789082050323486 0.0779261663556098938
4.99600361081320443e-16 0.065265849232673645 0.00251293182373046875
4.99600361081320443e-16 0.0536668300628662109 0.0333055257797241211
4.99600361081320443e-16 0.188528269529342651 0.0878855437040328979
4.99600361081320443e-16 0.224767535924911499 0.17391417920589447
4.99600361081320443e-16 0.195252493023872375 0.148162364959716797
4.99600361081320443e-16 0.0783403515815734863 0.0507755130529403687
4.99600361081320443e-16 0.0346414744853973389 0.0100608170032501221
4.99600361081320443e-16 0.162196084856987 0.121345445513725281
4.99600361081320443e-16 0.159784659743309021 0.13483525812625885
4.99600361081320443e-16 0.227000251412391663 0.149263769388198853
4.99600361081320443e-16 0.210789591073989868 0.11319887638092041
4.99600361081320443e-16 0.137152403593063354 0.00174041092395782471
4.99600361081320443e-16 0.237449526786804199 0.131656154990196228
4.99600361081320443e-16 0.133495688438415527 0.0164194405078887939
4.99600361081320443e-16 0.230571240186691284 0.178815141320228577
4.99600361081320443e-16 0.0834314674139022827 0.0462626665830612183
4.99600361081320443e-16 0.0567523092031478882 0.0496255010366439819
4.99600361081320443e-16 0.230281040072441101 0.0278481580317020416
4.99600361081320443e-16 0.210693776607513428 0.169676885008811951
4.99600361081320443e-16 0.120119243860244751 0.0387917384505271912
4.99600361081320443e-16 0.10546441376209259 0.00645269453525543213
4.99600361081320443e-16 0.112876430153846741 0.0576655268669128418
4.99600361081320443e-16 0.245345517992973328 0.150943756103515625
4.99600361081320443e-16 0.225847646594047546 0.133326604962348938
4.99600361081320443e-16 0.165408939123153687 0.0217071995139122009
4.99600361081320443e-16 0.126057982444763184 0.107726216316223145
4.99600361081320443e-16 0.180874928832054138 0.113524377346038818
4.99600361081320443e-16 0.128760650753974915 0.0807787925004959106
4.99600361081320443e-16 0.0585719048976898193 0.0533381253480911255
4.99600361081320443e-16 0.224437624216079712 0.208690151572227478
4.99600361081320443e-16 0.217649877071380615 0.183919623494148254
4.99600361081320443e-16 0.166029751300811768 2.5056302547454834e-05
4.99600361081320443e-16 0.210923328995704651 0.088076367974281311
4.99600361081320443e-16 0.162403315305709839 0.138218611478805542
4.99600361081320443e-16 0.109379291534423828 0.0372605025768280029
4.99600361081320443e-16 0.223560899496078491 0.0106108337640762329
4.99600361081320443e-16 0.113883987069129944 0.0785132944583892822
4.99600361081320443e-16 0.24799346923828125 0.209972560405731201
4.99600361081320443e-16 0.174081012606620789 0.107958130538463593
4.99600361081320443e-16 0.198447376489639282 0.146568462252616882
4.99600361081320443e-16 0.154714137315750122 0.0699424818158149719
4.99600361081320443e-16 0.214526951313018799 0.196449249982833862
4.99600361081320443e-16 0.221034720540046692 0.143632978200912476
4.99600361081320443e-16 0.175323367118835449 0.00448478013277053833
4.99600361081320443e-16 0.226373940706253052 0.0640482380986213684
4.99600361081320443e-16 0.167408287525177002 0.026142410933971405
4.99600361081320443e-16 0.0944214314222335815 5.91427087783813477e-05
4.99600361081320443e-16 0.0674540102481842041 0.0360819101333618164
4.99600361081320443e-16 0.149494662880897522 0.137812107801437378
4.99600361081320443e-16 0.227069675922393799 0.0896812975406646729
4.99600361081320443e-16 0.214165419340133667 0.0562898106873035431
4.99600361081320443e-16 0.162918195128440857 0.1116313636302948
4.99600361081320443e-16 0.19009128212928772 0.10251481831073761
4.99600361081320443e-16 0.183866918087005615 0.0461945906281471252
4.99600361081320443e-16 0.246549904346466064 0.0215013772249221802
4.99600361081320443e-16 0.169193893671035767 0.159129410982131958
4.99600361081320443e-16 0.169500619173049927 0.143717750906944275
4.99600361081320443e-16 0.238014280796051025 0.041378561407327652
4.99600361081320443e-16 0.210724741220474243 0.181811213493347168
4.99600361081320443e-16 0.148812249302864075 0.0406039804220199585
4.99600361081320443e-16 0.212531164288520813 0.122232295572757721
4.99600361081320443e-16 0.230626285076141357 0.0262777227908372879
4.99600361081320443e-16 0.144525617361068726 0.0226390883326530457
4.99600361081320443e-16 0.240838617086410522 0.172847777605056763
4.99600361081320443e-16 0.174906462430953979 0.0452596396207809448
4.99600361081320443e-16 0.0518692433834075928 0.0351897329092025757
4.99600361081320443e-16 0.193200588226318359 0.10078178346157074
4.99600361081320443e-16 0.2227344810962677 0.0496444404125213623
4.99600361081320443e-16 0.218168184161186218 0.0232926458120346069
4.99600361081320443e-16 0.228201180696487427 0.171513721346855164
4.99600361081320443e-16 0.212488770484924316 0.168636083602905273
4.99600361081320443e-16 0.187016904354095459 0.175093352794647217
4.99600361081320443e-16 0.0603229105472564697 0.0168618112802505493
4.99600361081320443e-16 0.0846620798110961914 0.0370922982692718506
4.99600361081320443e-16 0.186025753617286682 0.1692475825548172
4.99600361081320443e-16 0.0386002808809280396 0.0155513584613800049
4.99600361081320443e-16 0.0778080374002456665 0.0540556013584136963
4.99600361081320443e-16 0.0903784483671188354 0.00038217008113861084
4.99600361081320443e-16 0.235746830701828003 0.154901787638664246
4.99600361081320443e-16 0.218297362327575684 0.0698535442352294922
4.99600361081320443e-16 0.016204342246055603 0.00180967152118682861
4.99600361081320443e-16 0.125710844993591309 0.0651262179017066956
4.99600361081320443e-16 0.0991944372653961182 0.024900481104850769
4.99600361081320443e-16 0.0854126960039138794 0.0422871708869934082
4.99600361081320443e-16 0.242239728569984436 0.114351525902748108
4.99600361081320443e-16 0.1768035888671875 0.0152356922626495361
4.99600361081320443e-16 0.240698739886283875 0.212848573923110962
4.99600361081320443e-16 0.210454225540161133 0.106217190623283386
4.99600361081320443e-16 0.108699008822441101 0.0679558366537094116
4.99600361081320443e-16 0.201397299766540527 0.133054062724113464
4.99600361081320443e-16 0.205018535256385803 0.0428484566509723663
4.99600361081320443e-16 0.233269080519676208 0.142992585897445679
4.99600361081320443e-16 0.207365274429321289 0.00270932167768478394
4.99600361081320443e-16 0.190314739942550659 0.0724501609802246094
4.99600361081320443e-16 0.216132372617721558 0.112981103360652924
4.99600361081320443e-16 0.196786999702453613 0.0638846755027770996
4.99600361081320443e-16 0.133606255054473877 0.118697077035903931
4.99600361081320443e-16 0.22377479076385498 0.0434978902339935303
4.99600361081320443e-16 0.126964062452316284 0.107685893774032593
4.99600361081320443e-16 0.22768828272819519 0.203553274273872375
4.99600361081320443e-16 0.110304996371269226 0.0615636706352233887
4.99600361081320443e-16 0.248946651816368103 0.0981279090046882629
4.99600361081320443e-16 0.20884983241558075 0.197558134794235229
4.99600361081320443e-16 0.180187642574310303 0.00638163089752197266
4.99600361081320443e-16 0.140942633152008057 0.101353541016578674
4.99600361081320443e-16 0.24444936215877533 0.214557930827140808
4.99600361081320443e-16 0.243708878755569458 0.0777316838502883911
4.99600361081320443e-16 0.227161377668380737 0.203828275203704834
4.99600361081320443e-16 0.23514905571937561 0.0329670608043670654
4.99600361081320443e-16 0.182168692350387573 0.154053062200546265
4.99600361081320443e-16 0.229969307780265808 0.156385183334350586
4.99600361081320443e-16 0.214842736721038818 0.043996024876832962
4.99600361081320443e-16 0.220471844077110291 0.065392032265663147
4.99600361081320443e-16 0.102006614208221436 0.0632403790950775146
4.99600361081320443e-16 0.204399824142456055 0.000178299844264984131
4.99600361081320443e-16 0.138354465365409851 0.117314964532852173
4.99600361081320443e-16 0.187098890542984009 0.0158039256930351257
4.99600361081320443e-16 0.167762279510498047 0.1295432448387146
4.99600361081320443e-16 0.174707889556884766 0.0838604122400283813
4.99600361081320443e-16 0.157240062952041626 0.00189390778541564941
4.99600361081320443e-16 0.195353686809539795 0.131169378757476807
4.99600361081320443e-16 0.21587999165058136 0.00673603266477584839
4.99600361081320443e-16 0.138475000858306885 0.000706508755683898926
4.99600361081320443e-16 0.100007057189941406 0.089389413595199585
4.99600361081320443e-16 0.225720182061195374 0.0126739945262670517
4.99600361081320443e-16 0.176179587841033936 0.0266586616635322571
4.99600361081320443e-16 0.109526306390762329 0.0772781521081924438
4.99600361081320443e-16 0.222012802958488464 0.13566271960735321
4.99600361081320443e-16 0.0618842542171478271 0.00760772824287414551
4.99600361081320443e-16 0.193222403526306152 0.0220296382904052734
4.99600361081320443e-16 0.118366792798042297 0.0469385385513305664
4.99600361081320443e-16 0.165567472577095032 0.0721999108791351318
4.99600361081320443e-16 0.156844556331634521 0.148206353187561035
4.99600361081320443e-16 0.139467597007751465 0.120764032006263733
4.99600361081320443e-16 0.14237898588180542 0.0460969358682632446
4.99600361081320443e-16 0.216303616762161255 0.0214802511036396027
4.99600361081320443e-16 0.174956962466239929 0.124619759619235992
4.99600361081320443e-16 0.12327931821346283 0.0704705417156219482
4.99600361081320443e-16 0.191461488604545593 0.0575828216969966888
4.99600361081320443e-16 0.240239709615707397 0.12839844822883606
4.99600361081320443e-16 0.0566324740648269653 0.00397086143493652344
4.99600361081320443e-16 0.139499753713607788 0.121039099991321564
4.99600361081320443e-16 0.176254808902740479 0.0546837225556373596
4.99600361081320443e-16 0.206665635108947754 0.0628832727670669556
4.99600361081320443e-16 0.170897752046585083 0.124624460935592651
4.99600361081320443e-16 0.136503487825393677 0.083768695592880249
4.99600361081320443e-16 0.208204418420791626 0.00193677842617034912
4.99600361081320443e-16 0.13843555748462677 0.0298800021409988403
4.99600361081320443e-16 0.0989008396863937378 0.0529009103775024414
4.99600361081320443e-16 0.240752711892127991 0.227203205227851868
4.99600361081320443e-16 0.221300572156906128 0.170738965272903442
4.99600361081320443e-16 0.154777750372886658 0.135720521211624146
4.99600361081320443e-16 0.183952242136001587 0.0469075813889503479
4.99600361081320443e-16 0.131133139133453369 0.06404867023229599
4.99600361081320443e-16 0.163313314318656921 0.0925735384225845337
4.99600361081320443e-16 0.189362227916717529 0.00432742759585380554
4.99600361081320443e-16 0.187005788087844849 0.0918412208557128906
4.99600361081320443e-16 0.133858963847160339 0.0221417620778083801
4.99600361081320443e-16 0.21122799813747406 0.0534521006047725677
4.99600361081320443e-16 0.216700360178947449 0.039561193436384201
4.99600361081320443e-16 0.0619325339794158936 0.0340050756931304932
4.99600361081320443e-16 0.0952573865652084351 0.0430114269256591797
4.99600361081320443e-16 0.170881360769271851 0.154026299715042114
4.99600361081320443e-16 0.240207016468048096 0.222817257046699524
4.99600361081320443e-16 0.0973583906888961792 0.0361920446157455444
4.99600361081320443e-16 0.196592196822166443 0.1625937819480896
4.99600361081320443e-16 0.145527288317680359 0.104586437344551086
4.99600361081320443e-16 0.157429665327072144 0.00912947207689285278
4.99600361081320443e-16 0.0287539064884185791 0.00290930271148681641
4.99600361081320443e-16 0.174209743738174438 0.0694058239459991455
4.99600361081320443e-16 0.227555543184280396 0.0976914763450622559
4.99600361081320443e-16 0.217235296964645386 0.0250895265489816666
4.99600361081320443e-16 0.111058101058006287 0.0292309671640396118
4.99600361081320443e-16 0.219631582498550415 0.112214058637619019
4.99600361081320443e-16 0.219451084733009338 0.131153851747512817
4.99600361081320443e-16 0.238423362374305725 0.203665107488632202
4.99600361081320443e-16 0.210797801613807678 0.194880574941635132
4.99600361081320443e-16 0.0199294835329055786 0.00425525009632110596
4.99600361081320443e-16 0.207882910966873169 0.156252473592758179
4.99600361081320443e-16 0.182611972093582153 0.018040977418422699
4.99600361081320443e-16 0.228692695498466492 0.0775841772556304932
4.99600361081320443e-16 0.199877902865409851 0.0933488309383392334
4.99600361081320443e-16 0.150209218263626099 0.0620840862393379211
4.99600361081320443e-16 0.0529877692461013794 0.0134983211755752563
4.99600361081320443e-16 0.249451681971549988 0.18239457905292511
4.99600361081320443e-16 0.214841008186340332 0.00168798118829727173
4.99600361081320443e-16 0.214528441429138184 0.171730250120162964
4.99600361081320443e-16 0.114960640668869019 0.0446705371141433716
4.99600361081320443e-16 0.188121065497398376 0.172428548336029053
4.99600361081320443e-16 0.231906265020370483 0.0568108558654785156
4.99600361081320443e-16 0.211718618869781494 0.0657096207141876221
4.99600361081320443e-16 0.205115973949432373 0.00562832504510879517
4.99600361081320443e-16 0.147837743163108826 0.0184319093823432922
4.99600361081320443e-16 0.170586273074150085 0.00169925391674041748
4.99600361081320443e-16 0.142564550042152405 0.0911397933959960938
4.99600361081320443e-16 0.203521609306335449 0.0911461859941482544
4.99600361081320443e-16 0.202587500214576721 0.0088539905846118927
4.99600361081320443e-16 0.239361301064491272 0.20303770899772644
4.99600361081320443e-16 0.144805788993835449 0.100406967103481293
4.99600361081320443e-16 0.233224377036094666 0.0929659381508827209
4.99600361081320443e-16 0.237186327576637268 0.0650491788983345032
4.99600361081320443e-16 0.219251945614814758 0.0612630695104598999
4.99600361081320443e-16 0.211110234260559082 0.158393263816833496
4.99600361081320443e-16 0.234243780374526978 0.0161721836775541306
4.99600361081320443e-16 0.084943622350692749 0.0487242043018341064
4.99600361081320443e-16 0.100979790091514587 0.0921096652746200562
4.99600361081320443e-16 0.113485768437385559 0.0974400192499160767
4.99600361081320443e-16 0.249191701412200928 0.0406990908086299896
4.99600361081320443e-16 0.0764083266258239746 0.042599797248840332
4.99600361081320443e-16 0.124256879091262817 0.0332648828625679016
4.99600361081320443e-16 0.238684087991714478 0.0351461842656135559
4.99600361081320443e-16 0.0708786845207214355 0.00151628255844116211
4.99600361081320443e-16 0.159825727343559265 0.013810180127620697
4.99600361081320443e-16 0.149660572409629822 0.0845312848687171936
4.99600361081320443e-16 0.245797768235206604 0.190498709678649902
4.99600361081320443e-16 0.215434819459915161 0.189815327525138855
4.99600361081320443e-16 0.247541740536689758 0.199176132678985596
4.99600361081320443e-16 0.11327245831489563 0.0451006293296813965
4.99600361081320443e-16 0.191775962710380554 0.0831642299890518188
4.99600361081320443e-16 0.248310878872871399 0.191743835806846619
4.99600361081320443e-16 0.173643320798873901 0.0818817391991615295
4.99600361081320443e-16 0.202666282653808594 0.179874345660209656
4.99600361081320443e-16 0.0746479928493499756 0.0189628452062606812
4.99600361081320443e-16 0.0812777727842330933 0.0178966671228408813
4.99600361081320443e-16 0.182462498545646667 0.122377097606658936
4.99600361081320443e-16 0.231249183416366577 0.0184532776474952698
4.99600361081320443e-16 0.0257101058959960938 6.58929347991943359e-05
4.99600361081320443e-16 0.0256058573722839355 0.0173199921846389771
4.99600361081320443e-16 0.195445343852043152 0.0503700152039527893
4.99600361081320443e-16 0.227792143821716309 0.201776713132858276
4.99600361081320443e-16 0.188798084855079651 0.158049210906028748
4.99600361081320443e-16 0.192619591951370239 0.00958757102489471436
4.99600361081320443e-16 0.184484809637069702 0.0249099694192409515
4.99600361081320443e-16 0.134940087795257568 0.0167982950806617737
4.99600361081320443e-16 0.112835392355918884 0.0468865185976028442
4.99600361081320443e-16 0.217293679714202881 0.194225206971168518
4.99600361081320443e-16 0.0958117246627807617 0.006750449538230896
4.99600361081320443e-16 0.243556246161460876 0.119926579296588898
4.99600361081320443e-16 0.122537583112716675 0.0280767157673835754
4.99600361081320443e-16 0.194681286811828613 0.0423182733356952667
4.99600361081320443e-16 0.225050643086433411 0.05578642338514328
4.99600361081320443e-16 0.245926514267921448 0.0691286325454711914
4.99600361081320443e-16 0.127123355865478516 0.0580102801322937012
4.99600361081320443e-16 0.0276229381561279297 0.0165039896965026855
4.99600361081320443e-16 0.217431291937828064 0.124811187386512756
4.99600361081320443e-16 0.174617916345596313 0.0805597230792045593
4.99600361081320443e-16 0.11686977744102478 0.00705638527870178223
4.99600361081320443e-16 0.248382270336151123 0.126493945717811584
4.99600361081320443e-16 0.211021170020103455 0.0559478215873241425
4.99600361081320443e-16 0.226259976625442505 0.0201600510627031326
4.99600361081320443e-16 0.12810768187046051 0.104198776185512543
4.99600361081320443e-16 0.216895148158073425 0.184792876243591309
4.99600361081320443e-16 0.161558717489242554 0.127214357256889343
4.99600361081320443e-16 0.117156192660331726 0.0419271737337112427
4.99600361081320443e-16 0.206436395645141602 0.133200198411941528
4.99600361081320443e-16 0.114719942212104797 0.0501140803098678589
4.99600361081320443e-16 0.181362584233283997 0.0790762603282928467
4.99600361081320443e-16 0.192527070641517639 0.00954583659768104553
4.99600361081320443e-16 0.210469424724578857 0.145774379372596741
4.99600361081320443e-16 0.187198802828788757 0.1352519690990448
4.99600361081320443e-16 0.149254992604255676 0.0295979231595993042
4.99600361081320443e-16 0.22001221776008606 0.0199798624962568283
4.99600361081320443e-16 0.151690751314163208 0.0183377265930175781
4.99600361081320443e-16 0.217243105173110962 0.0907034575939178467
4.99600361081320443e-16 0.175321608781814575 0.0467511937022209167
4.99600361081320443e-16 0.192608803510665894 0.0986912772059440613
4.99600361081320443e-16 0.114488095045089722 0.0212031751871109009
4.99600361081320443e-16 0.0774424076080322266 0.072024419903755188
4.99600361081320443e-16 0.151093289256095886 0.029252953827381134
4.99600361081320443e-16 0.237938851118087769 0.113148719072341919
4.99600361081320443e-16 0.1530313640832901 0.0519946590065956116
4.99600361081320443e-16 0.24605107307434082 0.00816756021231412888
4.99600361081320443e-16 0.100944399833679199 0.0320348292589187622
4.99600361081320443e-16 0.127878516912460327 0.0840756744146347046
4.99600361081320443e-16 0.13771231472492218 0.0574064105749130249
4.99600361081320443e-16 0.114416360855102539 0.066844254732131958
4.99600361081320443e-16 0.166330233216285706 0.0989028066396713257
4.99600361081320443e-16 0.160691916942596436 0.109681278467178345
4.99600361081320443e-16 0.209176972508430481 0.159006118774414062
4.99600361081320443e-16 0.15611681342124939 0.0610473304986953735
4.99600361081320443e-16 0.165816038846969604 0.0347331464290618896
4.99600361081320443e-16 0.12494698166847229 0.0391542091965675354
4.99600361081320443e-16 0.138990506529808044 0.00705453753471374512
4.99600361081320443e-16 0.190233007073402405 0.155983328819274902
4.99600361081320443e-16 0.074901282787322998 0.0216971784830093384
4.99600361081320443e-16 0.0818981528282165527 0.0508638322353363037
4.99600361081320443e-16 0.224333614110946655 0.0405983999371528625
4.99600361081320443e-16 0.0274142324924468994 0.0239711999893188477
4.99600361081320443e-16 0.245122924447059631 0.144473746418952942
4.99600361081320443e-16 0.11646665632724762 0.031572490930557251
4.99600361081320443e-16 0.120210528373718262 0.0422323793172836304
4.99600361081320443e-16 0.23569101095199585 0.103551797568798065
4.99600361081320443e-16 0.204543083906173706 0.0904715210199356079
4.99600361081320443e-16 0.212795838713645935 0.142482563853263855
4.99600361081320443e-16 0.148522913455963135 0.0857319682836532593
4.99600361081320443e-16 0.182311534881591797 0.0235142931342124939
4.99600361081320443e-16 0.14433954656124115 0.0875676274299621582
4.99600361081320443e-16 0.246541693806648254 0.0654755905270576477
4.99600361081320443e-16 0.247696578502655029 0.205907911062240601
4.99600361081320443e-16 0.214418530464172363 0.0768785625696182251
4.99600361081320443e-16 0.191048875451087952 0.120683647692203522
4.99600361081320443e-16 0.134927645325660706 0.00404108315706253052
4.99600361081320443e-16 0.18408358097076416 0.0617135688662528992
4.99600361081320443e-16 0.221681252121925354 0.00260397419333457947
4.99600361081320443e-16 0.158858537673950195 0.115256950259208679
4.99600361081320443e-16 0.17014545202255249 0.0925255641341209412
4.99600361081320443e-16 0.0346896499395370483 0.00557781755924224854
4.99600361081320443e-16 0.103680342435836792 0.0655673295259475708
4.99600361081320443e-16 0.211056709289550781 0.0364896059036254883
4.99600361081320443e-16 0.0270746052265167236 0.0171135663986206055
4.99600361081320443e-16 0.177442073822021484 0.00586250424385070801
4.99600361081320443e-16 0.233085185289382935 0.0771639347076416016
4.99600361081320443e-16 0.136279255151748657 0.113839723169803619
4.99600361081320443e-16 0.157312840223312378 0.137924313545227051
4.99600361081320443e-16 0.136258989572525024 0.00873073935508728027
4.99600361081320443e-16 0.120590671896934509 0.0969569459557533264
4.99600361081320443e-16 0.175236478447914124 0.13050001859664917
4.99600361081320443e-16 0.234119623899459839 0.0855636447668075562
4.99600361081320443e-16 0.0899622291326522827 0.00225088000297546387
4.99600361081320443e-16 0.244786456227302551 0.0634596720337867737
4.99600361081320443e-16 0.166533082723617554 0.0651687160134315491
4.99600361081320443e-16 0.183414161205291748 0.110349752008914948
4.99600361081320443e-16 0.204338163137435913 0.0795404389500617981
4.99600361081320443e-16 0.245464697480201721 0.199719861149787903
4.99600361081320443e-16 0.145138099789619446 0.0298566147685050964
4.99600361081320443e-16 0.0139412283897399902 0.0118198096752166748
4.99600361081320443e-16 0.204363301396369934 0.120795868337154388
4.99600361081320443e-16 0.0422591716051101685 0.0327877998352050781
4.99600361081320443e-16 0.0825453847646713257 0.0183026790618896484
4.99600361081320443e-16 0.161542922258377075 0.118966236710548401
4.99600361081320443e-16 0.249759450554847717 0.130574554204940796
4.99600361081320443e-16 0.239982366561889648 0.036956150084733963
4.99600361081320443e-16 0.116984397172927856 0.0374882966279983521
4.99600361081320443e-16 0.233270332217216492 0.0868057087063789368
4.99600361081320443e-16 0.205043792724609375 0.125352472066879272
4.99600361081320443e-16 0.243596524000167847 0.0186476372182369232
4.99600361081320443e-16 0.237469866871833801 0.222807109355926514
4.99600361081320443e-16 0.187908336520195007 0.0112920552492141724
4.99600361081320443e-16 0.230760440230369568 0.196059077978134155
4.99600361081320443e-16 0.067962154746055603 0.0271066725254058838
4.99600361081320443e-16 0.121748790144920349 0.1027364581823349
4.99600361081320443e-16 0.216427147388458252 0.0881392061710357666
4.99600361081320443e-16 0.117587029933929443 0.0436089932918548584
4.99600361081320443e-16 0.190637856721878052 0.124303407967090607
4.99600361081320443e-16 0.0688788443803787231 0.0111211985349655151
4.99600361081320443e-16 0.247237741947174072 0.188740551471710205
4.99600361081320443e-16 0.180944159626960754 0.0236485078930854797
4.99600361081320443e-16 0.244710028171539307 0.0563169717788696289
4.99600361081320443e-16 0.216286510229110718 0.0732730850577354431
4.99600361081320443e-16 0.216038912534713745 0.151078119874000549
4.99600361081320443e-16 0.170314982533454895 0.0799257382750511169
4.99600361081320443e-16 0.244137778878211975 0.0621813461184501648
4.99600361081320443e-16 0.204245537519454956 0.160829290747642517
4.99600361081320443e-16 0.222017481923103333 0.160292282700538635
4.99600361081320443e-16 0.0734703093767166138 0.00723217427730560303
4.99600361081320443e-16 0.135185942053794861 0.0283603519201278687
4.99600361081320443e-16 0.188749626278877258 0.146876901388168335
4.99600361081320443e-16 0.17483946681022644 0.142349958419799805
4.99600361081320443e-16 0.125203371047973633 0.0221725329756736755
4.99600361081320443e-16 0.213193297386169434 0.127973467111587524
4.99600361081320443e-16 0.227683603763580322 0.0653644651174545288
4.99600361081320443e-16 0.233544975519180298 0.0301449298858642578
4.99600361081320443e-16 0.17613491415977478 0.0411859229207038879
4.99600361081320443e-16 0.102893441915512085 0.0466322898864746094
4.99600361081320443e-16 0.190039381384849548 0.0378099977970123291
4.99600361081320443e-16 0.0597295761108398438 0.028288915753364563
4.99600361081320443e-16 0.121780529618263245 0.0407462939620018005
4.99600361081320443e-16 0.184023663401603699 0.118925631046295166
4.99600361081320443e-16 0.218206897377967834 0.0678290128707885742
4.99600361081320443e-16 0.14128720760345459 0.0417452305555343628
4.99600361081320443e-16 0.204724520444869995 0.0193233340978622437
4.99600361081320443e-16 0.208325475454330444 0.106129564344882965
4.99600361081320443e-16 0.164298027753829956 0.0993707552552223206
4.99600361081320443e-16 0.218303382396697998 0.0124905798584222794
4.99600361081320443e-16 0.23829612135887146 0.0590696334838867188
4.99600361081320443e-16 0.165075868368148804 0.0506152361631393433
4.99600361081320443e-16 0.108609586954116821 0.0512835681438446045
4.99600361081320443e-16 0.0370589494705200195 0.0161176174879074097
4.99600361081320443e-16 0.229534849524497986 0.20273531973361969
4.99600361081320443e-16 0.185002312064170837 0.0512008927762508392
4.99600361081320443e-16 0.175363868474960327 0.12220977246761322
4.99600361081320443e-16 0.20657619833946228 0.0175609253346920013
4.99600361081320443e-16 0.154965341091156006 0.107937619090080261
4.99600361081320443e-16 0.176189973950386047 0.106129094958305359
4.99600361081320443e-16 0.218849748373031616 0.0264146998524665833
4.99600361081320443e-16 0.202849850058555603 0.138902932405471802
4.99600361081320443e-16 0.229827880859375 0.206961199641227722
4.99600361081320443e-16 0.105160072445869446 0.0957552045583724976
4.99600361081320443e-16 0.203207090497016907 0.00870405882596969604
4.99600361081320443e-16 0.211630061268806458 0.0337464101612567902
4.99600361081320443e-16 0.129967957735061646 0.0888342335820198059
4.99600361081320443e-16 0.124860912561416626 0.0652938038110733032
4.99600361081320443e-16 0.201033592224121094 0.0253895372152328491
4.99600361081320443e-16 0.149099111557006836 0.139539539813995361
4.99600361081320443e-16 0.0860010534524917603 0.00618508458137512207
4.99600361081320443e-16 0.195345252752304077 0.0473185889422893524
4.99600361081320443e-16 0.18470802903175354 0.125478848814964294
4.99600361081320443e-16 0.161273151636123657 0.0717923566699028015
4.99600361081320443e-16 0.212076827883720398 0.150917470455169678
4.99600361081320443e-16 0.240784153342247009 0.127428174018859863
4.99600361081320443e-16 0.203891903162002563 0.0185428857803344727
4.99600361081320443e-16 0.228961020708084106 0.140445992350578308
4.99600361081320443e-16 0.216242223978042603 0.14568445086479187
4.99600361081320443e-16 0.0258710682392120361 0.0207191705703735352
4.99600361081320443e-16 0.248362287878990173 0.0704467892646789551
4.99600361081320443e-16 0.0411985218524932861 0.00534909963607788086
4.99600361081320443e-16 0.179952859878540039 0.0195539072155952454
4.99600361081320443e-16 0.147763699293136597 0.0488987267017364502
4.99600361081320443e-16 0.0934264808893203735 0.0170429348945617676
4.99600361081320443e-16 0.143774867057800293 0.0488974153995513916
4.99600361081320443e-16 0.153367996215820312 0.13017427921295166
4.99600361081320443e-16 0.138972073793411255 0.000447064638137817383
4.99600361081320443e-16 0.117069557309150696 0.0356569141149520874
4.99600361081320443e-16 0.199528023600578308 0.183192595839500427
4.99600361081320443e-16 0.207769244909286499 0.128067880868911743
4.99600361081320443e-16 0.195276081562042236 0.0832881629467010498
4.99600361081320443e-16 0.101446777582168579 0.00170055031776428223
4.99600361081320443e-16 0.133363783359527588 0.0964578688144683838
4.99600361081320443e-16 0.206855714321136475 0.111568041145801544
4.99600361081320443e-16 0.0917169451713562012 0.0829699188470840454
4.99600361081320443e-16 0.118388846516609192 0.0116413533687591553
4.99600361081320443e-16 0.150012105703353882 0.097169339656829834
4.99600361081320443e-16 0.194467604160308838 0.0526547133922576904
4.99600361081320443e-16 0.218924224376678467 0.0134344790130853653
4.99600361081320443e-16 0.144766718149185181 0.115962080657482147
4.99600361081320443e-16 0.135688811540603638 0.0194468572735786438
4.99600361081320443e-16 0.140354931354522705 0.0232520848512649536
4.99600361081320443e-16 0.143914967775344849 0.00338905304670333862
4.99600361081320443e-16 0.206387877464294434 0.135569587349891663
4.99600361081320443e-16 0.207815751433372498 0.143838450312614441
4.99600361081320443e-16 0.187086701393127441 0.0332120582461357117
4.99600361081320443e-16 0.0755331069231033325 0.00479525327682495117
4.99600361081320443e-16 0.155406415462493896 0.00901192426681518555
4.99600361081320443e-16 0.161171942949295044 0.0130748674273490906
4.99600361081320443e-16 0.165405213832855225 0.0652450695633888245
4.99600361081320443e-16 0.219811573624610901 0.157141387462615967
4.99600361081320443e-16 0.203644156455993652 0.040499269962310791
4.99600361081320443e-16 0.204937905073165894 0.0580130778253078461
4.99600361081320443e-16 0.190556958317756653 0.0805072635412216187
4.99600361081320443e-16 0.16846349835395813 0.149165570735931396
4.99600361081320443e-16 0.186439305543899536 0.146443665027618408
4.99600361081320443e-16 0.0917042046785354614 0.0132168829441070557
4.99600361081320443e-16 0.0600509345531463623 0.00203464925289154053
4.99600361081320443e-16 0.155168414115905762 0.109403111040592194
4.99600361081320443e-16 0.0335736572742462158 0.00531995296478271484
4.99600361081320443e-16 0.206054031848907471 0.00754439830780029297
4.99600361081320443e-16 0.232690125703811646 0.148855894804000854
4.99600361081320443e-16 0.0752154737710952759 0.0444411337375640869
4.99600361081320443e-16 0.206539422273635864 0.132968142628669739
4.99600361081320443e-16 0.0970689058303833008 0.0711825191974639893
4.99600361081320443e-16 0.123994484543800354 0.116930626332759857
4.99600361081320443e-16 0.240691766142845154 0.0415570251643657684
4.99600361081320443e-16 0.202264457941055298 0.0456458218395709991
4.99600361081320443e-16 0.248646184802055359 0.0716154798865318298
4.99600361081320443e-16 0.174367070198059082 0.0419033393263816833
4.99600361081320443e-16 0.0991865545511245728 0.0266188085079193115
4.99600361081320443e-16 0.0384801328182220459 0.00802285969257354736
4.99600361081320443e-16 0.213769435882568359 0.0212075598537921906
4.99600361081320443e-16 0.0811783075332641602 0.0197566747665405273
4.99600361081320443e-16 0.202835112810134888 0.159472882747650146
4.99600361081320443e-16 0.176007896661758423 0.154394328594207764
4.99600361081320443e-16 0.168057963252067566 0.0185240209102630615
4.99600361081320443e-16 0.0613258481025695801 0.017022937536239624
4.99600361081320443e-16 0.222475111484527588 0.0769077464938163757
4.99600361081320443e-16 0.199761718511581421 0.0679512619972229004
4.99600361081320443e-16 0.188440650701522827 0.0107775889337062836
4.99600361081320443e-16 0.167290419340133667 0.13370417058467865
4.99600361081320443e-16 0.188968032598495483 0.0447088554501533508
4.99600361081320443e-16 0.225563138723373413 0.120649203658103943
4.99600361081320443e-16 0.237428188323974609 0.0716699510812759399
4.99600361081320443e-16 0.194789990782737732 0.0887448415160179138
4.99600361081320443e-16 0.231591701507568359 0.202601596713066101
4.99600361081320443e-16 0.100350052118301392 0.0258101373910903931
4.99600361081320443e-16 0.158183306455612183 0.105309225618839264
4.99600361081320443e-16 0.113570809364318848 0.0699947923421859741
4.99600361081320443e-16 0.247408434748649597 0.0308578722178936005
4.99600361081320443e-16 0.137559905648231506 0.0365563258528709412
4.99600361081320443e-16 0.150741100311279297 0.137326419353485107
4.99600361081320443e-16 0.0513359308242797852 0.00565305352210998535
4.99600361081320443e-16 0.248070031404495239 0.20089423656463623
4.99600361081320443e-16 0.171366363763809204 0.157399654388427734
4.99600361081320443e-16 0.215002283453941345 0.19581902027130127
4.99600361081320443e-16 0.0807546675205230713 0.00506784021854400635
4.99600361081320443e-16 0.228802233934402466 0.0764188915491104126
4.99600361081320443e-16 0.148263365030288696 0.0170226991176605225
4.99600361081320443e-16 0.189396589994430542 0.000880744308233261108
4.99600361081320443e-16 0.246384814381599426 0.124879121780395508
4.99600361081320443e-16 0.197270438075065613 0.186609983444213867
4.99600361081320443e-16 0.117509275674819946 0.0526075363159179688
4.99600361081320443e-16 0.0711681544780731201 0.033151775598526001
4.99600361081320443e-16 0.0893593132495880127 0.0159948617219924927
4.99600361081320443e-16 0.200650811195373535 0.0440172068774700165
4.99600361081320443e-16 0.233572721481323242 0.161736771464347839
4.99600361081320443e-16 0.218827515840530396 0.141758516430854797
4.99600361081320443e-16 0.197587192058563232 0.0877671986818313599
4.99600361081320443e-16 0.115471288561820984 0.0636063069105148315
4.99600361081320443e-16 0.21762518584728241 0.156204715371131897
4.99600361081320443e-16 0.0756137818098068237 0.0195735543966293335
4.99600361081320443e-16 0.127261117100715637 0.0698591321706771851
4.99600361081320443e-16 0.221478089690208435 0.173265174031257629
4.99600361081320443e-16 0.218392372131347656 0.193277463316917419
4.99600361081320443e-16 0.0864481180906295776 0.00892983376979827881
4.99600361081320443e-16 0.151491671800613403 0.0123295858502388
4.99600361081320443e-16 0.18109738826751709 0.14263838529586792
4.99600361081320443e-16 0.126637786626815796 0.0537191405892372131
4.99600361081320443e-16 0.222951918840408325 0.0258317906409502029
4.99600361081320443e-16 0.144785046577453613 0.0178024768829345703
4.99600361081320443e-16 0.23462994396686554 0.197462528944015503
4.99600361081320443e-16 0.105902969837188721 0.00690199434757232666
4.99600361081320443e-16 0.19743657112121582 0.181399732828140259
4.99600361081320443e-16 0.0431328266859054565 0.0362723767757415771
4.99600361081320443e-16 0.190741613507270813 0.0647998899221420288
4.99600361081320443e-16 0.18479783833026886 0.116935454308986664
4.99600361081320443e-16 0.199068278074264526 0.01727304607629776
4.99600361081320443e-16 0.197311535477638245 0.150621861219406128
4.99600361081320443e-16 0.2055501788854599 0.0456220768392086029
4.99600361081320443e-16 0.244955867528915405 0.0452868156135082245
4.99600361081320443e-16 0.10541573166847229 0.0363338291645050049
4.99600361081320443e-16 0.243776842951774597 0.192899465560913086
4.99600361081320443e-16 0.217607572674751282 0.0374033823609352112
4.99600361081320443e-16 0.210661530494689941 0.195100396871566772
4.99600361081320443e-16 0.149470224976539612 0.112034641206264496
4.99600361081320443e-16 0.233822956681251526 0.0998168289661407471
4.99600361081320443e-16 0.219645321369171143 0.146390169858932495
4.99600361081320443e-16 0.0822347179055213928 0.127258613705635071
4.99600361081320443e-16 0.201310202479362488 0.206615537405014038
4.99600361081320443e-16 0.124828718602657318 0.128423720598220825
4.99600361081320443e-16 0.19751952588558197 0.19922947883605957
4.99600361081320443e-16 0.103262417018413544 0.226656123995780945
4.99600361081320443e-16 0.0414670109748840332 0.196193858981132507
4.99600361081320443e-16 0.0557798407971858978 0.176883786916732788
4.99600361081320443e-16 0.033478371798992157 0.168428242206573486
4.99600361081320443e-16 0.162778303027153015 0.202229827642440796
4.99600361081320443e-16 0.0393376164138317108 0.141869604587554932
4.99600361081320443e-16 0.0841508880257606506 0.155731186270713806
4.99600361081320443e-16 0.214201092720031738 0.214328199625015259
4.99600361081320443e-16 0.0400486327707767487 0.181797832250595093
4.99600361081320443e-16 0.0742558985948562622 0.22156815230846405
4.99600361081320443e-16 0.112578779458999634 0.120637252926826477
4.99600361081320443e-16 0.0707079395651817322 0.135570898652076721
4.99600361081320443e-16 0.0931486338376998901 0.0957279503345489502
4.99600361081320443e-16 0.085882231593132019 0.0884654521942138672
4.99600361081320443e-16 0.0726262554526329041 0.17289966344833374
4.99600361081320443e-16 0.16910882294178009 0.210390776395797729
4.99600361081320443e-16 0.0294959377497434616 0.161928266286849976
4.99600361081320443e-16 0.0736626684665679932 0.156053230166435242
4.99600361081320443e-16 0.100603803992271423 0.169986188411712646
4.99600361081320443e-16 0.22212354838848114 0.232070520520210266
4.99600361081320443e-16 0.102200306951999664 0.0991213321685791016
4.99600361081320443e-16 0.0862130224704742432 0.0968895256519317627
4.99600361081320443e-16 0.129314646124839783 0.205767065286636353
4.99600361081320443e-16 0.0891740396618843079 0.17692585289478302
4.99600361081320443e-16 0.216827213764190674 0.227285400032997131
4.99600361081320443e-16 0.00973768625408411026 0.152289599180221558
4.99600361081320443e-16 0.155192524194717407 0.225198835134506226
4.99600361081320443e-16 0.0837904959917068481 0.138690084218978882
4.99600361081320443e-16 0.0648101270198822021 0.147297561168670654
4.99600361081320443e-16 0.141805008053779602 0.230564728379249573
4.99600361081320443e-16 0.137512370944023132 0.135778427124023438
4.99600361081320443e-16 0.0649196133017539978 0.0817454606294631958
4.99600361081320443e-16 0.0572841614484786987 0.1697196364402771
4.99600361081320443e-16 0.138744786381721497 0.177335605025291443
4.99600361081320443e-16 0.146608635783195496 0.206038415431976318
4.99600361081320443e-16 0.107898890972137451 0.104190096259117126
4.99600361081320443e-16 0.0660742670297622681 0.23619493842124939
4.99600361081320443e-16 0.125573873519897461 0.171837210655212402
4.99600361081320443e-16 0.111282974481582642 0.122667752206325531
4.99600361081320443e-16 0.0846080631017684937 0.0891760289669036865
4.99600361081320443e-16 0.00673226499930024147 0.20587475597858429
4.99600361081320443e-16 0.183459386229515076 0.20610104501247406
4.99600361081320443e-16 0.198207974433898926 0.205341935157775879
4.99600361081320443e-16 0.0863092318177223206 0.18471449613571167
4.99600361081320443e-16 0.0953070744872093201 0.111551806330680847
4.99600361081320443e-16 0.111879140138626099 0.125670641660690308
4.99600361081320443e-16 0.166590690612792969 0.201930001378059387
4.99600361081320443e-16 0.0496629662811756134 0.219774708151817322
4.99600361081320443e-16 0.175884515047073364 0.198975801467895508
4.99600361081320443e-16 0.00602286867797374725 0.0456772595643997192
4.99600361081320443e-16 0.0492815598845481873 0.16306854784488678
4.99600361081320443e-16 0.00512637663632631302 0.11588655412197113
4.99600361081320443e-16 0.168728947639465332 0.20508536696434021
4.99600361081320443e-16 0.131709828972816467 0.125455856323242188
4.99600361081320443e-16 0.0697461366653442383 0.122781895101070404
4.99600361081320443e-16 0.184324786067008972 0.207018375396728516
4.99600361081320443e-16 0.0106525300070643425 0.217058449983596802
4.99600361081320443e-16 0.118376672267913818 0.20621006190776825
4.99600361081320443e-16 0.0400489382445812225 0.150814563035964966
4.99600361081320443e-16 0.217854529619216919 0.216664478182792664
4.99600361081320443e-16 0.0185265932232141495 0.131742849946022034
4.99600361081320443e-16 0.108916692435741425 0.188270196318626404
4.99600361081320443e-16 0.0270227324217557907 0.160821884870529175
4.99600361081320443e-16 0.128198921680450439 0.213728904724121094
4.99600361081320443e-16 0.00571177992969751358 0.0821512192487716675
4.99600361081320443e-16 0.139936774969100952 0.185443416237831116
4.99600361081320443e-16 0.141700342297554016 0.182420164346694946
4.99600361081320443e-16 0.0619008131325244904 0.14929470419883728
4.99600361081320443e-16 0.0465013012290000916 0.0482084304094314575
4.99600361081320443e-16 0.0261736921966075897 0.0918810069561004639
4.99600361081320443e-16 0.180579617619514465 0.179503381252288818
4.99600361081320443e-16 0.116200380027294159 0.12839844822883606
4.99600361081320443e-16 0.00570915080606937408 0.00901885330677032471
4.99600361081320443e-16 0.180982381105422974 0.218179494142532349
4.99600361081320443e-16 0.0306735113263130188 0.0816415846347808838
4.99600361081320443e-16 0.152443394064903259 0.148683071136474609
4.99600361081320443e-16 0.039679311215877533 0.0990189313888549805
4.99600361081320443e-16 0.159603789448738098 0.20363953709602356
4.99600361081320443e-16 0.0356276035308837891 0.200161069631576538
4.99600361081320443e-16 0.0792356729507446289 0.101518601179122925
4.99600361081320443e-16 0.163130134344100952 0.18482699990272522
4.99600361081320443e-16 0.152295231819152832 0.203938528895378113
4.99600361081320443e-16 0.0768185928463935852 0.124402895569801331
4.99600361081320443e-16 0.0339091755449771881 0.103546217083930969
4.99600361081320443e-16 0.160058557987213135 0.162250488996505737
4.99600361081320443e-16 0.0765113532543182373 0.0813792645931243896
4.99600361081320443e-16 0.0216188486665487289 0.0219754129648208618
4.99600361081320443e-16 0.00327591877430677414 0.139698326587677002
4.99600361081320443e-16 0.0648161917924880981 0.0707075744867324829
4.99600361081320443e-16 0.144889473915100098 0.157879650592803955
4.99600361081320443e-16 0.118491508066654205 0.177774161100387573
4.99600361081320443e-16 0.0679283067584037781 0.235364899039268494
4.99600361081320443e-16 0.0880402103066444397 0.194555282592773438
4.99600361081320443e-16 0.06952667236328125 0.147341117262840271
4.99600361081320443e-16 0.0442799925804138184 0.193151935935020447
4.99600361081320443e-16 0.0816641971468925476 0.216494068503379822
4.99600361081320443e-16 0.0608136318624019623 0.149772793054580688
4.99600361081320443e-16 0.0494718179106712341 0.21651419997215271
4.99600361081320443e-16 0.0623429678380489349 0.155869930982589722
4.99600361081320443e-16 0.0221022460609674454 0.12124653160572052
4.99600361081320443e-16 0.0569037683308124542 0.158666849136352539
4.99600361081320443e-16 0.10851731151342392 0.216509610414505005
4.99600361081320443e-16 0.0684934407472610474 0.102128714323043823
4.99600361081320443e-16 0.0136570706963539124 0.173377454280853271
4.99600361081320443e-16 0.0232750345021486282 0.180963680148124695
4.99600361081320443e-16 0.0137443821877241135 0.168955415487289429
4.99600361081320443e-16 0.00862527638673782349 0.196781620383262634
4.99600361081320443e-16 0.0448229163885116577 0.061086118221282959
4.99600361081320443e-16 0.0201406870037317276 0.0956384092569351196
4.99600361081320443e-16 0.0988931730389595032 0.119912832975387573
4.99600361081320443e-16 0.052417948842048645 0.0972464978694915771
4.99600361081320443e-16 0.00433499040082097054 0.144915461540222168
4.99600361081320443e-16 0.0234782826155424118 0.117279052734375
4.99600361081320443e-16 0.116573713719844818 0.227823629975318909
4.99600361081320443e-16 0.0335621945559978485 0.108241721987724304
4.99600361081320443e-16 0.0359819605946540833 0.127416998147964478
4.99600361081320443e-16 0.184460610151290894 0.198320984840393066
4.99600361081320443e-16 0.0985775217413902283 0.219606205821037292
4.99600361081320443e-16 0.185071095824241638 0.222943350672721863
4.99600361081320443e-16 0.0703289732336997986 0.0747060626745223999
4.99600361081320443e-16 0.0224296953529119492 0.124144658446311951
4.99600361081320443e-16 0.073766954243183136 0.230855554342269897
4.99600361081320443e-16 0.054499499499797821 0.107628941535949707
4.99600361081320443e-16 0.00361556210555136204 0.136067375540733337
4.99600361081320443e-16 0.111042365431785583 0.192824229598045349
4.99600361081320443e-16 0.0595919154584407806 0.0800297409296035767
4.99600361081320443e-16 0.0661247596144676208 0.217434495687484741
4.99600361081320443e-16 0.110190361738204956 0.236066758632659912
4.99600361081320443e-16 0.100201450288295746 0.12703174352645874
4.99600361081320443e-16 0.0867856144905090332 0.176892757415771484
4.99600361081320443e-16 0.110325746238231659 0.109845921397209167
4.99600361081320443e-16 0.0364114642143249512 0.210594087839126587
4.99600361081320443e-16 0.00384222110733389854 0.12023935467004776
4.99600361081320443e-16 0.160592511296272278 0.221882492303848267
4.99600361081320443e-16 0.111185997724533081 0.116114549338817596
4.99600361081320443e-16 0.112158484756946564 0.157376304268836975
4.99600361081320443e-16 0.0398777127265930176 0.167932853102684021
4.99600361081320443e-16 0.169292986392974854 0.217630475759506226
