ply
format ascii 1.0
element vertex 710
property float x
property float y
property float z
end_header
0.0797632783651351929 -0.0491956919431686401 0.0161115974187850952
0.0797632783651351929 -0.0505048260092735291 0.0141616342589259148
0.0797632783651351929 -0.0507902875542640686 0.0115780998021364212
0.0797632783651351929 -0.0536011680960655212 0.00311763212084770203
0.0797632783651351929 -0.0486084558069705963 0.0176468752324581146
0.0797632783651351929 -0.0413048900663852692 0.0297300554811954498
0.0797632783651351929 -0.0492392517626285553 0.00357811525464057922
0.0797632783651351929 -0.0526934787631034851 -0.00921700522303581238
0.0797632783651351929 -0.0438555702567100525 0.0242972560226917267
0.0797632783651351929 -0.0493974834680557251 0.00330862216651439667
0.0797632783651351929 -0.0442592687904834747 0.0232037380337715149
0.0797632783651351929 -0.0459365770220756531 0.0175143834203481674
0.0797632783651351929 -0.0529922060668468475 -0.00794211775064468384
0.0797632783651351929 -0.0534759834408760071 -0.00317423976957798004
0.0797632783651351929 -0.0485803224146366119 0.00319241546094417572
0.0797632783651351929 -0.045839998871088028 0.0190321020781993866
0.0797632783651351929 -0.0515418201684951782 -0.0070848315954208374
0.0797632783651351929 -0.0410082340240478516 0.0308018960058689117
0.0797632783651351929 -0.0515297204256057739 0.00420026993378996849
0.0797632783651351929 -0.0513227060437202454 0.00106585957109928131
0.0797632783651351929 -0.051108967512845993 0.00435144361108541489
0.0797632783651351929 -0.0458653904497623444 0.0147227756679058075
0.0797632783651351929 -0.0444990843534469604 0.023599160835146904
0.0797632783651351929 -0.0506578944623470306 -0.0134560884907841682
0.0797632783651351929 -0.0475204586982727051 -0.0146328136324882507
0.0797632783651351929 -0.0430776886641979218 0.0124258715659379959
0.0797632783651351929 -0.0444845370948314667 0.000143589451909065247
0.0797632783651351929 -0.0408561117947101593 0.0246554166078567505
0.0797632783651351929 -0.049228329211473465 -0.0021078488789498806
0.0797632783651351929 -0.0480373799800872803 -0.0236317291855812073
0.0797632783651351929 -0.0448743700981140137 0.00851211138069629669
0.0797632783651351929 -0.0472691655158996582 -0.0084436517208814621
0.0797632783651351929 -0.0490424111485481262 -0.00697136390954256058
0.0797632783651351929 -0.0456203371286392212 0.00539162568747997284
0.0797632783651351929 -0.0428173765540122986 0.0161179490387439728
0.0797632783651351929 -0.0442653559148311615 0.00681422092020511627
0.0797632783651351929 -0.0480235293507575989 -0.0084032844752073288
0.0797632783651351929 -0.0430382229387760162 0.0118528828024864197
0.0797632783651351929 -0.0414765998721122742 0.0247414354234933853
0.0797632783651351929 -0.0471448712050914764 -0.0217598117887973785
0.0797632783651351929 -0.0443156622350215912 0.00617754086852073669
0.0797632783651351929 -0.0449478626251220703 0.000297661870718002319
0.0797632783651351929 -0.0483218878507614136 0.00121131935156881809
0.0797632783651351929 -0.0473619438707828522 -0.0178723074495792389
0.0797632783651351929 -0.0494299270212650299 -0.00555353937670588493
0.0797632783651351929 -0.0427760817110538483 0.0139964018017053604
0.0797632783651351929 -0.0476013794541358948 -0.0143024437129497528
0.0797632783651351929 -0.0497708804905414581 -0.00929350405931472778
0.0797632783651351929 -0.0480153672397136688 -0.00524387508630752563
0.0797632783651351929 -0.0475408025085926056 -0.000424684956669807434
0.0797632783651351929 -0.0467895865440368652 0.00409488659352064133
0.0797632783651351929 -0.0393509827554225922 0.0044888034462928772
0.0797632783651351929 -0.039391249418258667 -0.0296272486448287964
0.0797632783651351929 -0.0387006886303424835 0.0111279357224702835
0.0797632783651351929 -0.0431133396923542023 -0.0254229195415973663
0.0797632783651351929 -0.0420353002846240997 -0.0169110409915447235
0.0797632783651351929 -0.0413843095302581787 -0.0152659416198730469
0.0797632783651351929 -0.0388493612408638 -0.0289051905274391174
0.0797632783651351929 -0.0401952974498271942 -0.0272632390260696411
0.0797632783651351929 -0.041768249124288559 -0.0279517248272895813
0.0797632783651351929 -0.0453537888824939728 -0.0217228494584560394
0.0797632783651351929 -0.0400335527956485748 -0.00314783863723278046
0.0797632783651351929 -0.0406593568623065948 0.0211121849715709686
0.0797632783651351929 -0.0385081246495246887 -0.00891334190964698792
0.0797632783651351929 -0.0415720939636230469 0.000258223153650760651
0.0797632783651351929 -0.0416398607194423676 -0.00569467805325984955
0.0797632783651351929 -0.0407129451632499695 -0.0301177520304918289
0.0797632783651351929 -0.0416030660271644592 0.00767748290672898293
0.0797632783651351929 -0.0400168634951114655 -0.0139508023858070374
0.0797632783651351929 -0.0400096699595451355 -0.0167113319039344788
0.0797632783651351929 -0.0453267060220241547 -0.0225717872381210327
0.0797632783651351929 -0.0425406508147716522 0.00463396962732076645
0.0797632783651351929 -0.0396521538496017456 -0.0254914797842502594
0.0797632783651351929 -0.0427045524120330811 -0.0199152827262878418
0.0797632783651351929 -0.0436255820095539093 -0.00617954554036259651
0.0797632783651351929 -0.0419928543269634247 -0.00209763552993535995
0.0797632783651351929 -0.0385621935129165649 0.0128846429288387299
0.0797632783651351929 -0.045390494167804718 -0.0284034796059131622
0.0797632783651351929 -0.0454415827989578247 -0.0188078545033931732
0.0797632783651351929 -0.0402041561901569366 0.00626516155898571014
0.0797632783651351929 -0.0428997017443180084 -6.86380080878734589e-05
0.0797632783651351929 -0.0426342785358428955 -0.0151754245162010193
0.0797632783651351929 -0.0439773984253406525 -0.0234094280749559402
0.0797632783651351929 -0.0447870232164859772 -0.0238550212234258652
0.0797632783651351929 -0.0387117452919483185 0.010018911212682724
0.0797632783651351929 -0.0400985404849052429 -0.0356912612915039062
0.0797632783651351929 -0.0441394522786140442 -0.0203174185007810593
0.0797632783651351929 -0.0407608188688755035 0.00768513139337301254
0.0797632783651351929 -0.0387088470160961151 -0.00937732681632041931
0.0797632783651351929 -0.0399994365870952606 0.0243566613644361496
0.0797632783651351929 -0.0306695625185966492 -0.024679332971572876
0.0797632783651351929 -0.036429140716791153 -0.0266724471002817154
0.0797632783651351929 -0.0338147729635238647 -0.0373348407447338104
0.0797632783651351929 -0.0320862755179405212 -0.037212863564491272
0.0797632783651351929 -0.0312621518969535828 -0.0352479219436645508
0.0797632783651351929 -0.0315824747085571289 -0.0424386598169803619
0.0797632783651351929 -0.0344585701823234558 -0.0175150260329246521
0.0797632783651351929 -0.0336775891482830048 -0.0365375727415084839
0.0797632783651351929 -0.0367183573544025421 0.00246196426451206207
0.0797632783651351929 -0.0368551574647426605 -0.0351629108190536499
0.0797632783651351929 -0.0337788350880146027 -0.0236073713749647141
0.0797632783651351929 -0.0341763719916343689 -0.000794965773820877075
0.0797632783651351929 -0.0307960771024227142 -0.0200320445001125336
0.0797632783651351929 -0.0362805351614952087 -0.00578797049820423126
0.0797632783651351929 -0.0374209247529506683 0.0083212023600935936
0.0797632783651351929 -0.0326920263469219208 -0.0390778183937072754
0.0797632783651351929 -0.0371483601629734039 -0.0113347824662923813
0.0797632783651351929 -0.0327167697250843048 -0.0268600825220346451
0.0797632783651351929 -0.0364637374877929688 0.0159743987023830414
0.0797632783651351929 -0.0325230695307254791 -0.0344505384564399719
0.0797632783651351929 -0.0291444696485996246 -0.0387068241834640503
0.0797632783651351929 -0.0367352627217769623 0.00329513009637594223
0.0797632783651351929 -0.0331438072025775909 -0.00222323834896087646
0.0797632783651351929 -0.0366028696298599243 -0.00100615713745355606
0.0797632783651351929 -0.0299450196325778961 -0.043320193886756897
0.0797632783651351929 -0.0328134819865226746 -0.00531198084354400635
0.0797632783651351929 -0.0294576399028301239 -0.0398155935108661652
0.0797632783651351929 -0.0359904877841472626 -0.0115774217993021011
0.0797632783651351929 -0.0359315276145935059 0.0181048233062028885
0.0797632783651351929 -0.0364228077232837677 0.00765655841678380966
0.0797632783651351929 -0.0381898172199726105 -0.036108013242483139
0.0797632783651351929 -0.0318981856107711792 -0.0381899140775203705
0.0797632783651351929 -0.0339952744543552399 -0.0375382192432880402
0.0797632783651351929 -0.0382770933210849762 0.0347624868154525757
0.0797632783651351929 -0.0374320410192012787 0.00560081657022237778
0.0797632783651351929 -0.0325632579624652863 -0.0218813456594944
0.0797632783651351929 -0.0310600772500038147 -0.0262136626988649368
0.0797632783651351929 -0.0361786894500255585 -0.00532797165215015411
0.0797632783651351929 -0.0375256650149822235 0.0303710196167230606
0.0797632783651351929 -0.0298806317150592804 -0.0438648685812950134
0.0797632783651351929 -0.0381294600665569305 -0.0238786060363054276
0.0797632783651351929 -0.034434296190738678 -0.0373771525919437408
0.0797632783651351929 -0.0362809859216213226 0.02108786441385746
0.0797632783651351929 -0.0380422435700893402 -0.00922962930053472519
0.0797632783651351929 -0.0361305437982082367 0.0112738274037837982
0.0797632783651351929 -0.0351068340241909027 0.00317861512303352356
0.0797632783651351929 -0.036085665225982666 -0.00300488434731960297
0.0797632783651351929 -0.0327844209969043732 -0.0253126379102468491
0.0797632783651351929 -0.0312656685709953308 -0.0418923050165176392
0.0797632783651351929 -0.0318943709135055542 -0.0257833339273929596
0.0797632783651351929 -0.0307416729629039764 -0.0329026095569133759
0.0797632783651351929 -0.0346635021269321442 -0.0264440439641475677
0.0797632783651351929 -0.019064800813794136 -0.049387030303478241
0.0797632783651351929 -0.0292304623872041702 -0.0251902081072330475
0.0797632783651351929 -0.0267884563654661179 -0.0273173823952674866
0.0797632783651351929 -0.0294846445322036743 -0.0145263681188225746
0.0797632783651351929 -0.0285885166376829147 -1.26622617244720459e-05
0.0797632783651351929 -0.0287876781076192856 -0.00749304704368114471
0.0797632783651351929 -0.0276306755840778351 -0.0270922910422086716
0.0797632783651351929 -0.030289744958281517 -0.00567132607102394104
0.0797632783651351929 -0.0260555800050497055 -0.0373150892555713654
0.0797632783651351929 -0.0288297608494758606 -0.0264761373400688171
0.0797632783651351929 -0.0221265871077775955 -0.0247750245034694672
0.0797632783651351929 -0.032042723149061203 0.00532649829983711243
0.0797632783651351929 -0.0225650444626808167 -0.0227778367698192596
0.0797632783651351929 -0.0356774777173995972 0.0260166376829147339
0.0797632783651351929 -0.0265606865286827087 -0.0449193641543388367
0.0797632783651351929 -0.0263654552400112152 -0.0151903536170721054
0.0797632783651351929 -0.021060895174741745 -0.038222387433052063
0.0797632783651351929 -0.0323939770460128784 -0.00257301842793822289
0.0797632783651351929 -0.0236200001090764999 -0.0281344782561063766
0.0797632783651351929 -0.0248451679944992065 -0.0141083747148513794
0.0797632783651351929 -0.0285429991781711578 -0.0306898001581430435
0.0797632783651351929 -0.0274875015020370483 -0.0109624750912189484
0.0797632783651351929 -0.0221657119691371918 -0.0394448861479759216
0.0797632783651351929 -0.0271939784288406372 -0.00920604541897773743
0.0797632783651351929 -0.0253529474139213562 -0.0154898464679718018
0.0797632783651351929 -0.0278109461069107056 -0.0100977588444948196
0.0797632783651351929 -0.0156290177255868912 -0.0499206557869911194
0.0797632783651351929 -0.0220062509179115295 -0.0444123223423957825
0.0797632783651351929 -0.0199026856571435928 -0.0397212058305740356
0.0797632783651351929 -0.0374932698905467987 0.0329931154847145081
0.0797632783651351929 -0.0338567830622196198 0.016318146139383316
0.0797632783651351929 -0.0167064443230628967 -0.0469888895750045776
0.0797632783651351929 -0.0258360467851161957 -0.0230197813361883163
0.0797632783651351929 -0.022868625819683075 -0.0448526889085769653
0.0797632783651351929 -0.0221498981118202209 -0.037646561861038208
0.0797632783651351929 -0.0253623630851507187 -0.0308686234056949615
0.0797632783651351929 -0.0346850007772445679 0.0163946952670812607
0.0797632783651351929 -0.0333327390253543854 0.00238430616445839405
0.0797632783651351929 -0.0243201516568660736 -0.0158805027604103088
0.0797632783651351929 -0.019924800843000412 -0.0491391569375991821
0.0797632783651351929 -0.0253060050308704376 -0.0286815837025642395
0.0797632783651351929 -0.0189180690795183182 -0.0361199267208576202
0.0797632783651351929 -0.0165287535637617111 -0.0508228689432144165
0.0797632783651351929 -0.0230940598994493484 -0.0230471957474946976
0.0797632783651351929 -0.0213688090443611145 -0.0378090180456638336
0.0797632783651351929 -0.0230653025209903717 -0.0380555950105190277
0.0797632783651351929 -0.0368292480707168579 0.0306362826377153397
0.0797632783651351929 -0.0271161198616027832 -0.0178659241646528244
0.0797632783651351929 -0.0277772378176450729 -0.00613303110003471375
0.0797632783651351929 -0.0282601416110992432 -0.0343205779790878296
0.0797632783651351929 -0.0226254202425479889 -0.0355362407863140106
0.0797632783651351929 -0.0315861329436302185 -0.0131913954392075539
0.0797632783651351929 -0.0268144644796848297 -0.0355346761643886566
0.0797632783651351929 -0.0290119107812643051 -0.0327541492879390717
0.0797632783651351929 -0.0228192806243896484 -0.0353184305131435394
0.0797632783651351929 -0.0285883359611034393 -0.0131407734006643295
0.0797632783651351929 -0.025410803034901619 -0.0290457084774971008
0.0797632783651351929 -0.023759942501783371 -0.0406830757856369019
0.0797632783651351929 -0.0281145498156547546 -0.0220249556005001068
0.0797632783651351929 -0.0265195872634649277 -0.0389119237661361694
0.0797632783651351929 -0.0318566747009754181 0.00789108313620090485
0.0797632783651351929 -0.0244366228580474854 -0.0302866473793983459
0.0797632783651351929 -0.0146504975855350494 -0.0514607653021812439
0.0797632783651351929 -0.00975433923304080963 -0.0320604853332042694
0.0797632783651351929 -0.0273123979568481445 0.0079064052551984787
0.0797632783651351929 -0.0123328398913145065 -0.0276485122740268707
0.0797632783651351929 -0.0129735274240374565 -0.0366623848676681519
0.0797632783651351929 -0.0229649320244789124 -0.00523226335644721985
0.0797632783651351929 -0.00186176225543022156 -0.0530325472354888916
0.0797632783651351929 -0.0144542958587408066 -0.0220134668052196503
0.0797632783651351929 -0.0172401834279298782 -0.0220716875046491623
0.0797632783651351929 -0.0336910896003246307 0.0264408905059099197
0.0797632783651351929 -0.0378840416669845581 0.0370435118675231934
0.0797632783651351929 -0.0134506374597549438 -0.0340373218059539795
0.0797632783651351929 -0.0165645144879817963 -0.022948630154132843
0.0797632783651351929 -0.0312196388840675354 0.0189214199781417847
0.0797632783651351929 -0.0290111228823661804 0.00530117843300104141
0.0797632783651351929 -0.0134923886507749557 -0.0256290659308433533
0.0797632783651351929 -0.0106681864708662033 -0.049455687403678894
0.0797632783651351929 -0.0225861798971891403 -0.0136286020278930664
0.0797632783651351929 -0.0255977138876914978 0.00551839545369148254
0.0797632783651351929 -0.00593938864767551422 -0.0481000877916812897
0.0797632783651351929 -0.012208990752696991 -0.0336883515119552612
0.0797632783651351929 -0.00567490607500076294 -0.0466276668012142181
0.0797632783651351929 -0.0112864021211862564 -0.0324829258024692535
0.0797632783651351929 -0.00723341852426528931 -0.0376149825751781464
0.0797632783651351929 -0.0285852774977684021 0.012845359742641449
0.0797632783651351929 -0.0151789067313075066 -0.0321912690997123718
0.0797632783651351929 -0.00949724391102790833 -0.0470965877175331116
0.0797632783651351929 -0.0123985335230827332 -0.0306495577096939087
0.0797632783651351929 -0.0142227364704012871 -0.0505490414798259735
0.0797632783651351929 -0.0300882104784250259 0.0113353505730628967
0.0797632783651351929 -0.0109384302049875259 -0.036950133740901947
0.0797632783651351929 -0.00848502852022647858 -0.0379671528935432434
0.0797632783651351929 -0.00918805599212646484 -0.0468621402978897095
0.0797632783651351929 -0.0102167138829827309 -0.0523656755685806274
0.0797632783651351929 -0.00677290931344032288 -0.0508330948650836945
0.0797632783651351929 -0.0276549477130174637 0.0101620107889175415
0.0797632783651351929 -0.0119256917387247086 -0.0392257273197174072
0.0797632783651351929 -0.0198431201279163361 -0.0190847422927618027
0.0797632783651351929 -0.021691611036658287 -0.0232244059443473816
0.0797632783651351929 -0.0210142843425273895 -0.00964188948273658752
0.0797632783651351929 -0.0276312176138162613 0.00107552716508507729
0.0797632783651351929 -0.0155765833333134651 -0.0309074483811855316
0.0797632783651351929 -0.00640089809894561768 -0.0513867884874343872
0.0797632783651351929 -0.0127846645191311836 -0.045548517256975174
0.0797632783651351929 -0.0174495428800582886 -0.0190612375736236572
0.0797632783651351929 -0.0244085714221000671 -0.0078525003045797348
0.0797632783651351929 -0.0197803564369678497 -0.0074154585599899292
0.0797632783651351929 -0.00559438765048980713 -0.048858642578125
0.0797632783651351929 -0.0336121208965778351 0.0261040627956390381
0.0797632783651351929 -0.00716370344161987305 -0.0389403849840164185
0.0797632783651351929 -0.0286920126527547836 0.00396083015948534012
0.0797632783651351929 -0.0292869266122579575 0.00621715281158685684
0.0797632783651351929 -0.0225699301809072495 -0.0169524122029542923
0.0797632783651351929 -0.0181171875447034836 -0.0132880136370658875
0.0797632783651351929 -0.0179518423974514008 -0.0266317203640937805
0.0797632783651351929 -0.0147064132615923882 -0.0501968786120414734
0.0797632783651351929 -0.0142132733017206192 -0.0266698691993951797
0.0797632783651351929 -0.0169320590794086456 -0.0350067354738712311
0.0797632783651351929 -0.0303629562258720398 0.0180811844766139984
0.0797632783651351929 -0.00219615548849105835 -0.053608819842338562
0.0797632783651351929 -0.0155912376940250397 -0.0300526246428489685
0.0797632783651351929 -0.0195273831486701965 -0.0081960335373878479
0.0797632783651351929 -0.0371875166893005371 0.034692768007516861
0.0797632783651351929 -0.0361744165420532227 0.0325638763606548309
0.0797632783651351929 -0.0114434491842985153 -0.0290292277932167053
0.0797632783651351929 -0.0281813088804483414 0.00759882573038339615
0.0797632783651351929 -0.0289955809712409973 0.00350956711918115616
0.0797632783651351929 -0.0168446805328130722 -0.0411653034389019012
0.0797632783651351929 -0.0179881155490875244 -0.0272210575640201569
0.0797632783651351929 -0.0288313440978527069 0.00337643641978502274
0.0797632783651351929 -0.0113546736538410187 -0.0429855175316333771
0.0797632783651351929 -0.0321640335023403168 0.0207525826990604401
0.0797632783651351929 -0.0231899507343769073 -0.00325782410800457001
0.0797632783651351929 -0.0152390403673052788 -0.0368619635701179504
-0.0693553164601325989 -0.052762884646654129 0.0124351251870393753
-0.0765013992786407471 -0.0525480024516582489 0.0140673145651817322
-0.0660582929849624634 -0.0532746948301792145 0.00854754727333784103
-0.0738799870014190674 -0.0528342984616756439 0.0118926744908094406
-0.0732434317469596863 -0.0526171140372753143 0.0135423541069030762
-0.0693806782364845276 -0.0536426380276679993 0.00575272506102919579
-0.0687197893857955933 -0.0526385530829429626 0.0133795253932476044
-0.0709832608699798584 -0.0527340732514858246 0.0126539561897516251
-0.069552883505821228 -0.0525984726846218109 0.0136839393526315689
-0.0672996416687965393 -0.0532119646668434143 0.00902401749044656754
-0.0761554762721061707 -0.0525886453688144684 0.013758600689470768
-0.0679754242300987244 -0.0532424934208393097 0.00879214145243167877
-0.0749357715249061584 -0.053815990686416626 0.00443599605932831764
-0.0760746076703071594 -0.053209211677312851 0.00904493220150470734
-0.078687421977519989 -0.0529470816254615784 0.0110359890386462212
-0.075250580906867981 -0.0543064847588539124 0.000710317690391093493
-0.0787127912044525146 -0.053242802619934082 0.00878977403044700623
-0.0760427340865135193 -0.0535748377442359924 0.00626773806288838387
-0.0725081637501716614 -0.05415310338139534 0.00187537597957998514
-0.069781959056854248 -0.054366428405046463 0.000255006831139326096
-0.0679993852972984314 -0.0540026985108852386 0.00301779597066342831
-0.068826921284198761 -0.0539067499339580536 0.00374660780653357506
-0.0784258097410202026 -0.0536268316209316254 0.00587279163300991058
-0.069121725857257843 -0.0539375953376293182 0.00351231824606657028
0.0676716715097427368 -0.0525935329496860504 0.0137214837595820427
0.0714703500270843506 -0.052946336567401886 0.0110416710376739502
0.0763047486543655396 -0.0530661828815937042 0.0101313423365354538
0.0791571661829948425 -0.054261770099401474 0.00104997423477470875
0.0726881921291351318 -0.053439117968082428 0.00729861855506896973
0.0715340077877044678 -0.05317683145403862 0.00929085724055767059
0.0756682157516479492 -0.053828071802854538 0.00434422213584184647
0.0706180557608604431 -0.052685815840959549 0.013020513579249382
0.0742985978722572327 -0.0528938658535480499 0.0114402137696743011
0.0732773840427398682 -0.053405221551656723 0.00755609292536973953
0.0774576514959335327 -0.0532390773296356201 0.00881809089332818985
0.0794683024287223816 -0.0530355572700500488 0.010363980196416378
0.07709474116563797 -0.0543421395123004913 0.000439498719060793519
0.0680131241679191589 -0.053947843611240387 0.00343446223996579647
0.0710111185908317566 -0.0534014403820037842 0.0075848097912967205
0.0672737061977386475 -0.0542815588414669037 0.000899654580280184746
0.0670367330312728882 -0.0543766207993030548 0.000177590714883990586
0.0659357160329818726 -0.0540134310722351074 0.0029362761415541172
0.0681897178292274475 -0.0534565262496471405 0.0071663903072476387
0.0747151151299476624 -0.0542295277118682861 0.00129486189689487219
0.0668047666549682617 -0.0540835969150066376 0.00240331166423857212
0.0681594088673591614 -0.0535048916935920715 0.00679902965202927589
0.0701013430953025818 -0.0535334721207618713 0.00658191926777362823
0.0736244544386863708 -0.0536245778203010559 0.00588991306722164154
-0.0649701505899429321 -0.0499429553747177124 0.0203649401664733887
-0.0695650801062583923 -0.0499661490321159363 0.0203089453279972076
-0.0688495263457298279 -0.0484308004379272461 0.0240156035870313644
-0.0756193250417709351 -0.047379612922668457 0.0265533961355686188
-0.0707741603255271912 -0.0471555925905704498 0.027094230055809021
-0.0768613815307617188 -0.0471986196935176849 0.0269903577864170074
-0.0688544660806655884 -0.0499561689794063568 0.0203330442309379578
-0.0654886215925216675 -0.0487427078187465668 0.0232625920325517654
-0.0679413899779319763 -0.0488203465938568115 0.0230751652270555496
-0.0658585876226425171 -0.0489173606038093567 0.0228409413248300552
-0.0652597546577453613 -0.047305624932050705 0.0267320182174444199
-0.0701665878295898438 -0.0500998981297016144 0.019986053928732872
-0.0763422250747680664 -0.0516595393419265747 0.0162207353860139847
-0.0756980553269386292 -0.0501091741025447845 0.0199636500328779221
-0.0750772804021835327 -0.0499771758913993835 0.0202823244035243988
-0.0782741457223892212 -0.0494412370026111603 0.0215761959552764893
-0.0695679113268852234 -0.0523577407002449036 0.0145351337268948555
-0.0710653066635131836 -0.0510947071015834808 0.0175843648612499237
-0.0767842009663581848 -0.0493032746016979218 0.0219092704355716705
-0.0781203284859657288 -0.0491729192435741425 0.0222239717841148376
-0.075250677764415741 -0.0494404695928096771 0.0215780474245548248
-0.0680191963911056519 -0.0517155267298221588 0.0160855762660503387
-0.0776984989643096924 -0.0525413379073143005 0.0140918921679258347
0.0716908127069473267 -0.0482483208179473877 0.0244561545550823212
0.0760702714323997498 -0.0494244396686553955 0.0216167494654655457
0.071925729513168335 -0.0473079010844230652 0.0267265308648347855
0.0782641172409057617 -0.0499094165861606598 0.0204459149390459061
0.079404883086681366 -0.0503071621060371399 0.0194856617599725723
0.0717775225639343262 -0.0476971082389354706 0.0257869046181440353
0.0744215250015258789 -0.0502281785011291504 0.0196763519197702408
0.0753783583641052246 -0.0485908761620521545 0.0236291512846946716
0.0750481337308883667 -0.0493572317063808441 0.0217790082097053528
0.0769531577825546265 -0.0500698983669281006 0.0200584828853607178
0.0769376903772354126 -0.0512467771768569946 0.0172172337770462036
0.0728760212659835815 -0.0476447530090808868 0.0259132962673902512
0.0691967383027076721 -0.0486885346472263336 0.0233933888375759125
0.069571956992149353 -0.0490477792918682098 0.0225260872393846512
0.0696386247873306274 -0.0506070442497730255 0.0187616869807243347
0.068979509174823761 -0.048807188868522644 0.0231069289147853851
0.0731457769870758057 -0.0510945133864879608 0.0175848379731178284
0.0749976560473442078 -0.0508719496428966522 0.0181221496313810349
0.0663705244660377502 -0.0487179607152938843 0.0233223438262939453
0.0752341151237487793 -0.0519197098910808563 0.0155926337465643883
0.0671986714005470276 -0.0481671877205371857 0.0246520265936851501
0.0741894766688346863 -0.0506877265870571136 0.0185669027268886566
0.0780567079782485962 -0.0520589649677276611 0.015256442129611969
0.0712235122919082642 -0.0495349317789077759 0.0213499963283538818
-0.0701609700918197632 -0.0365008525550365448 0.0399749875068664551
-0.0753107666969299316 -0.0382366292178630829 0.0386430807411670685
-0.0710800439119338989 -0.0353188887238502502 0.0408819429576396942
-0.075436614453792572 -0.0333141423761844635 0.0424202382564544678
-0.0755771994590759277 -0.0314370617270469666 0.0438605695962905884
-0.0784058123826980591 -0.0368470922112464905 0.0397093072533607483
-0.0681718289852142334 -0.0376104936003684998 0.0391235314309597015
-0.0737335234880447388 -0.0329709611833095551 0.0426835678517818451
-0.0705062597990036011 -0.0370665527880191803 0.0395409129559993744
-0.0781600400805473328 -0.0369386039674282074 0.0396390892565250397
-0.0787185877561569214 -0.0331656374037265778 0.0425341874361038208
-0.0770207121968269348 -0.031304486095905304 0.0439623035490512848
-0.0771888643503189087 -0.0276421234011650085 0.0467725321650505066
-0.0653758198022842407 -0.0339158400893211365 0.0419585369527339935
-0.0684150010347366333 -0.0324800200760364532 0.0430602803826332092
-0.0663739442825317383 -0.0290695261210203171 0.0456772446632385254
-0.0689467191696166992 -0.0302485767751932144 0.0447725281119346619
-0.0687775462865829468 -0.0349334701895713806 0.0411776825785636902
-0.0671923384070396423 -0.0309251733124256134 0.0442533567547798157
-0.0689389482140541077 -0.0349690280854701996 0.0411503985524177551
-0.0660700574517250061 -0.0320624597370624542 0.0433806851506233215
-0.0685350522398948669 -0.0290790796279907227 0.0456699132919311523
-0.0734926238656044006 -0.0294832270592451096 0.0453598015010356903
-0.0762657374143600464 -0.0274896267801523209 0.0468895472586154938
0.0670650079846382141 -0.0320841223001480103 0.0433640629053115845
0.0701205506920814514 -0.0330620668828487396 0.0426136627793312073
0.0675233155488967896 -0.028934091329574585 0.0457811690866947174
0.070270046591758728 -0.0315889716148376465 0.0437440052628517151
0.0659586265683174133 -0.0318666025996208191 0.0435309745371341705
0.0677406340837478638 -0.0362078174948692322 0.0401998423039913177
0.0775325894355773926 -0.0368333607912063599 0.039719846099615097
0.0721001029014587402 -0.0341408401727676392 0.0417858883738517761
0.0681904926896095276 -0.0300414804369211197 0.0449314415454864502
0.0674634501338005066 -0.0332842543721199036 0.0424431711435317993
0.0751003772020339966 -0.0368579812347888947 0.0397009514272212982
0.0723469331860542297 -0.0277668889611959457 0.0466767922043800354
0.0784102380275726318 -0.0358173511922359467 0.0404994562268257141
0.068496406078338623 -0.027595866471529007 0.0468080230057239532
0.0777667909860610962 -0.029758308082818985 0.0451487265527248383
0.0759331732988357544 -0.0280397534370422363 0.0464674197137355804
0.0725273191928863525 -0.0322349891066551208 0.0432482995092868805
0.0788185521960258484 -0.0315534695982933044 0.0437712483108043671
0.0758862495422363281 -0.0349639616906642914 0.0411542877554893494
0.0761626586318016052 -0.0354594513773918152 0.0407740846276283264
0.0718614459037780762 -0.0294896997511386871 0.0453548356890678406
0.0784034132957458496 -0.0367271080613136292 0.0398013778030872345
-0.0731130242347717285 -0.039280284196138382 0.0374062061309814453
-0.07115975022315979 -0.0430131331086158752 0.0325414687395095825
-0.0675617009401321411 -0.0393811091780662537 0.0372748114168643951
-0.0754447653889656067 -0.0397428981959819794 0.0368033163249492645
-0.0661340579390525818 -0.0454221963882446289 0.0294019114226102829
-0.0652586221694946289 -0.045834716409444809 0.0288643054664134979
-0.0670842230319976807 -0.0436274819076061249 0.0317408330738544464
-0.0651534125208854675 -0.0399930588901042938 0.0364773012697696686
-0.0666360706090927124 -0.0419042222201824188 0.0339866243302822113
-0.0710584595799446106 -0.0420108921825885773 0.033847615122795105
-0.0758260935544967651 -0.0389246456325054169 0.0378696843981742859
-0.0732859224081039429 -0.0432609841227531433 0.0322184599936008453
-0.0784589424729347229 -0.0453025698661804199 0.0295578129589557648
-0.0761908590793609619 -0.0418659225106239319 0.0340365394949913025
-0.0771697089076042175 -0.042067747563123703 0.033773515373468399
-0.0770943686366081238 -0.0425828546285629272 0.0331022180616855621
-0.073495917022228241 -0.0464788787066936493 0.0280248150229454041
-0.0705192461609840393 -0.0460788384079933167 0.028546161949634552
-0.0730695277452468872 -0.0465003587305545807 0.0279968231916427612
-0.0701215267181396484 -0.0467058271169662476 0.0277290549129247665
-0.075793050229549408 -0.0422508195042610168 0.0335349291563034058
-0.0753503516316413879 -0.041156277060508728 0.0349613651633262634
-0.077955588698387146 -0.0467555224895477295 0.0276642888784408569
0.0767496973276138306 -0.0436430796980857849 0.0317205041646957397
0.0676325336098670959 -0.0393916293978691101 0.0372610986232757568
0.0772992819547653198 -0.0391334034502506256 0.0375976264476776123
0.074320279061794281 -0.0396683402359485626 0.0369004867970943451
0.069795265793800354 -0.0397902093827724457 0.0367416590452194214
0.0773079246282577515 -0.0441723577678203583 0.0310307350009679794
0.0771788880228996277 -0.0418993644416332245 0.033992961049079895
0.0753996595740318298 -0.0414664521813392639 0.0345571376383304596
0.0785440951585769653 -0.0460093468427658081 0.0286367274820804596
0.0682565197348594666 -0.0396660007536411285 0.0369035340845584869
0.0731547996401786804 -0.0398934632539749146 0.0366070978343486786
0.0788396820425987244 -0.0385374836623668671 0.0383742526173591614
0.0732971653342247009 -0.0466453656554222107 0.0278078485280275345
0.0711082145571708679 -0.0431452840566635132 0.0323692448437213898
0.0707115903496742249 -0.042203810065984726 0.0335961952805519104
0.06705484539270401 -0.0429319776594638824 0.0326472260057926178
0.0699663236737251282 -0.0448230765759944916 0.0301827024668455124
0.0669514834880828857 -0.0469039343297481537 0.0274708755314350128
0.0720198154449462891 -0.0450455620884895325 0.0298927538096904755
0.0766808390617370605 -0.0453247502446174622 0.0295289047062397003
0.0743289738893508911 -0.0468556582927703857 0.0275337863713502884
0.0755934417247772217 -0.0451605990529060364 0.029742831364274025
0.0663210228085517883 -0.0467896014451980591 0.0276198741048574448
-0.0719598978757858276 -0.0219916198402643204 0.049269162118434906
-0.0787520483136177063 -0.0219489503651857376 0.0492868386209011078
-0.0754948854446411133 -0.0215914156287908554 0.0494349338114261627
-0.0765631794929504395 -0.0183456093072891235 0.050779387354850769
-0.0777602717280387878 -0.0204627346247434616 0.0499024465680122375
-0.0735140517354011536 -0.0199721641838550568 0.0501056499779224396
-0.0781756564974784851 -0.0264476332813501358 0.0474234260618686676
-0.0703978314995765686 -0.0254381969571113586 0.0478415451943874359
-0.0755325108766555786 -0.0249955598264932632 0.0480248890817165375
-0.0773031935095787048 -0.0200968272984027863 0.0500540100038051605
-0.0728793442249298096 -0.0205507967621088028 0.0498659685254096985
-0.0687365680932998657 -0.0240464396774768829 0.0484180301427841187
-0.0688509494066238403 -0.0181084070354700089 0.050877641886472702
-0.0683827027678489685 -0.0221199691295623779 0.049215998500585556
-0.0667578727006912231 -0.0199410710483789444 0.0501185283064842224
-0.0723381936550140381 -0.0188871268182992935 0.0505550876259803772
-0.0649332329630851746 -0.0260079391300678253 0.0476055517792701721
-0.0667148604989051819 -0.0215236060321331024 0.0494630225002765656
-0.0665842443704605103 -0.014806981198489666 0.0522451363503932953
-0.0698742121458053589 -0.0165523290634155273 0.0515221916139125824
-0.066038474440574646 -0.0188420768827199936 0.0505737476050853729
-0.0717384591698646545 -0.0183090921491384506 0.0507945157587528229
-0.0686132535338401794 -0.0154033387079834938 0.0519981160759925842
-0.0741711407899856567 -0.0146717159077525139 0.0523011647164821625
0.0709139555692672729 -0.025716124102473259 0.0477264225482940674
0.0704877302050590515 -0.0253219194710254669 0.04788970947265625
0.0735971629619598389 -0.0222358852624893188 0.0491679869592189789
0.07307453453540802 -0.0219975057989358902 0.0492667257785797119
0.0725583359599113464 -0.0205702651292085648 0.0498579107224941254
0.070089191198348999 -0.0249431692063808441 0.0480465926229953766
0.0777324512600898743 -0.0261855926364660263 0.0475319661200046539
0.0777531713247299194 -0.0270911566913127899 0.0471568666398525238
0.0699618682265281677 -0.02359754778444767 0.0486039668321609497
0.0693151652812957764 -0.0191569384187459946 0.0504433289170265198
0.0759188383817672729 -0.0271751899272203445 0.0471220612525939941
0.0680359676480293274 -0.0202669780701398849 0.049983534961938858
0.0718017742037773132 -0.0168127492070198059 0.0514143221080303192
0.0701342076063156128 -0.0164850875735282898 0.0515500418841838837
0.0792493522167205811 -0.0206835754215717316 0.0498109720647335052
0.0782125294208526611 -0.0192033909261226654 0.0504240840673446655
0.0691846907138824463 -0.0161500405520200729 0.0516888238489627838
0.0685349181294441223 -0.0151828732341527939 0.0520894378423690796
0.0763046443462371826 -0.0186526849865913391 0.0506521947681903839
0.0753005966544151306 -0.0188207365572452545 0.050582587718963623
0.0760209336876869202 -0.0232204105705022812 0.0487601831555366516
0.0745337158441543579 -0.0196612346917390823 0.0502344407141208649
0.0756889805197715759 -0.0173839405179023743 0.0511777251958847046
-0.0771187245845794678 -0.0074743637815117836 0.053415980190038681
-0.0757505893707275391 -0.00604004785418510437 0.053604811429977417
-0.0728811398148536682 -0.0137248365208506584 0.0525930896401405334
-0.0729378089308738708 -0.00935613736510276794 0.0531682409346103668
-0.0755253881216049194 -0.0107185402885079384 0.0529888756573200226
-0.0749805271625518799 -0.0126489410176873207 0.0527347363531589508
-0.0736074373126029968 -0.00632435968145728111 0.0535673834383487701
-0.0758699700236320496 -0.00980845373123884201 0.0531086921691894531
-0.0736015439033508301 -0.00969356857240200043 0.0531238168478012085
-0.0713721811771392822 -0.0120856687426567078 0.0528088919818401337
-0.0736623257398605347 -0.00649273861199617386 0.0535452142357826233
-0.0785150974988937378 -0.00281598791480064392 0.054029267281293869
-0.067875593900680542 -0.00953106675297021866 0.0531452111899852753
-0.068333648145198822 -0.00687846541404724121 0.0534944310784339905
-0.0698788315057754517 -0.00336115644313395023 0.0539574958384037018
-0.07395954430103302 -0.0029392393771559 0.0540130436420440674
-0.0681024044752120972 -0.00550756417214870453 0.0536749139428138733
-0.0702563673257827759 -6.99372394592501223e-05 0.0543907918035984039
-0.0666117370128631592 -0.00574913946911692619 0.0536431111395359039
-0.0762523636221885681 -0.00102335039991885424 0.0542652755975723267
-0.071455731987953186 -0.00228812149725854397 0.054098762571811676
-0.0747045427560806274 -0.000511182821355760098 0.0543327033519744873
-0.0718851536512374878 -0.00217307824641466141 0.0541139096021652222
0.0747422128915786743 -0.0134352659806609154 0.0526312105357646942
0.075429767370223999 -0.0131701994687318802 0.0526661090552806854
0.067824147641658783 -0.0119437975808978081 0.0528275668621063232
0.0790590941905975342 -0.0140512054786086082 0.0525501221418380737
0.0705243796110153198 -0.011548282578587532 0.0528796389698982239
0.0715435370802879333 -0.00972208380699157715 0.0531200617551803589
0.0681947618722915649 -0.00842828210443258286 0.053290393203496933
0.0718679279088973999 -0.00677413726225495338 0.0535081662237644196
0.0669727995991706848 -0.00537828309461474419 0.0536919347941875458
0.0720719099044799805 -0.00862430781126022339 0.0532645881175994873
0.0715398043394088745 -0.00813718605786561966 0.0533287189900875092
0.0693056583404541016 -0.0109210964292287827 0.0529622063040733337
0.0791920945048332214 -0.00470629008486866951 0.0537804067134857178
0.0755927041172981262 -0.00153454090468585491 0.0541979745030403137
0.0777668356895446777 -0.00577374082058668137 0.0536398738622665405
0.0741086900234222412 -0.00557001959532499313 0.0536666922271251678
0.0732591822743415833 -0.000573399651329964399 0.0543245114386081696
0.0716830343008041382 -0.00147083145566284657 0.0542063601315021515
0.0689824670553207397 -0.00191926222760230303 0.0541473254561424255
0.0731836184859275818 -0.00710284989327192307 0.053464893251657486
0.0732054412364959717 -0.000824497896246612072 0.0542914532124996185
0.0705867111682891846 -0.00476154452189803123 0.0537731312215328217
0.0786409154534339905 -0.00140857684891670942 0.0542145594954490662
0.0706402063369750977 -0.00047037866897881031 0.0543380752205848694
-0.0744176432490348816 0.0265370123088359833 0.0473864004015922546
-0.0677877068519592285 0.0222583860158920288 0.0491586662828922272
-0.0692703649401664734 0.0233846548944711685 0.0486921481788158417
-0.0659102052450180054 0.0161914322525262833 0.0516716800630092621
-0.0659525692462921143 0.0238244421780109406 0.0485099852085113525
-0.0725295692682266235 0.0230781510472297668 0.0488191060721874237
-0.0724434852600097656 0.0270034894347190857 0.0471931807696819305
-0.0649537220597267151 0.026662483811378479 0.0473344288766384125
-0.0660373196005821228 0.020410340279340744 0.0499241501092910767
-0.0699508488178253174 0.020382588729262352 0.0499356463551521301
-0.0654552429914474487 0.0202385596930980682 0.0499953031539916992
-0.0772550180554389954 0.0167822074145078659 0.0514269731938838959
-0.0748927295207977295 0.0218726024031639099 0.049318462610244751
-0.0694830417633056641 0.0151249002665281296 0.0521134510636329651
-0.070966869592666626 0.0173883959650993347 0.0511758811771869659
-0.0780714899301528931 0.0261728819459676743 0.0475372299551963806
-0.0730997994542121887 0.0161541271954774857 0.0516871325671672821
-0.0759030058979988098 0.0222173016518354416 0.0491756834089756012
-0.0684044584631919861 0.0150886150076985359 0.0521284788846969604
-0.0746928676962852478 0.0163710992783308029 0.0515972599387168884
-0.0712738186120986938 0.0141780627891421318 0.0525056459009647369
-0.0736023858189582825 0.0150548201054334641 0.0521424785256385803
-0.0766240209341049194 0.0196853019297122955 0.0502244718372821808
-0.0146523192524909973 0.0161444284021854401 0.0473127700388431549
-0.0546791702508926392 0.0216906797140836716 0.0450154393911361694
-0.0435087159276008606 0.019158707931637764 0.0460642166435718536
-0.0142122991383075714 0.0151953157037496567 0.0477059036493301392
-0.0118287466466426849 0.0153877008706331253 0.0476262159645557404
-0.0321457982063293457 0.0188610237091779709 0.0461875163018703461
-0.0376923494040966034 0.0175698548555374146 0.0467223376035690308
-0.0587555207312107086 0.0133761856704950333 0.0484594106674194336
0.0149638503789901733 0.0151877067983150482 0.0477090552449226379
-0.0272864699363708496 0.0193697512149810791 0.0459767952561378479
0.0099786221981048584 0.0166841540485620499 0.0470892079174518585
0.0177902430295944214 0.0150571269914507866 0.0477631427347660065
-0.00403522327542304993 0.0147972647100687027 0.047870781272649765
0.00615497678518295288 0.0162282343953847885 0.0472780540585517883
0.0198667421936988831 0.014833482913672924 0.0478557832539081573
-0.038051508367061615 0.0133693516254425049 0.0484622418880462646
0.0079846307635307312 0.0168392062187194824 0.0470249801874160767
0.0247573405504226685 0.0153599688783288002 0.0476377047598361969
-0.0350763499736785889 0.0212603490799665451 0.0451936870813369751
-0.0344976596534252167 0.0192099194973707199 0.046043001115322113
0.0187664180994033813 0.0173229873180389404 0.0468245930969715118
-0.0290421172976493835 0.0198888219892978668 0.0457617901265621185
-0.0441974923014640808 0.0206159036606550217 0.0454606227576732635
-0.0539732277393341064 0.0212745312601327896 0.0451878122985363007
0.0147887468338012695 0.0171351097524166107 0.0469024144113063812
-0.0295184031128883362 0.0186835750937461853 0.0462610200047492981
-0.0537652447819709778 0.0226552169770002365 0.0446159131824970245
-0.0580325797200202942 0.0202804580330848694 0.045599568635225296
-0.054365452378988266 0.0180086679756641388 0.0465405769646167755
-0.00769368559122085571 0.0180656127631664276 0.0465169884264469147
-0.0603758916258811951 0.0240934994071722031 0.0440201535820960999
0.00888809561729431152 0.0167266335338354111 0.0470716133713722229
-0.0459646172821521759 0.0221917815506458282 0.0448078736662864685
-0.0383746698498725891 0.0158955305814743042 0.0474158674478530884
-0.0490736030042171478 0.0187314357608556747 0.0462411940097808838
-0.0631932765245437622 0.0137395579367876053 0.0483088977634906769
0.0430855154991149902 0.0140354838222265244 0.0481863245368003845
-0.0171128921210765839 0.0196378417313098907 0.0458657518029212952
-0.044007033109664917 0.0138743501156568527 0.0482530631124973297
-0.00481160357594490051 0.0194858089089393616 0.0459287241101264954
0.00434689968824386597 0.0173232518136501312 0.0468244850635528564
0.0239097997546195984 0.015612991526722908 0.0475328974425792694
0.0193689689040184021 0.0131054092198610306 0.0485715717077255249
0.00465848296880722046 0.0158493965864181519 0.0474349744617938995
-0.0500363707542419434 0.0235911048948764801 0.0442282557487487793
-0.0524161867797374725 0.0196684170514345169 0.0458530858159065247
-0.0213545188307762146 0.0162137281149625778 0.0472840629518032074
-0.0226183012127876282 0.0168444793671369553 0.047022797167301178
-0.0438240841031074524 0.0164940617978572845 0.0471679456532001495
-0.0168125219643115997 0.0194283537566661835 0.0459525212645530701
0.0286557301878929138 0.0151118915528059006 0.0477404594421386719
-0.0415298342704772949 0.0185911413282155991 0.0462993048131465912
0.0489724725484848022 0.0145629728212952614 0.0479678288102149963
0.043713793158531189 0.0141037600114941597 0.0481580384075641632
-0.0329716876149177551 0.0132835656404495239 0.0484977774322032928
-0.0640109851956367493 0.0135272759944200516 0.0483968295156955719
-0.0632046535611152649 0.0249623693525791168 0.0436602570116519928
-0.0554629601538181305 0.0162035748362541199 0.0472882688045501709
0.0119873881340026855 0.0172870103269815445 0.0468394942581653595
-0.0394912734627723694 0.0195018462836742401 0.0459220819175243378
-0.0164244025945663452 0.017571229487657547 0.0467217676341533661
0.0120345577597618103 0.0177417062222957611 0.0466511547565460205
-0.0155325122177600861 0.0183114074170589447 0.046415179967880249
-0.0374004542827606201 0.0204949453473091125 0.0455107241868972778
-0.0360770821571350098 0.0206886753439903259 0.0454304777085781097
0.0246042981743812561 0.0154812587425112724 0.0475874617695808411
0.00166851282119750977 0.018094109371304512 0.0465051829814910889
-0.0528794266283512115 0.0164958350360393524 0.0471672117710113525
-0.0529711544513702393 0.0187468677759170532 0.0462348014116287231
-0.00225207209587097168 0.0181656703352928162 0.0464755445718765259
0.0183760523796081543 0.015209464356303215 0.0477000437676906586
-0.000929884612560272217 0.0155646670609712601 0.0475529134273529053
-0.0574357621371746063 0.0131079964339733124 0.0485705025494098663
-0.0110348314046859741 0.0138873038813471794 0.048247702419757843
0.00575093924999237061 0.0145137105137109756 0.0479882359504699707
-0.0345874354243278503 0.0214894376695156097 0.0450987964868545532
-0.0171726495027542114 0.016233149915933609 0.0472760200500488281
-0.0102684125304222107 0.0131851397454738617 0.04853854700922966
-0.0190239772200584412 0.0172204039990901947 0.0468670874834060669
-0.0478615276515483856 0.0214804857969284058 0.0451024994254112244
-0.0160348527133464813 0.0167849175631999969 0.0470474697649478912
-0.0240990966558456421 0.0164526011794805527 0.047185119241476059
0.0537089332938194275 0.0131125729531049728 0.0485686063766479492
-0.0251372195780277252 0.0197434220463037491 0.0458220168948173523
-0.00741122663021087646 0.0180328786373138428 0.0465305447578430176
0.0299178734421730042 0.01567840576171875 0.0475058034062385559
0.0521716028451919556 0.0136542040854692459 0.0483442544937133789
-0.0645648911595344543 0.0201940853148698807 0.0456353463232517242
-0.0383260846138000488 0.0185402184724807739 0.046320401132106781
-0.0586508139967918396 0.0213973391801118851 0.0451369434595108032
0.0160263553261756897 0.015057033859193325 0.0477631837129592896
-0.051461588591337204 0.0201824884861707687 0.0456401482224464417
-0.038488432765007019 0.0221150349825620651 0.044839661568403244
0.00562186539173126221 0.0156376473605632782 0.0475226826965808868
0.0159315615892410278 0.0151065215468406677 0.0477426871657371521
-0.0130901150405406952 0.0152990352362394333 0.0476629436016082764
0.00162664800882339478 0.0184114128351211548 0.0463737547397613525
-0.0368908122181892395 0.0210543200373649597 0.0452790260314941406
-0.0522718764841556549 0.0165992006659507751 0.0471243970096111298
-0.0248679257929325104 0.0206611119210720062 0.045441899448633194
-0.0635648816823959351 0.0192123446613550186 0.0460419990122318268
-0.0426672138273715973 0.0186693761497735977 0.046266898512840271
0.0162079930305480957 0.0159637890756130219 0.0473875924944877625
-0.0236340649425983429 0.0232806261628866196 0.0443568602204322815
0.027706783264875412 0.0167366042733192444 0.0470674820244312286
-0.00344184227287769318 0.0208979882299900055 0.0453437790274620056
0.0493832230567932129 0.0164667293429374695 0.0471792668104171753
-0.00687936320900917053 0.0237979870289564133 0.0441425628960132599
-0.0119008868932723999 0.0210043136030435562 0.0452997386455535889
-0.0176480263471603394 0.0233263950794935226 0.0443379022181034088
0.0142063051462173462 0.0251216646283864975 0.0435942746698856354
0.050518278032541275 0.0176500938832759857 0.0466891005635261536
0.0447447188198566437 0.0227183792740106583 0.0445897504687309265
0.0250276029109954834 0.0218887962400913239 0.0449333749711513519
0.0136299105361104012 0.0188255365937948227 0.0462022162973880768
0.0288962610065937042 0.0236847754567861557 0.0441894568502902985
0.0627147555351257324 0.0161646008491516113 0.0473044142127037048
-0.0268175527453422546 0.0245843138545751572 0.0438168533146381378
-0.0463548004627227783 0.0246314331889152527 0.0437973365187644958
0.0349178612232208252 0.0201216619461774826 0.045665346086025238
0.0273297764360904694 0.0215313136577606201 0.0450814478099346161
0.0479329861700534821 0.0207884088158607483 0.0453891679644584656
0.0416160821914672852 0.0219598151743412018 0.0449039563536643982
0.0157310664653778076 0.0204096753150224686 0.0455460473895072937
0.0258146896958351135 0.0195994656533002853 0.0458816438913345337
-0.0140674971044063568 0.0233138017356395721 0.0443431176245212555
0.0340882912278175354 0.0185054168105125427 0.0463348142802715302
0.0229016263037919998 0.0177657715976238251 0.0466411858797073364
