ply
format ascii 1.0
element vertex 715
property float x
property float y
property float z
end_header
-0.0513899214565753937 -0.0626033022999763489 0.0504784956574440002
0.0413061566650867462 -0.0685244947671890259 0.00412232335656881332
0.0121538974344730377 -0.0724555626511573792 0.00324379606172442436
-0.00402612052857875824 -0.0745926052331924438 0.00317868078127503395
0.0166695918887853622 -0.0711602196097373962 0.00985708832740783691
0.00654410803690552711 -0.0734670460224151611 0.000668258871883153915
0.0294771678745746613 -0.0697748363018035889 0.00701897405087947845
0.00924608390778303146 -0.0729319155216217041 0.00236125476658344269
0.0187320932745933533 -0.071419641375541687 0.00484693050384521484
0.0331255421042442322 -0.0688276439905166626 0.011424514465034008
0.0168723650276660919 -0.0710741057991981506 0.0104178059846162796
0.0188575200736522675 -0.0713288858532905579 0.00554749695584177971
0.000605518405791372061 -0.073656618595123291 0.00625695055350661278
-0.0024112379178404808 -0.0741768777370452881 0.00509538128972053528
0.0345357730984687805 -0.0682406052947044373 0.0152120152488350868
-0.0121428398415446281 -0.0757811069488525391 0.00204713828861713409
0.0327457711100578308 -0.0696049556136131287 0.00456144660711288452
0.0243813320994377136 -0.0707301050424575806 0.00433546584099531174
-0.0094697512686252594 -0.0746534764766693115 0.00936690066009759903
-0.0134651577100157738 -0.074320569634437561 0.0174717903137207031
0.0127786211669445038 -0.0713503509759902954 0.0128967622295022011
-0.0155624710023403168 -0.0748845264315605164 0.01475564856082201
0.00650283042341470718 -0.0720691829919815063 0.0139100942760705948
0.000295883044600486755 -0.0730910450220108032 0.0119785163551568985
-0.0174317769706249237 -0.0756829455494880676 0.00954384356737136841
0.0167205631732940674 -0.0708099231123924255 0.0130992550402879715
-0.0225441250950098038 -0.0769651532173156738 0.00379576906561851501
0.0176055822521448135 -0.0708784237504005432 0.0113534163683652878
-0.010871492326259613 -0.0752718746662139893 0.00527295563369989395
0.0127915963530540466 -0.0710606276988983154 0.0156145235523581505
0.000871645286679267883 -0.0728264227509498596 0.0137602407485246658
-0.00502333417534828186 -0.0743468031287193298 0.00673698633909225464
-0.0124416034668684006 -0.0743918195366859436 0.0155278695747256279
-0.00880761817097663879 -0.0742281451821327209 0.0125578325241804123
0.024327429011464119 -0.0695218667387962341 0.0158036425709724426
-0.0985791310667991638 0.00994630809873342514 0.0836890190839767456
-0.130303874611854553 0.00706123560667037964 0.0836890190839767456
-0.112977176904678345 0.00890146009624004364 0.0836890190839767456
-0.142408013343811035 0.00693929893895983696 0.0836890190839767456
-0.15178506076335907 0.000628346577286720276 0.0836890190839767456
-0.0956870019435882568 0.0100865038111805916 0.0836890190839767456
-0.150990694761276245 -0.000269309617578983307 0.0836890190839767456
-0.150924265384674072 -0.00354772154241800308 0.0836890190839767456
-0.146849736571311951 -0.00362824928015470505 0.0836890190839767456
-0.107201337814331055 0.00595151679590344429 0.0836890190839767456
-0.125733226537704468 0.00252377241849899292 0.0836890190839767456
-0.148697987198829651 -0.00570869259536266327 0.0836890190839767456
-0.121497727930545807 0.00758011406287550926 0.0836890190839767456
-0.120296023786067963 0.00352014042437076569 0.0836890190839767456
-0.106058478355407715 0.00644797459244728088 0.0836890190839767456
-0.140085220336914062 0.00713202310726046562 0.0836890190839767456
-0.140769347548484802 -0.00760262738913297653 0.0836890190839767456
-0.106405504047870636 0.0016490444540977478 0.0836890190839767456
-0.116809286177158356 -0.000170245999470353127 0.0836890190839767456
-0.0928934663534164429 -0.000652876682579517365 0.0836890190839767456
-0.108698762953281403 0.00395354395732283592 0.0836890190839767456
-0.102856799960136414 -0.00639906758442521095 0.0836890190839767456
-0.126395523548126221 -0.00562587054446339607 0.0836890190839767456
-0.146906003355979919 -0.00858109164983034134 0.0836890190839767456
-0.123522408306598663 -0.00568935088813304901 0.0836890190839767456
-0.11467917263507843 -0.00171290477737784386 0.0836890190839767456
-0.099115617573261261 0.00728535186499357224 0.0836890190839767456
-0.105863571166992188 -0.00652480823919177055 0.0836890190839767456
-0.0925756767392158508 0.0101802721619606018 0.0836890190839767456
-0.0938568934798240662 -0.00453593302518129349 0.0836890190839767456
-0.0976950451731681824 0.00713764643296599388 0.0836890190839767456
-0.120558291673660278 -0.000758029986172914505 0.0836890190839767456
-0.0357485786080360413 -0.0425794422626495361 0.0682644620537757874
-0.075501173734664917 -0.0509101860225200653 0.0644952431321144104
-0.0449503511190414429 -0.0439208298921585083 0.0678172782063484192
-0.0522293485701084137 -0.0457393638789653778 0.0669147297739982605
-0.0521029457449913025 -0.0512572228908538818 0.062909543514251709
-0.0660219788551330566 -0.0484437532722949982 0.0657417625188827515
-0.051356140524148941 -0.0470401495695114136 0.0659224465489387512
-0.0497303828597068787 -0.0459858253598213196 0.066593654453754425
-0.0675407350063323975 -0.052280619740486145 0.0630483552813529968
-0.0293424353003501892 -0.0413181707262992859 0.0688130185008049011
-0.0300421919673681259 -0.0412480980157852173 0.0689036846160888672
-0.0404762178659439087 -0.0434024631977081299 0.0679377317428588867
-0.0351109951734542847 -0.0485684573650360107 0.0638887584209442139
-0.0410857014358043671 -0.0485442653298377991 0.0642469823360443115
-0.0308115370571613312 -0.0411856472492218018 0.06899280846118927
-0.0511538870632648468 -0.0454834364354610443 0.0670388340950012207
-0.0482978187501430511 -0.0461526252329349518 0.0663911029696464539
-0.0887318551540374756 -0.0510966181755065918 0.0651146173477172852
-0.0770769789814949036 -0.0433826148509979248 0.070039212703704834
-0.0696508288383483887 -0.0414808429777622223 0.0709936767816543579
-0.0323862545192241669 -0.0366483516991138458 0.0723701044917106628
-0.0762094184756278992 -0.0420571863651275635 0.0709500759840011597
-0.0715411677956581116 -0.039793752133846283 0.0723238512873649597
-0.081974513828754425 -0.0435402095317840576 0.0702042952179908752
-0.0423458553850650787 -0.0378569215536117554 0.072062365710735321
-0.073294222354888916 -0.0428880639374256134 0.0701818317174911499
-0.0848475843667984009 -0.0489687956869602203 0.0664348378777503967
-0.0438635647296905518 -0.0404248349368572235 0.0702883303165435791
-0.0661747902631759644 -0.0423577427864074707 0.0701600983738899231
-0.0610137991607189178 -0.0394310429692268372 0.0719863474369049072
-0.0486181080341339111 -0.040666826069355011 0.0703841149806976318
-0.0715454369783401489 -0.0398578420281410217 0.072277657687664032
-0.0525332242250442505 -0.0430112555623054504 0.0689087063074111938
-0.0674896910786628723 -0.0438517630100250244 0.0691525861620903015
0.00265062320977449417 -0.0680652633309364319 0.0301054734736680984
-0.0216534081846475601 -0.0737366229295730591 0.0225609578192234039
0.0172931049019098282 -0.0650364309549331665 0.0334665216505527496
-0.00233439356088638306 -0.0706399604678153992 0.0242497362196445465
-0.0122266262769699097 -0.0713822990655899048 0.0259590800851583481
-0.0180516671389341354 -0.0708622783422470093 0.0298872180283069611
-0.0148930922150611877 -0.0704965442419052124 0.0297342687845230103
-0.0104273799806833267 -0.0710905566811561584 0.0261265411972999573
-0.00573016703128814697 -0.0679594799876213074 0.0337962470948696136
0.0201551169157028198 -0.0649394020438194275 0.0326125770807266235
-0.00812754780054092407 -0.0715672597289085388 0.0237472560256719589
0.0117830187082290649 -0.0657055005431175232 0.0336385108530521393
-0.00801454111933708191 -0.0717284530401229858 0.0232098177075386047
0.00448091235011816025 -0.067067265510559082 0.0324162580072879791
-0.0225010067224502563 -0.0718153268098831177 0.0287661273032426834
-0.00328093976713716984 -0.0678211301565170288 0.0332342982292175293
0.006673421710729599 -0.0674566328525543213 0.0303466822952032089
0.0402599237859249115 -0.0643131881952285767 0.0264447946101427078
0.0191892124712467194 -0.0681736767292022705 0.0231284331530332565
0.0109300520271062851 -0.0704548284411430359 0.0194844380021095276
0.0161022339016199112 -0.0695781409740447998 0.0200819671154022217
0.0383628644049167633 -0.0657375827431678772 0.0228593200445175171
0.0187363885343074799 -0.0687377229332923889 0.0215887110680341721
0.0324386656284332275 -0.0663224682211875916 0.0234546903520822525
0.00273661571554839611 -0.0706452205777168274 0.0221958775073289871
0.0403244346380233765 -0.0655190646648406982 0.0227380469441413879
0.0336446873843669891 -0.0655601397156715393 0.0252969786524772644
0.00436838064342737198 -0.0696494653820991516 0.0245795529335737228
0.0205118916928768158 -0.0692927539348602295 0.0191810205578804016
0.0231038965284824371 -0.0691984295845031738 0.0184273384511470795
0.0231153909116983414 -0.0673174187541007996 0.0241643264889717102
0.0352677777409553528 -0.0675675272941589355 0.0185173824429512024
0.0327743962407112122 -0.065240614116191864 0.0266220234334468842
0.0185288563370704651 -0.0671561732888221741 0.0264996364712715149
-0.136982038617134094 0.0105452500283718109 0.0834008082747459412
-0.0935908854007720947 0.0165786109864711761 0.0823598876595497131
-0.0973715484142303467 0.021448599174618721 0.0813037008047103882
-0.111903466284275055 0.0148104596883058548 0.0826337933540344238
-0.115606352686882019 0.0101259499788284302 0.0836089104413986206
-0.131035089492797852 0.0120020285248756409 0.0831242650747299194
-0.124220199882984161 0.0153742609545588493 0.0824453979730606079
-0.0958924070000648499 0.0242137983441352844 0.0807241648435592651
-0.117380969226360321 0.0119667882099747658 0.0832077488303184509
-0.131978198885917664 0.013781864196062088 0.0827406942844390869
-0.119429096579551697 0.0144970603287220001 0.082658521831035614
-0.103726796805858612 0.023828381672501564 0.0807624831795692444
-0.118822939693927765 0.0175280403345823288 0.0820176452398300171
-0.126748219132423401 0.0136379962787032127 0.0828003808856010437
-0.115084350109100342 0.0148408319801092148 0.0826096385717391968
-0.118750497698783875 0.0176833495497703552 0.0819850340485572815
-0.10166342556476593 0.0240780748426914215 0.0807208940386772156
-0.110003434121608734 0.0227006245404481888 0.0809672623872756958
-0.127135321497917175 0.0235555935651063919 0.0806901752948760986
-0.13974529504776001 0.0195711478590965271 0.0814669132232666016
-0.0995315611362457275 0.0256629511713981628 0.0803958848118782043
-0.114758089184761047 0.0230265334248542786 0.0808715224266052246
-0.101441927254199982 0.0253446269780397415 0.0804529190063476562
-0.142532408237457275 0.0191524028778076172 0.0815404057502746582
-0.130718231201171875 0.0206304155290126801 0.0812920033931732178
-0.145222112536430359 0.0110278036445379257 0.0832523778080940247
-0.144475594162940979 0.0203608684241771698 0.0812727212905883789
-0.124206423759460449 0.0188458412885665894 0.0817075669765472412
-0.128096327185630798 0.0196534506976604462 0.0815142542123794556
-0.140449836850166321 0.0137440413236618042 0.0827015787363052368
-0.133844912052154541 0.0184351280331611633 0.0817412212491035461
-0.144859641790390015 0.0191770121455192566 0.0815222188830375671
-0.0881111547350883484 -0.0373895168304443359 0.0741841793060302734
-0.0858077853918075562 -0.0315837264060974121 0.0766815096139907837
-0.0798952579498291016 -0.0242752078920602798 0.0797199457883834839
-0.0519286096096038818 -0.0227643754333257675 0.0794134959578514099
-0.0512556247413158417 -0.0236227568238973618 0.0790088474750518799
-0.0531422980129718781 -0.0251785833388566971 0.0783839747309684753
-0.0645297840237617493 -0.030451405793428421 0.0764407292008399963
-0.0757398530840873718 -0.0295266937464475632 0.0772430300712585449
-0.0848582014441490173 -0.032590378075838089 0.0762013643980026245
-0.0808714181184768677 -0.0342593938112258911 0.0753209963440895081
-0.0839903801679611206 -0.0260831378400325775 0.0790603086352348328
-0.0509070083498954773 -0.0266940630972385406 0.0776329785585403442
-0.0742668136954307556 -0.0241218302398920059 0.0795913636684417725
-0.0675512701272964478 -0.0226106252521276474 0.0800276771187782288
-0.0884706676006317139 -0.0262450911104679108 0.0791449621319770813
-0.0676058009266853333 -0.024497590959072113 0.0791917592287063599
-0.0592229142785072327 -0.0336343422532081604 0.0748420357704162598
-0.0689520910382270813 -0.0351460948586463928 0.0745107755064964294
-0.0622981041669845581 -0.0365013405680656433 0.0736765190958976746
-0.0285952426493167877 -0.0212971679866313934 0.0792495831847190857
-0.0665556862950325012 -0.0371912568807601929 0.0735189765691757202
-0.044401019811630249 -0.0332134589552879333 0.0745109692215919495
-0.0561250858008861542 -0.0360198803246021271 0.0736745819449424744
-0.0292204935103654861 -0.0339362919330596924 0.073659554123878479
-0.0510884299874305725 -0.0365815907716751099 0.0732491761445999146
-0.0337272472679615021 -0.0227456521242856979 0.0787857770919799805
-0.0574146173894405365 -0.0295567680150270462 0.0765893235802650452
-0.047487407922744751 -0.035133015364408493 0.0737665221095085144
-0.0458874329924583435 -0.034697309136390686 0.0739040672779083252
-0.0561184100806713104 -0.0345537997782230377 0.0743253007531166077
-0.0378111004829406738 -0.0229273531585931778 0.0788478031754493713
-0.0677118375897407532 -0.0376741029322147369 0.0733449831604957581
0.0253730732947587967 -0.0596843995153903961 0.041165471076965332
0.0307372361421585083 -0.0557942166924476624 0.0466349758207798004
0.0337793976068496704 -0.0550772398710250854 0.0471786186099052429
0.0331810861825942993 -0.0589724443852901459 0.0406226553022861481
-0.0108301695436239243 -0.0675215944647789001 0.0358901321887969971
0.0384610220789909363 -0.056384161114692688 0.0438747815787792206
0.0153803238645195961 -0.0630977675318717957 0.0375618338584899902
0.0309873204678297043 -0.0574299618601799011 0.0437684990465641022
-0.0142995649948716164 -0.0678847283124923706 0.0360509492456912994
-0.00231972616165876389 -0.0656254366040229797 0.0372227020561695099
0.0305391810834407806 -0.0583594664931297302 0.0422731228172779083
0.0209517236799001694 -0.0603049993515014648 0.0410993024706840515
-0.00550688197836279869 -0.0666942298412322998 0.0361075103282928467
0.0272215027362108231 -0.0594479963183403015 0.0411535352468490601
0.00610690610483288765 -0.0645003095269203186 0.0372497402131557465
0.0269870590418577194 -0.0567500554025173187 0.0458411388099193573
0.0263485200703144073 -0.0574419274926185608 0.0447970330715179443
-0.0180801339447498322 -0.0678029805421829224 0.037046380341053009
0.0140827922150492668 -0.0575405247509479523 0.0474016293883323669
-0.0180529337376356125 -0.0647300258278846741 0.0423190221190452576
-0.0213190615177154541 -0.0684931352734565735 0.036593317985534668
-0.00292457453906536102 -0.0606247782707214355 0.045949738472700119
-0.0234899390488862991 -0.06336260586977005 0.0458976142108440399
-0.00826993398368358612 -0.0606850162148475647 0.0470551401376724243
-0.0183528494089841843 -0.0668838992714881897 0.0386868789792060852
-0.0129061704501509666 -0.0614530965685844421 0.046784229576587677
-0.0033165663480758667 -0.0623921602964401245 0.0430023409426212311
0.00308255106210708618 -0.062770649790763855 0.0409049615263938904
-0.015810701996088028 -0.0654336437582969666 0.0406032279133796692
-0.00830987840890884399 -0.0651572495698928833 0.0393816754221916199
-0.00992802157998085022 -0.062051035463809967 0.0450835488736629486
-0.005072765052318573 -0.0648995190858840942 0.0390923172235488892
0.0125983636826276779 -0.0602699369192123413 0.0430486947298049927
0.0337807051837444305 -0.0544959083199501038 0.0481769368052482605
-0.113585934042930603 0.0406540669500827789 0.0739565342664718628
-0.142016589641571045 0.029053959995508194 0.0787897706031799316
-0.111551687121391296 0.038918226957321167 0.07475309818983078
-0.136900380253791809 0.0423788726329803467 0.0729167833924293518
-0.147528380155563354 0.0400525033473968506 0.0738286450505256653
-0.144653797149658203 0.0351900756359100342 0.0760270506143569946
-0.120963647961616516 0.0404935106635093689 0.0739420056343078613
-0.139028251171112061 0.040907934308052063 0.0735468789935112
-0.143327862024307251 0.0356022901833057404 0.0758589804172515869
-0.144621863961219788 0.0314390100538730621 0.0776975005865097046
-0.115541145205497742 0.037802327424287796 0.0752034187316894531
-0.122545689344406128 0.0415194928646087646 0.073466762900352478
-0.123463369905948639 0.0364407822489738464 0.0757172480225563049
-0.146384358406066895 0.0310664810240268707 0.0778428167104721069
-0.132270455360412598 0.0396068431437015533 0.0742049515247344971
-0.10304790735244751 0.0279100853949785233 0.079753383994102478
-0.10824158787727356 0.0343991890549659729 0.0768036916851997375
-0.0987091660499572754 0.0328632518649101257 0.0775986760854721069
-0.106474272906780243 0.0395024754106998444 0.0745521709322929382
-0.102166645228862762 0.0283889845013618469 0.0795504376292228699
-0.117049723863601685 0.0300263483077287674 0.078647911548614502
-0.149497523903846741 0.0261884871870279312 0.0799783393740653992
-0.105278283357620239 0.0287809781730175018 0.0793396309018135071
-0.0951541215181350708 0.0291521660983562469 0.0792924016714096069
-0.128368213772773743 0.0314266420900821686 0.0778925046324729919
-0.113256260752677917 0.0285465940833091736 0.0793509706854820251
-0.0990653634071350098 0.0338456183671951294 0.077157139778137207
-0.108094342052936554 0.0278936959803104401 0.079701840877532959
-0.110479235649108887 0.0315119139850139618 0.0780631005764007568
-0.122414968907833099 0.0281472373753786087 0.0794219970703125
-0.0964829325675964355 0.0328850150108337402 0.0776149407029151917
-0.0575346946716308594 -0.0203900504857301712 0.080333225429058075
-0.0678005889058113098 -0.017030719667673111 0.0812165811657905579
-0.0365266241133213043 -0.0194913614541292191 0.0801732540130615234
-0.0818310081958770752 -0.022437097504734993 0.0803046301007270813
-0.0525789707899093628 -0.0149047337472438812 0.0814132988452911377
-0.0353869684040546417 -0.0174270495772361755 0.0805918201804161072
-0.0578952357172966003 -0.0170703697949647903 0.0810429304838180542
-0.0728785321116447449 -0.0211988706141710281 0.0804177522659301758
-0.0373756624758243561 -0.0125704500824213028 0.081654474139213562
-0.0362137258052825928 -0.0196663960814476013 0.0801309272646903992
-0.0507480353116989136 -0.0207634307444095612 0.0801408588886260986
-0.0371581465005874634 -0.0177868474274873734 0.0805451050400733948
-0.040721353143453598 -0.0137688405811786652 0.0814562588930130005
-0.0385152436792850494 -0.0148073211312294006 0.0811993181705474854
-0.0324333980679512024 -0.0184162519872188568 0.0803328678011894226
-0.0579508952796459198 -0.0162756126374006271 0.0812123194336891174
-0.0482529401779174805 -0.00776536203920841217 0.0828544870018959045
-0.0686829090118408203 -0.014507954940199852 0.0817660614848136902
-0.0848859399557113647 -0.0188840609043836594 0.0811087489128112793
-0.0718827545642852783 -0.0122769568115472794 0.0822923555970191956
-0.0474857613444328308 -0.00857966579496860504 0.0826690793037414551
-0.0625855624675750732 -0.0139887724071741104 0.081774391233921051
-0.0655807480216026306 -0.00593899190425872803 0.0835307091474533081
-0.0516943931579589844 -0.00774948578327894211 0.0829152688384056091
-0.0874701440334320068 -0.0074575403705239296 0.0835739895701408386
-0.087710157036781311 -0.0091488352045416832 0.083219483494758606
-0.0701997578144073486 -0.0140857947990298271 0.0818808525800704956
-0.0735983699560165405 -0.0180446933954954147 0.0810983702540397644
-0.0827603712677955627 -0.0154830915853381157 0.0817942097783088684
-0.085811123251914978 -0.00694126961752772331 0.0836557522416114807
-0.0596828572452068329 -0.00726016145199537277 0.0831522643566131592
-0.0759025588631629944 -0.0184472110122442245 0.0810514837503433228
0.00202944711782038212 -0.0575718358159065247 0.049854326993227005
0.0221443437039852142 -0.0525740459561347961 0.0524423904716968536
-0.00117026607040315866 -0.0557238571345806122 0.0523538514971733093
0.0266298092901706696 -0.05338316410779953 0.0509007051587104797
0.0116871194913983345 -0.0552667118608951569 0.0509928986430168152
0.037212863564491272 -0.0478330664336681366 0.0554793812334537506
0.00952360033988952637 -0.0551413856446743011 0.0514446757733821869
0.0377371460199356079 -0.0524436049163341522 0.0503249019384384155
0.0309418737888336182 -0.0443584881722927094 0.060215972363948822
0.0230953656136989594 -0.0497349724173545837 0.0554316900670528412
0.00829248595982789993 -0.0539453662931919098 0.0529406145215034485
0.0358979180455207825 -0.0523024946451187134 0.0507470481097698212
0.0255754012614488602 -0.0485027357935905457 0.056429348886013031
0.0194024890661239624 -0.0515505373477935791 0.0539673790335655212
0.0304376669228076935 -0.0459351241588592529 0.0585524439811706543
0.00489183887839317322 -0.0557102374732494354 0.0514897629618644714
0.00446176575496792793 -0.0558578334748744965 0.0513895526528358459
0.00774737074971199036 -0.0505205355584621429 0.0567920692265033722
-0.00237155798822641373 -0.0482728220522403717 0.0607352852821350098
0.00286594592034816742 -0.0490115061402320862 0.0591621212661266327
0.00321859121322631836 -0.0489761866629123688 0.0591498911380767822
-0.0248726308345794678 -0.0544667914509773254 0.0571756623685359955
-0.00845216959714889526 -0.0555235445499420166 0.0536304675042629242
-0.0175511706620454788 -0.0578355751931667328 0.0524032749235630035
-0.0207611620426177979 -0.0546462796628475189 0.0563817396759986877
-0.0170470345765352249 -0.0541178062558174133 0.0564252510666847229
-0.0067926822230219841 -0.0489142239093780518 0.0606699101626873016
-0.0152024589478969574 -0.0576651915907859802 0.0522503554821014404
0.0106367450207471848 -0.0476329512894153595 0.0595537163317203522
0.00276079773902893066 -0.0506962165236473083 0.0573216825723648071
0.0188454557210206985 -0.0462799109518527985 0.0598536953330039978
-0.0128294527530670166 -0.0494050830602645874 0.0610046498477458954
-0.0180131290107965469 -0.0556538552045822144 0.0548734031617641449
-0.00523041188716888428 -0.0532393008470535278 0.0556793399155139923
-0.121503502130508423 0.0567734129726886749 0.0627772137522697449
-0.138451606035232544 0.0482079461216926575 0.068677946925163269
-0.144815191626548767 0.0492589250206947327 0.0677933022379875183
-0.136167764663696289 0.0552971512079238892 0.0635707899928092957
-0.146786659955978394 0.0465817563235759735 0.0697008669376373291
-0.144772589206695557 0.0480160154402256012 0.0686971396207809448
-0.147996425628662109 0.0541497617959976196 0.0641793757677078247
-0.143590271472930908 0.0556676983833312988 0.0631603598594665527
-0.136578544974327087 0.0560011602938175201 0.0630514845252037048
-0.148830011487007141 0.0559782832860946655 0.0628350228071212769
-0.142887964844703674 0.0520680919289588928 0.0657889917492866516
-0.148079469799995422 0.0538132637739181519 0.0644222795963287354
-0.13979850709438324 0.0497131012380123138 0.0675587654113769531
-0.151006489992141724 0.0537641309201717377 0.0644022896885871887
-0.125950410962104797 0.0527804307639598846 0.0655936822295188904
-0.150108814239501953 0.0519881434738636017 0.0657096952199935913
-0.110770553350448608 0.050482574850320816 0.0675519704818725586
-0.0979065969586372375 0.0544905290007591248 0.0648847669363021851
-0.146807149052619934 0.0431617237627506256 0.0721852779388427734
-0.114317305386066437 0.0482305660843849182 0.0691206753253936768
-0.114556871354579926 0.044327612966299057 0.0719517767429351807
-0.124411948025226593 0.0484586171805858612 0.0687629356980323792
-0.118032366037368774 0.0466910041868686676 0.0701685473322868347
-0.111439242959022522 0.0465380735695362091 0.0704050958156585693
-0.100934207439422607 0.0498705282807350159 0.0681837871670722961
-0.122110269963741302 0.0496187210083007812 0.0679638609290122986
-0.127244666218757629 0.0435552708804607391 0.0722715333104133606
-0.0966515317559242249 0.0515473894774913788 0.0670469552278518677
-0.104083463549613953 0.0513219013810157776 0.0670693889260292053
-0.129399031400680542 0.0469334758818149567 0.0697761327028274536
-0.10264018177986145 0.0463411435484886169 0.070715583860874176
-0.0988412946462631226 0.0530485622584819794 0.0659146308898925781
0.0553222410380840302 -0.0660895109176635742 0.00280139967799186707
0.0873289480805397034 -0.0596361793577671051 0.0076792626641690731
0.0850891768932342529 -0.0602911412715911865 0.00543471099808812141
0.0854965448379516602 -0.0603383108973503113 0.00428676512092351913
0.0551202371716499329 -0.0661175549030303955 0.00288927927613258362
0.0810303092002868652 -0.060962136834859848 0.00619529327377676964
0.100384630262851715 -0.0577915534377098083 0.0022973138839006424
0.100957468152046204 -0.0569187924265861511 0.00947126932442188263
0.0728871077299118042 -0.0626896172761917114 0.00415306910872459412
0.0799214541912078857 -0.0608087815344333649 0.00955370534211397171
0.0567381605505943298 -0.0659505501389503479 0.00164596084505319595
0.0711019188165664673 -0.0633494183421134949 0.00107479840517044067
0.067669600248336792 -0.0637161582708358765 0.00359593052417039871
0.082803092896938324 -0.060475323349237442 0.00767624052241444588
0.0793553814291954041 -0.0613949932157993317 0.00504958024248480797
0.0800636038184165955 -0.0609424784779548645 0.00805596448481082916
0.0831251367926597595 -0.061150621622800827 0.000798054039478302002
0.0929079875349998474 -0.0580423399806022644 0.0129182776436209679
0.116329729557037354 -0.0535362027585506439 0.00883842352777719498
0.152285873889923096 -0.045550759881734848 0.00285194814205169678
0.116087809205055237 -0.0543224401772022247 0.00209956616163253784
0.106844872236251831 -0.0553660914301872253 0.0129773477092385292
0.120209313929080963 -0.0524239838123321533 0.0105118211358785629
0.118792243301868439 -0.0529506243765354156 0.00878644268959760666
0.129886314272880554 -0.0503214485943317413 0.00846921931952238083
0.125296145677566528 -0.0512824356555938721 0.00977424439042806625
0.105604268610477448 -0.0560042932629585266 0.00982743594795465469
0.112403236329555511 -0.0552218183875083923 0.00196271622553467751
0.150274038314819336 -0.0462390892207622528 0.000951656140387058258
0.126884207129478455 -0.0508199185132980347 0.0105263087898492813
0.119563855230808258 -0.0532869510352611542 0.00395943224430084229
0.132514342665672302 -0.0499982424080371857 0.00562133453786373138
0.125377446413040161 -0.0522518232464790344 0.000622299034148454666
0.145433276891708374 -0.047143198549747467 0.00333984941244125366
0.130234405398368835 -0.0509334728121757507 0.00203173002228140831
0.107025817036628723 -0.0558141432702541351 0.0084287421777844429
0.125009119510650635 -0.051057860255241394 0.0124904224649071693
0.129547938704490662 -0.0498274005949497223 0.0137933231890201569
0.131642267107963562 -0.0496639199554920197 0.0106529630720615387
0.133906453847885132 -0.0487970933318138123 0.0136444736272096634
0.134193077683448792 -0.0487515740096569061 0.0134289152920246124
0.166223287582397461 -0.0415842756628990173 0.00859361980110406876
0.168118134140968323 -0.0417392924427986145 0.00294891837984323502
0.148764505982398987 -0.045881468802690506 0.00761527381837368011
0.137391358613967896 -0.048061177134513855 0.0127122038975358009
0.156800240278244019 -0.0437214858829975128 0.00975099764764308929
0.15037401020526886 -0.0457163006067276001 0.00556774158030748367
0.154717415571212769 -0.0437006279826164246 0.0145717673003673553
0.134483575820922852 -0.0483747236430644989 0.0162710808217525482
0.147124111652374268 -0.0458570756018161774 0.0114857275038957596
0.140110760927200317 -0.0471868515014648438 0.0147616919130086899
0.149707198143005371 -0.0448887422680854797 0.014708101749420166
0.131718114018440247 -0.0496693290770053864 0.0104344161227345467
0.0768496543169021606 -0.0608785897493362427 0.0142283011227846146
0.0778967216610908508 -0.0603826940059661865 0.0170529428869485855
0.0646141394972801208 -0.063252769410610199 0.013232015073299408
0.0680093765258789062 -0.0627068579196929932 0.0124519262462854385
0.0649632513523101807 -0.0637319311499595642 0.00814239680767059326
0.0633528977632522583 -0.0633648335933685303 0.0143708456307649612
0.0495911501348018646 -0.0659417882561683655 0.0141241215169429779
0.0638668090105056763 -0.0629479959607124329 0.017380397766828537
0.0788477286696434021 -0.0608707964420318604 0.0108356643468141556
0.052860744297504425 -0.066086404025554657 0.0070997951552271843
0.0563432313501834869 -0.0644918233156204224 0.015982162207365036
0.048518158495426178 -0.066740773618221283 0.00850804802030324936
0.0538569390773773193 -0.0649557486176490784 0.01595299132168293
0.049535457044839859 -0.0663783997297286987 0.0101347621530294418
0.0481689386069774628 -0.0672975927591323853 0.00390292145311832428
0.0437135510146617889 -0.068156018853187561 0.0035971272736787796
0.0598465949296951294 -0.0647421181201934814 0.00756333861500024796
-0.0613103881478309631 0.00142693915404379368 0.0836890190839767456
-0.0371404103934764862 0.0132071096450090408 0.0836890190839767456
-0.0352354496717453003 0.0113053210079669952 0.0836890190839767456
-0.0343018434941768646 0.0120567744597792625 0.0836890190839767456
-0.0361437797546386719 -0.00118365883827209473 0.0836890190839767456
-0.0700638890266418457 -0.00237656105309724808 0.0836890190839767456
-0.045234978199005127 0.0100361136719584465 0.0836890190839767456
-0.0655075088143348694 -0.00208015600219368935 0.0836890190839767456
-0.0415865257382392883 -0.00155920907855033875 0.0836890190839767456
-0.0416625998914241791 -0.00238250475376844406 0.0836890190839767456
-0.0344784222543239594 0.00238489918410778046 0.0836890190839767456
-0.0306349955499172211 -0.00119926966726779938 0.0836890190839767456
-0.0814098939299583435 -0.00617069937288761139 0.0836890190839767456
-0.0476953424513339996 -0.000406106002628803253 0.0836890190839767456
-0.0603193305432796478 -0.000749222468584775925 0.0836890190839767456
-0.0755655467510223389 -0.0047441478818655014 0.0836890190839767456
-0.0365326590836048126 0.0141468998044729233 0.0836890190839767456
-0.0886711850762367249 0.00963680911809206009 0.0836890190839767456
-0.0863294675946235657 0.00088544841855764389 0.0836890190839767456
-0.0877763330936431885 -3.98391857743263245e-05 0.0836890190839767456
-0.0505905896425247192 0.0104906149208545685 0.0836890190839767456
-0.0723657459020614624 0.0112358052283525467 0.0836890190839767456
-0.0831347107887268066 0.0108001437038183212 0.0836890190839767456
-0.0764858424663543701 0.000217260792851448059 0.0836890190839767456
-0.0815249085426330566 0.0103479232639074326 0.0836890190839767456
-0.0631789639592170715 0.00949126202613115311 0.0836890190839767456
-0.0613077655434608459 0.00477750971913337708 0.0836890190839767456
-0.0794689133763313293 0.0073874262161552906 0.0836890190839767456
-0.0814290344715118408 0.00131369847804307938 0.0836890190839767456
-0.0565266795456409454 0.0130985770374536514 0.0836890190839767456
-0.0837739631533622742 0.0052320496179163456 0.0836890190839767456
-0.0761580392718315125 0.00395120773464441299 0.0836890190839767456
0.0265607498586177826 -0.0335637480020523071 0.0692121833562850952
-0.00798764638602733612 -0.0465696491301059723 0.0631179139018058777
0.0239982958883047104 -0.0379128605127334595 0.0663214102387428284
0.0311056077480316162 -0.0318749770522117615 0.0699979141354560852
0.00208893395029008389 -0.0428259037435054779 0.064859636127948761
0.0100441472604870796 -0.037383347749710083 0.0680267289280891418
0.00996147934347391129 -0.0399190038442611694 0.0662074387073516846
-0.00969993602484464645 -0.044755786657333374 0.0645873695611953735
-0.0107549997046589851 -0.0453752242028713226 0.0642411112785339355
-0.00345441256649792194 -0.0415945239365100861 0.0662728101015090942
-0.00585377588868141174 -0.0437396913766860962 0.0649546757340431213
0.0260611902922391891 -0.0315052010118961334 0.0707429051399230957
0.0335222706198692322 -0.0411583222448825836 0.0630793198943138123
0.0222275666892528534 -0.0421514585614204407 0.0634351670742034912
0.035491548478603363 -0.0322778783738613129 0.0692915171384811401
0.0241095218807458878 -0.0348228849470615387 0.0685374140739440918
0.0335233174264431 -0.0312680453062057495 0.0702058970928192139
0.00818661227822303772 -0.0351694636046886444 0.0697982087731361389
0.0021672416478395462 -0.0354989469051361084 0.0701318234205245972
-0.00718109868466854095 -0.0348168686032295227 0.0715101435780525208
-0.00646092928946018219 -0.0416003391146659851 0.0665538311004638672
0.0115479305386543274 -0.0317865423858165741 0.0719169825315475464
-0.00729437265545129776 -0.0334449112415313721 0.0725094825029373169
-0.0142235318198800087 -0.0348844416439533234 0.0721295326948165894
0.00942859798669815063 -0.0314636975526809692 0.0723506659269332886
0.00369075872004032135 -0.035145346075296402 0.0702420920133590698
-0.0257465783506631851 -0.0417328439652919769 0.0682878941297531128
-0.0061625111848115921 -0.0380878672003746033 0.0690565183758735657
0.0188815053552389145 -0.0320199877023696899 0.0710530653595924377
-0.0112047875300049782 -0.0368496999144554138 0.0704270526766777039
-0.0202681776136159897 -0.0397182554006576538 0.0692198425531387329
0.023816429078578949 -0.0300878658890724182 0.0719771459698677063
-0.0122531931847333908 -0.0346017256379127502 0.0721463337540626526
-0.0178779531270265579 -0.035074479877948761 0.072339273989200592
-0.12745898962020874 0.0646274015307426453 0.0540089830756187439
-0.144624605774879456 0.0669610351324081421 0.0509180016815662384
-0.113038942217826843 0.0658054351806640625 0.0531200133264064789
-0.145453929901123047 0.0637428611516952515 0.0544680282473564148
-0.143079176545143127 0.0639364644885063171 0.054322071373462677
-0.116102322936058044 0.0665422901511192322 0.0522125661373138428
-0.142169952392578125 0.0615602843463420868 0.0569875314831733704
-0.149192407727241516 0.0587908700108528137 0.0598590485751628876
-0.12863565981388092 0.0676796808838844299 0.0505848601460456848
-0.135932937264442444 0.0657898262143135071 0.0524715334177017212
-0.14776921272277832 0.0668764635920524597 0.0509204752743244171
-0.136145114898681641 0.0613675378262996674 0.0573768168687820435
-0.125355005264282227 0.0658266842365264893 0.0527382344007492065
-0.144192665815353394 0.0618022345006465912 0.056659989058971405
-0.148549973964691162 0.0670796632766723633 0.0506720989942550659
-0.129444584250450134 0.0590523034334182739 0.0601430125534534454
-0.102244451642036438 0.0651726573705673218 0.0541367195546627045
-0.0986270681023597717 0.0677630826830863953 0.0513649545609951019
-0.132650330662727356 0.0576893128454685211 0.0615635327994823456
-0.115478768944740295 0.0623116083443164825 0.0569293461740016937
-0.0966889560222625732 0.0622150376439094543 0.0575830526649951935
-0.112217776477336884 0.0593673065304756165 0.0602941587567329407
-0.129122033715248108 0.0611455440521240234 0.0578276105225086212
-0.0978536978363990784 0.0677182450890541077 0.0514372475445270538
-0.140147671103477478 0.0582449920475482941 0.0607283487915992737
-0.110220916569232941 0.0603930950164794922 0.0592129826545715332
-0.116280034184455872 0.0632344558835029602 0.0558811202645301819
-0.127617761492729187 0.0589602030813694 0.060298427939414978
-0.137413129210472107 0.0591279901564121246 0.0598272085189819336
-0.105368614196777344 0.0642546191811561584 0.0550654381513595581
-0.116865083575248718 0.0587180182337760925 0.0608801208436489105
0.15145498514175415 -0.0392101630568504333 0.0323376506567001343
0.162884622812271118 -0.0368297025561332703 0.0312493033707141876
0.151749253273010254 -0.0400344207882881165 0.0296586025506258011
0.165168434381484985 -0.0370259806513786316 0.0290202964097261429
0.137770950794219971 -0.0427361130714416504 0.0316170677542686462
0.141247183084487915 -0.0428618267178535461 0.0287422984838485718
0.129255443811416626 -0.0440376177430152893 0.0338410362601280212
0.156090840697288513 -0.0416379533708095551 0.021737782284617424
0.165861457586288452 -0.0365880951285362244 0.0298331007361412048
0.16536298394203186 -0.0357919782400131226 0.0325746610760688782
0.160751163959503174 -0.0379579886794090271 0.029404936358332634
0.152512222528457642 -0.0409337878227233887 0.0264178290963172913
0.139600738883018494 -0.0423687398433685303 0.0314017720520496368
0.125188633799552917 -0.0450625903904438019 0.0336954928934574127
0.129786327481269836 -0.0449768044054508209 0.030647866427898407
0.14172324538230896 -0.0434481538832187653 0.0266448576003313065
0.120347782969474792 -0.0474047809839248657 0.0301629379391670227
0.159214600920677185 -0.0385575927793979645 0.0287142656743526459
0.0961019769310951233 -0.0528301075100898743 0.0300014354288578033
0.0688217729330062866 -0.0603178441524505615 0.0226403921842575073
0.0932709798216819763 -0.0561847276985645294 0.0214347280561923981
0.0620198920369148254 -0.062629111111164093 0.0194599814713001251
0.081356540322303772 -0.0580345913767814636 0.0225195102393627167
0.0884180366992950439 -0.0575463399291038513 0.0200356543064117432
0.102846540510654449 -0.0550311729311943054 0.0195543207228183746
0.0664463266730308533 -0.0613716095685958862 0.0207831989973783493
0.0777684301137924194 -0.0598161444067955017 0.0191395562142133713
0.0645204707980155945 -0.0619230084121227264 0.0201945304870605469
0.0699091479182243347 -0.0603552535176277161 0.0219170618802309036
0.0804678425192832947 -0.0571905598044395447 0.025573166087269783
0.0710685253143310547 -0.0607335492968559265 0.0201214291155338287
0.0957980379462242126 -0.0569510720670223236 0.0176970474421977997
0.0735044404864311218 -0.0603697970509529114 0.0198558792471885681
0.0743737518787384033 -0.058474373072385788 0.0251059532165527344
0.0810424983501434326 -0.0568770095705986023 0.0261999238282442093
0.154232367873191833 -0.0425065644085407257 0.0204731635749340057
0.129224613308906555 -0.0464227087795734406 0.0267230216413736343
0.134349033236503601 -0.0460931845009326935 0.0240264963358640671
0.108505509793758392 -0.0496711917221546173 0.0318892858922481537
0.132425040006637573 -0.0479248911142349243 0.0199257750064134598
0.109215967357158661 -0.0519381798803806305 0.0245920494198799133
0.1288575679063797 -0.04669160395860672 0.0261818226426839828
0.105421125888824463 -0.052011445164680481 0.0271001439541578293
0.136685967445373535 -0.0476389937102794647 0.0177192464470863342
0.129459232091903687 -0.0488215982913970947 0.0193728916347026825
0.136491179466247559 -0.045282021164894104 0.0249152518808841705
0.127005919814109802 -0.0482830442488193512 0.0227483920753002167
0.144862622022628784 -0.0443299412727355957 0.0217487700283527374
0.145879209041595459 -0.0450705438852310181 0.0188010036945343018
0.120964333415031433 -0.0504590421915054321 0.0205763615667819977
0.132419794797897339 -0.0459520518779754639 0.0258355718106031418
0.130015581846237183 -0.0466286763548851013 0.025537930428981781
0.128577619791030884 -0.0463308319449424744 0.0274630561470985413
0.0689378455281257629 -0.0570167712867259979 0.032568223774433136
0.0538467094302177429 -0.0631413012742996216 0.0224951095879077911
0.0827553868293762207 -0.0550414174795150757 0.030795566737651825
0.0592369884252548218 -0.0617901012301445007 0.0235611982643604279
0.0451121628284454346 -0.0659874975681304932 0.0187797211110591888
0.0675833001732826233 -0.0590360648930072784 0.0272154230624437332
0.0539528355002403259 -0.0635257214307785034 0.0212718546390533447
0.0605176016688346863 -0.0602016113698482513 0.0276513472199440002
0.0469639599323272705 -0.0621357150375843048 0.029400799423456192
0.0597196444869041443 -0.0588146261870861053 0.0322977043688297272
0.0440585315227508545 -0.0634006038308143616 0.0272018630057573318
0.0776010304689407349 -0.056099332869052887 0.0304849371314048767
0.0493836179375648499 -0.0634882748126983643 0.0239487960934638977
0.0659276992082595825 -0.0585957057774066925 0.029477359727025032
0.0496341623365879059 -0.0616111233830451965 0.0294907074421644211
0.0928589552640914917 -0.0522762835025787354 0.0334974862635135651
0.0547651797533035278 -0.0600829571485519409 0.0312379561364650726
-0.0524238422513008118 0.0226307995617389679 0.0817500948905944824
-0.0595854930579662323 0.0153857534751296043 0.0831663832068443298
-0.0753985568881034851 0.0128736868500709534 0.0834350660443305969
-0.0352672897279262543 0.0234820060431957245 0.08185587078332901
-0.0358748622238636017 0.0239631012082099915 0.0817437618970870972
-0.0820959284901618958 0.0133413271978497505 0.0832242071628570557
-0.0391229316592216492 0.0187036916613578796 0.0828044340014457703
-0.0467112436890602112 0.0164267569780349731 0.0831604897975921631
-0.0647527724504470825 0.0131360851228237152 0.0835570469498634338
-0.0606496185064315796 0.0168139096349477768 0.0828458964824676514
-0.0680311769247055054 0.0172939486801624298 0.0826209932565689087
-0.0544189848005771637 0.0225468352437019348 0.0817346051335334778
-0.0691819936037063599 0.0125285312533378601 0.0836119428277015686
-0.0403812006115913391 0.0222908873111009598 0.0820230469107627869
-0.0614157691597938538 0.0148537606000900269 0.0832486152648925781
-0.0566971935331821442 0.0211860258132219315 0.0819850564002990723
-0.087687171995639801 0.0247542597353458405 0.0807116851210594177
-0.0432991981506347656 0.0297665558755397797 0.0803897157311439514
-0.0574168451130390167 0.0282659903168678284 0.0804722830653190613
-0.0621859282255172729 0.0231929309666156769 0.0814680755138397217
-0.0608195364475250244 0.0244734995067119598 0.0812194272875785828
-0.0469030663371086121 0.0296952277421951294 0.0803447142243385315
-0.0645732730627059937 0.0273461043834686279 0.0805478841066360474
-0.0383109115064144135 0.0310361646115779877 0.080203816294670105
-0.0711342319846153259 0.0228320099413394928 0.0813952982425689697
-0.0879553556442260742 0.0271567385643720627 0.080197945237159729
-0.0474041737616062164 0.0290424525737762451 0.0804747268557548523
-0.0821356326341629028 0.0151962209492921829 0.0828303545713424683
-0.0886555314064025879 0.0247728563845157623 0.0806915909051895142
-0.0885388031601905823 0.0246454663574695587 0.0807205364108085632
-0.0746652111411094666 0.0285334493964910507 0.0801278352737426758
-0.0852013006806373596 0.0159282255917787552 0.0826240479946136475
-0.0208029653877019882 -0.0203327126801013947 0.0792266875505447388
-0.0211367364972829819 -0.0327451936900615692 0.073765099048614502
-0.0145048294216394424 -0.0288897529244422913 0.0750820115208625793
-0.010086575523018837 -0.0239190347492694855 0.0770200863480567932
0.0134155694395303726 -0.0144076887518167496 0.079853743314743042
-0.013455025851726532 -0.0219322200864553452 0.0780932232737541199
-0.0149034261703491211 -0.0296788439154624939 0.0747567415237426758
-0.0177012216299772263 -0.0188151132315397263 0.0797164961695671082
-0.00357511825859546661 -0.0215916447341442108 0.0776692554354667664
0.012387540191411972 -0.0153268147259950638 0.0795076489448547363
-0.0201627109199762344 -0.0284577067941427231 0.0756017044186592102
-0.0152331944555044174 -0.0188766028732061386 0.0795458704233169556
-0.0137515496462583542 -0.0228902697563171387 0.0776874125003814697
0.00101673975586891174 -0.0216558389365673065 0.0773739665746688843
-0.0077067352831363678 -0.0254667382687330246 0.0761983096599578857
-0.01374097540974617 -0.0299922022968530655 0.0745507925748825073
0.0197005569934844971 -0.0255761314183473587 0.0745567157864570618
-0.0174645707011222839 -0.0341067276895046234 0.072950407862663269
0.018986022099852562 -0.0268323346972465515 0.0740435495972633362
0.0204442013055086136 -0.017254197970032692 0.0781882107257843018
0.0298301763832569122 -0.0155920423567295074 0.0783765241503715515
0.0124010872095823288 -0.0197523832321166992 0.0775526612997055054
0.00319249881431460381 -0.0282144509255886078 0.0743513926863670349
0.00970790348947048187 -0.0224200785160064697 0.0765312463045120239
0.0159059148281812668 -0.0205698404461145401 0.0769879445433616638
0.0265080146491527557 -0.014634464867413044 0.0789924934506416321
0.0116887614130973816 -0.0201674383133649826 0.0774107947945594788
0.0230842791497707367 -0.0234497133642435074 0.0752989724278450012
0.000906519067939370871 -0.0261152759194374084 0.0754112228751182556
0.0263266097754240036 -0.0243528150022029877 0.0747117027640342712
0.00407775957137346268 -0.0293443258851766586 0.0738010033965110779
0.0103542450815439224 -0.0206477046012878418 0.0772763043642044067
-0.00610834686085581779 -0.032529924064874649 0.0729864910244941711
-0.151433378458023071 0.0693742036819458008 0.0472440943121910095
-0.135832518339157104 0.0712615624070167542 0.0446826666593551636
-0.151604831218719482 0.0685436278581619263 0.0486749038100242615
-0.142518311738967896 0.0738627463579177856 0.0398740507662296295
-0.130907490849494934 0.0734583958983421326 0.0411010198295116425
-0.143202468752861023 0.073253631591796875 0.0408980436623096466
-0.146873459219932556 0.0695657804608345032 0.0471190810203552246
-0.135465309023857117 0.0733963027596473694 0.0410018526017665863
-0.151286453008651733 0.0740462318062782288 0.0391585677862167358
-0.126622512936592102 0.0762365832924842834 0.0364834070205688477
-0.133301019668579102 0.0735561773180961609 0.0408230870962142944
-0.115229658782482147 0.0770298391580581665 0.0356261767446994781
-0.124139241874217987 0.0746505334973335266 0.0393431521952152252
-0.126977980136871338 0.0745734348893165588 0.0393479391932487488
-0.147796481847763062 0.070069335401058197 0.0462050363421440125
-0.13755662739276886 0.0749938264489173889 0.0381400026381015778
-0.108670465648174286 0.0699764639139175415 0.0481404699385166168
-0.108378298580646515 0.0737477168440818787 0.0416217222809791565
-0.127533465623855591 0.0722961053252220154 0.0432671904563903809
-0.109874486923217773 0.0748831257224082947 0.0395872741937637329
-0.121774144470691681 0.0733812302350997925 0.0416489094495773315
-0.116584770381450653 0.0742631480097770691 0.0403567589819431305
-0.106895357370376587 0.0694123208522796631 0.0491980984807014465
-0.111083246767520905 0.0706423521041870117 0.046877685934305191
-0.102456286549568176 0.0724298879504203796 0.0441728532314300537
-0.101401247084140778 0.0726045668125152588 0.0439181514084339142
-0.116280637681484222 0.0743509009480476379 0.0402185544371604919
-0.125726819038391113 0.0723272114992141724 0.0432952530682086945
-0.129827380180358887 0.0711612105369567871 0.0451288409531116486
-0.106673255562782288 0.0744172036647796631 0.0405394658446311951
-0.0979749187827110291 0.0749811902642250061 0.0399571284651756287
0.143501833081245422 -0.0360154248774051666 0.0417629554867744446
0.16001582145690918 -0.0334527678787708282 0.0394008979201316833
0.135286390781402588 -0.0366663224995136261 0.0439892970025539398
0.153266787528991699 -0.0357868000864982605 0.038198426365852356
0.148739457130432129 -0.0333687365055084229 0.0441035069525241852
0.138668179512023926 -0.0337265916168689728 0.0475742146372795105
0.153226554393768311 -0.035874146968126297 0.0380675382912158966
0.146809682250022888 -0.0338309146463871002 0.0441054031252861023
0.155076116323471069 -0.0311256125569343567 0.0453196316957473755
0.161450758576393127 -0.0336930789053440094 0.0384156331419944763
0.13096223771572113 -0.0366991795599460602 0.0456829704344272614
0.15379759669303894 -0.0343120284378528595 0.0404683761298656464
0.144734591245651245 -0.0340365692973136902 0.0445982478559017181
0.141249358654022217 -0.0350048504769802094 0.044376615434885025
0.149260744452476501 -0.0311313197016716003 0.0476622022688388824
0.118423193693161011 -0.0376272872090339661 0.0491910837590694427
0.129580080509185791 -0.0348608456552028656 0.0493391901254653931
0.145119369029998779 -0.0390907004475593567 0.0359275564551353455
0.130122482776641846 -0.0395354181528091431 0.0412442199885845184
0.155871331691741943 -0.0363430455327033997 0.0362077988684177399
