ply
format ascii 1.0
element vertex 690
property float x
property float y
property float z
end_header
-0.0189117193222045898 -0.00288866274058818817 -0.00214316416531801224
-0.0189117193222045898 -0.00257705152034759521 -0.00679243123158812523
-0.0189117193222045898 0.0054060337133705616 -0.009043082594871521
-0.0189117193222045898 -0.0125390384346246719 -0.00236345268785953522
-0.0189117193222045898 0.00496955541893839836 -0.00369749637320637703
-0.0189117193222045898 0.00770482467487454414 -0.00658835191279649734
-0.0189117193222045898 -0.00302818929776549339 -0.00686285924166440964
-0.0189117193222045898 0.00709066214039921761 -0.007899516262114048
-0.0189117193222045898 -0.00677421130239963531 -0.00287931226193904877
-0.0189117193222045898 -0.00335532263852655888 -0.00423883367329835892
-0.0189117193222045898 0.00211017578840255737 -0.00800919812172651291
-0.0189117193222045898 0.00226318603381514549 -0.00334788532927632332
-0.0189117193222045898 -0.00466293562203645706 -0.00757407676428556442
-0.0189117193222045898 -0.00247066840529441833 -0.00957447756081819534
-0.0189117193222045898 -0.0111791007220745087 -0.00296232476830482483
-0.0189117193222045898 -0.000724876299500465393 -0.012562197633087635
-0.0189117193222045898 -0.00342065212316811085 -0.00429989723488688469
-0.0189117193222045898 -0.00315041933208703995 -0.003559100441634655
-0.0189117193222045898 -0.00217287428677082062 -0.00745138339698314667
-0.0189117193222045898 0.00277297850698232651 -0.0114016849547624588
-0.0189117193222045898 -0.00347472820430994034 -0.0125565510243177414
-0.0189117193222045898 -0.0113736651837825775 -0.00153150560799986124
-0.0189117193222045898 0.00128544517792761326 -0.00373558653518557549
-0.0189117193222045898 -0.00192424468696117401 -0.0141081428155303001
-0.0189117193222045898 0.00487282918766140938 -0.00888951681554317474
-0.0189117193222045898 -0.0141798760741949081 -0.00075514958007261157
-0.0189117193222045898 -0.00331173837184906006 -0.00573385925963521004
-0.0189117193222045898 -0.00806963816285133362 -0.00148307252675294876
-0.0189117193222045898 -0.00534132402390241623 -0.00457479711621999741
-0.0189117193222045898 -0.00112858973443508148 -0.0142248533666133881
-0.0189117193222045898 0.0129788387566804886 -0.00442563369870185852
-0.0189117193222045898 0.00228917365893721581 -0.00807139836251735687
-0.0189117193222045898 -0.000114622991532087326 -0.00919734500348567963
-0.0189117193222045898 -0.00452451594173908234 -0.00232705241069197655
-0.0189117193222045898 -0.00102462153881788254 -0.0144148813560605049
-0.0189117193222045898 0.00204281113110482693 -0.00268824305385351181
-0.0189117193222045898 0.00336814438924193382 -0.00960787013173103333
-0.0189117193222045898 -0.00134501664433628321 -0.00307684275321662426
-0.0189117193222045898 -0.0051523260772228241 -0.0108906542882323265
-0.0189117193222045898 0.00259390752762556076 -0.00745482416823506355
-0.0189117193222045898 -0.00492259720340371132 -0.00767877558246254921
-0.0189117193222045898 -0.00593461468815803528 -0.00818832218647003174
-0.0189117193222045898 -0.010574054904282093 -0.00106865749694406986
-0.0189117193222045898 -0.00435733236372470856 -0.00982100330293178558
-0.0189117193222045898 -0.00128281209617853165 -0.0102279353886842728
-0.0189117193222045898 -0.00525436457246541977 -0.0100273853167891502
-0.0189117193222045898 -0.00282258493825793266 -0.00366978952661156654
-0.0189117193222045898 0.00862586870789527893 -0.00672147609293460846
-0.0189117193222045898 -0.00392766576260328293 -0.00304916594177484512
-0.0189117193222045898 -0.00595160899683833122 -0.00799517147243022919
-0.0189117193222045898 -0.00355383753776550293 -0.00687409145757555962
-0.0189117193222045898 0.0130852013826370239 -0.00422279629856348038
-0.0189117193222045898 -0.0121682807803153992 -0.00280459737405180931
-0.0189117193222045898 -0.00355552416294813156 -0.00319722993299365044
-0.0189117193222045898 -0.000571747601497918367 -0.00215266994200646877
-0.0189117193222045898 0.00529222982004284859 -0.00766665488481521606
-0.0189117193222045898 -0.00714668864384293556 -0.00139005831442773342
-0.0189117193222045898 -0.0089253205806016922 -0.00371654285117983818
-0.0189117193222045898 -0.00399963464587926865 -0.00569145334884524345
-0.0189117193222045898 -0.00110393110662698746 -0.00938289333134889603
-0.0189117193222045898 -0.00756090600043535233 -0.00697015365585684776
-0.0189117193222045898 0.00205333391204476357 -0.00662359036505222321
-0.0189117193222045898 -0.00720095820724964142 -0.00365178659558296204
-0.0189117193222045898 0.00926923006772994995 -0.00594546739012002945
-0.0189117193222045898 -0.0025434587150812149 -0.0111990878358483315
-0.0189117193222045898 -0.00569769460707902908 -0.00499108992516994476
-0.0189117193222045898 0.00738275982439517975 -0.00786334462463855743
-0.0189117193222045898 0.00690316734835505486 -0.00477673998102545738
-0.0189117193222045898 0.000264973961748182774 -0.00331917544826865196
-0.0189117193222045898 -0.00394451618194580078 -0.00994362682104110718
-0.0189117193222045898 -0.00618115067481994629 -0.00363307236693799496
-0.0189117193222045898 0.00665257079526782036 -0.00911611318588256836
-0.0189117193222045898 0.0110443606972694397 -0.00589207466691732407
-0.0189117193222045898 0.000590665265917778015 -0.00966544728726148605
-0.0189117193222045898 -0.0120100732892751694 -0.00313218869268894196
-0.0189117193222045898 0.00900039728730916977 -0.00611464772373437881
-0.0189117193222045898 -0.00996452011168003082 -0.000741279684007167816
-0.0189117193222045898 0.0103096319362521172 -0.00512769073247909546
-0.0189117193222045898 -0.0021399371325969696 -0.013555966317653656
-0.0189117193222045898 0.0043694591149687767 -0.0111553343012928963
-0.0189117193222045898 -0.00373101793229579926 -0.0119259674102067947
-0.0189117193222045898 -0.00952700432389974594 -0.00345152104273438454
-0.0189117193222045898 -0.00306930020451545715 -0.0125890234485268593
-0.0189117193222045898 -0.00045848870649933815 -0.00894737802445888519
-0.0189117193222045898 -0.00201595388352870941 -0.0100313210859894753
-0.0189117193222045898 -0.00256239715963602066 -0.00315130548551678658
-0.0189117193222045898 -0.00631016213446855545 -0.00508610717952251434
-0.0189117193222045898 0.00129496771842241287 -0.0100504364818334579
-0.0189117193222045898 -0.0114352945238351822 -0.00165004772134125233
-0.0189117193222045898 0.00973386317491531372 -0.00713116349652409554
-0.0189117193222045898 -0.0113430134952068329 -0.00192937208339571953
-0.0189117193222045898 -0.00244488753378391266 -0.0130947045981884003
-0.0189117193222045898 -0.000204006675630807877 -0.00505799101665616035
-0.0189117193222045898 0.0023910116869956255 -0.00469084642827510834
-0.0189117193222045898 -0.0063043590635061264 -0.00681148190051317215
-0.0189117193222045898 0.00539697101339697838 -0.0102009112015366554
-0.0189117193222045898 -0.00882979109883308411 -0.00257782125845551491
-0.0189117193222045898 -0.00189117761328816414 -0.00711744651198387146
-0.0189117193222045898 0.00697630830109119415 -0.0045775342732667923
-0.0189117193222045898 0.00698734959587454796 -0.00654858071357011795
-0.0189117193222045898 -0.0106016984209418297 -0.00219927984289824963
-0.0189117193222045898 0.00230028852820396423 -0.00917447451502084732
-0.0189117193222045898 0.00560498982667922974 -0.00726026203483343124
-0.0189117193222045898 0.00801803357899188995 -0.00459774117916822433
-0.0189117193222045898 -0.00450838450342416763 -0.00323479971848428249
-0.0189117193222045898 -0.00213698390871286392 -0.0139058968052268028
-0.0189117193222045898 -0.0058106924407184124 -0.00658574840053915977
-0.0189117193222045898 -0.00203951075673103333 -0.00625309627503156662
-0.0189117193222045898 -0.00110418349504470825 -0.00596238113939762115
-0.0189117193222045898 0.00692476611584424973 -0.00457751378417015076
-0.0189117193222045898 0.00106197874993085861 -0.00601051189005374908
-0.0189117193222045898 -0.000421509379521012306 -0.00480589130893349648
-0.0189117193222045898 0.0111173735931515694 -0.00397276924923062325
-0.0189117193222045898 -0.00838395021855831146 -0.00462867273017764091
-0.0189117193222045898 0.00406736414879560471 -0.00266775768250226974
-0.0189117193222045898 0.0080096069723367691 -0.00773406727239489555
-0.0189117193222045898 -0.00738451723009347916 -0.00163226970471441746
-0.0189117193222045898 -0.00768729858100414276 -0.00538278510794043541
-0.0189117193222045898 -0.011940990574657917 -0.00312294182367622852
-0.0189117193222045898 -0.00181548111140727997 -0.014545077458024025
-0.0189117193222045898 -0.000566850416362285614 -0.0119752427563071251
-0.0189117193222045898 0.00261424807831645012 -0.00704461848363280296
-0.0189117193222045898 -0.00526084611192345619 -0.00520850485190749168
-0.0189117193222045898 -0.0118486024439334869 -0.00126887275837361813
-0.0189117193222045898 -0.00827769190073013306 -0.00592574151232838631
-0.0189117193222045898 -0.000633856747299432755 -0.00831884704530239105
-0.0189117193222045898 -0.00265910523012280464 -0.00612343661487102509
-0.0189117193222045898 -0.00362716009840369225 -0.00618632044643163681
-0.0189117193222045898 -0.00410640472546219826 -0.00732897873967885971
-0.0189117193222045898 -0.0123708788305521011 -0.000661161495372653008
-0.0189117193222045898 -0.0034539434127509594 -0.00645345728844404221
-0.0189117193222045898 -0.00118667725473642349 -0.00665240222588181496
-0.0189117193222045898 0.00682714488357305527 -0.00293329753912985325
-0.0189117193222045898 -0.0120445573702454567 -0.00209502060897648335
-0.0189117193222045898 0.000876237405464053154 -0.00318371015600860119
-0.0189117193222045898 0.000648253131657838821 -0.00587121350690722466
-0.0189117193222045898 -0.00439598876982927322 -0.0117508117109537125
-0.0189117193222045898 -0.00796183757483959198 -0.00249032815918326378
-0.0189117193222045898 -0.00452408427372574806 -0.00749468104913830757
-0.0189117193222045898 0.0040100528858602047 -0.00818183645606040955
-0.0189117193222045898 -0.00199184753000736237 -0.0118565456941723824
-0.0189117193222045898 -6.46647531539201736e-05 -0.00450812745839357376
-0.0189117193222045898 -0.00746242748573422432 -0.00354398693889379501
-0.0189117193222045898 -0.00102654285728931427 -0.00880338996648788452
-0.0189117193222045898 0.00534894177690148354 -0.00976251810789108276
-0.0189117193222045898 0.012743004597723484 -0.00515182968229055405
-0.0189117193222045898 -0.00514019187539815903 -0.0103771593421697617
-0.0189117193222045898 -0.0124071966856718063 -0.000513713806867599487
-0.0189117193222045898 -0.00624214066192507744 -0.00252629956230521202
-0.0189117193222045898 0.00287771271541714668 -0.00786881521344184875
-0.0189117193222045898 -0.0073336772620677948 -0.00149946613237261772
-0.0189117193222045898 -0.0126300519332289696 -0.00138935365248471498
-0.0189117193222045898 -0.00788507796823978424 -0.00558626698330044746
-0.0189117193222045898 -0.00699236337095499039 -0.00197515659965574741
-0.0189117193222045898 -0.00698569044470787048 -0.00872832350432872772
-0.0189117193222045898 -0.0014038868248462677 -0.0118007482960820198
-0.0189117193222045898 0.000814791303128004074 -0.0102250007912516594
-0.0189117193222045898 -0.0103543410077691078 -0.000947928521782159805
-0.0189117193222045898 -0.00559641141444444656 -0.00192877626977860928
-0.0189117193222045898 0.0106316544115543365 -0.00403592176735401154
-0.0189117193222045898 0.00129911827389150858 -0.00327590992674231529
-0.0189117193222045898 -0.00254939263686537743 -0.00690606236457824707
-0.0189117193222045898 -0.000324259977787733078 -0.00714290142059326172
-0.0189117193222045898 0.00320402113720774651 -0.00449986010789871216
-0.0189117193222045898 0.0111025674268603325 -0.00587091501802206039
-0.0189117193222045898 0.00614303071051836014 -0.00796681270003318787
-0.0189117193222045898 -0.00125604646746069193 -0.00276775332167744637
-0.0189117193222045898 0.00212913425639271736 -0.0117079410701990128
-0.0189117193222045898 -0.0073997904546558857 -0.00339891971088945866
-0.0189117193222045898 0.00292918551713228226 -0.0109180249273777008
-0.0189117193222045898 0.00711385440081357956 -0.00515323551371693611
-0.0189117193222045898 -0.0034745633602142334 -0.0125494413077831268
-0.0189117193222045898 0.0118472017347812653 -0.0054440544918179512
-0.0189117193222045898 0.0120530202984809875 -0.00520927039906382561
-0.0189117193222045898 0.00504755042493343353 -0.00778988562524318695
-0.0189117193222045898 0.00464811455458402634 -0.0101004773750901222
-0.0189117193222045898 -0.00173345860093832016 -0.0136830992996692657
-0.0189117193222045898 -0.00164659647271037102 -0.00284697860479354858
-0.0189117193222045898 -0.00322943087667226791 -0.0125717641785740852
-0.0189117193222045898 0.00647227466106414795 -0.00886130798608064651
-0.0189117193222045898 -0.00401127617806196213 -0.00377989467233419418
-0.0189117193222045898 0.00470547238364815712 -0.00818483904004096985
-0.0189117193222045898 0.00695619732141494751 -0.00469888001680374146
-0.0189117193222045898 0.0125789763405919075 -0.004828684963285923
-0.0189117193222045898 0.00282732374034821987 -0.00578105822205543518
-0.0189117193222045898 0.00510214082896709442 -0.00890532415360212326
-0.0189117193222045898 0.00866860803216695786 -0.00340238376520574093
-0.0189117193222045898 -0.00103917811065912247 -0.00815503485500812531
-0.0189117193222045898 -0.00753030739724636078 -0.00459425663575530052
-0.0189117193222045898 0.00981492176651954651 -0.00667799822986125946
-0.0189117193222045898 0.00754096684977412224 -0.00778275914490222931
-0.0189117193222045898 -0.00658996449783444405 -0.00450936751440167427
-0.0189117193222045898 -0.00317754270508885384 -0.00492046400904655457
-0.0189117193222045898 0.000768893398344516754 -0.0111228600144386292
-0.0189117193222045898 -0.00504639185965061188 -0.010808638297021389
-0.0189117193222045898 -0.00318493018858134747 -0.00420613959431648254
-0.0189117193222045898 -0.0122095495462417603 -0.00249912962317466736
-0.0189117193222045898 -0.00367028173059225082 -0.0111162690445780754
-0.0189117193222045898 -0.00992996338754892349 -0.000946852727793157101
-0.0189117193222045898 0.0101048033684492111 -0.00364399026148021221
-0.0189117193222045898 0.00297269225120544434 -0.0113641144707798958
-0.0189117193222045898 -0.000391479348763823509 -0.00523676071316003799
-0.0189117193222045898 -0.00154639896936714649 -0.00386912841349840164
-0.0189117193222045898 0.00306135881692171097 -0.00922992639243602753
-0.0189117193222045898 -0.00491151772439479828 -0.00224808254279196262
-0.0189117193222045898 -0.00504727894440293312 -0.00577319972217082977
-0.0189117193222045898 -0.00153157534077763557 -0.00477157393470406532
-0.0189117193222045898 0.0021589803509414196 -0.00910353474318981171
-0.0189117193222045898 0.00117459474131464958 -0.00847020931541919708
-0.0189117193222045898 -0.00837039481848478317 -0.00104439340066164732
-0.0189117193222045898 0.00550235435366630554 -0.00773634761571884155
-0.0189117193222045898 -0.00375597667880356312 -0.00398903992027044296
-0.0189117193222045898 0.00154654216021299362 -0.0115466034039855003
-0.0189117193222045898 0.0117786163464188576 -0.0053973691537976265
-0.0189117193222045898 -0.00933216512203216553 -0.0024136924184858799
-0.0189117193222045898 0.0100025022402405739 -0.0048495153896510601
-0.0189117193222045898 0.00896622985601425171 -0.00781364738941192627
-0.0189117193222045898 0.00173490028828382492 -0.0109603097662329674
-0.0189117193222045898 0.00110806338489055634 -0.007331114262342453
-0.0189117193222045898 0.00312551530078053474 -0.00792115833610296249
-0.0189117193222045898 -0.00629413407295942307 -0.00415448145940899849
-0.0189117193222045898 0.0114724505692720413 -0.00360048981383442879
-0.0189117193222045898 -0.000172827392816543579 -0.00035726308124139905
-0.0189117193222045898 0.0138193266466259956 -0.00172402709722518921
-0.0189117193222045898 0.00935433898121118546 -0.00121856632176786661
-0.0189117193222045898 0.00664679519832134247 -0.00116498186253011227
-0.0189117193222045898 -0.00497792754322290421 0.000241799454670399427
-0.0189117193222045898 -0.0078364890068769455 0.000534251215867698193
-0.0189117193222045898 -0.00200758501887321472 -8.28728661872446537e-05
-0.0189117193222045898 0.00895237363874912262 -0.0017917178338393569
-0.0189117193222045898 0.00137183908373117447 -0.000772904255427420139
-0.0189117193222045898 0.0138486325740814209 -0.00136732263490557671
-0.0189117193222045898 0.00784989539533853531 -0.00137171382084488869
-0.0189117193222045898 0.0132650444284081459 -0.00234695849940180779
-0.0189117193222045898 -0.00783301051706075668 0.000375232018996030092
-0.0189117193222045898 -0.00186333851888775826 -7.3334784246981144e-05
-0.0189117193222045898 0.0148026328533887863 -0.00243147625587880611
-0.0189117193222045898 0.0127739366143941879 -0.00213900953531265259
-0.0189117193222045898 -0.010062413290143013 0.000693864189088344574
-0.0189117193222045898 -0.00290320953354239464 1.64977973327040672e-05
-0.0189117193222045898 0.00721819186583161354 -0.000959484605118632317
-0.0189117193222045898 -0.00671762228012084961 0.000552881450857967138
-0.0189117193222045898 0.00111503619700670242 -0.000138650400913320482
-0.0189117193222045898 0.0048953155055642128 -0.00107006251346319914
-0.0189117193222045898 0.00600522849708795547 -0.00085407670121639967
-0.0189117193222045898 -0.000886398251168429852 2.0467385184019804e-05
-0.0189117193222045898 -0.00309381354600191116 4.98317531310021877e-05
-0.0189117193222045898 0.00171067472547292709 -0.000469033373519778252
-0.0189117193222045898 0.00801789946854114532 -0.000793294166214764118
-0.0189117193222045898 0.0102127408608794212 -0.00140452885534614325
-0.0189117193222045898 -0.00583529425784945488 0.000403057900257408619
-0.0189117193222045898 0.0147168487310409546 -0.00160882691852748394
-0.0189117193222045898 -0.00911667849868535995 0.000566952396184206009
-0.0189117193222045898 0.00790212489664554596 -0.00117676879744976759
-0.0189117193222045898 -0.00188582576811313629 -0.000367748551070690155
-0.0189117193222045898 -0.00210900045931339264 0.000102485675597563386
-0.0189117193222045898 0.0138926524668931961 -0.00137580849695950747
-0.0189117193222045898 -0.000660548917949199677 -0.000282298366073518991
-0.0189117193222045898 0.0124538252130150795 -0.00155356456525623798
-0.0189117193222045898 0.00584477651864290237 -0.000952589674852788448
-0.0189117193222045898 0.0140569992363452911 -0.00201930757611989975
-0.0189117193222045898 -0.00236197188496589661 -0.000321124563924968243
-0.0189117193222045898 0.0102023771032691002 -0.000934621668420732021
-0.0189117193222045898 -0.000955876894295215607 -0.000333576579578220844
-0.0189117193222045898 -0.00595370540395379066 0.000315836048685014248
-0.0189117193222045898 -0.00210763304494321346 0.000137406052090227604
-0.0189117193222045898 0.0047194603830575943 -0.000841145694721490145
-0.0189117193222045898 0.0111965611577033997 -0.0020016869530081749
-0.0189117193222045898 0.00626661721616983414 -0.00137497822288423777
-0.0189117193222045898 0.00284819863736629486 0.00199681892991065979
-0.0189117193222045898 0.00895126629620790482 0.00202479120343923569
-0.0189117193222045898 0.00924181006848812103 0.00189753365702927113
-0.0189117193222045898 0.00170323438942432404 0.00223919167183339596
-0.0189117193222045898 0.0049404241144657135 0.00157603342086076736
-0.0189117193222045898 0.0136909857392311096 0.00012562028132379055
-0.0189117193222045898 0.0102903759106993675 0.00266692880541086197
-0.0189117193222045898 0.0143917100504040718 0.000315907062031328678
-0.0189117193222045898 0.015134856104850769 5.22391637787222862e-05
-0.0189117193222045898 0.011913972906768322 0.000730379717424511909
-0.0189117193222045898 0.000577338971197605133 0.00212111510336399078
-0.0189117193222045898 0.0133464541286230087 0.00295952777378261089
-0.0189117193222045898 0.0107184406369924545 0.00346956378780305386
-0.0189117193222045898 0.00527352746576070786 0.00206800736486911774
-0.0189117193222045898 0.0112337842583656311 0.00126847764477133751
-0.0189117193222045898 0.00807851459830999374 0.00198760209605097771
-0.0189117193222045898 0.00847540702670812607 0.00297544081695377827
-0.0189117193222045898 -0.00591849442571401596 0.00183335342444479465
-0.0189117193222045898 -0.000332390656694769859 0.00233124173246324062
-0.0189117193222045898 0.00201177224516868591 0.00074557960033416748
-0.0189117193222045898 -0.00233699241653084755 0.00184813723899424076
-0.0189117193222045898 -0.00317941745743155479 0.00188594416249543428
-0.0189117193222045898 0.0144985001534223557 0.00177050521597266197
-0.0189117193222045898 -0.00648791296407580376 0.00192741141654551029
-0.0189117193222045898 0.0107536241412162781 0.00272201560437679291
-0.0189117193222045898 0.012343323789536953 0.00295767327770590782
-0.0189117193222045898 0.0085340375080704689 0.00240667467005550861
-0.0189117193222045898 0.010400538332760334 0.00258141616359353065
-0.0189117193222045898 -0.00991560891270637512 0.00136097939684987068
-0.0189117193222045898 0.0040758959949016571 0.00141494954004883766
-0.0189117193222045898 0.00613401178270578384 0.00172258145175874233
-0.0189117193222045898 0.000969992019236087799 0.002486466895788908
-0.0189117193222045898 0.0125904083251953125 0.00258127716369926929
-0.0189117193222045898 0.0145685747265815735 0.00349342287518084049
-0.0189117193222045898 0.0130420848727226257 0.00196631951257586479
-0.0189117193222045898 0.00285336747765541077 0.00110046297777444124
-0.0189117193222045898 0.00957932695746421814 0.000851341814268380404
-0.0189117193222045898 0.00812911055982112885 0.000637366785667836666
-0.0189117193222045898 0.0108017288148403168 0.00121170352213084698
-0.0189117193222045898 0.0138960462063550949 0.00150873814709484577
-0.0189117193222045898 -0.00716433627530932426 0.00192901655100286007
-0.0189117193222045898 -0.00738530838862061501 0.00133453425951302052
-0.0189117193222045898 0.0106278834864497185 0.0020726469811052084
-0.0189117193222045898 0.00551224593073129654 0.00286298990249633789
-0.0189117193222045898 0.0101406285539269447 0.00187007908243685961
-0.0189117193222045898 0.0106153273954987526 0.00253114965744316578
-0.0189117193222045898 0.00106261484324932098 0.00180406717117875814
-0.0189117193222045898 0.00908942800015211105 0.000268082250840961933
-0.0189117193222045898 0.014019060879945755 0.000281152664683759212
-0.0189117193222045898 0.00276999268680810928 0.000767116318456828594
-0.0189117193222045898 -0.00331850047223269939 0.00195330777205526829
-0.0189117193222045898 0.0118082240223884583 0.00326335686258971691
-0.0189117193222045898 0.00162483565509319305 0.000778028042986989021
-0.0189117193222045898 0.0145058874040842056 0.00202559400349855423
-0.0189117193222045898 -0.00199295533820986748 0.00155622093006968498
-0.0189117193222045898 0.0129373520612716675 0.00369403883814811707
-0.0189117193222045898 0.000155812595039606094 0.00233794096857309341
-0.0189117193222045898 -0.00317035266198217869 0.0022877175360918045
-0.0189117193222045898 0.0116768013685941696 0.00158320856280624866
-0.0189117193222045898 0.0129416584968566895 0.000366474967449903488
-0.0189117193222045898 -0.00232580956071615219 0.00121581170242279768
-0.0189117193222045898 -0.00163176469504833221 0.000998422037810087204
-0.0189117193222045898 0.0144752748310565948 0.00059702026192098856
-0.0189117193222045898 -2.30995938181877136e-05 0.00180396030191332102
-0.0189117193222045898 0.0117405829951167107 0.00206968747079372406
-0.0189117193222045898 0.00756657030433416367 0.000356915057636797428
-0.0189117193222045898 -0.00787145830690860748 0.00185919634532183409
-0.0189117193222045898 0.00706300325691699982 0.00231483113020658493
-0.0189117193222045898 0.00138251110911369324 0.00132560974452644587
-0.0189117193222045898 0.0131528060883283615 0.00358565966598689556
-0.0189117193222045898 0.000377382151782512665 0.000920282909646630287
-0.0189117193222045898 0.0141213536262512207 0.001363338902592659
-0.0189117193222045898 -0.0136726116761565208 0.00138665828853845596
-0.0189117193222045898 0.0121511118486523628 0.00324011640623211861
-0.0189117193222045898 -0.000701179960742592812 0.00233690650202333927
-0.0189117193222045898 0.0148271350190043449 0.00139745953492820263
-0.0189117193222045898 0.00731951324269175529 0.00273486832156777382
-0.0189117193222045898 0.0148027734830975533 0.000462061027064919472
-0.0189117193222045898 -0.0105506330728530884 0.00142526440322399139
-0.0189117193222045898 0.00878676306456327438 0.00201201275922358036
-0.0189117193222045898 0.0129900155588984489 0.00340196420438587666
-0.0189117193222045898 0.000585485249757766724 0.00141568179242312908
-0.0189117193222045898 0.00752378860488533974 0.00243540084920823574
-0.0189117193222045898 -0.011677272617816925 0.00149053987115621567
-0.0189117193222045898 0.0144156776368618011 0.000688423868268728256
-0.0189117193222045898 -0.00107113691046833992 0.00225901207886636257
-0.0189117193222045898 0.00752540025860071182 0.00130867178086191416
-0.0189117193222045898 -0.0017328234389424324 0.00222081039100885391
-0.0189117193222045898 0.010290226899087429 0.00129374396055936813
-0.0189117193222045898 0.0123280882835388184 0.000394245143979787827
-0.0189117193222045898 0.00816164258867502213 0.00180488242767751217
-0.0189117193222045898 0.0119866440072655678 0.00293959747068583965
-0.0189117193222045898 -0.00100588658824563026 0.00204542349092662334
-0.0189117193222045898 0.00932411570101976395 0.000918217876460403204
-0.0189117193222045898 0.00628938246518373489 0.000883523491211235523
-0.0189117193222045898 0.0105106988921761513 0.000572386779822409153
-0.0189117193222045898 0.00251907552592456341 0.00247887359000742435
-0.0189117193222045898 0.00744804460555315018 0.00270843575708568096
-0.0189117193222045898 0.00228729285299777985 0.00186895090155303478
-0.0189117193222045898 0.014669458381831646 0.00314342090860009193
-0.0189117193222045898 0.0122353890910744667 0.00235511665232479572
-0.0189117193222045898 0.00759782781824469566 0.00134683935903012753
-0.0189117193222045898 0.0110775791108608246 0.00181771651841700077
-0.0189117193222045898 0.00241877138614654541 0.0022247715387493372
-0.0189117193222045898 0.0120322722941637039 0.000477660330943763256
-0.0189117193222045898 0.00853458605706691742 0.0028329815249890089
-0.0189117193222045898 0.0112493177875876427 0.00214558304287493229
-0.0189117193222045898 0.00660643214359879494 0.00260250386781990528
-0.0189117193222045898 0.00534906983375549316 0.00106339296326041222
-0.0189117193222045898 0.0054256785660982132 0.000823263952042907476
-0.0189117193222045898 0.0106184724718332291 0.00226954137906432152
-0.0189117193222045898 0.00840699486434459686 0.000722546828910708427
-0.0189117193222045898 0.0050654970109462738 0.000577281869482249022
-0.0189117193222045898 0.0033269217237830162 0.00184524222277104855
-0.0189117193222045898 0.00717332214117050171 0.00259752734564244747
-0.0189117193222045898 0.00723431119695305824 0.00277966493740677834
-0.0189117193222045898 0.0104845771566033363 0.00338681880384683609
-0.0189117193222045898 0.0104605192318558693 0.000790997291915118694
-0.0189117193222045898 -0.00362663110718131065 0.00220136018469929695
-0.0189117193222045898 -0.0027322079986333847 0.00153624918311834335
-0.0189117193222045898 -0.00479897391051054001 0.00118357758037745953
-0.0189117193222045898 0.0108848847448825836 0.00136989494785666466
-0.0189117193222045898 0.0089974571019411087 0.00187753792852163315
-0.0189117193222045898 0.00727623701095581055 0.000793616636656224728
-0.0189117193222045898 -0.00307403667829930782 0.00228934246115386486
-0.0189117193222045898 -0.0105266319587826729 0.00157652806956321001
-0.0189117193222045898 0.00692967046052217484 0.000669944158289581537
-0.0189117193222045898 0.0125861698761582375 0.00366225559264421463
-0.0189117193222045898 0.00802675448358058929 0.00070246297400444746
-0.0189117193222045898 -0.000411137007176876068 0.00133721251040697098
-0.0189117193222045898 0.0128487497568130493 0.000193322775885462761
-0.0189117193222045898 0.0144586805254220963 0.000389120541512966156
-0.0189117193222045898 0.00020152190700173378 0.00168249825946986675
-0.0189117193222045898 0.00865807570517063141 0.00211129547096788883
-0.0189117193222045898 0.00452168099582195282 0.000494246429298073053
-0.0189117193222045898 0.00570504786446690559 0.00213938741944730282
-0.0189117193222045898 0.000446273013949394226 0.00205567548982799053
-0.0189117193222045898 0.00971416477113962173 0.00281454389914870262
-0.0189117193222045898 0.00533449556678533554 0.00128248683176934719
-0.0189117193222045898 0.000686919316649436951 0.00473411846905946732
-0.0189117193222045898 0.00199569901451468468 0.00489439908415079117
-0.0189117193222045898 0.0127971507608890533 0.00573349185287952423
-0.0189117193222045898 0.0126661024987697601 0.00474535953253507614
-0.0189117193222045898 0.0141128599643707275 0.0046823723241686821
-0.0189117193222045898 -0.00126571301370859146 0.00393575383350253105
-0.0189117193222045898 0.00303623639047145844 0.00485020363703370094
-0.0189117193222045898 0.00829445570707321167 0.00551714189350605011
-0.0189117193222045898 -0.0045998208224773407 0.00413127895444631577
-0.0189117193222045898 0.00464419089257717133 0.00392774771898984909
-0.0189117193222045898 -0.00776179926469922066 0.00320583255961537361
-0.0189117193222045898 0.00947883166372776031 0.0053816293366253376
-0.0189117193222045898 -0.00431549549102783203 0.00417143665254116058
-0.0189117193222045898 -0.00221504271030426025 0.00417677965015172958
-0.0189117193222045898 0.0106617286801338196 0.00618201820179820061
-0.0189117193222045898 -0.00085412152111530304 0.00389002449810504913
-0.0189117193222045898 0.00956962350755929947 0.00694538187235593796
-0.0189117193222045898 -0.00267316470853984356 0.00430808542296290398
-0.0189117193222045898 -0.0137881524860858917 0.00273105013184249401
-0.0189117193222045898 3.97879630327224731e-05 0.0037023504264652729
-0.0189117193222045898 0.00501199206337332726 0.00561455031856894493
-0.0189117193222045898 -0.00153934536501765251 0.00465448992326855659
-0.0189117193222045898 0.00557451415807008743 0.0044373655691742897
-0.0189117193222045898 0.00994526129215955734 0.00456753838807344437
-0.0189117193222045898 -0.00639011431485414505 0.00392460869625210762
-0.0189117193222045898 0.0100912041962146759 0.0060320892371237278
-0.0189117193222045898 0.00223369989544153214 0.00371398637071251869
-0.0189117193222045898 -0.000155346468091011047 0.00373858422972261906
-0.0189117193222045898 -0.00741407601162791252 0.00307443807832896709
-0.0189117193222045898 -0.000708881765604019165 0.00481147598475217819
-0.0189117193222045898 -0.000930715352296829224 0.0038424353115260601
-0.0189117193222045898 0.00541322445496916771 0.00563298119232058525
-0.0189117193222045898 0.00962679833173751831 0.00474243098869919777
-0.0189117193222045898 0.00556883402168750763 0.0036545188631862402
-0.0189117193222045898 -0.00312845874577760696 0.00328021729364991188
-0.0189117193222045898 0.00649418169632554054 0.00592962605878710747
-0.0189117193222045898 -0.00186383258551359177 0.00354413129389286041
-0.0189117193222045898 0.00985279586166143417 0.00583917787298560143
-0.0189117193222045898 0.0136348148807883263 0.00616817222908139229
-0.0189117193222045898 -0.00441430788487195969 0.00314189703203737736
-0.0189117193222045898 0.0139219937846064568 0.00476067792624235153
-0.0189117193222045898 0.0110901966691017151 0.00686763180419802666
-0.0189117193222045898 0.0111376391723752022 0.00409372942522168159
-0.0189117193222045898 0.00291937962174415588 0.00569889834150671959
-0.0189117193222045898 0.0121077615767717361 0.00654060486704111099
-0.0189117193222045898 0.00143956579267978668 0.00350824580527842045
-0.0189117193222045898 0.00725637096911668777 0.00640971865504980087
-0.0189117193222045898 -0.00205616140738129616 0.0042090429924428463
-0.0189117193222045898 -0.00763783697038888931 0.00387311610393226147
-0.0189117193222045898 0.0125328265130519867 0.00655459240078926086
-0.0189117193222045898 0.0073361862450838089 0.00552546326071023941
-0.0189117193222045898 -0.00435889977961778641 0.00322187319397926331
-0.0189117193222045898 0.00919183902442455292 0.00447527552023530006
-0.0189117193222045898 0.0136621827259659767 0.00473750801756978035
-0.0189117193222045898 0.0105543090030550957 0.00646183639764785767
-0.0189117193222045898 0.0131406914442777634 0.00442823814228177071
-0.0189117193222045898 -0.00822147168219089508 0.00355258467607200146
-0.0189117193222045898 -0.000454920809715986252 0.00484049133956432343
-0.0189117193222045898 0.0108913024887442589 0.0069049750454723835
-0.0189117193222045898 0.0097921956330537796 0.006833687424659729
-0.0189117193222045898 0.00332168303430080414 0.00394207844510674477
-0.0189117193222045898 0.00665434915572404861 0.00546141201630234718
-0.0189117193222045898 -0.00251623429358005524 0.00467135803773999214
-0.0189117193222045898 0.00105557497590780258 0.00334220565855503082
-0.0189117193222045898 0.00989124178886413574 0.00432154303416609764
-0.0189117193222045898 0.0022040526382625103 0.00519991246983408928
-0.0189117193222045898 0.00999719928950071335 0.0048709474503993988
-0.0189117193222045898 0.0135675389319658279 0.00492929155007004738
-0.0189117193222045898 -0.0057644946500658989 0.00383472628891468048
-0.0189117193222045898 0.000411267392337322235 0.00371768604964017868
-0.0189117193222045898 0.0105605730786919594 0.00589782744646072388
-0.0189117193222045898 0.00743185821920633316 0.00548395700752735138
-0.0189117193222045898 -0.00769558455795049667 0.00349884713068604469
-0.0189117193222045898 0.0108865536749362946 0.00469508068636059761
-0.0189117193222045898 0.00933208595961332321 0.0055977310985326767
-0.0189117193222045898 0.0062388172373175621 0.00454580597579479218
-0.0189117193222045898 -0.00734301935881376266 0.00398649601265788078
-0.0189117193222045898 0.00189747288823127747 0.00364508340135216713
-0.0189117193222045898 0.00823806039988994598 0.00581810018047690392
-0.0189117193222045898 0.0107081737369298935 0.00688109127804636955
-0.0189117193222045898 0.00705841090530157089 0.00632058596238493919
-0.0189117193222045898 0.0123924184590578079 0.00393621763214468956
-0.0189117193222045898 0.00378371216356754303 0.00406059110537171364
-0.0189117193222045898 0.00935538951307535172 0.00526267103850841522
-0.0189117193222045898 0.0127847269177436829 0.00518407952040433884
-0.0189117193222045898 -0.00952302850782871246 0.00297463242895901203
-0.0189117193222045898 0.00962602626532316208 0.00396882789209485054
-0.0189117193222045898 0.00514544826000928879 0.00369849125854671001
-0.0189117193222045898 0.0040686512365937233 0.00431793276220560074
-0.0189117193222045898 0.0103225484490394592 0.00431316858157515526
-0.0189117193222045898 0.0101456493139266968 0.00554473418742418289
-0.0189117193222045898 0.00132471602410078049 0.00415709754452109337
-0.0189117193222045898 0.0133747337386012077 0.00570938456803560257
-0.0189117193222045898 -0.00659486092627048492 0.00312062236480414867
-0.0189117193222045898 0.00259346887469291687 0.00386297632940113544
-0.0189117193222045898 -0.00172699056565761566 0.00376074109226465225
-0.0189117193222045898 -0.00160678336396813393 0.00458935508504509926
-0.0189117193222045898 -0.00102832401171326637 0.00432540569454431534
-0.0189117193222045898 -0.00418652035295963287 0.00397355947643518448
-0.0189117193222045898 0.0128122363239526749 0.00540928449481725693
-0.0189117193222045898 0.00714431609958410263 0.00378443929366767406
-0.0189117193222045898 0.00875308550894260406 0.00405753124505281448
-0.0189117193222045898 0.0120471930131316185 0.00477538583800196648
-0.0189117193222045898 0.00526057649403810501 0.00570200895890593529
-0.0189117193222045898 0.00573781784623861313 0.00532991858199238777
-0.0189117193222045898 -0.00305630546063184738 0.00411409139633178711
-0.0189117193222045898 0.0137069821357727051 0.00578915514051914215
-0.0189117193222045898 -0.00431739632040262222 0.0043806261382997036
-0.0189117193222045898 -0.00572672858834266663 0.00420450326055288315
-0.0189117193222045898 0.00679940031841397285 0.00622754869982600212
-0.0189117193222045898 0.00458890944719314575 0.00509686488658189774
-0.0189117193222045898 0.0020026559941470623 0.00546369748190045357
-0.0189117193222045898 0.011517825536429882 0.00574243953451514244
-0.0189117193222045898 -0.0040501859039068222 0.0045662708580493927
-0.0189117193222045898 0.00180659443140029907 0.00361110875383019447
-0.0189117193222045898 0.00977937597781419754 0.00669046817347407341
-0.0189117193222045898 0.00310070440173149109 0.00387670774944126606
-0.0189117193222045898 0.00204804772511124611 0.00503618502989411354
-0.0189117193222045898 0.00265765935182571411 0.00343434070236980915
-0.0189117193222045898 0.00949396751821041107 0.00672038551419973373
-0.0189117193222045898 0.0069370390847325325 0.00553040998056530952
-0.0189117193222045898 0.0129407551139593124 0.00473230984061956406
-0.0189117193222045898 -0.00117020774632692337 0.0034086545929312706
-0.0189117193222045898 -0.0123717114329338074 0.00297670788131654263
-0.0189117193222045898 0.0129415718838572502 0.00562077900394797325
-0.0189117193222045898 0.00849556922912597656 0.00384597247466444969
-0.0189117193222045898 -0.00202093552798032761 0.00320892804302275181
-0.0189117193222045898 -0.000821562367491424084 0.00496832281351089478
-0.0189117193222045898 0.00514614488929510117 0.0042204209603369236
-0.0189117193222045898 0.0141973542049527168 0.0051374947652220726
-0.0189117193222045898 0.000646571628749370575 0.0066405097022652626
-0.0189117193222045898 0.00553168542683124542 0.00691036414355039597
-0.0189117193222045898 0.000304093584418296814 0.00597845064476132393
-0.0189117193222045898 0.00807415507733821869 0.00803791824728250504
-0.0189117193222045898 0.00439353706315159798 0.00777938682585954666
-0.0189117193222045898 0.00765477493405342102 0.00781611353158950806
-0.0189117193222045898 0.00919756758958101273 0.00729543576017022133
-0.0189117193222045898 -0.00446050427854061127 0.0049676080234348774
-0.0189117193222045898 0.00720060989260673523 0.00813728850334882736
-0.0189117193222045898 -0.00694925431162118912 0.00473226467147469521
-0.0189117193222045898 -0.00920720584690570831 0.00392216537147760391
-0.0189117193222045898 -0.012617848813533783 0.00314279343001544476
-0.0189117193222045898 0.00862912926822900772 0.00757418060675263405
-0.0189117193222045898 0.00575839076191186905 0.00668499385938048363
-0.0189117193222045898 0.00531530473381280899 0.00645475927740335464
-0.0189117193222045898 -0.00232779420912265778 0.00506028998643159866
-0.0189117193222045898 0.00812429748475551605 0.00742075219750404358
-0.0189117193222045898 0.00769312027841806412 0.00760734779760241508
-0.0189117193222045898 -0.00482920138165354729 0.00472753727808594704
-0.0189117193222045898 -0.0059694899246096611 0.00448256963863968849
-0.0189117193222045898 0.0103535540401935577 0.00922007020562887192
-0.0189117193222045898 0.012464180588722229 0.00806281156837940216
-0.0189117193222045898 0.00713001750409603119 0.00684797763824462891
-0.0189117193222045898 0.00591920595616102219 0.00718413945287466049
-0.0189117193222045898 -0.0116713577881455421 0.00350087997503578663
-0.0189117193222045898 0.0102235563099384308 0.00871146190911531448
-0.0189117193222045898 0.00470278691500425339 0.00726115284487605095
-0.0189117193222045898 0.00541891530156135559 0.00785216037184000015
-0.0189117193222045898 0.00735785067081451416 0.00798336789011955261
-0.0189117193222045898 0.0106577211990952492 0.00782487168908119202
-0.0189117193222045898 0.00412305258214473724 0.00696873338893055916
-0.0189117193222045898 0.00556308310478925705 0.00718844123184680939
-0.0189117193222045898 -0.00235974602401256561 0.00498023349791765213
-0.0189117193222045898 0.00681770686060190201 0.00706179998815059662
-0.0189117193222045898 0.00723659712821245193 0.00736114056780934334
-0.0189117193222045898 0.00195464026182889938 0.00642007775604724884
-0.0189117193222045898 -0.00118225626647472382 0.00617661327123641968
-0.0189117193222045898 0.000176418223418295383 0.0066330726258456707
-0.0189117193222045898 0.0122320922091603279 0.00756811024621129036
-0.0189117193222045898 0.000959676690399646759 0.00631668604910373688
-0.0189117193222045898 0.0114946207031607628 0.00842669885605573654
-0.0189117193222045898 0.0107242483645677567 0.00946069415658712387
-0.0189117193222045898 0.00240275636315345764 0.0062499423511326313
-0.0189117193222045898 0.00320716504938900471 0.00724934274330735207
-0.0189117193222045898 -0.00606902875006198883 0.00469450559467077255
-0.0189117193222045898 0.00951856281608343124 0.00738881994038820267
-0.0189117193222045898 0.00251690670847892761 0.00651844963431358337
-0.0189117193222045898 -0.0117590669542551041 0.00344590726308524609
-0.0189117193222045898 0.0041991090402007103 0.00709585286676883698
-0.0189117193222045898 0.0114786885678768158 0.00799441058188676834
-0.0189117193222045898 0.0109802670776844025 0.00754935620352625847
-0.0189117193222045898 0.00207441765815019608 0.00573616102337837219
-0.0189117193222045898 -0.00219921860843896866 0.00510096270591020584
-0.0189117193222045898 -0.000462932512164115906 0.00556482933461666107
-0.0189117193222045898 0.000703630968928337097 0.00644377153366804123
-0.0189117193222045898 -0.00498481001704931259 0.00443843286484479904
-0.0189117193222045898 0.0060054948553442955 0.00724924355745315552
-0.0189117193222045898 0.00315835932269692421 0.00729865860193967819
-0.0189117193222045898 -0.00447288202121853828 0.00544095644727349281
-0.0189117193222045898 0.00198634713888168335 0.00596428010612726212
-0.0189117193222045898 0.00948103703558444977 0.00803043227642774582
-0.0189117193222045898 -0.0012157093733549118 0.00535832485184073448
-0.0189117193222045898 9.90787521004676819e-05 0.00594630604609847069
-0.0189117193222045898 0.0106837945058941841 0.00847011711448431015
-0.0189117193222045898 0.000493600266054272652 0.00657889712601900101
-0.0189117193222045898 0.0110374456271529198 0.00954293645918369293
-0.0189117193222045898 0.00205803662538528442 0.00577013008296489716
-0.0189117193222045898 0.0104465903714299202 0.00809830985963344574
-0.0189117193222045898 -0.00939144287258386612 0.0040238555520772934
-0.0189117193222045898 0.0113086476922035217 0.00883723795413970947
-0.0189117193222045898 0.00887159444391727448 0.0074495319277048111
-0.0189117193222045898 -0.0136125469580292702 0.00297192437574267387
-0.0189117193222045898 0.00326577108353376389 0.00618529226630926132
-0.0189117193222045898 0.0100567517802119255 0.00886315014213323593
-0.0189117193222045898 -0.00378988496959209442 0.00489063747227191925
-0.0189117193222045898 -0.00782772619277238846 0.00452612247318029404
-0.0189117193222045898 0.0122091611847281456 0.00758481398224830627
-0.0189117193222045898 0.00329749565571546555 0.00678477995097637177
-0.0189117193222045898 -0.000420475378632545471 0.00552665814757347107
-0.0189117193222045898 0.00762507505714893341 0.00739399902522563934
-0.0189117193222045898 0.00657318579033017159 0.00771544082090258598
-0.0189117193222045898 0.00699618970975279808 0.0129699045792222023
-0.0189117193222045898 0.00845691096037626266 0.0122736021876335144
-0.0189117193222045898 0.00945859868079423904 0.0116585586220026016
-0.0189117193222045898 0.00830236915498971939 0.0124269705265760422
-0.0189117193222045898 0.00898881908506155014 0.0122079662978649139
-0.0189117193222045898 0.00226054619997739792 0.0149721289053559303
-0.0189117193222045898 0.00156473764218389988 0.013939843513071537
-0.0189117193222045898 0.000908623216673731804 0.0138387419283390045
-0.0189117193222045898 0.00557183008641004562 0.0134946536272764206
-0.0189117193222045898 0.000428416300565004349 0.0131355207413434982
-0.0189117193222045898 0.00137009820900857449 0.0132775967940688133
-0.0189117193222045898 0.0030450369231402874 0.0142465466633439064
-0.0189117193222045898 0.0043332432396709919 0.0135568380355834961
-0.0189117193222045898 0.00192900164984166622 0.0132469963282346725
-0.0189117193222045898 0.00713886460289359093 0.0115737905725836754
-0.0189117193222045898 0.00135207315906882286 0.0141411209478974342
-0.0189117193222045898 0.00686473306268453598 0.011723552830517292
-0.0189117193222045898 0.00445136986672878265 0.0129479104653000832
-0.0189117193222045898 0.00446361023932695389 0.0122281014919281006
-0.0189117193222045898 0.00369340088218450546 0.0125735383480787277
-0.0189117193222045898 0.00383063149638473988 0.0138252824544906616
-0.0189117193222045898 0.00806260202080011368 0.012013658881187439
-0.0189117193222045898 0.000703584402799606323 0.013524375855922699
-0.0189117193222045898 0.00465208105742931366 0.0131946243345737457
-0.0189117193222045898 0.00402584858238697052 0.0125455548986792564
-0.0189117193222045898 0.00977721437811851501 0.0111015532165765762
-0.0189117193222045898 0.00600664690136909485 0.0121024949476122856
-0.0189117193222045898 0.00595633918419480324 0.0120408674702048302
-0.0189117193222045898 0.00577957043424248695 0.0134686753153800964
-0.0189117193222045898 -0.00374179612845182419 0.0140225747600197792
-0.0189117193222045898 0.00364979822188615799 0.0134418299421668053
-0.0189117193222045898 0.00437682028859853745 0.0138370832428336143
-0.0189117193222045898 0.00335954129695892334 0.0125450603663921356
-0.0189117193222045898 0.00371628976427018642 0.0131254559382796288
-0.0189117193222045898 0.00314954947680234909 0.0145590668544173241
-0.0189117193222045898 -0.00431763380765914917 0.0143241072073578835
-0.0189117193222045898 -0.000917115947231650352 0.0135827036574482918
-0.0189117193222045898 0.000858730636537075043 0.0138320252299308777
-0.0189117193222045898 0.00838730763643980026 0.0114393280819058418
-0.0189117193222045898 0.0039679771289229393 0.0129958139732480049
-0.0189117193222045898 0.00714760646224021912 0.0119694061577320099
-0.0189117193222045898 0.00462624151259660721 0.0125704063102602959
-0.0189117193222045898 0.000455971690826117992 0.0144108226522803307
-0.0189117193222045898 0.0030586861539632082 0.0132084041833877563
-0.0189117193222045898 0.00713938707485795021 0.0126736629754304886
-0.0189117193222045898 0.00084511912427842617 0.0136508727446198463
-0.0189117193222045898 0.00428294530138373375 0.0130598479881882668
-0.0189117193222045898 0.00121147430036216974 0.0142366876825690269
-0.0189117193222045898 0.00471148267388343811 0.0123444627970457077
-0.0189117193222045898 -0.000535825209226459265 0.0143693406134843826
-0.0189117193222045898 0.00266680773347616196 0.0127831855788826942
-0.0189117193222045898 0.00545042427256703377 0.0141247399151325226
-0.0189117193222045898 0.00381876248866319656 0.0118819708004593849
-0.0189117193222045898 0.00884834863245487213 0.0108194658532738686
-0.0189117193222045898 0.00981753040105104446 0.0107263727113604546
-0.0189117193222045898 0.00288754329085350037 0.0122452545911073685
-0.0189117193222045898 0.000399914104491472244 0.0128620238974690437
-0.0189117193222045898 0.0114767085760831833 0.00990251079201698303
-0.0189117193222045898 0.0108371144160628319 0.0105051696300506592
-0.0189117193222045898 0.00472370069473981857 0.0119841992855072021
-0.0189117193222045898 -0.00175260193645954132 0.0134239867329597473
-0.0189117193222045898 0.00764620676636695862 0.0111623853445053101
-0.0189117193222045898 0.00232005445286631584 0.012355349026620388
-0.0189117193222045898 -0.000140264543006196618 0.0131510328501462936
-0.0189117193222045898 0.00898921303451061249 0.010756269097328186
-0.0189117193222045898 0.00941862724721431732 0.01042964868247509
-0.0189117193222045898 0.00681449891999363899 0.0112743694335222244
-0.0189117193222045898 -0.0120992939919233322 0.00897495914250612259
-0.0189117193222045898 -0.0111028067767620087 0.0101005015894770622
-0.0189117193222045898 -0.0100849475711584091 0.010747026652097702
-0.0189117193222045898 -0.0108241541311144829 0.00996598228812217712
