ply
format ascii 1.0
element vertex 757
property float x
property float y
property float z
end_header
0.386928558349609375 0.527548849582672119 0.0343308299779891968
0.879311025142669678 0.862034857273101807 0.256903201341629028
0.749010324478149414 0.773518800735473633 0.219365358352661133
0.642216324806213379 0.700971364974975586 0.14960440993309021
0.616078019142150879 0.683215022087097168 0.114020556211471558
0.55301964282989502 0.640378117561340332 0.0141446739435195923
0.403411924839019775 0.538746356964111328 0.00806255638599395752
0.890556097030639648 0.86967390775680542 0.297637760639190674
0.399161040782928467 0.535858690738677979 0.0191005021333694458
0.745195865631103516 0.770927548408508301 0.00193408876657485962
0.865566849708557129 0.852698147296905518 0.039723910391330719
0.594781458377838135 0.668747842311859131 0.0240910127758979797
0.739788532257080078 0.767254233360290527 0.0468386784195899963
0.830519020557403564 0.828889429569244385 0.109548062086105347
0.867751538753509521 0.854182243347167969 0.128911316394805908
0.544735491275787354 0.634750485420227051 0.106825605034828186
0.720322012901306152 0.754030227661132812 0.0620257481932640076
0.640829861164093018 0.700029492378234863 0.0678481459617614746
0.771170735359191895 0.788572847843170166 0.0958482250571250916
0.388211965560913086 0.528420746326446533 0.0927712023258209229
0.713007807731628418 0.749061524868011475 0.198053792119026184
0.342946290969848633 0.497670799493789673 0.0910877436399459839
0.499930888414382935 0.604313790798187256 0.0657439231872558594
0.733856558799743652 0.763224542140960693 0.167883455753326416
0.711192786693572998 0.747828543186187744 0.0280418694019317627
0.423578560352325439 0.55244600772857666 0.0929874181747436523
0.545743346214294434 0.635435163974761963 0.0372900664806365967
0.433938056230545044 0.55948340892791748 0.0210029184818267822
0.926299691200256348 0.8939552903175354 0.0739351585507392883
0.919471800327301025 0.889316916465759277 0.0103377252817153931
0.706638336181640625 0.744734644889831543 0.238025158643722534
0.650200366973876953 0.706395089626312256 0.102017670869827271
0.882861137390136719 0.864446520805358887 0.292093396186828613
0.807769894599914551 0.81343543529510498 0.225500628352165222
0.236027121543884277 0.425038307905197144 0.0273647606372833252
0.721501350402832031 0.754831373691558838 0.231440052390098572
0.419614672660827637 0.549753308296203613 0.0170366913080215454
0.670901000499725342 0.72045743465423584 0.216892540454864502
0.301740288734436035 0.469678640365600586 0.0804245024919509888
0.358069658279418945 0.507944405078887939 0.0042673647403717041
0.903492331504821777 0.878461778163909912 0.140939444303512573
0.203431606292724609 0.402895480394363403 0.0438273251056671143
0.449730247259140015 0.570211410522460938 0.13486151397228241
0.879125654697418213 0.861908972263336182 0.208341583609580994
0.455875277519226074 0.574385881423950195 0.0989025533199310303
0.61486661434173584 0.682392120361328125 0.100095406174659729
0.589336156845092773 0.665048718452453613 0.138628631830215454
0.814216554164886475 0.817814767360687256 0.0758441314101219177
0.510106444358825684 0.611226260662078857 0.171109795570373535
0.842150330543518066 0.836790800094604492 0.0955380052328109741
0.908504188060760498 0.881866395473480225 0.284998834133148193
0.641561746597290039 0.700526654720306396 0.185581058263778687
0.880146026611328125 0.862602114677429199 0.0185338426381349564
0.444371938705444336 0.566571414470672607 0.130014091730117798
0.71527707576751709 0.750603079795837402 0.172834187746047974
0.368167281150817871 0.514803946018218994 0.0556909441947937012
0.870605409145355225 0.856120944023132324 0.187122136354446411
0.6222953200340271 0.687438607215881348 0.0641828402876853943
0.860228836536407471 0.849071919918060303 0.218531608581542969
0.866448879241943359 0.85329735279083252 0.183175176382064819
0.73061448335647583 0.761022090911865234 0.128911927342414856
0.185504913330078125 0.390717446804046631 0.00335472822189331055
0.760265052318572998 0.781164407730102539 0.0706376656889915466
0.336795330047607422 0.493492305278778076 0.0632825940847396851
0.658599138259887695 0.712100565433502197 0.00195219367742538452
0.87414705753326416 0.858526885509490967 0.246909767389297485
0.645148217678070068 0.702963054180145264 0.208863973617553711
0.570781290531158447 0.652444005012512207 0.0317179709672927856
0.476618379354476929 0.588477134704589844 0.130184397101402283
0.90531688928604126 0.879701197147369385 0.150713533163070679
0.756366729736328125 0.778516173362731934 0.238580301403999329
0.822169959545135498 0.82321774959564209 0.0202081017196178436
0.726978421211242676 0.758552074432373047 0.134223669767379761
0.773098289966583252 0.789882242679595947 0.183916270732879639
0.585060596466064453 0.662144243717193604 0.199259072542190552
0.281092822551727295 0.455652385950088501 0.0020398944616317749
0.791916489601135254 0.802665889263153076 0.0865017697215080261
0.654477894306182861 0.709300875663757324 0.204302817583084106
0.852786660194396973 0.844016313552856445 0.00186188705265522003
0.142855703830718994 0.361744940280914307 0.0298493504524230957
0.174799263477325439 0.383444905281066895 0.0448823869228363037
0.254088521003723145 0.437307775020599365 0.0691427737474441528
0.41415858268737793 0.546046853065490723 7.30752944946289062e-05
0.674015641212463379 0.722573280334472656 0.104304559528827667
0.27900463342666626 0.454233855009078979 0.0868106484413146973
0.78767770528793335 0.799786388874053955 0.242069825530052185
0.289481937885284424 0.461351305246353149 0.00731351971626281738
0.138308882713317871 0.358656167984008789 0.0267387628555297852
0.840141892433166504 0.835426449775695801 0.127673670649528503
0.789976537227630615 0.801348030567169189 0.25306546688079834
0.887165665626525879 0.867370665073394775 0.261660099029541016
0.830294787883758545 0.828737080097198486 0.208555206656455994
0.901062548160552979 0.87681114673614502 0.101105011999607086
0.622133612632751465 0.687328696250915527 0.0890010520815849304
0.60635685920715332 0.676611185073852539 0.107174009084701538
0.23028862476348877 0.421140015125274658 0.00766125321388244629
0.594976603984832764 0.6688804030418396 0.147490039467811584
0.228070259094238281 0.419633030891418457 0.0569718480110168457
0.881691873073577881 0.863652229309082031 0.0433320701122283936
0.195034921169281006 0.397191405296325684 0.0639072060585021973
0.565079808235168457 0.648570835590362549 0.121768757700920105
0.729690432548522949 0.76039433479309082 0.0485056713223457336
0.590544700622558594 0.665869712829589844 0.0701313018798828125
0.694602072238922119 0.736558079719543457 0.0752893164753913879
0.547936558723449707 0.636925101280212402 0.0626544356346130371
0.925023555755615234 0.893088400363922119 0.125189870595932007
0.605393767356872559 0.675957024097442627 0.0382335186004638672
0.603737354278564453 0.674831748008728027 0.055324949324131012
0.922371745109558105 0.891286909580230713 0.0131186684593558311
0.508724451065063477 0.61028742790222168 0.0045360177755355835
0.806213140487670898 0.8123779296875 0.161303222179412842
0.908888041973114014 0.882127165794372559 0.0843861848115921021
0.203710496425628662 0.403084933757781982 0.00165054202079772949
0.433640569448471069 0.559281349182128906 0.103880912065505981
0.450064182281494141 0.570438265800476074 0.0834071338176727295
0.838931560516357422 0.834604203701019287 0.209098517894744873
0.931044399738311768 0.897178471088409424 0.032131340354681015
0.281179964542388916 0.455711573362350464 0.0107648521661758423
0.804784536361694336 0.81140744686126709 0.107850104570388794
0.920027792453765869 0.889694631099700928 0.254441589117050171
0.609441041946411133 0.67870640754699707 0.0339381247758865356
0.897303879261016846 0.874257802963256836 0.17426927387714386
0.889738142490386963 0.869118213653564453 0.166428521275520325
0.240468978881835938 0.428055733442306519 0.002796173095703125
0.436325132846832275 0.561105012893676758 0.0947590619325637817
0.364388883113861084 0.512237191200256348 0.075857117772102356
0.837413370609283447 0.833572864532470703 0.0392447710037231445
0.132587075233459473 0.354769229888916016 0.0347142517566680908
0.0535011887550354004 0.3010445237159729 0.0161989033222198486
0.804449319839477539 0.811179697513580322 0.0211118422448635101
0.836836934089660645 0.833181321620941162 0.269746482372283936
0.598444044589996338 0.671235918998718262 0.0186604112386703491
0.150860369205474854 0.367182672023773193 0.00197044014930725098
0.407427072525024414 0.541473984718322754 0.131739094853401184
0.760954022407531738 0.781632423400878906 0.139830484986305237
0.479618430137634277 0.59051513671875 0.117587581276893616
0.801038086414337158 0.808862388134002686 0.227253392338752747
0.910000801086425781 0.882883071899414062 0.265264302492141724
0.72878652811050415 0.759780347347259521 0.0982133671641349792
0.503519117832183838 0.606751322746276855 0.0269228219985961914
0.57667696475982666 0.656449079513549805 0.00234255939722061157
0.497879952192306519 0.6029205322265625 0.116777271032333374
0.897821605205535889 0.874609470367431641 0.25317305326461792
0.833037734031677246 0.830600440502166748 0.128570869565010071
0.250149726867675781 0.434632062911987305 0.0497377514839172363
0.865932822227478027 0.852946758270263672 0.0397593677043914795
0.380274713039398193 0.523028731346130371 0.0743521451950073242
0.324360668659210205 0.485045164823532104 0.0967612415552139282
0.642919778823852539 0.701449215412139893 0.220124781131744385
0.147083759307861328 0.36461716890335083 0.0109098255634307861
0.172782540321350098 0.382074892520904541 0.0213883519172668457
0.573605895042419434 0.654362797737121582 0.0086557045578956604
0.536630034446716309 0.629244327545166016 0.132130831480026245
0.560355782508850098 0.645361721515655518 0.0743661373853683472
0.409587502479553223 0.542941570281982422 0.0945486724376678467
0.204076886177062988 0.403333812952041626 0.0447507351636886597
0.600460290908813477 0.672605574131011963 0.15448230504989624
0.64680635929107666 0.70408940315246582 0.135324075818061829
0.891769647598266602 0.870498299598693848 0.135655492544174194
0.601476073265075684 0.67329561710357666 0.0925121009349822998
0.606736063957214355 0.676868855953216553 0.0448218509554862976
0.4883841872215271 0.596469879150390625 0.073648601770401001
0.597781181335449219 0.67078554630279541 0.0191874206066131592
0.746504426002502441 0.771816492080688477 0.146630257368087769
0.551356196403503418 0.639248132705688477 0.0129423737525939941
0.71729433536529541 0.751973450183868408 0.144622623920440674
0.449140727519989014 0.569810986518859863 0.0914883613586425781
0.509864211082458496 0.611061692237854004 0.107808157801628113
0.602411329746246338 0.673930943012237549 0.0387085899710655212
0.851402103900909424 0.843075752258300781 0.225488796830177307
0.391269087791442871 0.530497491359710693 0.0703838318586349487
0.389690518379211426 0.529425144195556641 0.0026833266019821167
0.267842113971710205 0.446650892496109009 0.0385323315858840942
0.833024322986602783 0.830591320991516113 0.0416931919753551483
0.449956953525543213 0.570365428924560547 0.0674121230840682983
0.764525115489959717 0.784058332443237305 0.137358009815216064
0.879152655601501465 0.861927270889282227 0.145959019660949707
0.543920278549194336 0.634196758270263672 0.131554096937179565
0.506925344467163086 0.60906529426574707 0.0121300220489501953
0.849215328693389893 0.841590225696563721 0.0372792333364486694
0.822950124740600586 0.823747694492340088 0.216170519590377808
0.36569678783416748 0.51312565803527832 0.106951221823692322
0.839754939079284668 0.835163593292236328 0.222223535180091858
0.728015720844268799 0.759256720542907715 0.0451777726411819458
0.921756446361541748 0.890868961811065674 0.0557393059134483337
0.566261470317840576 0.64937359094619751 0.144720301032066345
0.747200429439544678 0.772289276123046875 0.0442101284861564636
0.57620692253112793 0.656129717826843262 0.118172682821750641
0.476466745138168335 0.588374137878417969 0.119184345006942749
0.856431305408477783 0.846492171287536621 0.249442979693412781
0.719744205474853516 0.75363767147064209 0.0232422575354576111
0.44979625940322876 0.570256233215332031 0.0124586671590805054
0.895776748657226562 0.873220384120941162 0.222851887345314026
0.633673787117004395 0.695168197154998779 0.184352666139602661
0.607954740524291992 0.677696704864501953 0.107210874557495117
0.110868513584136963 0.34001535177230835 0.0327063202857971191
0.908123373985290527 0.881607711315155029 0.215846449136734009
0.141450703144073486 0.360790491104125977 0.0384350121021270752
0.767178177833557129 0.785860598087310791 0.120726652443408966
0.833101809024810791 0.830643951892852783 0.247967958450317383
0.417834758758544922 0.548544168472290039 0.134419560432434082
0.763335287570953369 0.783250093460083008 0.0178318023681640625
0.675580739974975586 0.723636507987976074 0.124151915311813354
0.603357493877410889 0.674573719501495361 0.112062051892280579
0.747995972633361816 0.772829711437225342 0.216515928506851196
0.640646517276763916 0.699904918670654297 0.0646412074565887451
0.40647965669631958 0.540830373764038086 0.0169647186994552612
0.818403542041778564 0.820659101009368896 0.222931534051895142
0.787794768810272217 0.799865901470184326 0.0322485081851482391
0.832433760166168213 0.830190122127532959 0.0479416213929653168
0.821543753147125244 0.822792291641235352 0.0187266282737255096
0.791622281074523926 0.802465975284576416 0.0539351217448711395
0.917902112007141113 0.888250648975372314 0.0429173819720745087
0.547366857528686523 0.636538028717041016 0.0210018008947372437
0.402903556823730469 0.53840106725692749 0.104071661829948425
0.711149692535400391 0.747799277305603027 0.240153998136520386
0.333505928516387939 0.491257727146148682 0.0243093967437744141
0.789755523204803467 0.80119788646697998 0.0566249452531337738
0.519703984260559082 0.617746114730834961 0.0990705788135528564
0.90034407377243042 0.876323044300079346 0.00994869135320186615
0.885813117027282715 0.866451859474182129 0.192175507545471191
0.870583236217498779 0.85610586404800415 0.17334689199924469
0.593623459339141846 0.66796112060546875 0.125482082366943359
0.448768526315689087 0.569558143615722656 0.00544111430644989014
0.497056841850280762 0.602361381053924561 0.117166653275489807
0.806247949600219727 0.812401533126831055 0.144543692469596863
0.472230195999145508 0.585496068000793457 0.0868991613388061523
0.890414953231811523 0.869578003883361816 0.206949710845947266
0.732552528381347656 0.762338697910308838 0.0636829212307929993
0.354557931423187256 0.50555884838104248 0.0405046790838241577
0.691801071166992188 0.734655320644378662 0.0520545616745948792
0.613227128982543945 0.681278347969055176 0.202925711870193481
0.43966028094291687 0.563370704650878906 0.0739101320505142212
0.925883293151855469 0.893672406673431396 0.101884610950946808
0.591085612773895264 0.666237175464630127 0.0693686604499816895
0.564648747444152832 0.64827805757522583 0.0426710247993469238
0.619836807250976562 0.685768485069274902 0.0623515024781227112
0.910058438777923584 0.882922232151031494 0.228608295321464539
0.198495447635650635 0.39954221248626709 0.0608930587768554688
0.785411059856414795 0.798246622085571289 0.242136299610137939
0.577770411968231201 0.657191872596740723 0.101107411086559296
0.66723787784576416 0.717969059944152832 0.0603598132729530334
0.787927448749542236 0.799956023693084717 0.179818630218505859
0.53504025936126709 0.628164350986480713 0.124100282788276672
0.631996691226959229 0.694028913974761963 0.174504920840263367
0.217569112777709961 0.412499397993087769 0.0257041901350021362
0.852323710918426514 0.843701839447021484 0.234473586082458496
0.635890364646911621 0.696673989295959473 0.127989381551742554
0.327046513557434082 0.486869722604751587 0.0177822411060333252
0.310361325740814209 0.475535124540328979 0.0103457272052764893
0.83111870288848877 0.82929682731628418 0.00662100687623023987
0.545202016830444336 0.635067462921142578 0.0189168751239776611
0.844789087772369385 0.83858335018157959 0.283085644245147705
0.607850909233093262 0.677626132965087891 0.0364357978105545044
0.632585287094116211 0.694428801536560059 0.158853501081466675
0.462676465511322021 0.579006075859069824 0.103604286909103394
0.633850455284118652 0.695288181304931641 0.00913764536380767822
0.644706487655639648 0.702663004398345947 0.131803974509239197
0.654213666915893555 0.709121346473693848 0.182336926460266113
0.879848361015319824 0.862399935722351074 0.24090982973575592
0.890470325946807861 0.869615614414215088 0.100400716066360474
0.526142597198486328 0.6221199631690979 0.0646069347858428955
0.157596826553344727 0.371758878231048584 0.00618520379066467285
0.760773181915283203 0.781509578227996826 0.259004801511764526
0.374289512634277344 0.518962860107421875 0.00785943865776062012
0.775799751281738281 0.791717469692230225 0.164565175771713257
0.859480559825897217 0.848563611507415771 0.0896998792886734009
0.675314545631408691 0.723455667495727539 0.00355753302574157715
0.893551945686340332 0.871709048748016357 0.0690286606550216675
0.874399185180664062 0.858698129653930664 0.218911409378051758
0.89996492862701416 0.876065492630004883 0.00736278574913740158
0.478784769773483276 0.589948773384094238 0.12092985212802887
0.780470490455627441 0.794890403747558594 0.0639547407627105713
0.517792582511901855 0.616447627544403076 0.107275709509849548
0.527625799179077148 0.623127579689025879 0.117256373167037964
0.520477354526519775 0.618271470069885254 0.0689722746610641479
0.519908130168914795 0.61788475513458252 0.0530634224414825439
0.911487102508544922 0.88389277458190918 0.291573703289031982
0.529105067253112793 0.624132394790649414 0.091428712010383606
0.644491136074066162 0.702516674995422363 0.101634956896305084
0.779494285583496094 0.794227242469787598 0.00984874740242958069
0.641627788543701172 0.700571537017822266 0.00843323022127151489
0.763084769248962402 0.783079862594604492 0.128412574529647827
0.651235461235046387 0.707098245620727539 0.0914433673024177551
0.721794724464416504 0.755030691623687744 0.194460570812225342
0.503614306449890137 0.606815993785858154 0.162762805819511414
0.775260567665100098 0.791351139545440674 0.118931546807289124
0.619945406913757324 0.685842275619506836 0.012721039354801178
0.269837856292724609 0.448006659746170044 0.0478556603193283081
0.480897396802902222 0.591383934020996094 0.0593812614679336548
0.589830338954925537 0.665384411811828613 0.0134897753596305847
0.393481433391571045 0.532000362873077393 0.0958224087953567505
0.579781889915466309 0.658558309078216553 0.0194012299180030823
0.814910888671875 0.818286418914794922 0.222740069031715393
0.0931406021118164062 0.327972412109375 0.0153594017028808594
0.68019634485244751 0.726772010326385498 0.217523843050003052
0.598094940185546875 0.670998692512512207 0.173525303602218628
0.578690767288208008 0.657817065715789795 0.0598801448941230774
0.780830621719360352 0.795135021209716797 0.0276801809668540955
0.254618942737579346 0.437668085098266602 0.0291832834482192993
0.329053282737731934 0.488232940435409546 0.00569026172161102295
0.419264614582061768 0.549515426158905029 0.0266806632280349731
0.439249604940414429 0.563091695308685303 0.0921447575092315674
0.83784937858581543 0.833869099617004395 0.0558013282716274261
0.763915061950683594 0.783643901348114014 0.0794894993305206299
0.642208397388458252 0.700966000556945801 0.0915990471839904785
0.880233228206634521 0.862661302089691162 0.175184741616249084
0.908147096633911133 0.881623804569244385 0.308632016181945801
0.642258048057556152 0.700999677181243896 0.100792475044727325
0.432427525520324707 0.558457255363464355 0.104878991842269897
0.925056755542755127 0.893110930919647217 0.111202426254749298
0.73922497034072876 0.766871392726898193 0.186484485864639282
0.339984416961669922 0.495658725500106812 0.0161728411912918091
0.908827424049377441 0.882085978984832764 0.0230096075683832169
0.131051838397979736 0.353726327419281006 0.0189842283725738525
0.654790818691253662 0.709513425827026367 0.164900824427604675
0.639279961585998535 0.698976635932922363 0.150818169116973877
0.669473886489868164 0.719488024711608887 0.0809390917420387268
0.810461938381195068 0.815264225006103516 0.213122501969337463
0.828754901885986328 0.827690958976745605 0.141502231359481812
0.675578773021697998 0.723635196685791016 0.192080169916152954
0.441359579563140869 0.564525008201599121 0.0135576725006103516
0.89389723539352417 0.87194359302520752 0.0988346859812736511
0.0991029143333435059 0.332022726535797119 0.0265136659145355225
0.925539970397949219 0.893439173698425293 0.312707811594009399
0.721944689750671387 0.755132555961608887 0.10853131115436554
0.43786737322807312 0.562152743339538574 0.0935163348913192749
0.365810990333557129 0.513203263282775879 0.0621795058250427246
0.293678224086761475 0.464201927185058594 0.060914844274520874
0.382474899291992188 0.524523437023162842 0.122930899262428284
0.57234799861907959 0.653508305549621582 0.105714567005634308
0.11062091588973999 0.339847207069396973 0.0361029505729675293
0.316296637058258057 0.479567080736160278 0.0791798681020736694
0.80447310209274292 0.811195850372314453 0.229848533868789673
0.845535397529602051 0.839090347290039062 0.258704274892807007
0.830299198627471924 0.828740060329437256 0.260991394519805908
0.5266876220703125 0.622490227222442627 0.115473330020904541
0.882426083087921143 0.8641510009765625 0.0571513660252094269
0.827998995780944824 0.827177524566650391 0.163297712802886963
0.141167044639587402 0.360597789287567139 0.0178526043891906738
0.925367236137390137 0.893321871757507324 0.0581968799233436584
0.437085568904876709 0.561621606349945068 0.107075303792953491
0.378532052040100098 0.521844983100891113 0.00673379004001617432
0.407654821872711182 0.541628718376159668 0.0351094901561737061
0.690330147743225098 0.733656108379364014 0.207002371549606323
0.786661863327026367 0.799096345901489258 0.0389048755168914795
0.908221602439880371 0.881674468517303467 0.255204498767852783
0.417359352111816406 0.548221111297607422 0.0120615959167480469
0.874423742294311523 0.858714818954467773 0.0264955200254917145
0.586827635765075684 0.663344621658325195 0.132794499397277832
0.804703116416931152 0.811352133750915527 0.0351127050817012787
0.71586000919342041 0.750999093055725098 0.229707121849060059
0.23761439323425293 0.42611655592918396 0.0657205283641815186
0.616465210914611816 0.683478057384490967 0.187270566821098328
0.624832749366760254 0.689162373542785645 0.15885065495967865
0.677441120147705078 0.724900305271148682 0.132914453744888306
0.10086745023727417 0.333221435546875 0.00288420915603637695
0.633940517902374268 0.695349454879760742 0.0270526111125946045
0.211904704570770264 0.408651411533355713 0.0377728044986724854
0.45925334095954895 0.576680660247802734 0.106580734252929688
0.191439270973205566 0.394748806953430176 0.00230208039283752441
0.30983346700668335 0.475176513195037842 0.0709148794412612915
0.378615498542785645 0.521901607513427734 0.00460453331470489502
0.226103723049163818 0.418297111988067627 0.0355883091688156128
0.139023482799530029 0.359141647815704346 0.0307520627975463867
0.801094472408294678 0.808900713920593262 0.218477234244346619
0.406270325183868408 0.540688157081604004 0.071099504828453064
0.731609940528869629 0.761698365211486816 0.0972762703895568848
0.263686001300811768 0.443827569484710693 0.0320659428834915161
0.549167275428771973 0.637761116027832031 0.184078201651573181
0.82129824161529541 0.822625517845153809 0.26346898078918457
0.743755042552947998 0.769948780536651611 0.110108107328414917
0.706277966499328613 0.744489789009094238 0.238707184791564941
0.590963959693908691 0.66615450382232666 0.135956794023513794
0.81099778413772583 0.815628170967102051 0.220932379364967346
0.282340824604034424 0.456500202417373657 0.019023701548576355
0.768171370029449463 0.786535322666168213 0.225214257836341858
0.449923485517501831 0.570342659950256348 0.0673815757036209106
0.777016162872314453 0.792543768882751465 0.0027491450309753418
0.721790432929992676 0.75502777099609375 0.0362215116620063782
0.487039238214492798 0.595556199550628662 0.0890507698059082031
0.890727400779724121 0.869790256023406982 0.155833005905151367
0.445549696683883667 0.567371487617492676 0.110902100801467896
0.181387186050415039 0.387920200824737549 0.0364675223827362061
0.873879551887512207 0.858345150947570801 0.0932722613215446472
0.271014273166656494 0.448805838823318481 0.0312416255474090576
0.433825790882110596 0.559407174587249756 0.120111361145973206
0.141307234764099121 0.360693037509918213 0.00130012631416320801
0.589129090309143066 0.664908051490783691 0.134356141090393066
0.569431722164154053 0.651527166366577148 0.0938230156898498535
0.846264779567718506 0.839585840702056885 0.0709454268217086792
0.774867355823516846 0.791084051132202148 0.110956892371177673
0.894897699356079102 0.872623205184936523 0.0437876209616661072
0.532576441764831543 0.626490592956542969 0.0715066492557525635
0.438984006643295288 0.562911272048950195 0.131003439426422119
0.351073622703552246 0.503191828727722168 0.0399391204118728638
0.441588282585144043 0.564680397510528564 0.0666937530040740967
0.930818498134613037 0.897024989128112793 0.254306584596633911
0.525674939155578613 0.621802270412445068 0.0261879265308380127
0.834486186504364014 0.831584393978118896 0.0147781632840633392
0.465882271528244019 0.581183850765228271 0.145585969090461731
0.870781958103179932 0.85624086856842041 0.113561324775218964
0.487999141216278076 0.596208333969116211 0.134296298027038574
0.491459250450134277 0.598558783531188965 0.00682297348976135254
0.586655378341674805 0.663227617740631104 0.191807657480239868
0.849681317806243896 0.84190678596496582 0.0509200021624565125
0.756835341453552246 0.77883446216583252 0.0793948173522949219
0.514144539833068848 0.61396944522857666 0.0394113361835479736
0.392929255962371826 0.531625270843505859 0.00170885026454925537
0.912543594837188721 0.884610474109649658 0.148303106427192688
0.75693047046661377 0.778899133205413818 0.138291835784912109
0.473060131072998047 0.586059927940368652 0.147418960928916931
0.31988370418548584 0.482003867626190186 0.0866851210594177246
0.790715336799621582 0.801849961280822754 0.224604830145835876
0.183542549610137939 0.38938438892364502 0.024442821741104126
0.634351849555969238 0.695628881454467773 0.0437013581395149231
0.534709811210632324 0.627939820289611816 0.00497542321681976318
0.219362497329711914 0.413717657327651978 0.0563637614250183105
0.288271963596343994 0.460529327392578125 0.0219189375638961792
0.717962384223937988 0.752427279949188232 0.136363014578819275
0.847133040428161621 0.84017568826675415 0.0972061902284622192
0.854967176914215088 0.845497548580169678 0.0356093868613243103
0.831810235977172852 0.829766571521759033 0.0863685160875320435
0.752358138561248779 0.775793015956878662 0.210288643836975098
0.193317294120788574 0.396024584770202637 0.0226602256298065186
0.32638859748840332 0.48642277717590332 0.111728459596633911
0.507946193218231201 0.609758734703063965 0.00647316873073577881
0.739860177040100098 0.767302870750427246 0.104351624846458435
0.899428784847259521 0.875701308250427246 0.242394104599952698
0.383003890514373779 0.524882793426513672 0.105501174926757812
0.523306190967559814 0.620193123817443848 0.121184602379798889
0.500116944313049316 0.604440152645111084 0.0359070748090744019
0.591475725173950195 0.666502177715301514 0.141071945428848267
0.805959939956665039 0.812205910682678223 0.0922997891902923584
0.418953001499176025 0.549303770065307617 0.0942153483629226685
0.199821412563323975 0.400442987680435181 0.0294685661792755127
0.335515916347503662 0.492623180150985718 0.112881302833557129
0.428758382797241211 0.555964767932891846 0.110735043883323669
0.539538025856018066 0.631219744682312012 0.165452763438224792
0.683502912521362305 0.729018211364746094 0.0719705000519752502
0.32603609561920166 0.486183315515518188 0.096041947603225708
0.580696523189544678 0.659179627895355225 0.142453163862228394
0.626076340675354004 0.690007150173187256 0.104800678789615631
0.682781219482421875 0.72852790355682373 0.113895043730735779
0.299490451812744141 0.468150317668914795 0.0612338036298751831
0.891182482242584229 0.870099425315856934 0.0698093175888061523
0.0941059589385986328 0.328628182411193848 0.00897452235221862793
0.126126587390899658 0.350380480289459229 0.030836641788482666
0.1820870041847229 0.388395607471466064 0.0487511754035949707
0.352831184864044189 0.504385828971862793 0.0488507598638534546
0.539105355739593506 0.630925834178924561 0.0538098961114883423
0.511908650398254395 0.612450540065765381 0.0244254022836685181
0.30909806489944458 0.474676936864852905 0.0457571744918823242
0.81241905689239502 0.816593706607818604 0.0210716798901557922
0.690795540809631348 0.733972251415252686 0.184451848268508911
0.820792913436889648 0.822282254695892334 0.171166330575942993
0.790907442569732666 0.801980435848236084 0.0589356571435928345
0.892323732376098633 0.870874702930450439 0.297061920166015625
0.870702028274536133 0.856186568737030029 0.2754841148853302
0.576856374740600586 0.656570911407470703 0.0258601829409599304
0.655746340751647949 0.710162520408630371 0.0921443626284599304
0.849138975143432617 0.841538369655609131 0.0285134576261043549
0.423902332782745361 0.552665948867797852 0.0883096605539321899
0.781053066253662109 0.795286118984222412 0.153133675456047058
0.887911736965179443 0.867877542972564697 0.0690348520874977112
0.774908542633056641 0.791112005710601807 0.0547912381589412689
0.67336118221282959 0.722128748893737793 0.0978271961212158203
0.809080243110656738 0.814325630664825439 0.0221102721989154816
0.734240293502807617 0.763485193252563477 0.0373252108693122864
0.845415353775024414 0.839008808135986328 0.281313806772232056
0.304483771324157715 0.471542388200759888 0.0368091762065887451
0.410768628120422363 0.54374396800994873 0.0756073594093322754
0.296821475028991699 0.4663371741771698 0.0106939077377319336
0.537652850151062012 0.629939138889312744 0.0385780036449432373
0.728424489498138428 0.75953441858291626 0.15074583888053894
0.353228569030761719 0.504655718803405762 0.0583655685186386108
0.266177058219909668 0.445519775152206421 0.0503061562776565552
0.438923448324203491 0.562870144844055176 0.119699642062187195
0.895233750343322754 0.87285149097442627 0.0832646116614341736
0.854809820652008057 0.845390677452087402 0.250078648328781128
0.633825778961181641 0.695271492004394531 0.0599486231803894043
0.749818742275238037 0.774067997932434082 0.0634458661079406738
0.353228449821472168 0.504655659198760986 0.0669751763343811035
0.680104255676269531 0.726709425449371338 0.0520979762077331543
0.543419539928436279 0.633856534957885742 0.114717379212379456
0.749526917934417725 0.773869752883911133 0.156507685780525208
0.653494119644165039 0.708632588386535645 0.0753975361585617065
0.903627336025238037 0.878553450107574463 0.082273922860622406
0.280435323715209961 0.455205768346786499 0.0925556570291519165
0.913551032543182373 0.885294854640960693 0.188801869750022888
0.666253924369812012 0.717300653457641602 0.185412079095840454
0.429099798202514648 0.556196689605712891 0.0671635419130325317
0.539321005344390869 0.631072342395782471 0.166020467877388
0.726485908031463623 0.758217453956604004 0.0937702059745788574
0.741478323936462402 0.768402099609375 0.000370733439922332764
0.391235649585723877 0.53047478199005127 0.0191633105278015137
0.682657122611999512 0.728443622589111328 0.190715610980987549
0.0408718585968017578 0.292465150356292725 0.00414559245109558105
0.601616919040679932 0.673391282558441162 0.205306023359298706
0.846033215522766113 0.839428544044494629 0.128923743963241577
0.330790579319000244 0.48941311240196228 0.0850768536329269409
0.897192060947418213 0.874181866645812988 0.285187661647796631
0.928319215774536133 0.895327210426330566 0.155262991786003113
0.681650102138519287 0.72775954008102417 0.0542571544647216797
0.781920731067657471 0.79587554931640625 0.119081929326057434
0.808978796005249023 0.814256668090820312 0.109468221664428711
0.891849100589752197 0.870552241802215576 0.288784027099609375
0.796789467334747314 0.805976212024688721 0.101562604308128357
0.81464838981628418 0.818108141422271729 0.112972453236579895
0.1407623291015625 0.360322833061218262 0.0101670026779174805
0.614101052284240723 0.681872010231018066 0.161633282899856567
0.431744396686553955 0.557993292808532715 0.00971879065036773682
0.355027258396148682 0.50587761402130127 0.0501824617385864258
0.305000901222229004 0.471893668174743652 0.0889050662517547607
0.520546913146972656 0.618318736553192139 0.0231020897626876831
0.871330559253692627 0.856613576412200928 0.144774347543716431
0.867093980312347412 0.853735566139221191 0.121785372495651245
0.51813971996307373 0.616683423519134521 0.0716053396463394165
0.736688911914825439 0.765148580074310303 0.206455796957015991
0.817761003971099854 0.820222616195678711 0.199474617838859558
0.761748433113098145 0.782172083854675293 0.0190165191888809204
0.853446722030639648 0.844464659690856934 0.289453417062759399
0.848696112632751465 0.841237485408782959 0.189841508865356445
0.868029654026031494 0.854371190071105957 0.142525374889373779
0.849450647830963135 0.841750085353851318 0.0793631076812744141
0.642483115196228027 0.701152622699737549 0.189678847789764404
0.3446846604347229 0.498851686716079712 0.00707313418388366699
0.617007076740264893 0.683846175670623779 0.0699802488088607788
0.886697113513946533 0.867052376270294189 0.14711444079875946
0.344303131103515625 0.498592495918273926 0.0737218260765075684
0.9091758131980896 0.88232266902923584 0.298475801944732666
0.840671777725219727 0.835786402225494385 0.235815465450286865
0.924860596656799316 0.892977654933929443 0.258717149496078491
0.325294315814971924 0.485679417848587036 0.0481985658407211304
0.811086833477020264 0.815688669681549072 0.138336166739463806
0.72291254997253418 0.755789995193481445 0.181367456912994385
0.908204972743988037 0.881663143634796143 0.230444133281707764
0.342728376388549805 0.497522741556167603 0.0160781890153884888
0.0214673876762390137 0.279283285140991211 0.00124669075012207031
0.613385558128356934 0.681385993957519531 0.0460910424590110779
0.928914487361907959 0.895731568336486816 0.155026748776435852
0.741497337818145752 0.768415093421936035 0.1567402184009552
0.56569361686706543 0.648987829685211182 0.110903963446617126
0.0828498601913452148 0.320981681346893311 0.00752785801887512207
0.75838160514831543 0.779884934425354004 0.162944748997688293
0.592801570892333984 0.667402863502502441 0.103531278669834137
0.204236865043640137 0.403442472219467163 0.0451233834028244019
0.345859706401824951 0.499649941921234131 0.0977515429258346558
0.587563872337341309 0.663844764232635498 0.0538245141506195068
0.928199350833892822 0.895245790481567383 0.141323059797286987
0.765928208827972412 0.785011470317840576 0.254808753728866577
0.846901118755340576 0.840018153190612793 0.161198720335960388
0.718228578567504883 0.752608120441436768 0.113053344190120697
0.650398731231689453 0.706529796123504639 0.135249495506286621
0.902958273887634277 0.878098964691162109 0.124904878437519073
0.433488070964813232 0.559177756309509277 0.016279950737953186
0.413552939891815186 0.545635342597961426 0.12213742733001709
0.695692181587219238 0.737298667430877686 0.187879681587219238
0.62893444299697876 0.691948652267456055 0.145587354898452759
0.164769768714904785 0.376631677150726318 0.0509520471096038818
0.706966817378997803 0.74495774507522583 0.171793907880783081
0.661903619766235352 0.714345335960388184 0.164522796869277954
0.821495413780212402 0.822759509086608887 0.0504149571061134338
0.836138248443603516 0.832706689834594727 0.0996218621730804443
0.853877425193786621 0.844757258892059326 0.198035433888435364
0.899977922439575195 0.876074373722076416 0.207680031657218933
0.366974353790283203 0.513993561267852783 0.113717555999755859
0.606741786003112793 0.676872730255126953 0.113926514983177185
0.760956764221191406 0.781634271144866943 0.0886856168508529663
0.40279465913772583 0.53832709789276123 0.0833606421947479248
0.897755265235900879 0.874564468860626221 0.13654915988445282
0.785918891429901123 0.79859161376953125 0.180532529950141907
0.798277556896209717 0.806987106800079346 0.0669951736927032471
0.375183224678039551 0.519569993019104004 0.0966859757900238037
0.893149375915527344 0.871435582637786865 0.131153672933578491
0.658466041088104248 0.71201014518737793 0.213389843702316284
0.597629189491271973 0.670682311058044434 0.0897913053631782532
0.715448200702667236 0.750719308853149414 0.165026098489761353
0.679502725601196289 0.726300835609436035 0.124567948281764984
0.526064753532409668 0.622067093849182129 0.110961258411407471
0.909985661506652832 0.882872819900512695 0.212995454668998718
0.546132802963256836 0.635699748992919922 0.139671728014945984
0.913485348224639893 0.885250210762023926 0.054266665130853653
0.523936271667480469 0.620621204376220703 0.0329325646162033081
0.778467655181884766 0.793529808521270752 0.0941310673952102661
0.738701939582824707 0.76651608943939209 0.194061458110809326
0.767169296741485596 0.785854578018188477 0.147022038698196411
0.847257077693939209 0.840259969234466553 0.0527981594204902649
0.522370815277099609 0.619557738304138184 0.114634022116661072
0.195789933204650879 0.39770430326461792 0.057048410177230835
0.365179836750030518 0.512774527072906494 0.0262247920036315918
0.457311272621154785 0.575361371040344238 0.0395101308822631836
0.624722003936767578 0.689087033271789551 0.113888099789619446
0.711605489253997803 0.748108923435211182 0.140471428632736206
0.856719851493835449 0.846688210964202881 0.0771984755992889404
0.625926494598388672 0.689905285835266113 0.167590290307998657
0.870528876781463623 0.856068968772888184 0.129471823573112488
0.827918171882629395 0.82712256908416748 0.242584019899368286
0.386646926403045654 0.527357578277587891 0.103484436869621277
0.421110033988952637 0.55076909065246582 0.133322224020957947
0.429099082946777344 0.556196212768554688 0.0744094550609588623
0.732423365116119385 0.762250900268554688 0.229088872671127319
0.808556735515594482 0.813969969749450684 0.0957839339971542358
0.925242245197296143 0.893236935138702393 0.277251660823822021
0.807555615901947021 0.813289880752563477 0.0724652484059333801
0.842738807201385498 0.837190568447113037 0.111845165491104126
0.404728353023529053 0.539640665054321289 0.126926138997077942
0.472540915012359619 0.585707187652587891 0.111523717641830444
0.722059011459350586 0.755210161209106445 0.0946167781949043274
0.567227661609649658 0.650029897689819336 0.169713705778121948
0.779080331325531006 0.793946027755737305 0.264518082141876221
0.367057204246520996 0.514049828052520752 0.0939512550830841064
0.905323266983032227 0.879705548286437988 0.262045145034790039
0.681368887424468994 0.727568507194519043 0.0281982570886611938
0.344849705696105957 0.498963832855224609 0.0693778097629547119
0.658141493797302246 0.711789608001708984 0.0412329807877540588
0.775891423225402832 0.791779696941375732 0.114507704973220825
0.620327472686767578 0.686101794242858887 0.0381948947906494141
0.817808687686920166 0.820254981517791748 0.0714759603142738342
0.479589015245437622 0.590495109558105469 0.0615521520376205444
0.555700302124023438 0.642199158668518066 0.186056062579154968
0.805797815322875977 0.812095761299133301 0.14914587140083313
0.749944627285003662 0.774153470993041992 0.0902356132864952087
0.597289562225341797 0.670451641082763672 0.18369707465171814
0.783088386058807373 0.796668767929077148 0.150073796510696411
0.337079286575317383 0.493685215711593628 0.0496756136417388916
0.378142178058624268 0.521580100059509277 0.0526420474052429199
0.698912441730499268 0.739486217498779297 0.10713503509759903
0.910494387149810791 0.88321840763092041 0.0166165195405483246
0.823921442031860352 0.824407517910003662 0.216077089309692383
0.858057022094726562 0.847596526145935059 0.253990530967712402
0.688403069972991943 0.732347011566162109 0.148055583238601685
0.108063817024230957 0.338110089302062988 0.0112703144550323486
0.722060501575469971 0.755211234092712402 0.0194803252816200256
0.888505339622497559 0.868280768394470215 0.216061457991600037
0.450111597776412964 0.570470452308654785 0.0504061877727508545
0.245460748672485352 0.431446760892868042 0.0425386875867843628
0.926273763179779053 0.89393770694732666 0.0300238803029060364
0.749033212661743164 0.773534297943115234 0.0245165601372718811
0.43384861946105957 0.559422671794891357 0.0301187634468078613
0.372559964656829834 0.517787933349609375 0.124434128403663635
0.75614476203918457 0.778365373611450195 0.0192401818931102753
0.721308410167694092 0.754700303077697754 0.188780158758163452
0.403388500213623047 0.538730502128601074 0.110607758164405823
0.618600010871887207 0.684928297996520996 0.104233019053936005
0.633951485157012939 0.695356845855712891 0.0730598866939544678
0.719896614551544189 0.753741264343261719 0.232386112213134766
0.863648831844329834 0.851395189762115479 0.258025884628295898
0.758330702781677246 0.779850363731384277 0.115476354956626892
0.534497737884521484 0.627795755863189697 0.152813643217086792
0.159923255443572998 0.373339295387268066 0.023756563663482666
0.722943425178527832 0.755810976028442383 0.19997715950012207
0.822036206722259521 0.823126852512359619 0.239065259695053101
0.868286788463592529 0.854545831680297852 0.148337602615356445
0.252268970012664795 0.436071723699569702 0.0544897913932800293
0.514337062835693359 0.614100217819213867 0.0443941801786422729
0.79242628812789917 0.803012192249298096 0.0175165422260761261
0.0917696952819824219 0.327041149139404297 0.0236696302890777588
0.396731913089752197 0.534208536148071289 0.118738859891891479
0.586968421936035156 0.663440227508544922 0.0523396953940391541
0.4619598388671875 0.578519225120544434 0.101288899779319763
0.43568497896194458 0.560670137405395508 0.0161643475294113159
0.547021567821502686 0.636303544044494629 0.0158290117979049683
0.888282716274261475 0.868129491806030273 0.10748802125453949
0.846105992794036865 0.839477956295013428 0.156858325004577637
0.608417987823486328 0.678011417388916016 0.0626334920525550842
0.190320968627929688 0.393989086151123047 0.046207726001739502
0.683588147163391113 0.729076087474822998 0.135894507169723511
0.645206928253173828 0.7030029296875 0.154182255268096924
0.442964643239974976 0.565615415573120117 0.0510744154453277588
0.463637709617614746 0.579659104347229004 0.154937982559204102
0.324978411197662354 0.485464811325073242 0.0477322190999984741
0.0783085823059082031 0.317896723747253418 0.022746741771697998
0.901908814907073975 0.877386033535003662 0.094636574387550354
0.59663081169128418 0.670004129409790039 0.0118677914142608643
0.483961254358291626 0.593465268611907959 0.0148810148239135742
0.82773137092590332 0.826995670795440674 0.159280940890312195
0.802877962589263916 0.810112237930297852 0.118623450398445129
0.882284641265869141 0.86405491828918457 0.0806501954793930054
0.430656015872955322 0.557253897190093994 0.144288882613182068
0.550378918647766113 0.6385841965675354 0.140753418207168579
0.292288601398468018 0.463257908821105957 0.0671930015087127686
0.594989657402038574 0.668889284133911133 0.187074750661849976
0.29353487491607666 0.464104562997817993 0.0674121826887130737
0.711403787136077881 0.747971892356872559 0.151572957634925842
0.338072001934051514 0.49435955286026001 0.107639878988265991
0.519419372081756592 0.617552757263183594 0.124236986041069031
0.731531023979187012 0.761644721031188965 0.189626812934875488
0.782173335552215576 0.7960471510887146 0.0989504009485244751
0.415268123149871826 0.546800553798675537 0.106718495488166809
0.892512142658233643 0.871002674102783203 0.214635163545608521
0.225769519805908203 0.418070107698440552 0.0303099751472473145
0.662909746170043945 0.715028822422027588 0.0604297667741775513
0.838263571262359619 0.834150433540344238 0.204105615615844727
0.452172517776489258 0.571870505809783936 0.0223142951726913452
0.306226909160614014 0.472726523876190186 0.0333622246980667114
0.857565045356750488 0.847262382507324219 0.189554005861282349
0.919382035732269287 0.889255940914154053 0.275928199291229248
0.183089375495910645 0.389076530933380127 0.0468535721302032471
0.543767154216766357 0.63409268856048584 0.121466457843780518
0.67002558708190918 0.719862818717956543 0.202590584754943848
0.77533191442489624 0.791399598121643066 0.0185752697288990021
0.802330911159515381 0.809740602970123291 0.0708424299955368042
0.473986774682998657 0.586689352989196777 0.0843786150217056274
0.619693458080291748 0.685671091079711914 0.0774132981896400452
0.388678967952728271 0.528738021850585938 0.0242080390453338623
0.879667162895202637 0.862276792526245117 0.195089995861053467
0.436385691165924072 0.561146140098571777 0.0981249362230300903
0.564120233058929443 0.647918999195098877 0.0933940410614013672
0.188387811183929443 0.392675876617431641 0.00387114286422729492
0.812482595443725586 0.816636860370635986 0.0596497058868408203
0.759095370769500732 0.780369818210601807 0.168171346187591553
0.362780094146728516 0.511144280433654785 0.0615525543689727783
0.817713499069213867 0.820190310478210449 0.0111577026546001434
0.445874482393264771 0.567592144012451172 0.0251519680023193359
0.500701189041137695 0.60483705997467041 0.115881994366645813
0.850922048091888428 0.842749655246734619 0.135857656598091125
0.58594822883605957 0.66274726390838623 0.175453513860702515
0.269666552543640137 0.447890281677246094 0.0893704146146774292
0.566076874732971191 0.649248182773590088 0.185122758150100708
0.675208389759063721 0.723383545875549316 0.11264009028673172
0.692814052104949951 0.735343456268310547 0.134171754121780396
0.743779540061950684 0.769965410232543945 0.200748488306999207
0.0868054032325744629 0.323668777942657471 0.0293287336826324463
0.191813230514526367 0.395002841949462891 0.0404114723205566406
0.472622096538543701 0.585762321949005127 0.0204349309206008911
0.639102280139923096 0.698855876922607422 0.14503084123134613
0.908366739749908447 0.881773054599761963 0.236885786056518555
0.591191887855529785 0.666309356689453125 0.167066752910614014
0.560652315616607666 0.645563125610351562 0.0204597115516662598
0.478922277688980103 0.590042233467102051 0.00906543433666229248
0.910690069198608398 0.883351325988769531 0.0174652356654405594
0.304431915283203125 0.471507132053375244 0.0205560773611068726
0.660701394081115723 0.713528692722320557 0.03806266188621521
0.651552438735961914 0.70731353759765625 0.208264589309692383
0.143113315105438232 0.361919939517974854 0.0318344831466674805
0.760505497455596924 0.781327724456787109 0.236445322632789612
0.9176979660987854 0.88811194896697998 0.100042767822742462
0.400959432125091553 0.537080347537994385 0.0902123302221298218
0.709813833236694336 0.746891796588897705 0.0407881587743759155
0.281844139099121094 0.456162780523300171 0.013131558895111084
0.534028232097625732 0.627476811408996582 0.0727254301309585571
0.205240845680236816 0.404124528169631958 0.0598675459623336792
0.696845412254333496 0.738082051277160645 0.0284499898552894592
0.430908620357513428 0.557425498962402344 0.0340162664651870728
0.270199775695800781 0.44825252890586853 0.040668979287147522
0.624160647392272949 0.688705742359161377 0.02797708660364151
0.775158107280731201 0.791281521320343018 0.0893969833850860596
0.851926147937774658 0.843431711196899414 0.204800039529800415
0.823360800743103027 0.824026703834533691 0.262011051177978516
0.842577755451202393 0.83708113431930542 0.102721057832241058
0.218294799327850342 0.412992358207702637 0.0482358634471893311
0.830083608627319336 0.828593611717224121 0.216936662793159485
0.871538639068603516 0.856754899024963379 0.0738489627838134766
0.845811843872070312 0.839278161525726318 0.25228390097618103
0.652598917484283447 0.708024501800537109 0.194590240716934204
0.547204852104187012 0.636427998542785645 0.0331323444843292236
