ply
format ascii 1.0
element vertex 703
property float x
property float y
property float z
end_header
-0.00790233258157968521 0.0158488471060991287 0.0143471304327249527
-0.00874041486531496048 0.0172785110771656036 0.0152820069342851639
-0.0065165078267455101 0.01891375333070755 0.0150393368676304817
-0.00067896675318479538 0.00293236412107944489 0.00604450516402721405
-0.00793275609612464905 0.0123951118439435959 0.0129358703270554543
-0.00966024864464998245 0.00865531712770462036 0.0121062928810715675
-0.00167439039796590805 0.00467631500214338303 0.0071738092228770256
-0.00570548512041568756 0.0136847961694002151 0.0125493593513965607
-0.0116887418553233147 0.00805851723998785019 0.0126965008676052094
-0.00958912167698144913 0.0123312277719378471 0.0135923651978373528
-0.01177985779941082 0.00641906680539250374 0.0120582003146409988
-0.0150722377002239227 0.00574994180351495743 0.0131396260112524033
-0.00173557363450527191 0.00192427076399326324 0.00606450065970420837
-0.00794323161244392395 0.0142624173313379288 0.01370998565107584
-0.00806742068380117416 0.0184435471892356873 0.0154848527163267136
-0.000230284873396158218 0.00816878397017717361 0.00801825150847434998
-0.00186888407915830612 0.0134076699614524841 0.0108534889295697212
0.00246499944478273392 0.00676104892045259476 0.00632679183036088943
0.00316198170185089111 0.00274036824703216553 0.0043819379061460495
-0.00822854135185480118 0.00703524099662899971 0.0108481999486684799
-0.00545998010784387589 0.0130745954811573029 0.0121965957805514336
0.00285643991082906723 0.00336830317974090576 0.00476676318794488907
-0.0127057163044810295 0.00391225703060626984 0.0114064496010541916
-0.0146199241280555725 0.0060833953320980072 0.0130906263366341591
-0.0168161746114492416 0.00687827169895172119 0.0143237104639410973
0.00555295310914516449 -0.00152254663407802582 0.00163888279348611832
-0.0084013836458325386 0.0196464136242866516 0.0150798540562391281
-0.0124967470765113831 0.01697520911693573 0.0143324155360460281
-0.00841097161173820496 0.0204634033143520355 0.0146460318937897682
-0.0107401786372065544 0.0178184248507022858 0.0148117728531360626
-0.0199375785887241364 0.0103571340441703796 0.0139006339013576508
-0.0153454933315515518 0.0140708861872553825 0.0143615985289216042
-0.0142772980034351349 0.0156590621918439865 0.0140886865556240082
-0.0150604704394936562 0.0143459774553775787 0.0143668102100491524
-0.0100398492068052292 0.0182595308870077133 0.0149478204548358917
-0.0105696739628911018 0.0199227109551429749 0.013796844519674778
-0.013303510844707489 0.0171943139284849167 0.0137940021231770515
-0.0112322112545371056 0.017124546691775322 0.0149177117273211479
-0.00928199850022792816 0.0199961159378290176 0.0144341373816132545
-0.0110432589426636696 0.0180840529501438141 0.0145132923498749733
-0.0132336439564824104 0.0172670651227235794 0.0137924877926707268
-0.0116696888580918312 0.0188105516135692596 0.013803224079310894
-0.0162787698209285736 0.013241378590464592 0.0143071413040161133
-0.0121888816356658936 0.0172191094607114792 0.0143659859895706177
-0.0113947689533233643 0.0189470481127500534 0.013875872828066349
-0.0193209480494260788 0.0111370766535401344 0.0138149196282029152
-0.0141240609809756279 0.0155670708045363426 0.0142173916101455688
-0.0012331758625805378 0.01513710618019104 0.0120328925549983978
-0.00338735384866595268 0.0177631936967372894 0.0136468186974525452
0.000875748926773667336 0.0144784152507781982 0.0120147131383419037
-0.00161935924552381039 0.0140017513185739517 0.0110103841871023178
-0.0017702840268611908 0.0199337415397167206 0.0158182326704263687
-9.05769411474466324e-05 0.0162176359444856644 0.0131970653310418129
0.00561253353953361511 0.00242969579994678497 0.00334127340465784073
-0.00217611435800790787 0.0161467697471380234 0.0126251308247447014
0.000187010969966650009 0.0121045177802443504 0.00990603119134902954
-0.00383348413743078709 0.0195458978414535522 0.0149929076433181763
-0.00238673924468457699 0.0184168331325054169 0.0144273266196250916
-0.000903392210602760315 0.0135644618421792984 0.0108296945691108704
0.00301321502774953842 0.00684823188930749893 0.00630949065089225769
-0.0027743317186832428 0.016638144850730896 0.0128790196031332016
0.00241682492196559906 0.00924654677510261536 0.00812135078012943268
0.005794500932097435 0.00338123366236686707 0.00416330806910991669
0.000595102785155177116 0.0136100463569164276 0.0112362848594784737
-0.00374807929620146751 0.0188364200294017792 0.0144344810396432877
-0.00373604847118258476 0.0196709055453538895 0.0151190254837274551
-0.00162631552666425705 0.0155650116503238678 0.0122854877263307571
-0.00260238791815936565 0.0199443120509386063 0.0156217636540532112
0.00554166035726666451 0.00247647799551486969 0.00336201395839452744
0.000956651754677295685 0.0102512352168560028 0.00858203694224357605
-0.000874544726684689522 0.018436916172504425 0.0148164620622992516
0.000821783673018217087 0.0128157483413815498 0.010643400251865387
0.00107218744233250618 0.0110335620120167732 0.00924949347972869873
-0.00515865674242377281 0.0204292330890893936 0.0153877492994070053
-0.00300516700372099876 0.0203958321362733841 0.015891270712018013
0.000323179643601179123 0.011148194782435894 0.00915850233286619186
-0.00334711186587810516 0.0181346572935581207 0.0139601361006498337
0.00250962143763899803 0.0104520246386528015 0.00912881921976804733
-0.00136811565607786179 0.0135612497106194496 0.0107125258073210716
0.00729508930817246437 -9.90554690361022949e-06 0.00176341366022825241
-0.00533746927976608276 0.0205795075744390488 0.0154664162546396255
-0.000615585013292729855 0.0176131539046764374 0.0142074702307581902
0.000171372899785637856 0.015090523287653923 0.0123410448431968689
0.00262793060392141342 0.00770974252372980118 0.0069181760773062706
0.00509604206308722496 0.00379623286426067352 0.00433010607957839966
0.00211646687239408493 0.0088507477194070816 0.00772404205054044724
-0.000592802651226520538 0.0157109443098306656 0.0126594258472323418
-0.00033652549609541893 0.0143722370266914368 0.0116291828453540802
-0.000426212558522820473 0.013987349346280098 0.0112927146255970001
0.000535842729732394218 0.0143988169729709625 0.0118659175932407379
0.00478454446420073509 0.00465615652501583099 0.00495568569749593735
-0.00384304882027208805 0.0176240149885416031 0.0134208202362060547
5.83096407353878021e-05 0.0154957352206110954 0.0126441381871700287
-0.0034776441752910614 0.0205525979399681091 0.0159028526395559311
-0.00148299499414861202 0.0154575249180197716 0.0122330216690897942
0.000579520594328641891 0.013300514779984951 0.0109796281903982162
0.00160270603373646736 0.00874729175120592117 0.00751290842890739441
-0.00194828654639422894 0.0165262781083583832 0.0129912551492452621
0.00401241425424814224 0.00923649128526449203 0.00831739697605371475
-0.001108930679038167 0.0198715534061193466 0.0158306583762168884
0.00743017811328172684 0.000178007408976554871 0.00191792100667953491
0.00385584752075374126 0.012392793782055378 0.0105472113937139511
0.0044501754455268383 0.00670216977596282959 0.00652699265629053116
-0.00168781797401607037 0.0207509491592645645 0.0164519175887107849
0.000557836960069835186 0.0165429096668958664 0.0134791005402803421
0.00464874505996704102 0.0081778205931186676 0.00756948813796043396
-0.000513731269165873528 0.0179434753954410553 0.0144685450941324234
-0.000230924168135970831 0.0174877215176820755 0.0141465729102492332
-0.00016461650375276804 0.0172140225768089294 0.0139532145112752914
0.00421293685212731361 0.0107277100905776024 0.00937089137732982635
0.0027502791490405798 0.0106178605929017067 0.00929327867925167084
0.0031109638512134552 0.0123421112075448036 0.010511402040719986
0.00432140985503792763 0.0120489047840237617 0.0103042703121900558
0.00334807764738798141 0.0159853212535381317 0.0130852032452821732
0.00176425045356154442 0.0190787427127361298 0.0152705851942300797
0.00191807874944061041 0.0145657751709222794 0.0120823336765170097
0.00297708623111248016 0.0152903944253921509 0.0125942584127187729
0.00103870383463799953 0.0188869982957839966 0.0151351206004619598
0.00232603750191628933 0.0198869742453098297 0.0158415753394365311
-0.000489573983941227198 0.0178508516401052475 0.0144031085073947906
0.00189210847020149231 0.0146969817578792572 0.0121750263497233391
0.0060085272416472435 0.00401963107287883759 0.00463188346475362778
0.00828223861753940582 -0.00176211819052696228 0.000547297298908233643
0.00717045972123742104 0.00155109912157058716 0.00288795959204435349
-0.00139932963065803051 0.0209919922053813934 0.0166222080588340759
0.00246612518094480038 0.0121591268107295036 0.0103821270167827606
0.000944569124840199947 0.0191497094929218292 0.0153207164257764816
0.00414243666455149651 0.0106198899447917938 0.0092947203665971756
0.00607186602428555489 0.00588394701480865479 0.00594895612448453903
0.00182581809349358082 0.0181430000811815262 0.0146095156669616699
0.000568495015613734722 0.0174887049943208694 0.0141472723335027695
0.0019004081841558218 0.0128916520625352859 0.0108996257185935974
0.000374936964362859726 0.0168674401938915253 0.0137083688750863075
0.00258987420238554478 0.0110944611951708794 0.00962997879832983017
0.00281488755717873573 0.0149789731949567795 0.0123742492869496346
0.00479783862829208374 0.00993745401501655579 0.00881260819733142853
-0.00108796975109726191 0.01995055191218853 0.0158864688128232956
0.00334981060586869717 0.0113279344514012337 0.00979492440819740295
0.00155475339852273464 0.0172470025718212128 0.0139765245839953423
0.0021524911280721426 0.0195137374103069305 0.0155778964981436729
0.00513086793944239616 0.00737179722636938095 0.00700006447732448578
0.0013932263245806098 0.0172950588166713715 0.0140104731544852257
0.000729264924302697182 0.0200623348355293274 0.0159654505550861359
-0.00176473485771566629 0.0208093877881765366 0.0164932031184434891
0.00442670518532395363 0.00792759936302900314 0.00739271380007266998
-0.00133285380434244871 0.0202303677797317505 0.0160841476172208786
0.00423402339220046997 0.0171516519039869308 0.0130084957927465439
0.00837488658726215363 -0.00127192412037402391 0.000729723309632390738
0.00787387415766716003 0.0100432978942990303 0.00667557818815112114
0.00928151234984397888 0.00529831927269697189 0.00324666406959295273
0.00527179334312677383 0.012043301947414875 0.00969015993177890778
0.00728978170081973076 0.00993899255990982056 0.00708068488165736198
0.00981989316642284393 0.0015616430900990963 0.000991796143352985382
0.00753452908247709274 0.0105377491563558578 0.00718340091407299042
0.00467371894046664238 0.0116860037669539452 0.00998200010508298874
0.00792607944458723068 0.00320437713526189327 0.00327768409624695778
0.00969843845814466476 0.00624040234833955765 0.00338340364396572113
0.00554061215370893478 0.0132229672744870186 0.0100592290982604027
0.00820974726229906082 0.00689925346523523331 0.00486982753500342369
0.00852217152714729309 0.00383076583966612816 0.00311948452144861221
0.00883931200951337814 0.00398533651605248451 0.00294760195538401604
0.0121034085750579834 0.0044007468968629837 0.000601522624492645264
0.00568863702937960625 0.0149432523176074028 0.0107880467548966408
0.0077902013435959816 0.00645929295569658279 0.00498161790892481804
0.00670338701456785202 0.00677357520908117294 0.00598494149744510651
0.00881736539304256439 0.00685516279190778732 0.0043734963983297348
0.00568027934059500694 0.0154504664242267609 0.0110435597598552704
0.0110767949372529984 0.00518760085105895996 0.00178979150950908661
0.0096896803006529808 0.00470284651964902878 0.00263548549264669418
0.00305083068087697029 0.0183639787137508392 0.0145279476419091225
0.010955367237329483 0.0044329492375254631 0.00151420943439006805
0.00929973553866147995 0.0021547684445977211 0.00168931251391768456
0.00545637495815753937 0.0150166656821966171 0.0110055338591337204
0.00606830976903438568 0.0133518446236848831 0.00971024110913276672
0.00357085932046175003 0.0161479413509368896 0.0130338715389370918
0.00879979133605957031 0.00813993997871875763 0.00501790270209312439
0.0076793949119746685 0.00526993907988071442 0.00448434986174106598
0.00691013690084218979 0.00994272530078887939 0.00737910624593496323
0.0051896912045776844 0.00985135231167078018 0.00867830961942672729
0.0113256536424160004 0.00244769081473350525 0.000250401906669139862
0.00818825233727693558 0.00599533179774880409 0.00444289948791265488
0.00665566790848970413 0.0130028268322348595 0.00908005423843860626
0.00553494272753596306 0.0153621770441532135 0.0111137609928846359
0.0121845966205000877 0.00498959235846996307 0.000827150419354438782
0.00749913044273853302 0.00666462769731879234 0.00530980527400970459
0.00895141623914241791 0.00133965956047177315 0.00156130548566579819
0.00751856900751590729 0.00438395794481039047 0.00417507719248533249
0.0116578806191682816 0.00622346438467502594 0.00184432137757539749
0.0073230937123298645 0.00976662151515483856 0.00697004655376076698
0.0058348621241748333 0.00741918617859482765 0.00698037538677453995
0.00726187601685523987 0.01100926473736763 0.00762786343693733215
0.00937029160559177399 0.00270365877076983452 0.00190363312140107155
0.0079908277839422226 0.000892770360223948956 0.00209237169474363327
0.00412112753838300705 0.0155929652974009514 0.0123315593227744102
0.00674523646011948586 0.00882879644632339478 0.00696112122386693954
0.00492132408544421196 0.013904329389333725 0.0108775030821561813
0.00821463856846094131 0.0049716518260538578 0.00391977839171886444
0.00714475288987159729 0.00474557420238852501 0.00464462349191308022
0.0102152330800890923 0.00241398485377430916 0.00110134575515985489
0.00879138708114624023 0.00516342185437679291 0.00356334401294589043
0.0102106062695384026 0.000535333994776010513 0.000182763673365116119
0.0109845623373985291 0.00409083999693393707 0.0013234652578830719
0.00969915743917226791 0.00716955680400133133 0.00383894797414541245
0.012203022837638855 0.00373833440244197845 0.000198533758521080017
0.00567768421024084091 0.00782349240034818649 0.00730163417756557465
0.00558942696079611778 0.00934875849634408951 0.00811931025236845016
0.00581543426960706711 0.00874305050820112228 0.00764541607350111008
0.011371418833732605 0.00440356601029634476 0.00117475539445877075
0.00970581918954849243 0.00280675897374749184 0.00169212091714143753
0.00759823620319366455 0.00986810401082038879 0.0068049142137169838
0.00981135107576847076 0.00109335174784064293 0.000768592581152915955
0.0088556511327624321 0.0072032255120575428 0.00451444555073976517
0.00986740365624427795 0.004746229387819767 0.00251793954521417618
0.00684779323637485504 0.00836686324328184128 0.0066542462445795536
0.00505199562758207321 0.0100114578381180763 0.00886447355151176453
0.00571987731382250786 0.015085022896528244 0.0108332354575395584
0.00897562876343727112 -9.44803468883037567e-06 0.000880135688930749893
0.00748587166890501976 0.00658599380403757095 0.00528156384825706482
0.00719031225889921188 0.00621395651251077652 0.00532983522862195969
0.00704593490809202194 0.00649767275899648666 0.00558189861476421356
0.00687935948371887207 0.0109827835112810135 0.00791369657963514328
0.00412313453853130341 0.0156827643513679504 0.0123740732669830322
0.0122988093644380569 0.00509129650890827179 0.000787848606705665588
0.00808771327137947083 0.00579969445243477821 0.00442540831863880157
0.00817155279219150543 0.00927657820284366608 0.00606665387749671936
0.00643990794196724892 0.00702552404254674911 0.00631445599719882011
0.00288316654041409492 0.0196719039231538773 0.015300968661904335
0.00788618344813585281 0.000375404750229790807 0.00192015618085861206
0.0088262464851140976 0.0106705827638506889 0.00623948406428098679
0.00991194602102041245 0.0027243434451520443 0.0014906320720911026
0.00657864520326256752 0.00545181427150964737 0.00543356360867619514
0.00762021122500300407 0.00963828898966312408 0.00667493417859077454
0.00623778253793716431 0.0178523752838373184 0.0129133705049753189
0.00851473305374383926 0.0144750513136386871 0.00948222167789936066
0.00555625557899475098 0.0201014913618564606 0.0149925760924816132
0.00454351771622896194 0.0199723448604345322 0.0151324421167373657
0.00922077521681785583 0.0114189442247152328 0.00671121291816234589
0.00816617533564567566 0.0121574271470308304 0.00759868137538433075
0.00689877243712544441 0.0153691302984952927 0.0106402682140469551
0.0087868180125951767 0.0126852607354521751 0.00789424683898687363
0.00752065097913146019 0.0163089632987976074 0.0112856356427073479
0.00973470695316791534 0.00956359226256608963 0.00500791892409324646
0.00645426101982593536 0.0155202839523553848 0.0108782723546028137
0.0120563097298145294 0.00676638539880514145 0.0020587332546710968
0.0102919582277536392 0.0105424923822283745 0.00570241454988718033
0.00700790528208017349 0.0170024391263723373 0.0120013076812028885
0.00784312747418880463 0.01356545090675354 0.00887480005621910095
0.0101430211216211319 0.00925504416227340698 0.00464508961886167526
0.00820074416697025299 0.0141272228211164474 0.00926403701305389404
0.00953216850757598877 0.0121782328933477402 0.00727968476712703705
0.00606853701174259186 0.020351780578494072 0.0150790037587285042
0.00817252695560455322 0.0129557391628623009 0.00827549770474433899
0.0114515861496329308 0.00696062576025724411 0.00237283669412136078
0.00851933285593986511 0.0144264977425336838 0.00943982787430286407
0.00483778119087219238 0.018489127978682518 0.0137995220720767975
0.00801367871463298798 0.0142534654587507248 0.00941741839051246643
0.0115095116198062897 0.00740275904536247253 0.00273427460342645645
0.00423528160899877548 0.0187682490795850754 0.0141852088272571564
0.0049886312335729599 0.0197462979704141617 0.0148306488990783691
0.00661304313689470291 0.0168810561299324036 0.0119954803958535194
0.0074831722304224968 0.0135172419250011444 0.00892255082726478577
0.00971603952348232269 0.0117993820458650589 0.0069124298170208931
0.00700824987143278122 0.0183782409876585007 0.0131703391671180725
0.00673056254163384438 0.0185111984610557556 0.013351762667298317
0.00660175923258066177 0.0154092907905578613 0.0107476003468036652
0.00667746132239699364 0.0152539992704987526 0.0105969794094562531
0.00824030209332704544 0.0141351614147424698 0.00926103070378303528
0.00686781201511621475 0.0165101438760757446 0.0116174975410103798
0.0145570877939462662 0.0101037193089723587 0.00045646107173524797
0.00915582012385129929 0.0149629712104797363 0.00914349034428596497
0.0129408249631524086 0.0127426302060484886 0.00356310768984258175
0.0123776262626051903 0.0142013039439916611 0.00487640919163823128
0.0121996654197573662 0.0115453088656067848 0.00395722454413771629
0.0144252432510256767 0.0124774817377328873 0.00163380661979317665
0.0112056611105799675 0.00996949709951877594 0.00449862238019704819
0.0128983482718467712 0.00915246643126010895 0.00207832944579422474
0.0130674904212355614 0.011535104364156723 0.00289129326120018959
0.0115082049742341042 0.0152122369036078453 0.0063726445659995079
0.0143323931843042374 0.011345740407705307 0.00126295234076678753
0.0139006208628416061 0.00856822915375232697 0.000602227053605020046
0.0124609488993883133 0.00654858164489269257 0.00149880629032850266
0.0142690641805529594 0.0119387917220592499 0.00159426999744027853
0.0137270651757717133 0.00769859785214066505 0.000442290795035660267
0.0112250689417123795 0.0126460539177060127 0.00562055641785264015
0.0121181244030594826 0.0121053438633680344 0.00429668696597218513
0.00937491189688444138 0.0176474209874868393 0.0100245419889688492
0.0138731850311160088 0.00958741828799247742 0.00107204320374876261
0.00803842674940824509 0.0176045652478933334 0.0116410469636321068
0.00893959030508995056 0.0140757467597723007 0.00902822334319353104
0.0097955707460641861 0.016779506579041481 0.00913846958428621292
0.0128394877538084984 0.00665967771783471107 0.00108331348747014999
0.0125491386279463768 0.00732794171199202538 0.00172452605329453945
0.00918410811573266983 0.0171682871878147125 0.0100528532639145851
0.0152768362313508987 0.0119961798191070557 0.000386083032935857773
0.014263128861784935 0.00974001362919807434 0.000660362769849598408
0.00892213452607393265 0.0152033772319555283 0.0095322486013174057
0.0101952925324440002 0.0146936578676104546 0.00775668537244200706
0.0105232317000627518 0.0152510190382599831 0.00759410765022039413
0.0101853124797344208 0.0126870274543762207 0.00690997252240777016
0.012281002476811409 0.0116713009774684906 0.00391165772452950478
0.0114226900041103363 0.0104476530104875565 0.00443781306967139244
0.00816512107849121094 0.0162706933915615082 0.0109151164069771767
0.0130695169791579247 0.00503357825800776482 0.000105893697764258832
0.013946089893579483 0.0110447099432349205 0.0016066436655819416
0.0125207938253879547 0.0138193340972065926 0.00453778263181447983
0.0133146867156028748 0.0115761766210198402 0.00260649365372955799
0.014315473847091198 0.0120154358446598053 0.00157030660193413496
0.0137506285682320595 0.00875727459788322449 0.00086662353714928031
0.00868529733270406723 0.0169215742498636246 0.0105574168264865875
0.0109836235642433167 0.0107800830155611038 0.00511719286441802979
0.013682778924703598 0.0136485593393445015 0.00304329092614352703
0.0077036907896399498 0.0184439700096845627 0.0124098099768161774
0.0125376163050532341 0.0129549317061901093 0.00414720317348837852
0.0109305810183286667 0.010435938835144043 0.00503476802259683609
0.0116695370525121689 0.00923562422394752502 0.00361705967225134373
0.00952188950031995773 0.0176508817821741104 0.00984623469412326813
0.0138932904228568077 0.0140926837921142578 0.00297588692046701908
0.0100045213475823402 0.0116973090916872025 0.00670748390257358551
0.0076694851741194725 0.0195110905915498734 0.0129084233194589615
0.00728239258751273155 0.0186541657894849777 0.0130151333287358284
0.0114304590970277786 0.0148095441982150078 0.00629537831991910934
0.0104081612080335617 0.011945728212594986 0.0063200686126947403
0.00891946069896221161 0.0155441006645560265 0.00968136265873908997
0.0109209343791007996 0.0105227129533886909 0.00508371135219931602
0.00718404632061719894 0.0184270255267620087 0.0130382077768445015
0.00772157777100801468 0.018647409975528717 0.0124750090762972832
0.00943537335842847824 0.0129638686776161194 0.00794583093374967575
0.0112028848379850388 0.00894409604370594025 0.00406310427933931351
0.0118977203965187073 0.0136152990162372589 0.00521261710673570633
0.013763044960796833 0.0102756060659885406 0.00150134309660643339
0.0119591206312179565 0.00885148718953132629 0.00309840263798832893
0.0133566241711378098 0.00943995080888271332 0.00164080038666725159
0.0128777585923671722 0.00627251854166388512 0.000870778458192944527
0.0109070101752877235 0.0110653452575206757 0.0053330129012465477
0.0129033159464597702 0.00894477032124996185 0.00198335037566721439
0.0119916666299104691 0.0136595899239182472 0.00511665549129247665
0.0125591298565268517 0.0103932851925492287 0.00302439695224165916
0.0116019537672400475 0.0107859745621681213 0.00436334405094385147
0.00931002106517553329 0.0203613061457872391 0.013095625676214695
0.0114638078957796097 0.0165750086307525635 0.00723942136391997337
0.00894401222467422485 0.0202196855098009109 0.0131109561771154404
0.0139783518388867378 0.0141749316826462746 0.00292407721281051636
0.00891113001853227615 0.0205844156444072723 0.0135834459215402603
0.00922858063131570816 0.0205826461315155029 0.0134146297350525856
0.00765894073992967606 0.0206306949257850647 0.0142983961850404739
0.00963192339986562729 0.0204385183751583099 0.013023054227232933
0.00951335858553647995 0.0202032420784235001 0.012791619636118412
0.00943243131041526794 0.020140722393989563 0.0127560608088970184
0.00912202149629592896 0.0198648069053888321 0.0125745907425880432
0.00852972362190485001 0.0199970360845327377 0.0130504872649908066
0.0145726893097162247 0.0140877952799201012 0.0025033922865986824
0.0104286419227719307 0.0185428857803344727 0.0102388951927423477
0.00944741163402795792 0.019214969128370285 0.0115927271544933319
0.0124827492982149124 0.0156330317258834839 0.00552892964333295822
0.00966118462383747101 0.018969360738992691 0.0111739784479141235
0.0101638082414865494 0.0195990465581417084 0.0116961244493722916
0.0100581822916865349 0.0177121683955192566 0.00939646922051906586
0.00858847144991159439 0.0209926050156354904 0.0142622673884034157
0.00974886585026979446 0.0179675091058015823 0.0098775085061788559
0.0130386538803577423 0.0168659742921590805 0.00662125321105122566
0.0125637035816907883 0.018721897155046463 0.00885680224746465683
0.0136191342025995255 0.0174095612019300461 0.00663853669539093971
0.0124877458438277245 0.018073059618473053 0.00828963890671730042
0.0110725322738289833 0.0206330046057701111 0.0120466006919741631
0.0131983216851949692 0.0192219819873571396 0.00878358632326126099
0.0134337861090898514 0.0175248142331838608 0.00691543659195303917
0.0132352123036980629 0.0165429394692182541 0.00613124435767531395
0.0128847816959023476 0.0195400770753622055 0.00937240011990070343
0.0130222784355282784 0.0170033052563667297 0.0067700464278459549
0.0147843509912490845 0.0149731617420911789 0.00322385877370834351
0.012598658911883831 0.0190850608050823212 0.00918095000088214874
0.012455877847969532 0.0201897546648979187 0.0103876488283276558
0.0116054695099592209 0.0208918675780296326 0.0118275871500372887
0.0146949430927634239 0.0151324914768338203 0.00345886312425136566
0.0145293371751904488 0.0148530490696430206 0.00333232805132865906
0.0136187691241502762 0.0182020831853151321 0.00741381384432315826
0.0151658747345209122 0.0157626457512378693 0.00332467909902334213
0.0147782154381275177 0.0155564583837985992 0.00372979836538434029
0.0148327099159359932 0.0202411320060491562 0.00720657547935843468
0.0150973526760935783 0.0144495274871587753 0.00242727715522050858
0.0146960262209177017 0.018217034637928009 0.00586828216910362244
0.0150225171819329262 0.0152117032557725906 0.00311419554054737091
0.01375624630600214 0.0209370069205760956 0.00929427240043878555
0.0135699622333049774 0.0199633054435253143 0.00882509816437959671
0.0155983623117208481 0.0133974151685833931 0.000902874395251274109
0.0132218776270747185 0.0196096096187829971 0.00906092487275600433
0.0143076283857226372 0.0208757836371660233 0.00844899192452430725
0.0141793796792626381 0.0174186732620000839 0.00601080246269702911
0.0145197287201881409 0.0200206860899925232 0.00749268289655447006
0.0151148634031414986 0.0178488623350858688 0.00498204585164785385
0.0150004401803016663 0.0154877845197916031 0.00335572753101587296
0.0159021131694316864 0.0172279514372348785 0.0026169696357101202
0.0156185263767838478 0.0149705708026885986 0.00196168804541230202
0.0153068751096725464 0.0203377176076173782 0.00611929828301072121
0.0155658042058348656 0.0179973356425762177 0.00398193951696157455
0.0152684962376952171 0.0197927020490169525 0.00588175002485513687
0.0158104896545410156 0.0127835841849446297 9.62419435381889343e-05
0.0158664193004369736 0.0199341662228107452 0.00439308676868677139
0.0159755200147628784 0.0159478075802326202 0.00162775861099362373
0.0152828646823763847 0.018482724204659462 0.00502966996282339096
0.0154992546886205673 0.018709227442741394 0.00459987763315439224
0.0150899328291416168 0.0208985283970832825 0.00703988829627633095
0.0154723692685365677 0.0175370313227176666 0.00394220743328332901
0.0157080590724945068 0.0145683214068412781 0.00147559749893844128
0.0156684722751379013 0.0156470350921154022 0.0022504336666315794
0.0164416395127773285 0.0184623263776302338 0.000186232718988321722
0.0159044601023197174 0.0135448109358549118 4.67870595457497984e-05
0.0162963569164276123 0.0179842505604028702 0.000939083285629749298
0.0163070801645517349 0.0206332765519618988 0.00330911669880151749
0.0162071287631988525 0.0163163114339113235 0.000126083599752746522
0.0163911674171686172 0.0203767865896224976 0.00237856293097138405
0.0163756385445594788 0.0200760699808597565 0.00222737016156315804
0.0163874085992574692 0.0185672733932733536 0.000730262952856719494
0.016160380095243454 0.0181725304573774338 0.00223368150182068348
0.0160963907837867737 0.0152756422758102417 7.23319026292301714e-05
0.0165114980190992355 0.0202947072684764862 0.00131138099823147058
0.0163442529737949371 0.0203829072415828705 0.00277062039822340012
0.0162505246698856354 0.019553767517209053 0.00277309981174767017
0.0164965838193893433 0.0194712039083242416 0.000669992994517087936
-0.015299295075237751 -0.0159673821181058884 -0.00115552300121635199
-0.020853433758020401 -0.0165460407733917236 -0.00154375587590038776
-0.0173094253987073898 -0.0162334460765123367 -0.000829582917504012585
-0.0184195972979068756 -0.0162708722054958344 -0.0015515185659751296
-0.0186557602137327194 -0.0164514388889074326 -0.000283559784293174744
-0.0207903049886226654 -0.0165005698800086975 -0.00185967795550823212
-0.0174085386097431183 -0.0163276512175798416 -0.000145700527355074883
-0.0157775934785604477 -0.0160200130194425583 -0.0011659091105684638
-0.0151177439838647842 -0.0160791408270597458 -6.66507985442876816e-05
-0.0207860525697469711 -0.0165688171982765198 -0.00129365990869700909
-0.0193526167422533035 -0.0163688957691192627 -0.00161001482047140598
-0.0192931555211544037 -0.0163047201931476593 -0.00208337325602769852
-0.0174603872001171112 -0.0162987802177667618 -0.000431590713560581207
-0.0208841878920793533 -0.0164948534220457077 -0.00199385406449437141
0.016646604984998703 0.0202290397137403488 -0.000137745693791657686
0.0160158500075340271 0.0164708476513624191 -0.00184480356983840466
0.0164571907371282578 0.0186975821852684021 -0.000276476261205971241
0.0164835564792156219 0.019746800884604454 -0.0010330399964004755
0.0163495931774377823 0.0206346344202756882 -0.00296023953706026077
0.0166568458080291748 0.020383169874548912 -0.000196421286091208458
0.0161005370318889618 0.0169838033616542816 -0.00162337790243327618
0.0161518994718790054 0.017312709242105484 -0.00150560762267559767
0.0162249095737934113 0.0199278034269809723 -0.00333116319961845875
0.016445482149720192 0.0184207260608673096 -0.000115990522317588329
0.0161233190447092056 0.0178837329149246216 -0.00227089622057974339
0.0159376021474599838 0.0149074262008070946 -0.00103836972266435623
0.0160314273089170456 0.0159996841102838516 -0.00127927795983850956
0.0160735901445150375 0.0165619030594825745 -0.00145376613363623619
-0.0193963740020990372 -0.0156311504542827606 -0.00467864703387022018
-0.0190687812864780426 -0.0158995483070611954 -0.00376734021119773388
-0.0187380127608776093 -0.0161318108439445496 -0.00294933724217116833
-0.0182685498148202896 -0.0157632827758789062 -0.00362929143011569977
-0.0139374751597642899 -0.0157807748764753342 -0.000891364295966923237
-0.0167055241763591766 -0.0155582670122385025 -0.0031984369270503521
-0.01879071444272995 -0.0154291624203324318 -0.00483482424169778824
-0.019254978746175766 -0.0161306131631135941 -0.00327379745431244373
-0.0178519412875175476 -0.0154918273910880089 -0.00408613309264183044
-0.0175696685910224915 -0.0158308092504739761 -0.00301687419414520264
-0.0172912385314702988 -0.0154374865815043449 -0.00388093572109937668
-0.0189829859882593155 -0.0160285960882902145 -0.00337374582886695862
-0.0166083909571170807 -0.015425865538418293 -0.00348718184977769852
-0.0181153416633605957 -0.0158675126731395721 -0.003259237390011549
0.0157298333942890167 0.0166280865669250488 -0.00269839493557810783
0.0153765194118022919 0.0207738261669874191 -0.00620671827346086502
0.0159826558083295822 0.0169018805027008057 -0.00220192852430045605
0.0160987693816423416 0.0204150713980197906 -0.00407932838425040245
0.0156404245644807816 0.019454488530755043 -0.00469084642827510834
0.0149936666712164879 0.0204978156834840775 -0.00704466598108410835
0.0154632367193698883 0.018148813396692276 -0.00434653367847204208
0.0153857991099357605 0.0170651581138372421 -0.00387719064019620419
0.0154477339237928391 0.0181064903736114502 -0.00436110515147447586
0.0159961208701133728 0.0194988083094358444 -0.00378050189465284348
0.0161022040992975235 0.0188089031726121902 -0.00307198893278837204
0.0152885550633072853 0.0170554500073194504 -0.00412756949663162231
0.0157879628241062164 0.0152873508632183075 -0.00171180907636880875
0.0157989654690027237 0.0172267947345972061 -0.00288822478614747524
-0.0202645156532526016 -0.0133384969085454941 -0.00938870850950479507
-0.0146208060905337334 -0.0151568884029984474 -0.00247073988430202007
-0.0164019837975502014 -0.01512099988758564 -0.00387464812956750393
-0.0200745109468698502 -0.0129350451752543449 -0.00982899405062198639
-0.0186659172177314758 -0.0135969780385494232 -0.00780089851468801498
-0.0188836846500635147 -0.0142203196883201599 -0.00706311687827110291
-0.0180826224386692047 -0.0141357071697711945 -0.00657769199460744858
-0.0187658220529556274 -0.0147899677976965904 -0.00614838162437081337
-0.0152504593133926392 -0.0151882171630859375 -0.00290326029062271118
-0.0157039426267147064 -0.0151932546868920326 -0.00324015552178025246
-0.0167969726026058197 -0.0150267360731959343 -0.00431100884452462196
-0.0194909647107124329 -0.013433375395834446 -0.00866412743926048279
-0.014263777993619442 -0.0156074073165655136 -0.00154706742614507675
-0.0157390814274549484 -0.0146044651046395302 -0.00411983439698815346
-0.0203386079519987106 -0.0132988849654793739 -0.00950233079493045807
-0.0143438596278429031 -0.01513662189245224 -0.00228989962488412857
0.0145843718200922012 0.017342936247587204 -0.00536658661440014839
0.0146429101005196571 0.0206256620585918427 -0.0077734086662530899
0.0132603971287608147 0.0205717124044895172 -0.00973536819219589233
0.014481743797659874 0.0194966588169336319 -0.0071499701589345932
0.0145330308005213737 0.0204170327633619308 -0.00777424219995737076
0.0149860866367816925 0.0176383461803197861 -0.00500882323831319809
0.0128508172929286957 0.0202120654284954071 -0.0100557664409279823
0.0146578038111329079 0.0185364075005054474 -0.00616606185212731361
0.0147236548364162445 0.0192469041794538498 -0.00660993624478578568
0.0154467290267348289 0.0136765372008085251 -0.001334410160779953
0.0147629864513874054 0.0208257194608449936 -0.00775129394605755806
0.013822631910443306 0.0196327976882457733 -0.00820818450301885605
0.0145957339555025101 0.02056911401450634 -0.00779883377254009247
0.0135464780032634735 0.0192795451730489731 -0.00834013894200325012
0.014112311415374279 0.019154086709022522 -0.00742516806349158287
-0.0145279373973608017 -0.0146898338571190834 -0.00287199788726866245
-0.0160356983542442322 -0.0134977167472243309 -0.00540245044976472855
-0.0187860988080501556 -0.0130701279267668724 -0.00847067404538393021
-0.0153063684701919556 -0.0142739573493599892 -0.00400160206481814384
-0.0184774212539196014 -0.0124219786375761032 -0.0087430514395236969
-0.0203492827713489532 -0.0113631896674633026 -0.0115114124491810799
-0.0209540128707885742 -0.0101564936339855194 -0.0131717724725604057
-0.0181183945387601852 -0.0127777885645627975 -0.00807676557451486588
-0.0184740275144577026 -0.0115330945700407028 -0.00952721573412418365
-0.0202955324202775955 -0.01065033208578825 -0.0120903896167874336
-0.0194614697247743607 -0.0107251349836587906 -0.0112085528671741486
-0.0153802074491977692 -0.0138509413227438927 -0.00444856332615017891
-0.0167634338140487671 -0.0136523749679327011 -0.00597703363746404648
-0.0189234726130962372 -0.0130400499328970909 -0.00863164942711591721
-0.0208433847874403 -0.0115088978782296181 -0.0118654714897274971
-0.0204457808285951614 -0.0103020081296563148 -0.0125458957627415657
-0.0169881302863359451 -0.0126836448907852173 -0.00705496827140450478
-0.01935574971139431 -0.0116272103041410446 -0.0103060081601142883
0.0121828727424144745 0.0191912781447172165 -0.00965316314250230789
0.011486533097922802 0.0200101733207702637 -0.0110708046704530716
0.0133307883515954018 0.0186537895351648331 -0.00811063405126333237
0.0120880622416734695 0.0198518261313438416 -0.0103830639272928238
0.0145179247483611107 0.015325373038649559 -0.00380429252982139587
0.0133814439177513123 0.0176699254661798477 -0.007103700190782547
0.0103957438841462135 0.0207176841795444489 -0.0127289770171046257
0.0128385033458471298 0.0184866394847631454 -0.00838330946862697601
0.0126181375235319138 0.0203781966120004654 -0.010428164154291153
0.0148109160363674164 0.0146923745051026344 -0.00292576104402542114
0.0124758481979370117 0.0183144304901361465 -0.00853619910776615143
0.0109934555366635323 0.0197600610554218292 -0.0112630613148212433
0.014143429696559906 0.0152295231819152832 -0.00404233764857053757
0.010890263132750988 0.0206658672541379929 -0.0122402068227529526
0.0120336432009935379 0.019553598016500473 -0.0101396553218364716
0.0128125082701444626 0.0178665034472942352 -0.00779995042830705643
0.0116532603278756142 0.0184692107141017914 -0.0094162914901971817
-0.0123098064213991165 -0.0142665300518274307 -0.00175599567592144012
-0.0115939434617757797 -0.0154307838529348373 -2.54129990935325623e-05
-0.0133164217695593834 -0.012201264500617981 -0.00471318839117884636
-0.0118419704958796501 -0.0143871847540140152 -0.00140815507620573044
-0.0141188390552997589 -0.0125847561284899712 -0.00458754226565361023
-0.016210164874792099 -0.00818204134702682495 -0.0108683053404092789
-0.00933019723743200302 -0.0120437787845730782 -0.00319960690103471279
-0.0130045171827077866 -0.0117349792271852493 -0.00515006715431809425
-0.0138920722529292107 -0.0100552169606089592 -0.00758473295718431473
-0.0193571355193853378 -0.00751859322190284729 -0.0130268661305308342
-0.0115179885178804398 -0.0146657340228557587 -0.000928746536374092102
-0.00721393013373017311 -0.0128052942454814911 -0.00136225856840610504
-0.0139268618077039719 -0.0127887073904275894 -0.00425588712096214294
-0.00847578700631856918 -0.0125158959999680519 -0.00225637620314955711
-0.0144115611910820007 -0.013584500178694725 -0.00348990131169557571
-0.0138205094262957573 -0.00992469489574432373 -0.0077137630432844162
-0.0137696471065282822 -0.011439906433224678 -0.00583851197734475136
-0.0179478004574775696 -0.00801889132708311081 -0.0118116382509469986
-0.0131216300651431084 -0.00969811994582414627 -0.00769177777692675591
-0.0156028838828206062 -0.00981888175010681152 -0.00860610976815223694
-0.0197725053876638412 -0.00677886093035340309 -0.0141095323488116264
-0.0092871394008398056 -0.011380145326256752 -0.0039929654449224472
-0.0102597624063491821 -0.0111649297177791595 -0.00467254035174846649
-0.00947671011090278625 -0.0137692904099822044 -0.00115159014239907265
-0.0131344133988022804 -0.0114390673115849495 -0.00556763913482427597
-0.011616656556725502 -0.0136540457606315613 -0.00220852531492710114
-0.0158045925199985504 -0.0106216352432966232 -0.00771047966554760933
-0.0151450252160429955 -0.0119026098400354385 -0.00586121436208486557
-0.00898253917694091797 -0.0125660821795463562 -0.00241189263761043549
-0.0134049151092767715 -0.0108781373128294945 -0.00636957865208387375
-0.0144581738859415054 -0.0128844995051622391 -0.00436612777411937714
-0.0116507895290851593 -0.0131534021347761154 -0.0028355475515127182
-0.0157049912959337234 -0.00943792983889579773 -0.00911581143736839294
-0.0175836477428674698 -0.00833652913570404053 -0.011267220601439476
-0.0141754811629652977 -0.0109895979985594749 -0.00656305998563766479
-0.0148419607430696487 -0.0127787701785564423 -0.00465973187237977982
-0.0166278388351202011 -0.00870960671454668045 -0.010401739738881588
-0.0114261116832494736 -0.0140142105519771576 -0.00168639607727527618
-0.0111180562525987625 -0.0118871033191680908 -0.00415651826187968254
-0.0156935099512338638 -0.00899144262075424194 -0.0096570625901222229
-0.0150946751236915588 -0.0114921256899833679 -0.00634178705513477325
-0.0183812603354454041 -0.00879968702793121338 -0.0110420659184455872
-0.0146733624860644341 -0.0117552187293767929 -0.00583962444216012955
-0.00859444588422775269 -0.0126251103356480598 -0.002173570916056633
-0.0104638338088989258 -0.010728105902671814 -0.00529423356056213379
-0.0102241840213537216 -0.0129667213186621666 -0.00245327316224575043
-0.00609619729220867157 -0.0126781780272722244 -0.00103932968340814114
-0.014052405022084713 -0.00953435711562633514 -0.00829050038009881973
-0.0186201967298984528 -0.00753414072096347809 -0.0126924142241477966
-0.0111073451116681099 -0.0139052364975214005 -0.00168325658887624741
-0.00957592017948627472 -0.0133298654109239578 -0.00173158152028918266
-0.0133987832814455032 -0.0108873806893825531 -0.00635564746335148811
-0.018238462507724762 -0.00821070000529289246 -0.0117014208808541298
-0.0113135501742362976 -0.0134332627058029175 -0.00234885979443788528
-0.0175538938492536545 -0.00804677046835422516 -0.0116089321672916412
-0.0131168626248836517 -0.00984566099941730499 -0.00750925857573747635
-0.0152806099504232407 -0.00865714438259601593 -0.00988925900310277939
-0.00898249167948961258 -0.0119596198201179504 -0.00315372645854949951
-0.00970119517296552658 -0.0131657049059867859 -0.00198601139709353447
-0.0169324055314064026 -0.0086820404976606369 -0.0105658220127224922
-0.00893270224332809448 -0.0125010190531611443 -0.00247014896012842655
-0.00905543658882379532 -0.0139982104301452637 -0.000691246706992387772
-0.01915714330971241 -0.00701505504548549652 -0.0135572152212262154
-0.0148943308740854263 -0.0100030871108174324 -0.00807749666273593903
-0.0125395487993955612 -0.0146015984937548637 -0.00144445803016424179
-0.0130003504455089569 -0.0136553626507520676 -0.00279917847365140915
-0.0190317481756210327 -0.00685454858466982841 -0.0136998808011412621
-0.0161346513777971268 -0.00998641643673181534 -0.00862878467887639999
-0.0133672505617141724 -0.0144066531211137772 -0.00203720666468143463
-0.0194344613701105118 -0.00808125175535678864 -0.0125835072249174118
-0.01760847307741642 -0.0117774726822972298 -0.00836449861526489258
-0.0161507856100797653 -0.0117398397997021675 -0.00656485743820667267
-0.0189084634184837341 -0.00960124097764492035 -0.0111292386427521706
-0.0175747368484735489 -0.0106882844120264053 -0.00889404024928808212
-0.0185984913259744644 -0.0100007094442844391 -0.010532693937420845
-0.0175127368420362473 -0.0100397057831287384 -0.00915705785155296326
-0.0164420418441295624 -0.0124482586979866028 -0.00655657798051834106
-0.0140201728790998459 -0.0143352244049310684 -0.00254339934326708317
-0.0209569297730922699 -0.00738933868706226349 -0.0148468995466828346
-0.0149550419300794601 -0.0130674475803971291 -0.00437562260776758194
-0.0181849561631679535 -0.0116130663082003593 -0.00917031429708003998
-0.0187044311314821243 -0.00952133070677518845 -0.0109165189787745476
-0.0147344609722495079 -0.0141036622226238251 -0.00355645990930497646
-0.0191011093556880951 -0.00865015760064125061 -0.0118688540533185005
-0.016794966533780098 -0.0116447610780596733 -0.00741878431290388107
-0.0174505319446325302 -0.0111123127862811089 -0.00851646903902292252
-0.0174123998731374741 -0.0108951767906546593 -0.00858283787965774536
-0.0199534054845571518 -0.00916659273207187653 -0.0126615902408957481
-0.0201170239597558975 -0.00892152078449726105 -0.0129944309592247009
-0.0187525041401386261 -0.0092959841713309288 -0.0110947899520397186
0.0148017043247818947 0.0120836496353149414 -0.00100472662597894669
0.00697376299649477005 0.0188404582440853119 -0.0134724024683237076
0.00921991094946861267 0.0151374144479632378 -0.00913976132869720459
0.0149518903344869614 0.0111985486000776291 -0.000442152144387364388
0.0140750017017126083 0.00823103450238704681 -0.000244583934545516968
0.0110610360279679298 0.0131665961816906929 -0.00604402367025613785
0.0066488008014857769 0.0199190340936183929 -0.0143315866589546204
0.0129644423723220825 0.00691981706768274307 -0.00104181282222270966
0.013075629249215126 0.0147875947877764702 -0.00427353661507368088
0.0134341837838292122 0.00963778980076313019 -0.00163060985505580902
0.0147758033126592636 0.0104960910975933075 -0.000356870237737894058
0.0115694347769021988 0.0116973761469125748 -0.00479324022307991982
0.0141443898901343346 0.0127538805827498436 -0.0020956678781658411
0.0135432891547679901 0.0125641766935586929 -0.00274976156651973724
0.0129656558856368065 0.00992056354880332947 -0.00232477253302931786
0.0138745931908488274 0.0121064968407154083 -0.00214858888648450375
0.0134550314396619797 0.00939224660396575928 -0.00150000583380460739
0.00935254152864217758 0.0154869770631194115 -0.00912714749574661255
0.0126797156408429146 0.0116985440254211426 -0.00343559542670845985
0.011333610862493515 0.0123149380087852478 -0.00534605234861373901
0.0129994992166757584 0.00783957261592149734 -0.00139262434095144272
0.012658960185945034 0.0131775196641683578 -0.00409404747188091278
0.0130151677876710892 0.0116008296608924866 -0.00298342900350689888
0.0123195387423038483 0.0112676788121461868 -0.00369175244122743607
0.0148934889584779739 0.0131161743775010109 -0.00133441423531621695
0.012363756075501442 0.0131373349577188492 -0.00443795276805758476
0.0110327489674091339 0.00930097419768571854 -0.00442397966980934143
0.00946373306214809418 0.0170312058180570602 -0.00965212751179933548
0.00665747793391346931 0.0203321240842342377 -0.0144977904856204987
0.01152070052921772 0.0106551432982087135 -0.00440673716366291046
0.0105206696316599846 0.0154859526082873344 -0.00769780296832323074
0.0142480554059147835 0.013476397842168808 -0.00227812700904905796
0.0113456090912222862 0.0119651835411787033 -0.00518166739493608475
0.0121482480317354202 0.0135117387399077415 -0.00486183259636163712
0.00868216715753078461 0.0164325069636106491 -0.0103519037365913391
0.0130328070372343063 0.0111564379185438156 -0.00277163507416844368
0.0142478020861744881 0.00883422326296567917 -0.000291395001113414764
0.0107419919222593307 0.0165108125656843185 -0.00786575395613908768
0.0110738305374979973 0.0148398121818900108 -0.00674457848072052002
0.00998050346970558167 0.0153083410114049911 -0.00828253384679555893
0.00999275222420692444 0.0123015111312270164 -0.00698050297796726227
0.0124689182266592979 0.0136701520532369614 -0.00453738262876868248
0.0152271268889307976 0.0121197784319519997 -0.00049979484174400568
0.0133154187351465225 0.00675106886774301529 -0.000540253706276416779
0.0130696855485439301 0.00657820794731378555 -0.000766853801906108856
0.0110124489292502403 0.00999996531754732132 -0.00474800914525985718
0.0141316540539264679 0.0140206757932901382 -0.00265348865650594234
0.0122299306094646454 0.0100788939744234085 -0.0032925168052315712
0.0131050273776054382 0.00940448231995105743 -0.0019333837553858757
0.0110785067081451416 0.0126197244971990585 -0.00578856933861970901
0.0115022724494338036 0.0157645978033542633 -0.00661633489653468132
0.00928989797830581665 0.0144712459295988083 -0.00876900181174278259
0.0125219197943806648 0.00738506950438022614 -0.00178227480500936508
0.0083428090438246727 0.0172050781548023224 -0.0110977143049240112
0.0133496895432472229 0.0065794261172413826 -0.000424861907958984375
0.0137486737221479416 0.0140040889382362366 -0.00311486679129302502
0.0106987804174423218 0.0128724537789821625 -0.00636124517768621445
0.0103182708844542503 0.013495028018951416 -0.00709318928420543671
0.0125878779217600822 0.0118507649749517441 -0.00361309293657541275
0.00983949191868305206 0.0166268553584814072 -0.00901940185576677322
0.0120493806898593903 0.00812671426683664322 -0.00267775915563106537
0.0141742359846830368 0.0124360378831624985 -0.00192310940474271774
0.0142728062346577644 0.0100169563665986061 -0.000767069868743419647
0.0100558791309595108 0.0174596253782510757 -0.00911116879433393478
0.0145982475951313972 0.011572827585041523 -0.00103495107032358646
0.0124047473073005676 0.0122040603309869766 -0.00398833025246858597
0.0112080890685319901 0.0121056586503982544 -0.005410016980022192
0.00992430374026298523 0.016230190172791481 -0.00874586962163448334
0.0145197119563817978 0.0135083692148327827 -0.00195950968191027641
0.0126072391867637634 0.0114547582343220711 -0.00341990264132618904
0.0138122774660587311 0.0144119672477245331 -0.00330709200352430344
0.0137311983853578568 0.0149958496913313866 -0.00407841335982084274
