ply
format ascii 1.0
element vertex 764
property float x
property float y
property float z
end_header
0.384138703346252441 1.52986001968383789 0.00334900617599487305
0.92586129903793335 0.726723194122314453 0.020846046507358551
0.113103583455085754 1.93168604373931885 0.020486101508140564
0.427474617958068848 1.46561193466186523 0.011472795158624649
0.38748207688331604 1.52490329742431641 0.0104530118405818939
0.294960588216781616 1.66207206249237061 0.0860722064971923828
0.288454681634902954 1.67171740531921387 0.0609879866242408752
0.0826909393072128296 1.97677469253540039 0.0924709290266036987
0.507860302925109863 1.34643518924713135 0.000115897506475448608
0.420606672763824463 1.47579407691955566 0.0701653733849525452
0.106962665915489197 1.94079041481018066 0.0946815013885498047
0.919876396656036377 0.735596179962158203 0.0461504608392715454
1.0985722541809082 0.470668673515319824 0.0268910601735115051
0.249914005398750305 1.72885632514953613 0.00457786209881305695
0.199394926428794861 1.80375385284423828 0.0109602361917495728
0.0181673616170883179 2.07243490219116211 0.0660244375467300415
0.245236098766326904 1.73579156398773193 0.0930760428309440613
0.684489846229553223 1.08457112312316895 0.0144968628883361816
0.240124568343162537 1.74336981773376465 0.0275524407625198364
0.547991931438446045 1.28693771362304688 0.0918487459421157837
0.705254673957824707 1.05378603935241699 0.0651612952351570129
0.467905640602111816 1.4056704044342041 0.0422582589089870453
0.489713281393051147 1.37333917617797852 0.0596641339361667633
1.10554516315460205 0.460330963134765625 0.030426420271396637
0.126832053065299988 1.91133284568786621 0.0458772405982017517
0.0798302292823791504 1.98101592063903809 0.0582301877439022064
1.05169713497161865 0.540163993835449219 0.0119012072682380676
0.240324169397354126 1.74307382106781006 0.0275366213172674179
0.402291834354400635 1.50294685363769531 0.0787339583039283752
0.372442066669464111 1.54720091819763184 0.0733097195625305176
0.0238230135291814804 2.06404995918273926 0.108743377029895782
1.35716879367828369 0.0872836112976074219 0.00410893559455871582
0.489299625158309937 1.37395250797271729 0.0770467966794967651
0.750088810920715332 0.987316608428955078 0.0540473759174346924
0.939764499664306641 0.706110954284667969 0.0275887995958328247
0.687010824680328369 1.08083367347717285 0.00420438498258590698
0.179273396730422974 1.83358526229858398 0.0920337513089179993
1.05648553371429443 0.533064961433410645 0.0150362700223922729
0.411094188690185547 1.48989677429199219 0.100593939423561096
0.179448753595352173 1.83332538604736328 0.011349942535161972
0.200085774064064026 1.80272972583770752 0.0438675135374069214
0.30159798264503479 1.65223169326782227 0.0747828185558319092
0.701193749904632568 1.05980658531188965 0.00557824224233627319
0.294759929180145264 1.6623694896697998 0.0184226967394351959
0.331290960311889648 1.60821008682250977 0.0331527665257453918
0.356007844209671021 1.57156574726104736 0.0415928997099399567
0.848725616931915283 0.841081619262695312 0.0338439047336578369
0.202740967273712158 1.79879319667816162 0.0901089608669281006
0.037103310227394104 2.04436111450195312 0.00215895287692546844
0.350692093372344971 1.57944655418395996 0.0759001076221466064
0.433504849672317505 1.45667171478271484 0.104917272925376892
0.153424248099327087 1.87190830707550049 0.0325291454792022705
0.306651860475540161 1.64473903179168701 0.0677221864461898804
0.580347001552581787 1.23896920680999756 0.0581713765859603882
0.663689732551574707 1.11540853977203369 0.0105325505137443542
1.05105674266815186 0.541113376617431641 0.0133534893393516541
0.0062147253192961216 2.09015536308288574 0.0325619988143444061
0.339376717805862427 1.5962224006652832 0.0794125348329544067
0.348572880029678345 1.58258843421936035 0.0121797546744346619
0.76166236400604248 0.970158219337463379 0.0407080799341201782
0.503589868545532227 1.35276627540588379 0.0879299789667129517
0.800664126873016357 0.912335753440856934 0.0123349651694297791
0.859971821308135986 0.824408411979675293 0.0298502892255783081
0.443920940160751343 1.44122922420501709 0.0217711292207241058
0.463945746421813965 1.41154122352600098 0.0659542828798294067
1.03790009021759033 0.560618877410888672 0.0223120227456092834
0.30194389820098877 1.6517188549041748 0.0602760203182697296
0.637554764747619629 1.15415525436401367 0.0314531624317169189
0.212600499391555786 1.78417587280273438 0.0396030545234680176
0.0978175178170204163 1.95434856414794922 0.0251846536993980408
0.22590424120426178 1.76445221900939941 0.0910694226622581482
0.549323320388793945 1.28496372699737549 0.0381704643368721008
0.791734695434570312 0.925574064254760742 0.02507752925157547
0.259851157665252686 1.71412384510040283 0.0211263932287693024
0.284979701042175293 1.67686927318572998 0.0796434581279754639
0.50724107027053833 1.34735321998596191 0.0392698608338832855
0.50579524040222168 1.34949684143066406 0.0736107602715492249
0.549945414066314697 1.28404140472412109 0.0563340969383716583
0.110624045133590698 1.93536210060119629 0.144923359155654907
1.18053007125854492 0.349161267280578613 0.00630615651607513428
0.540686964988708496 1.29776763916015625 0.0958007648587226868
0.151408478617668152 1.87489676475524902 0.0893393903970718384
0.78979039192199707 0.928456664085388184 0.0261132046580314636
0.823669493198394775 0.87822878360748291 0.0375843197107315063
0.339276134967803955 1.59637153148651123 0.0657604709267616272
0.00986604858189821243 2.08474206924438477 0.1134171262383461
0.883795022964477539 0.789089083671569824 0.0545452460646629333
0.727794289588928223 1.02036964893341064 0.00731146335601806641
0.641189157962799072 1.14876699447631836 0.0514851585030555725
0.231300339102745056 1.75645220279693604 0.0721552819013595581
0.716157853603363037 1.03762137889862061 0.0178991407155990601
0.189704328775405884 1.81812083721160889 0.122920781373977661
0.0460810959339141846 2.0310509204864502 0.0661482289433479309
1.15264379978179932 0.390504360198974609 0.0146472305059432983
0.945863425731658936 0.697068929672241211 0.0476924702525138855
0.335140734910964966 1.60250246524810791 0.0747385174036026001
0.615498602390289307 1.18685483932495117 0.0854642689228057861
0.0923511311411857605 1.96245288848876953 0.0999092534184455872
0.275874227285385132 1.69036865234375 0.0280144475400447845
0.390243440866470337 1.52080941200256348 0.0770384818315505981
0.136498332023620605 1.89700198173522949 0.0501283071935176849
1.2555917501449585 0.237877845764160156 0.0164789408445358276
0.173876211047172546 1.84158694744110107 0.01822684146463871
0.154402837157249451 1.87045741081237793 0.0395359285175800323
0.441679090261459351 1.44455289840698242 0.0765194743871688843
0.640035688877105713 1.15047717094421387 0.0359379276633262634
0.375043779611587524 1.54334378242492676 0.070344090461730957
1.19618034362792969 0.325958728790283203 0.0157599002122879028
0.860554933547973633 0.823543906211853027 0.0353027880191802979
1.22448158264160156 0.284000515937805176 0.0168172717094421387
0.475069135427474976 1.395050048828125 0.0517887547612190247
0.328810632228851318 1.61188721656799316 0.0148508697748184204
0.00383462896570563316 2.09368395805358887 0.0210408885031938553
0.258900672197341919 1.71553301811218262 0.129664450883865356
1.11651051044464111 0.444074034690856934 0.0139184147119522095
0.20373670756816864 1.7973170280456543 0.135515421628952026
0.971869587898254395 0.658513188362121582 0.0435319393873214722
0.238959148526191711 1.74509751796722412 0.0762858986854553223
0.0038710394874215126 2.09363007545471191 0.101251527667045593
0.612465798854827881 1.19135117530822754 0.0227508693933486938
0.180022820830345154 1.8324742317199707 0.118630543351173401
1.13312995433807373 0.419434785842895508 0.0203740447759628296
0.59125286340713501 1.22280073165893555 0.0206180959939956665
0.0867093056440353394 1.9708172082901001 0.0104188285768032074
1.03575825691223145 0.563794255256652832 0.0356877595186233521
0.818222641944885254 0.886304140090942383 0.0137018561363220215
0.0296934638172388077 2.05534672737121582 0.0264888182282447815
1.18428683280944824 0.343591690063476562 0.00212427973747253418
0.406524121761322021 1.49667227268218994 0.0146385841071605682
0.0945324152708053589 1.95921897888183594 0.0963235124945640564
0.0936582759022712708 1.96051490306854248 0.0759640783071517944
0.365000247955322266 1.55823397636413574 0.0856050550937652588
0.57313382625579834 1.24966323375701904 0.0368778109550476074
0.559476375579833984 1.26991128921508789 0.0148912519216537476
0.513517916202545166 1.33804750442504883 0.00497340038418769836
0.339303165674209595 1.59633135795593262 0.109883956611156464
0.261198222637176514 1.71212673187255859 0.000865137204527854919
0.122563675045967102 1.91766095161437988 0.0158735662698745728
0.290601134300231934 1.66853523254394531 0.108936488628387451
0.463698476552963257 1.41190779209136963 0.0387705042958259583
1.22131991386413574 0.288687825202941895 0.000967010855674743652
0.0756240487098693848 1.98725175857543945 0.0141867678612470627
0.496323496103286743 1.36353921890258789 0.0300083085894584656
0.288399934768676758 1.67179858684539795 0.0546109303832054138
0.368218123912811279 1.55346322059631348 0.0360508933663368225
0.238794654607772827 1.74534142017364502 0.114931285381317139
0.0350689254701137543 2.04737710952758789 0.00263708829879760742
1.03332316875457764 0.567404508590698242 0.0407950133085250854
0.40234711766242981 1.50286483764648438 0.0750644505023956299
0.293707549571990967 1.66392970085144043 0.0763488113880157471
0.480151444673538208 1.38751530647277832 0.0436322428286075592
1.18414974212646484 0.343794822692871094 0.0219229906797409058
0.866604208946228027 0.814575433731079102 0.0503070950508117676
0.290250211954116821 1.66905546188354492 0.0203050747513771057
0.954507291316986084 0.684253811836242676 0.0335930138826370239
0.160075336694717407 1.86204755306243896 0.0764812156558036804
0.380707740783691406 1.53494668006896973 0.0616958215832710266
0.923711657524108887 0.72991025447845459 0.054049171507358551
0.0986240729689598083 1.95315289497375488 0.0393284671008586884
0.0219330769032239914 2.06685185432434082 0.139921501278877258
0.609165370464324951 1.19624423980712891 0.0412168949842453003
0.927737653255462646 0.723941445350646973 0.0162663236260414124
0.156463608145713806 1.86740219593048096 0.0275477636605501175
0.243010148406028748 1.73909163475036621 0.0806319564580917358
0.289700120687484741 1.66987097263336182 0.0493193715810775757
0.60671764612197876 1.19987320899963379 0.0523208901286125183
0.957422554492950439 0.679931759834289551 0.0443404987454414368
0.181907206773757935 1.82968056201934814 0.0976008623838424683
0.854094207286834717 0.833122372627258301 0.00823635607957839966
1.33614492416381836 0.118452668190002441 0.000562518835067749023
0.104313947260379791 1.94471728801727295 0.125197544693946838
0.350888311862945557 1.57915568351745605 0.106199830770492554
0.330374866724014282 1.60956811904907227 0.0788581967353820801
0.154442265629768372 1.87039899826049805 0.108770072460174561
0.9579581618309021 0.679137706756591797 0.0506669133901596069
0.495133191347122192 1.36530387401580811 0.0491742491722106934
0.760244250297546387 0.972260594367980957 0.0384373441338539124
0.544853508472442627 1.29159057140350342 0.0577271841466426849
0.104317165911197662 1.94471251964569092 0.109699815511703491
0.401764065027236938 1.50372934341430664 0.0653522908687591553
0.0322927013039588928 2.05149316787719727 0.00240882136858999729
1.03563201427459717 0.563981413841247559 0.0276775583624839783
0.746980249881744385 0.991925239562988281 0.0235285311937332153
0.763071298599243164 0.968069314956665039 0.0291151180863380432
0.110562682151794434 1.93545317649841309 0.109833389520645142
0.280179142951965332 1.68398642539978027 0.070957675576210022
0.362564831972122192 1.5618445873260498 0.0850578397512435913
0.438752800226211548 1.448891282081604 0.0975989848375320435
0.471412420272827148 1.40047144889831543 0.0749246031045913696
0.75522160530090332 0.979707002639770508 0.043001420795917511
0.233477786183357239 1.75322401523590088 0.101396724581718445
0.127639740705490112 1.91013538837432861 0.103058725595474243
0.093119695782661438 1.96131348609924316 0.0819757506251335144
0.193924218416213989 1.81186461448669434 0.0740616470575332642
0.612292349338531494 1.19160842895507812 0.0853219702839851379
1.0953681468963623 0.475419044494628906 0.0300608426332473755
0.73084104061126709 1.01585268974304199 0.0477467179298400879
0.955641388893127441 0.682572484016418457 0.0482810735702514648
0.201999321579933167 1.79989278316497803 0.0915434584021568298
0.186196908354759216 1.82332074642181396 0.137449711561203003
1.13236725330352783 0.420565485954284668 0.0218195617198944092
0.559907317161560059 1.2692723274230957 0.0445226728916168213
1.40787255764007568 0.0121121658012270927 0.0266943275928497314
1.20003974437713623 0.320237070322036743 0.0608922243118286133
1.09196972846984863 0.4804573655128479 0.144967928528785706
1.335440993309021 0.119496427476406097 0.14163634181022644
1.26714944839477539 0.220742732286453247 0.0932131186127662659
1.29745614528656006 0.175811260938644409 0.0323914587497711182
1.32835531234741211 0.130001336336135864 0.0847556665539741516
0.959196627140045166 0.677301585674285889 0.113225147128105164
0.583230316638946533 1.23469448089599609 0.104093901813030243
1.15937519073486328 0.380524754524230957 0.0949193090200424194
0.686637222766876221 1.08138751983642578 0.105426445603370667
0.603940844535827637 1.20398998260498047 0.141541481018066406
1.3556588888168335 0.0895221307873725891 0.021838754415512085
1.04406332969665527 0.55148160457611084 0.0480992570519447327
1.24387574195861816 0.255247384309768677 0.0895185768604278564
0.282312989234924316 1.68082296848297119 0.140309900045394897
0.235059857368469238 1.75087845325469971 0.153266891837120056
0.236332058906555176 1.74899232387542725 0.142889171838760376
0.920785486698150635 0.734248459339141846 0.130165576934814453
0.388150572776794434 1.52391207218170166 0.136682271957397461
1.2385406494140625 0.263157099485397339 0.0592802390456199646
0.898941516876220703 0.766633510589599609 0.124949440360069275
1.37613463401794434 0.0591656528413295746 0.124451979994773865
1.29520010948181152 0.179155930876731873 0.144312784075737
1.29456734657287598 0.180094048380851746 0.0620598047971725464
1.3962777853012085 0.0293021444231271744 0.0171321332454681396
0.905434787273406982 0.75700676441192627 0.148192286491394043
0.78511345386505127 0.93539053201675415 0.126358866691589355
1.04023683071136475 0.557154536247253418 0.0587709620594978333
1.20501482486724854 0.312861144542694092 0.137711226940155029
1.01946127414703369 0.587955594062805176 0.15212579071521759
1.28333044052124023 0.196753427386283875 0.0246541500091552734
1.30814611911773682 0.159962713718414307 0.13875870406627655
1.20090186595916748 0.318958789110183716 0.141951113939285278
0.713930845260620117 1.04092299938201904 0.107392899692058563
0.861655056476593018 0.821912944316864014 0.0845659375190734863
0.535538315773010254 1.30540084838867188 0.148384243249893188
0.539574801921844482 1.29941654205322266 0.139436185359954834
0.989831924438476562 0.631882905960083008 0.0731373876333236694
0.974246501922607422 0.654989242553710938 0.108778506517410278
1.15636932849884033 0.384981006383895874 0.0765514001250267029
0.527758240699768066 1.31693530082702637 0.137762755155563354
0.309449195861816406 1.64059162139892578 0.146407619118690491
0.626566648483276367 1.17044579982757568 0.0908032655715942383
0.576152145862579346 1.24518835544586182 0.113171450793743134
1.31693661212921143 0.146930217742919922 0.065853603184223175
0.52440875768661499 1.32190108299255371 0.151690229773521423
1.09899413585662842 0.470043212175369263 0.117625519633293152
0.731069803237915039 1.01551353931427002 0.100419506430625916
0.518825769424438477 1.33017826080322266 0.125408768653869629
0.711390376091003418 1.04468941688537598 0.144991427659988403
1.32305908203125 0.137853279709815979 0.131907880306243896
1.05646145343780518 0.533100545406341553 0.0698514804244041443
1.11046755313873291 0.453033208847045898 0.046078220009803772
0.779593408107757568 0.943574249744415283 0.0920045226812362671
1.40254569053649902 0.0200095120817422867 0.0542771443724632263
1.24505019187927246 0.253506302833557129 0.106650516390800476
0.92074817419052124 0.734303772449493408 0.139206349849700928
1.37594079971313477 0.0594530366361141205 0.115985110402107239
1.160347580909729 0.379083037376403809 0.134551331400871277
0.420688152313232422 1.47567331790924072 0.123890325427055359
1.00107681751251221 0.615211725234985352 0.123757585883140564
1.37881648540496826 0.0551895648241043091 0.0168180912733078003
0.620683968067169189 1.17916727066040039 0.141320332884788513
1.11615347862243652 0.444603472948074341 0.101165264844894409
1.15407252311706543 0.388386160135269165 0.0769716799259185791
0.96816861629486084 0.664000093936920166 0.133079499006271362
0.446133911609649658 1.43794834613800049 0.118630945682525635
0.543890416622161865 1.29301834106445312 0.139683425426483154
1.39687478542327881 0.0284171346575021744 0.0569206699728965759
1.05276870727539062 0.538575232028961182 0.153760567307472229
1.22925961017608643 0.276916682720184326 0.109740108251571655
1.18806898593902588 0.337984293699264526 0.0991272032260894775
1.23135256767272949 0.273813873529434204 0.139550670981407166
1.17628574371337891 0.355453759431838989 0.146495744585990906
1.36357080936431885 0.0777921676635742188 0.0177651643753051758
0.680327355861663818 1.09074223041534424 0.144082993268966675
1.15678024291992188 0.384371846914291382 0.0604373142123222351
1.32434427738189697 0.135947942733764648 0.05361928790807724
1.00380170345306396 0.611171841621398926 0.0951893255114555359
1.40861022472381592 0.0110185509547591209 0.109016582369804382
0.628731608390808105 1.16723620891571045 0.0951251685619354248
1.41364884376525879 0.00354844937101006508 0.157808899879455566
1.34731411933898926 0.101893782615661621 0.132068261504173279
0.972203612327575684 0.658017873764038086 0.0544150695204734802
0.278972744941711426 1.6857750415802002 0.141809821128845215
0.38877415657043457 1.5229877233505249 0.155300348997116089
0.57327646017074585 1.24945175647735596 0.101510614156723022
1.01396465301513672 0.596104681491851807 0.148648098111152649
1.24618566036224365 0.251822859048843384 0.1306019127368927
1.14862310886383057 0.3964652419090271 0.108523383736610413
1.39497101306915283 0.0312395114451646805 0.0697042569518089294
0.784268677234649658 0.936642944812774658 0.0960952863097190857
1.2460864782333374 0.251969873905181885 0.135737955570220947
1.31509888172149658 0.14965483546257019 0.150175526738166809
1.3814537525177002 0.0512797385454177856 0.108915112912654877
0.994010448455810547 0.625687956809997559 0.077470339834690094
1.18763697147369385 0.338624894618988037 0.0393851920962333679
1.37901186943054199 0.0548999905586242676 0.0262748450040817261
0.528017699718475342 1.316550612449646 0.100612327456474304
0.666342854499816895 1.11147511005401611 0.149680092930793762
0.341361522674560547 1.59327983856201172 0.133619725704193115
0.918355941772460938 0.737850308418273926 0.118096992373466492
0.779718995094299316 0.943388164043426514 0.14610639214515686
0.974875092506408691 0.65405726432800293 0.0625108703970909119
1.01823759078979492 0.58976978063583374 0.13864569365978241
0.523740708827972412 1.32289159297943115 0.123957857489585876
1.16915524005889893 0.36602512001991272 0.107241228222846985
1.04980123043060303 0.542974710464477539 0.0666052699089050293
1.3050074577331543 0.164616033434867859 0.0450164303183555603
1.41252636909484863 0.00521267205476760864 0.0757530555129051208
0.694901347160339355 1.06913542747497559 0.106871545314788818
1.00313425064086914 0.612161457538604736 0.111852124333381653
0.842243492603302002 0.850691735744476318 0.0710362792015075684
1.20076978206634521 0.319154709577560425 0.154109224677085876
1.08516573905944824 0.490544706583023071 0.159430637955665588
1.20657181739807129 0.310552805662155151 0.100191466510295868
1.25346124172210693 0.241036355495452881 0.128805428743362427
1.13932156562805176 0.410255372524261475 0.0467474460601806641
1.39892315864562988 0.0253803003579378128 0.0101660788059234619
1.38685393333435059 0.0432735607028007507 0.121084541082382202
1.28720676898956299 0.191006571054458618 0.0757600739598274231
0.94343721866607666 0.700665831565856934 0.138527289032936096
0.617720663547515869 1.18356049060821533 0.112735345959663391
1.25715816020965576 0.235555499792098999 0.0920538231730461121
1.30963349342346191 0.157757505774497986 0.118932262063026428
1.07251381874084473 0.509301960468292236 0.110782742500305176
0.440086424350738525 1.4469141960144043 0.115976922214031219
0.757807791233062744 0.975872814655303955 0.110507085919380188
1.36918067932128906 0.0694751739501953125 0.0378713309764862061
0.996304988861083984 0.62228626012802124 0.0611636266112327576
1.03664755821228027 0.562475860118865967 0.0796181857585906982
0.498372554779052734 1.36050140857696533 0.153693407773971558
1.18265819549560547 0.346006125211715698 0.0629413798451423645
1.30802500247955322 0.160142272710800171 0.0214431583881378174
1.15262699127197266 0.390529274940490723 0.0913739427924156189
0.596590518951416016 1.21488726139068604 0.137418419122695923
0.415125608444213867 1.48391997814178467 0.120511904358863831
1.01441121101379395 0.595442712306976318 0.143168434500694275
0.810397863388061523 0.897904872894287109 0.100338146090507507
0.206518173217773438 1.79319322109222412 0.147364065051078796
0.833055078983306885 0.864314138889312744 0.12105262279510498
1.0263056755065918 0.577808380126953125 0.0477625057101249695
0.152382373809814453 1.87345302104949951 0.14504222571849823
0.451814055442810059 1.4295271635055542 0.123191326856613159
0.570544958114624023 1.25350141525268555 0.107948929071426392
1.34779572486877441 0.101179830729961395 0.0884670987725257874
0.832457900047302246 0.865199506282806396 0.132173329591751099
1.27179467678070068 0.213855952024459839 0.0957472175359725952
0.836393356323242188 0.859364926815032959 0.0774363428354263306
1.07716965675354004 0.502399444580078125 0.129249617457389832
1.01436614990234375 0.595509469509124756 0.0501275882124900818
0.304651379585266113 1.6477048397064209 0.141849443316459656
1.32356297969818115 0.137106344103813171 0.0685317516326904297
0.435594737529754639 1.45357334613800049 0.112447947263717651
0.965438365936279297 0.668047845363616943 0.0889821723103523254
1.26514017581939697 0.223721668124198914 0.0713255032896995544
1.18966960906982422 0.335611343383789062 0.149074360728263855
0.653150618076324463 1.13103342056274414 0.104282356798648834
1.32759308815002441 0.131131425499916077 0.0662643387913703918
1.34861302375793457 0.0999680459499359131 0.0821375623345375061
1.04119336605072021 0.555736422538757324 0.0702858492732048035
1.19405102729797363 0.329115718603134155 0.091047920286655426
1.00420665740966797 0.610571563243865967 0.134250819683074951
0.711847782135009766 1.04401135444641113 0.121801778674125671
1.34055590629577637 0.111913293600082397 0.122811198234558105
1.06487953662872314 0.520620167255401611 0.0757082626223564148
1.34741580486297607 0.10174299031496048 0.0999608933925628662
0.777502775192260742 0.946673810482025146 0.0752849578857421875
0.433362722396850586 1.45688247680664062 0.141202062368392944
1.02186059951782227 0.584398329257965088 0.0532308816909790039
0.949389517307281494 0.691841244697570801 0.0768345445394515991
0.931582152843475342 0.718241751194000244 0.10246722400188446
1.01605939865112305 0.592999100685119629 0.0827589184045791626
1.0949859619140625 0.475985676050186157 0.103335052728652954
0.990254878997802734 0.631255865097045898 0.0699242502450942993
0.75185471773147583 0.984698653221130371 0.0810585543513298035
1.0349193811416626 0.565037965774536133 0.127613365650177002
1.21089959144592285 0.304136514663696289 0.122682243585586548
0.455710113048553467 1.4237511157989502 0.138125240802764893
1.37138044834136963 0.0662138909101486206 0.0525588691234588623
0.690306961536407471 1.07594692707061768 0.0859441757202148438
1.31189346313476562 0.154407098889350891 0.158120602369308472
0.888306200504302979 0.782401025295257568 0.13470795750617981
1.06741213798522949 0.516865372657775879 0.149665787816047668
1.3007056713104248 0.170993536710739136 0.137102946639060974
1.34131419658660889 0.110789082944393158 0.0425099730491638184
1.2508014440536499 0.244979634881019592 0.074191264808177948
0.837295770645141602 0.858026981353759766 0.129697039723396301
1.14541542530059814 0.401220828294754028 0.032833486795425415
1.35756599903106689 0.0866947472095489502 0.0320433378219604492
1.29847121238708496 0.17430625855922699 0.090481489896774292
1.34408748149871826 0.106677412986755371 0.0261101722717285156
0.446283817291259766 1.43772602081298828 0.13379262387752533
1.28740906715393066 0.190706595778465271 0.0164427459239959717
0.629472494125366211 1.16613781452178955 0.122667208313941956
0.908075273036956787 0.753092110157012939 0.132913962006568909
1.32034909725189209 0.141871124505996704 0.0942052155733108521
1.38730347156524658 0.0426071099936962128 0.0970178842544555664
0.671244442462921143 1.10420823097229004 0.11792302131652832
1.0230553150177002 0.582627177238464355 0.0619230195879936218
0.324510693550109863 1.61826205253601074 0.152939975261688232
0.917840421199798584 0.738614678382873535 0.0913579687476158142
1.25938737392425537 0.232250526547431946 0.0879822149872779846
1.22471559047698975 0.283653616905212402 0.112408317625522614
1.37409770488739014 0.0621855296194553375 0.0229046791791915894
0.736021161079406738 1.00817286968231201 0.126568347215652466
0.739950299263000488 1.00234770774841309 0.0964010059833526611
1.19106185436248779 0.333547294139862061 0.0410545691847801208
1.27329277992248535 0.211634993553161621 0.0489960089325904846
1.18007147312164307 0.349841117858886719 0.13994888961315155
0.676199913024902344 1.09686148166656494 0.154636994004249573
0.840365707874298096 0.853475689888000488 0.112123385071754456
0.18786931037902832 1.82084143161773682 0.148999303579330444
1.09115040302276611 0.481672078371047974 0.051066271960735321
0.82187199592590332 0.880893707275390625 0.0989176630973815918
0.800132215023040771 0.913124263286590576 0.139110669493675232
1.07249045372009277 0.509336590766906738 0.0450206100940704346
1.17726576328277588 0.354000747203826904 0.111602194607257843
0.340391755104064941 1.59471750259399414 0.126763045787811279
1.33452856540679932 0.120849147439002991 0.130723148584365845
1.19783234596252441 0.323509663343429565 0.146221444010734558
0.47593998908996582 1.39375901222229004 0.132508248090744019
1.1918952465057373 0.332311749458312988 0.10151316225528717
1.18221724033355713 0.346659868955612183 0.0975161343812942505
1.36764872074127197 0.0717465057969093323 0.132382661104202271
1.33753442764282227 0.116392821073532104 0.0984755903482437134
1.15549337863922119 0.386279702186584473 0.148428156971931458
1.37975955009460449 0.0537914671003818512 0.00945466756820678711
0.925050020217895508 0.727925956249237061 0.155520156025886536
1.38766658306121826 0.0420688427984714508 0.100826263427734375
0.556605935096740723 1.27416682243347168 0.145919233560562134
1.10098028182983398 0.467098712921142578 0.0467618629336357117
1.14465236663818359 0.402352094650268555 0.048822350800037384
0.842265307903289795 0.850659430027008057 0.0725956708192825317
1.02638435363769531 0.577691614627838135 0.130551531910896301
1.04645895957946777 0.547929883003234863 0.0847071930766105652
1.03995966911315918 0.557565569877624512 0.146597996354103088
1.20739805698394775 0.309327840805053711 0.0404205471277236938
1.39723050594329834 0.0278896503150463104 0.126849085092544556
0.693992674350738525 1.07048261165618896 0.0897494032979011536
1.33475112915039062 0.120519235730171204 0.0962321534752845764
0.908700227737426758 0.752165555953979492 0.089234575629234314
0.452822089195251465 1.42803275585174561 0.150642052292823792
1.35271286964416504 0.0938898548483848572 0.127611264586448669
0.827463805675506592 0.872603535652160645 0.107972800731658936
1.36598658561706543 0.074210628867149353 0.103180065751075745
1.20173192024230957 0.317728161811828613 0.0501309558749198914
0.0565220117568969727 2.01557159423828125 0.156512334942817688
1.11756837368011475 0.442505776882171631 0.115865707397460938
1.31081175804138184 0.156010746955871582 0.0689276233315467834
0.824620425701141357 0.876819014549255371 0.0956272706389427185
1.3375166654586792 0.116419084370136261 0.0918384641408920288
1.27789938449859619 0.204805299639701843 0.14300943911075592
1.13355374336242676 0.418806612491607666 0.0433951839804649353
1.4042658805847168 0.0174593459814786911 0.0334377884864807129
1.13679003715515137 0.414008468389511108 0.0386465862393379211
1.02333307266235352 0.582215428352355957 0.0548520013689994812
1.38601100444793701 0.0445232763886451721 0.0660078823566436768
0.103640317916870117 1.94571590423583984 0.148748248815536499
0.773099124431610107 0.953202426433563232 0.111702762544155121
0.486183345317840576 1.37857258319854736 0.108057737350463867
1.30949854850769043 0.157957568764686584 0.10610535740852356
1.09296667575836182 0.478979349136352539 0.138880953192710876
1.32631802558898926 0.133021712303161621 0.0646622925996780396
1.0760040283203125 0.504127442836761475 0.0552808269858360291
1.19953811168670654 0.320980638265609741 0.101790964603424072
0.359637975692749023 1.56618380546569824 0.147077366709709167
0.828159093856811523 0.871572732925415039 0.134939327836036682
0.350316643714904785 1.58000326156616211 0.134009987115859985
1.23901844024658203 0.262448728084564209 0.0315201729536056519
0.749827146530151367 0.987704634666442871 0.0987627208232879639
1.08297359943389893 0.493794679641723633 0.140657708048820496
0.446456849575042725 1.43746960163116455 0.119367778301239014
1.26718473434448242 0.22069038450717926 0.112388886511325836
1.07695221900939941 0.502721667289733887 0.0795122385025024414
0.835750102996826172 0.860318601131439209 0.121659830212593079
1.0256650447845459 0.578758060932159424 0.0712569952011108398
0.804543673992156982 0.906584024429321289 0.121530234813690186
1.10061383247375488 0.467642039060592651 0.0725779607892036438
1.13762354850769043 0.412772923707962036 0.0335976183414459229
1.21459674835205078 0.29865536093711853 0.079718366265296936
1.03186976909637451 0.569559216499328613 0.048565402626991272
0.908354103565216064 0.752678751945495605 0.0936228036880493164
1.38060283660888672 0.0525412559509277344 0.0782188624143600464
1.4127737283706665 0.00484595587477087975 0.149999886751174927
0.378251433372497559 1.53858816623687744 0.119079902768135071
0.143488526344299316 1.88663852214813232 0.146446317434310913
0.914714395999908447 0.743249237537384033 0.122691094875335693
0.928511440753936768 0.722794234752655029 0.120533421635627747
1.20718574523925781 0.309642672538757324 0.103998079895973206
0.859678030014038086 0.824843943119049072 0.136287286877632141
1.04711508750915527 0.546957135200500488 0.0686318203806877136
0.886099278926849365 0.785672903060913086 0.157431036233901978
0.620010077953338623 1.18016636371612549 0.156611666083335876
0.821625351905822754 0.881259381771087646 0.157693967223167419
0.394838452339172363 1.51399695873260498 0.127431988716125488
0.788854122161865234 0.92984473705291748 0.0964530035853385925
1.33761560916900635 0.116272322833538055 0.129411891102790833
0.670882284641265869 1.10474514961242676 0.137015044689178467
0.454176485538482666 1.4260246753692627 0.119090594351291656
1.26652419567108154 0.221669688820838928 0.0590529069304466248
0.970166444778442383 0.66103816032409668 0.105689659714698792
0.75005650520324707 0.987364590167999268 0.159918546676635742
1.29571819305419922 0.17838779091835022 0.0860821530222892761
1.11137175559997559 0.451692700386047363 0.0495324060320854187
0.436850368976593018 1.45171165466308594 0.128667593002319336
1.12571620941162109 0.430426090955734253 0.130077674984931946
1.24580764770507812 0.252383381128311157 0.0524015352129936218
1.4074397087097168 0.0127539578825235367 0.0398340970277786255
1.27799510955810547 0.20466335117816925 0.0523310676217079163
1.3552248477935791 0.0901657044887542725 0.102006837725639343
0.723482847213745117 1.02676165103912354 0.113824442028999329
0.774667680263519287 0.950877010822296143 0.120322391390800476
0.764468550682067871 0.965997815132141113 0.10102534294128418
0.866016209125518799 0.81544727087020874 0.136821657419204712
1.39449381828308105 0.0319470427930355072 0.068797580897808075
0.803298234939575195 0.90843045711517334 0.124994203448295593
1.2180708646774292 0.2935047447681427 0.152415230870246887
0.315760374069213867 1.63123500347137451 0.132073312997817993
0.599892616271972656 1.2099916934967041 0.140842422842979431
0.956465840339660645 0.681350171566009521 0.0822844654321670532
0.641532599925994873 1.14825785160064697 0.0961025059223175049
1.29053795337677002 0.186067953705787659 0.140691876411437988
1.20051145553588867 0.31953766942024231 0.104270443320274353
0.379710912704467773 1.53642451763153076 0.15115027129650116
0.778293192386627197 0.945501983165740967 0.134607866406440735
1.8171614408493042 0.27055823802947998 0.0496241301298141479
1.91666996479034424 0.337677568197250366 0.0526583120226860046
1.6199270486831665 0.13752196729183197 0.090801432728767395
1.42320811748504639 0.00483339652419090271 0.0645453557372093201
1.62839245796203613 0.143231913447380066 0.105428516864776611
1.62746477127075195 0.142606183886528015 0.0155881494283676147
1.57517743110656738 0.107337929308414459 0.00656215474009513855
1.47751927375793457 0.041466686874628067 0.114830613136291504
1.44797253608703613 0.0215371977537870407 0.0932889953255653381
1.76479935646057129 0.235239565372467041 0.0825059860944747925
2.10489177703857422 0.464634716510772705 0.0188204050064086914
1.74026882648468018 0.218693524599075317 0.0525055378675460815
1.81777262687683105 0.270970523357391357 0.038053072988986969
1.85707569122314453 0.29748070240020752 0.0446702614426612854
1.74946701526641846 0.22489774227142334 0.050028480589389801
1.48283088207244873 0.0450494065880775452 0.0441890396177768707
1.52792763710021973 0.0754675492644309998 0.104264914989471436
1.59869265556335449 0.123199187219142914 0.120977267622947693
1.90855467319488525 0.332203686237335205 0.000918969511985778809
1.41631579399108887 0.000184481439646333456 0.0573595501482486725
1.66119241714477539 0.16535581648349762 0.0580184012651443481
1.49003136157989502 0.0499062314629554749 0.103540346026420593
1.43821465969085693 0.0149553939700126648 0.0989530235528945923
1.68343687057495117 0.180359870195388794 0.038088671863079071
1.43456566333770752 0.0124941626563668251 0.0037104880902916193
1.69452559947967529 0.187839299440383911 0.0913395136594772339
1.63246095180511475 0.145976215600967407 0.0269408971071243286
1.61398327350616455 0.133512839674949646 0.120175570249557495
1.53886651992797852 0.0828459262847900391 0.0520002655684947968
1.71571922302246094 0.202134609222412109 0.0483019053936004639
2.08751678466796875 0.452915191650390625 0.0189771652221679688
1.45676672458648682 0.0274689644575119019 0.0445339679718017578
1.78515911102294922 0.248972386121749878 0.0605039149522781372
1.73716902732849121 0.216602668166160583 0.0214786939322948456
1.64516568183898926 0.154545634984970093 0.112080842256546021
1.99859797954559326 0.392938703298568726 0.0213143005967140198
1.64283072948455811 0.152970671653747559 0.0230577141046524048
1.56343674659729004 0.0994187816977500916 0.0860494226217269897
1.70875823497772217 0.197439342737197876 0.0463342629373073578
1.75947296619415283 0.231646865606307983 0.0062977522611618042
1.60598874092102051 0.128120496869087219 0.00743720307946205139
2.04296183586120605 0.422862440347671509 0.031765572726726532
1.58491170406341553 0.113903820514678955 0.124678611755371094
1.43284213542938232 0.0113316355273127556 0.0956264138221740723
1.44654679298400879 0.0205755140632390976 0.00381181389093399048
1.88643121719360352 0.317281275987625122 0.0484986603260040283
1.70499753952026367 0.194902762770652771 0.0339493267238140106
1.59291946887969971 0.119305156171321869 0.118289723992347717
1.95946335792541504 0.366542011499404907 0.0489578396081924438
1.52776455879211426 0.075357586145401001 0.00594231672585010529
1.59707307815551758 0.122106805443763733 0.0992689728736877441
1.73509323596954346 0.215202540159225464 0.0981394872069358826
1.87782168388366699 0.311474055051803589 0.0238737091422080994
1.61168360710144043 0.13196168839931488 0.0354732796549797058
1.76315593719482422 0.234131097793579102 0.0520587339997291565
1.55696320533752441 0.0950523614883422852 0.0234305597841739655
1.79852426052093506 0.257987290620803833 0.041155688464641571
1.80628430843353271 0.263221472501754761 0.0675308853387832642
2.10333609580993652 0.463585436344146729 0.01442699134349823
1.93214666843414307 0.348116695880889893 0.0128549039363861084
1.77274858951568604 0.240601405501365662 0.0657480880618095398
1.60168087482452393 0.125214770436286926 0.0708784908056259155
1.61749160289764404 0.135879233479499817 0.0910401418805122375
1.66022205352783203 0.164701253175735474 0.00762360170483589172
1.74887502193450928 0.224498465657234192 0.0658440813422203064
1.68494963645935059 0.181380212306976318 0.0878049582242965698
1.83637583255767822 0.283518522977828979 0.0673178732395172119
1.45682060718536377 0.027505265548825264 0.0132564892992377281
1.81514954566955566 0.269201219081878662 0.0420080423355102539
1.54389488697052002 0.0862376019358634949 0.0611579567193984985
1.41903352737426758 0.00201759254559874535 0.0381489768624305725
1.70682573318481445 0.196135833859443665 0.0010518878698348999
1.81388330459594727 0.268347114324569702 0.0253250822424888611
1.43608391284942627 0.013518182560801506 0.0150275342166423798
1.84313476085662842 0.288077473640441895 0.0400138720870018005
1.47352981567382812 0.0387758202850818634 0.104517251253128052
1.89282286167144775 0.321592509746551514 0.0159647315740585327
1.93694591522216797 0.35135379433631897 0.0115876570343971252
1.47923898696899414 0.0426266677677631378 0.056301455944776535
1.65392553806304932 0.160454258322715759 0.0565278641879558563
1.64879477024078369 0.156993493437767029 0.0779253840446472168
1.71877884864807129 0.204198330640792847 0.087740287184715271
1.60910606384277344 0.130223125219345093 0.0173893794417381287
1.48575091361999512 0.0470189973711967468 0.00609638262540102005
1.70723378658294678 0.196411088109016418 0.00334040075540542603
1.60625326633453369 0.128298908472061157 0.0195226147770881653
1.84889674186706543 0.291963964700698853 0.0614023581147193909
1.55201780796051025 0.0917165949940681458 0.00341120921075344086
1.56319952011108398 0.0992588028311729431 0.0287454519420862198
1.59391975402832031 0.119979813694953918 0.110239662230014801
1.49545049667358398 0.0535615123808383942 0.0435914620757102966
1.72250795364379883 0.206713646650314331 0.083070799708366394
1.60256505012512207 0.125811144709587097 0.0279410742223262787
1.47442424297332764 0.039379071444272995 0.135327473282814026
1.89051425457000732 0.320035308599472046 0.0316344499588012695
1.79685783386230469 0.256863266229629517 0.0102512091398239136
1.56990897655487061 0.103784322738647461 0.0134320445358753204
1.58094620704650879 0.111229024827480316 0.0835263878107070923
1.88663387298583984 0.317417919635772705 0.00866323709487915039
1.4988778829574585 0.0558732599020004272 0.0252041295170783997
1.61880016326904297 0.136761888861656189 0.0112398490309715271
1.42776823043823242 0.00790921412408351898 0.0520887114107608795
1.85322809219360352 0.294885456562042236 0.0334429144859313965
2.11662459373474121 0.472548633813858032 0.000994279980659484863
1.66879367828369141 0.170482903718948364 0.0388079024851322174
2.13268709182739258 0.483382880687713623 0.0120165646076202393
1.91470694541931152 0.336353510618209839 0.00551314651966094971
1.59177041053771973 0.118530102074146271 0.000276435166597366333
1.48659265041351318 0.0475867725908756256 0.0556043945252895355
1.67401003837585449 0.174001365900039673 0.0740202516317367554
1.71346473693847656 0.20061396062374115 0.0989440083503723145
1.79339861869812012 0.254530012607574463 0.0501662716269493103
1.70692741870880127 0.196204453706741333 0.0301083065569400787
1.75272929668426514 0.227098181843757629 0.0165506675839424133
1.4655529260635376 0.0333953425288200378 0.0772771239280700684
1.44100105762481689 0.0168348979204893112 0.100309565663337708
2.01298952102661133 0.402645975351333618 0.0409675240516662598
1.78787493705749512 0.250804215669631958 0.0285088270902633667
1.76908087730407715 0.238127425312995911 0.0336816608905792236
2.02722859382629395 0.412250250577926636 0.0271485298871994019
1.45618546009063721 0.0270768571645021439 0.0499726757407188416
1.42259538173675537 0.00442011607810854912 0.0550910830497741699
1.72094380855560303 0.205658629536628723 0.0393653959035873413
1.51483619213104248 0.066637285053730011 0.114521339535713196
2.08094191551208496 0.448480397462844849 0.0259917229413986206
1.46496486663818359 0.0329986251890659332 0.0286590009927749634
1.82559657096862793 0.27624782919883728 0.0736123621463775635
1.68494725227355957 0.181378602981567383 0.0108639262616634369
1.86406993865966797 0.302198410034179688 0.0384941175580024719
2.15548491477966309 0.498760312795639038 0.0354040488600730896
2.15216684341430664 0.496522188186645508 0.0810085684061050415
1.72765874862670898 0.2101878821849823 0.13578227162361145
1.93913006782531738 0.352827072143554688 0.11014130711555481
2.05492901802062988 0.430934429168701172 0.11653754860162735
1.69030952453613281 0.184995561838150024 0.143170371651649475
2.06464266777038574 0.437486439943313599 0.107840776443481445
1.60350942611694336 0.126448124647140503 0.14328022301197052
1.64420366287231445 0.153896689414978027 0.133803874254226685
2.13765597343444824 0.48673442006111145 0.154945746064186096
1.63907349109649658 0.150436371564865112 0.119386836886405945
2.03176498413085938 0.415310144424438477 0.120188534259796143
1.66360867023468018 0.166985571384429932 0.13505043089389801
1.57133150100708008 0.104743868112564087 0.156862959265708923
2.21144270896911621 0.536504209041595459 0.12389344722032547
2.20077800750732422 0.529310882091522217 0.0280091315507888794
2.20433306694030762 0.531708776950836182 0.0608467012643814087
1.84087347984313965 0.286552190780639648 0.128870710730552673
2.10613775253295898 0.465475142002105713 0.0932631641626358032
2.15286970138549805 0.496996223926544189 0.0575158894062042236
2.03742575645446777 0.41912841796875 0.0774163305759429932
2.03769898414611816 0.419312596321105957 0.0776984989643096924
2.09584355354309082 0.458531618118286133 0.0933427214622497559
1.76035976409912109 0.232244968414306641 0.112006083130836487
1.87591898441314697 0.310190677642822266 0.0846536010503768921
2.01059293746948242 0.401029467582702637 0.123498857021331787
1.91766321659088135 0.338347494602203369 0.123514361679553986
1.90290319919586182 0.328391760587692261 0.0725857317447662354
2.00339674949645996 0.396175503730773926 0.0699248090386390686
2.12001800537109375 0.474837511777877808 0.122910484671592712
2.12947535514831543 0.481216579675674438 0.141297310590744019
1.67397212982177734 0.173975825309753418 0.122945025563240051
1.82213807106018066 0.273915022611618042 0.119685396552085876
2.17280673980712891 0.510443925857543945 0.0221490710973739624
2.01695036888122559 0.405317485332489014 0.119748547673225403
2.22550725936889648 0.545990943908691406 0.14989413321018219
2.23342251777648926 0.551329731941223145 0.0620508864521980286
1.89184665679931641 0.320934057235717773 0.15525500476360321
1.74912333488464355 0.224665999412536621 0.138129130005836487
2.1612091064453125 0.502621233463287354 0.0954378768801689148
1.49463367462158203 0.0530105233192443848 0.148128032684326172
1.78138422966003418 0.246426194906234741 0.0993385240435600281
1.57745242118835449 0.108872413635253906 0.141146570444107056
1.69538569450378418 0.188419491052627563 0.107690095901489258
2.01776719093322754 0.4058685302734375 0.11334364116191864
2.18093037605285645 0.515923440456390381 0.146368250250816345
1.61173605918884277 0.131997078657150269 0.143815010786056519
2.07537531852722168 0.444725692272186279 0.158939436078071594
1.95578432083129883 0.364060550928115845 0.103571496903896332
2.11690330505371094 0.472736567258834839 0.0934551283717155457
1.62284374237060547 0.139489322900772095 0.147042378783226013
1.81012856960296631 0.265814512968063354 0.156727105379104614
2.22346901893615723 0.544616043567657471 0.0336671769618988037
2.22360754013061523 0.544709444046020508 0.0284330695867538452
1.90885758399963379 0.332408010959625244 0.0955634117126464844
1.77691006660461426 0.243408352136611938 0.13611467182636261
1.94418740272521973 0.356238365173339844 0.142099171876907349
1.97050786018371582 0.373991727828979492 0.154717698693275452
1.92185723781585693 0.341176390647888184 0.0801454111933708191
1.70037484169006348 0.19178462028503418 0.124206952750682831
2.08539462089538574 0.451483696699142456 0.119694113731384277
2.17784905433654785 0.513845086097717285 0.0759781450033187866
2.24146056175231934 0.556751549243927002 0.0198795199394226074
1.5281679630279541 0.0756296515464782715 0.147053077816963196
1.80273628234863281 0.260828346014022827 0.132833600044250488
2.10402274131774902 0.464048653841018677 0.124059766530990601
2.1206364631652832 0.475254625082015991 0.0320501774549484253
1.75362229347229004 0.227700561285018921 0.147440984845161438
1.8814016580581665 0.313888788223266602 0.125417202711105347
2.13725042343139648 0.486461013555526733 0.159228160977363586
1.80209183692932129 0.260393679141998291 0.153797835111618042
1.95672488212585449 0.364694893360137939 0.0965425893664360046
2.11687946319580078 0.472720563411712646 0.0264168232679367065
2.15862369537353516 0.500877320766448975 0.0179843753576278687
2.03940391540527344 0.420462727546691895 0.156502246856689453
2.24428248405456543 0.558654904365539551 0.012698739767074585
2.04704618453979492 0.425617337226867676 0.075365997850894928
1.92692148685455322 0.344592273235321045 0.0660801082849502563
2.19095849990844727 0.522687554359436035 0.0951227098703384399
2.09809589385986328 0.460050851106643677 0.0982449278235435486
2.21888208389282227 0.54152214527130127 0.0842618793249130249
1.93445897102355957 0.349676400423049927 0.131970345973968506
2.11001253128051758 0.468088805675506592 0.035999782383441925
2.04673075675964355 0.425404608249664307 0.124856896698474884
1.76433491706848145 0.2349262535572052 0.139289200305938721
1.64470946788787842 0.154237896203994751 0.136933833360671997
2.16187548637390137 0.503070831298828125 0.115301527082920074
1.97498464584350586 0.377011328935623169 0.125839173793792725
2.11937689781188965 0.474405080080032349 0.122788049280643463
1.83570623397827148 0.283066868782043457 0.0837985426187515259
1.93738055229187012 0.351647078990936279 0.102711275219917297
1.67359805107116699 0.173723548650741577 0.131066516041755676
2.08597779273986816 0.451877057552337646 0.126352936029434204
2.19466376304626465 0.525186717510223389 0.0586247518658638
1.73952031135559082 0.218188583850860596 0.116104543209075928
2.23612260818481445 0.55315101146697998 0.0264102518558502197
1.65443778038024902 0.160799711942672729 0.154563680291175842
1.54593038558959961 0.0876106321811676025 0.138632133603096008
1.74605584144592285 0.222596883773803711 0.108513757586479187
2.02876543998718262 0.413286864757537842 0.159747019410133362
2.09195232391357422 0.455906987190246582 0.0666382387280464172
2.14437079429626465 0.491263628005981445 0.0465262234210968018
2.16987395286560059 0.508465766906738281 0.156577497720718384
2.06844258308410645 0.440049409866333008 0.0442395806312561035
1.69044244289398193 0.185085207223892212 0.113989904522895813
2.2116396427154541 0.53663712739944458 0.126588255167007446
