ply
format ascii 1.0
element vertex 707
property float x
property float y
property float z
end_header
0.0411025211215019226 -0.000494573265314102173 0.0271505881100893021
0.0390702486038208008 0.00204971735365688801 0.0271505881100893021
0.0435313321650028229 -0.000205090269446372986 0.0271505881100893021
0.0393900498747825623 0.000490778125822544098 0.0271505881100893021
0.0435516387224197388 -0.00298464205116033554 0.0271505881100893021
0.036441367119550705 0.00128481595311313868 0.0271505881100893021
0.0432155206799507141 -0.00260663800872862339 0.0271505881100893021
0.0397414527833461761 -0.00321279233321547508 0.0271505881100893021
0.0391594208776950836 -0.00285100447945296764 0.0271505881100893021
0.0384231731295585632 0.00066042761318385601 0.0271505881100893021
0.042398747056722641 -0.0018584041390568018 0.0271505881100893021
0.0364325307309627533 -0.00320603535510599613 0.0271505881100893021
0.0376840904355049133 0.000716997776180505753 0.0271505881100893021
0.04142766073346138 0.00679532019421458244 0.0262882504612207413
0.0361640043556690216 0.00946014467626810074 0.0256314296275377274
0.0390395075082778931 0.00761898700147867203 0.0260852351784706116
0.0425785072147846222 0.0055537777952849865 0.026594262570142746
0.0411377623677253723 0.00669461581856012344 0.026313072070479393
0.0433808639645576477 0.00791438017040491104 0.0260124262422323227
0.0428991019725799561 0.00544906593859195709 0.0266200713813304901
0.0436566174030303955 0.00661759218201041222 0.0263320561498403549
0.0413618981838226318 0.00946059171110391617 0.0256313197314739227
0.0382580757141113281 0.00496163452044129372 0.0267402138561010361
0.0399533696472644806 0.00603621359914541245 0.0264753531664609909
0.0362814068794250488 0.00699422974139451981 0.0262392237782478333
0.0377218686044216156 0.00404954375699162483 0.026965022087097168
0.0407934151589870453 0.00487014744430780411 0.026762763038277626
0.0357321202754974365 0.00796034280210733414 0.0260010976344347
0.041201125830411911 0.0042255776934325695 0.0269216354936361313
0.0398868247866630554 0.00649709068238735199 0.0263617578893899918
0.0391089580953121185 0.00388672272674739361 0.0270051546394824982
0.0431268885731697083 0.0138009842485189438 0.0234195142984390259
0.0381570011377334595 0.0146894045174121857 0.0229532346129417419
0.0420928336679935455 0.0147347776219248772 0.0229294225573539734
0.0383194573223590851 0.0154898390173912048 0.0225331354886293411
0.0408478006720542908 0.015356898307800293 0.0226029083132743835
0.039632502943277359 0.0136220119893550873 0.023513447493314743
0.0400752462446689606 0.0145972399041056633 0.0230016075074672699
0.0437543578445911407 0.0123140914365649223 0.0241998955607414246
0.0410277582705020905 0.0127477962523698807 0.0239722710102796555
0.0390862748026847839 0.0130434855818748474 0.0238170810043811798
0.0412533171474933624 0.0112994750961661339 0.0247324090451002121
0.0357973873615264893 0.0143523151054978371 0.0231301542371511459
0.0381942838430404663 0.0127375265583395958 0.0239776615053415298
0.0427830182015895844 0.0104419626295566559 0.0251824650913476944
0.0403045564889907837 0.0119865983724594116 0.024371778592467308
0.0369953848421573639 0.0143862832337617874 0.0231123268604278564
0.0369290336966514587 0.0104457288980484009 0.0251804888248443604
0.0388004481792449951 0.0106961503624916077 0.0250490568578243256
0.0420028530061244965 0.0190417394042015076 0.0194032993167638779
0.0396325737237930298 0.0188154242932796478 0.0196037981659173965
0.0436640158295631409 0.017120804637670517 0.0211050994694232941
0.0424521341919898987 0.0204688850790262222 0.0181389600038528442
0.0421108603477478027 0.018115997314453125 0.0202234368771314621
0.0442583188414573669 0.0162201523780822754 0.0219030082225799561
0.0397292114794254303 0.0186786781996488571 0.019724944606423378
0.0411152169108390808 0.0197772476822137833 0.0187516957521438599
0.0416507087647914886 0.0179582256823778152 0.0203632097691297531
0.0394734963774681091 0.0173377841711044312 0.0209128726273775101
0.0408796332776546478 0.01688414067029953 0.0213147643953561783
0.0403353534638881683 0.0161773953586816788 0.0219408869743347168
0.0389090999960899353 0.017232310026884079 0.0210063159465789795
0.0395401604473590851 0.0166272837668657303 0.0215423200279474258
0.0411807745695114136 0.0158980246633291245 0.0221883878111839294
0.0385048165917396545 0.0163466129451990128 0.0217909719794988632
0.0406664460897445679 0.0159480124711990356 0.0221441015601158142
0.0380844473838806152 0.016392294317483902 0.0217505041509866714
0.0421371534466743469 0.0217696856707334518 0.0162560474127531052
0.0409770682454109192 0.0232606548815965652 0.0140960048884153366
0.0437040366232395172 0.0217808131128549576 0.0162399262189865112
0.0440724194049835205 0.0219588465988636017 0.0159820020198822021
0.0416583865880966187 0.0228116028010845184 0.0147465700283646584
0.0434890799224376678 0.0239478237926959991 0.0131004704162478447
0.0379781611263751984 0.0232980139553546906 0.0140418810769915581
0.0439612604677677155 0.0223126579076051712 0.0154694151133298874
0.0363158881664276123 0.0242068879306316376 0.0127251502126455307
0.0420669019222259521 0.0208382084965705872 0.0176055245101451874
0.040816962718963623 0.0215248428285121918 0.0166107621043920517
0.037022668868303299 0.0229534246027469635 0.0145411062985658646
0.0363514572381973267 0.0229551084339618683 0.0145386653020977974
0.0398831591010093689 0.0205659661442041397 0.0179999340325593948
0.0391914062201976776 0.0224035754799842834 0.0153377000242471695
0.0361666679382324219 0.0238948501646518707 0.0131772151216864586
0.0361880846321582794 0.0230995342135429382 0.0143294278532266617
0.0367722213268280029 0.0231156535446643829 0.0143060758709907532
0.0430097281932830811 0.0261589158326387405 0.00759035255759954453
0.0387374758720397949 0.0257690288126468658 0.00861840322613716125
0.0439225286245346069 0.0260705798864364624 0.00782327726483345032
0.0373778492212295532 0.026237834244966507 0.00738226296380162239
0.041238199919462204 0.0261254478245973587 0.00767860375344753265
0.0436983034014701843 0.0245371796190738678 0.0118665210902690887
0.041517108678817749 0.0262491852045059204 0.00735233491286635399
0.0417069569230079651 0.0258411746472120285 0.008428170345723629
0.0414530634880065918 0.0250055510550737381 0.0106315277516841888
0.0377809964120388031 0.0256861019879579544 0.00883706193417310715
0.0409636236727237701 0.0247932244092226028 0.0111913867294788361
0.038632076233625412 0.0245827492326498032 0.0117463637143373489
0.0429754666984081268 0.0245629474520683289 0.0117985755205154419
0.0375072583556175232 0.0254738293588161469 0.00939678028225898743
0.0361062772572040558 0.0257106032222509384 0.00877245981246232986
0.0383115038275718689 0.0256204865872859955 0.00901007838547229767
0.0369176492094993591 0.0257330983877182007 0.00871314108371734619
0.0365104340016841888 0.0247517973184585571 0.0113006234169006348
0.0426380857825279236 0.0268834028393030167 0.0038427719846367836
0.0439953096210956573 0.0270571727305650711 0.00241164932958781719
0.0438109636306762695 0.0269490275532007217 0.00330229452811181545
0.0425545908510684967 0.0271331183612346649 0.00178617495112121105
0.0432090610265731812 0.026950376108288765 0.0032912020105868578
0.0434462539851665497 0.02684004046022892 0.00419989554211497307
0.0395691618323326111 0.0272173080593347549 0.00109280413016676903
0.0418710149824619293 0.0272831432521343231 0.000550613622181117535
0.0438923351466655731 0.0267391204833984375 0.00503104599192738533
0.0400409102439880371 0.0266353357583284378 0.00588577799499034882
0.0399727337062358856 0.0268911104649305344 0.00377928884699940681
0.0359525680541992188 0.0272604003548622131 0.000737904920242726803
0.0390634164214134216 0.0267250761389732361 0.00514671811833977699
0.0385123863816261292 0.0268883220851421356 0.00380226690322160721
0.0400093905627727509 0.0269149970263242722 0.00358256581239402294
0.0366982743144035339 0.0272420383989810944 0.000889140414074063301
0.0382842309772968292 0.0267536863684654236 0.00491108372807502747
0.0368122868239879608 0.0266500823199748993 0.00576433772221207619
0.0381560809910297394 0.0272632408887147903 -0.000714518246240913868
0.0405540838837623596 0.0271953865885734558 -0.00127335311844944954
0.0369147732853889465 0.0269024483859539032 -0.00368591328151524067
0.0372241772711277008 0.0267640762031078339 -0.00482551706954836845
0.0385853126645088196 0.0270572658628225327 -0.00241088122129440308
0.0362046584486961365 0.0270862225443124771 -0.00217239535413682461
0.0362786836922168732 0.0269148852676153183 -0.00358349154703319073
0.0381144694983959198 0.027255423367023468 -0.000778904883190989494
0.0385716445744037628 0.0270353853702545166 -0.00259109050966799259
0.0409849993884563446 0.0269865486770868301 -0.00299328542314469814
0.0434512980282306671 0.0266988892108201981 -0.00536238215863704681
0.0419533737003803253 0.0267700795084238052 -0.00477606989443302155
0.0424212217330932617 0.0268625896424055099 -0.00401418982073664665
0.0426210202276706696 0.0269040130078792572 -0.00367302773520350456
0.0387339182198047638 0.0266920439898967743 -0.00541875045746564865
0.0426075123250484467 0.0268705021589994431 -0.00394901074469089508
0.0424992814660072327 0.0266628693789243698 -0.00565903587266802788
0.0424249134957790375 0.0270310938358306885 -0.00262641999870538712
0.0396459437906742096 0.0252016577869653702 -0.0101144351065158844
0.0434220843017101288 0.0261103995144367218 -0.00771827949211001396
0.0437685847282409668 0.0248391907662153244 -0.0110701844096183777
0.0390802472829818726 0.0245396047830581665 -0.0118601247668266296
0.0400262773036956787 0.0250743720680475235 -0.0104500614106655121
0.0438338853418827057 0.0254948176443576813 -0.00934143736958503723
0.0418566428124904633 0.0251148976385593414 -0.0103432014584541321
0.0421252995729446411 0.0249319300055503845 -0.01082565076649189
0.042041923850774765 0.0254802089184522629 -0.00937995407730340958
0.0362057015299797058 0.0248131714761257172 -0.0111387912184000015
0.0381620489060878754 0.0249157417565584183 -0.0108683323487639427
0.0428387187421321869 0.0264612659811973572 -0.0067931213416159153
0.0404954589903354645 0.0263544917106628418 -0.00707466341555118561
0.0418841354548931122 0.0262390095740556717 -0.007379164919257164
0.0388369113206863403 0.0251485127955675125 -0.0102545646950602531
0.0382756181061267853 0.0264536533504724503 -0.00681319553405046463
0.0384068712592124939 0.0263942573219537735 -0.00696980906650424004
0.0358339473605155945 0.0252961292862892151 -0.00986533425748348236
0.0438260398805141449 0.0237258262932300568 -0.0134220868349075317
0.0434041954576969147 0.0213346462696790695 -0.0168863087892532349
0.0442799143493175507 0.0225534513592720032 -0.0151205649599432945
0.0406199917197227478 0.0216425824910402298 -0.0164401866495609283
0.0432487018406391144 0.0232333019375801086 -0.0141356326639652252
0.0432826429605484009 0.023450847715139389 -0.0138204637914896011
0.0381120182573795319 0.0206974651664495468 -0.0178094245493412018
0.0440652854740619659 0.0221071112900972366 -0.0157672017812728882
0.0416588746011257172 0.0221861470490694046 -0.0156526975333690643
0.0371968299150466919 0.022820737212896347 -0.0147333387285470963
0.0412256196141242981 0.0235426090657711029 -0.0136875268071889877
0.0376059859991073608 0.0216170642524957657 -0.0164771564304828644
0.0390829220414161682 0.0237052906304597855 -0.0134518397971987724
0.0413622334599494934 0.0236341450363397598 -0.0135549111291766167
0.0361533239483833313 0.0241595916450023651 -0.0127936704084277153
0.0369996838271617889 0.0215495005249977112 -0.0165750421583652496
0.037047266960144043 0.023721029981970787 -0.0134290382266044617
0.0384997539222240448 0.0242040269076824188 -0.0127292945981025696
0.0401497744023799896 0.0171637553721666336 -0.0210670474916696548
0.0415856018662452698 0.016599901020526886 -0.0215665791183710098
0.0425963848829269409 0.0169780552387237549 -0.0212315637618303299
0.0368957445025444031 0.0160337667912244797 -0.0220681317150592804
0.0400049015879631042 0.0169693473726511002 -0.0212392788380384445
0.0439845137298107147 0.0191357322037220001 -0.0193200297653675079
0.0409027822315692902 0.0183980334550142288 -0.0199735742062330246
0.037479795515537262 0.0156901609152555466 -0.022372538223862648
0.041411377489566803 0.0185727681964635849 -0.019818771630525589
0.0398001223802566528 0.0187089890241622925 -0.0196980908513069153
0.039415113627910614 0.0184379797428846359 -0.0199381839483976364
0.0383435934782028198 0.0176728721708059311 -0.0206160098314285278
0.0427139736711978912 0.0198643337935209274 -0.0186745449900627136
0.0415492430329322815 0.0193461477756500244 -0.0191336162388324738
0.0367614813148975372 0.0166204720735549927 -0.0215483531355857849
0.0411187447607517242 0.0193165577948093414 -0.0191598311066627502
0.0380037277936935425 0.019510684534907341 -0.0189878493547439575
0.0374735221266746521 0.0166102517396211624 -0.0215574111789464951
0.0414854995906352997 0.0135030141100287437 -0.023575901985168457
0.0435469560325145721 0.0130727272480726242 -0.023801734670996666
0.0442357100546360016 0.00979373138397932053 -0.0255226846784353256
0.043781965970993042 0.0125281903892755508 -0.0240875296294689178
0.0431925244629383087 0.0112327355891466141 -0.0247674360871315002
0.0390115939080715179 0.0110932327806949615 -0.0248406529426574707
0.04322776198387146 0.0126946130767464638 -0.0240001827478408813
0.0440749414265155792 0.0130483563989400864 -0.0238145254552364349
0.043422456830739975 0.0133381299674510956 -0.0236624386161565781
0.0372391417622566223 0.0154905105009675026 -0.0225327834486961365
0.0381667464971542358 0.0127354878932237625 -0.0239787306636571884
0.0382289737462997437 0.0133968442678451538 -0.0236316230148077011
0.0360387265682220459 0.0138080986216664314 -0.023415781557559967
0.0427247285842895508 0.0144591815769672394 -0.0230740644037723541
0.0419946573674678802 0.0141336042433977127 -0.0232449416071176529
0.0386827364563941956 0.0135160833597183228 -0.0235690418630838394
0.0394318997859954834 0.012633785605430603 -0.0240321084856987
0.0380838662385940552 0.0146469287574291229 -0.0229755286127328873
0.037454802542924881 0.0125845959410071373 -0.024057924747467041
0.0434506013989448547 0.00764273945242166519 -0.0260793808847665787
0.0358540639281272888 0.00344335427507758141 -0.0271144360303878784
0.0396886393427848816 0.0055495724081993103 -0.0265953000634908676
0.0394024886190891266 0.00405707722529768944 -0.0269631668925285339
0.0418926738202571869 0.00665145227685570717 -0.0263237114995718002
0.0373185276985168457 0.00346241774968802929 -0.0271097365766763687
0.0442090965807437897 0.00650202296674251556 -0.0263605415821075439
0.0433895736932754517 0.00571343488991260529 -0.0265549104660749435
0.0422033071517944336 0.00714887212961912155 -0.0262011084705591202
0.0400798097252845764 0.00709580909460783005 -0.02621418796479702
0.0386302284896373749 0.00806675199419260025 -0.0259748697280883789
0.0431235060095787048 0.00957946665585041046 -0.0256020203232765198
0.0356645360589027405 0.00368740479461848736 -0.0270542837679386139
0.0388730242848396301 0.00644054170697927475 -0.026375696063041687
0.0397177599370479584 0.00725171621888875961 -0.0261757597327232361
0.0415882878005504608 0.00914357230067253113 -0.0257094576954841614
0.0378687232732772827 0.00621812697499990463 -0.0264305155724287033
0.0410035252571105957 0.00780130224302411079 -0.0260402988642454147
0.0390695668756961823 -0.00289380550384521484 -0.0271505881100893021
0.0420775227248668671 -0.000233248341828584671 -0.0271505881100893021
0.0433229617774486542 0.00183560163713991642 -0.0271505881100893021
0.0381423868238925934 -0.00255677406676113605 -0.0271505881100893021
0.0396979600191116333 -0.00118579808622598648 -0.0271505881100893021
0.0403940044343471527 0.00026544579304754734 -0.0271505881100893021
0.0412223003804683685 -0.00136687315534800291 -0.0271505881100893021
0.0437315702438354492 -0.00245609716512262821 -0.0271505881100893021
0.041402328759431839 -0.00170467025600373745 -0.0271505881100893021
0.0430057495832443237 0.00147202773950994015 -0.0271505881100893021
0.0366192460060119629 0.00236887368373572826 -0.0271505881100893021
0.0400166288018226624 0.00328937964513897896 -0.0271505881100893021
0.0406356863677501678 0.00280448701232671738 -0.0271505881100893021
0.0399970076978206635 0.00137563736643642187 -0.0271505881100893021
0.0415374189615249634 0.00261880829930305481 -0.0271505881100893021
0.0371135994791984558 -0.00134432176128029823 -0.0271505881100893021
0.042438410222530365 0.00204482697881758213 -0.0271505881100893021
0.0375555083155632019 0.00123835948761552572 -0.0271505881100893021
0.0370358303189277649 4.98159788548946381e-05 -0.0271505881100893021
0.0436813943088054657 -0.00551307899877429008 -0.0266042947769165039
0.0379405617713928223 -0.00851072929799556732 -0.0258654393255710602
0.0402633138000965118 -0.00683111045509576797 -0.0262794289737939835
0.0395115353167057037 -0.00739781884476542473 -0.0261397473514080048
0.0372510254383087158 -0.00945295020937919617 -0.0256332028657197952
0.0382199026644229889 -0.00833974499255418777 -0.0259075835347175598
0.0430501550436019897 -0.00632368214428424835 -0.0264044981449842453
0.0439451597630977631 -0.00801755394786596298 -0.0259869974106550217
0.0405206605792045593 -0.00701167108491063118 -0.0262349247932434082
0.0403634198009967804 -0.00487142801284790039 -0.026762448251247406
0.0360361374914646149 -0.00498366216197609901 -0.0267347823828458786
0.0399702787399291992 -0.00330171780660748482 -0.027149345725774765
0.0409574471414089203 -0.00339637137949466705 -0.0271260160952806473
0.0374331437051296234 -0.00341409863904118538 -0.0271216463297605515
0.040381506085395813 -0.00443414924666285515 -0.0268702264875173569
0.0361641347408294678 -0.00331707252189517021 -0.0271455608308315277
0.0424499548971652985 -0.00432007340714335442 -0.0268983431160449982
0.0413575842976570129 -0.00457598594948649406 -0.026835266500711441
0.0407940633594989777 -0.0140926595777273178 -0.0232664309442043304
0.0417788438498973846 -0.0137876858934760094 -0.0234264936298131943
0.0415004454553127289 -0.0134417042136192322 -0.0236080791801214218
0.039971567690372467 -0.0134718986228108406 -0.0235922317951917648
0.043674122542142868 -0.0150247849524021149 -0.0227772146463394165
0.0438368618488311768 -0.0122337471693754196 -0.0242420639842748642
0.0428514070808887482 -0.0151384016498923302 -0.0227175839245319366
0.0435371287167072296 -0.0104459077119827271 -0.0251803956925868988
0.0437835380434989929 -0.0128267025575041771 -0.0239308569580316544
0.0400518961250782013 -0.0114397946745157242 -0.0246587619185447693
0.0393931008875370026 -0.0121980272233486176 -0.0242608115077018738
0.036228623241186142 -0.0129513507708907127 -0.0238654371351003647
0.0379224121570587158 -0.0127360839396715164 -0.0239784177392721176
0.0383123233914375305 -0.0124514419585466385 -0.0241278093308210373
0.0363481231033802032 -0.0113956807181239128 -0.0246819145977497101
0.0409389473497867584 -0.011188398115336895 -0.0247907079756259918
0.037008136510848999 -0.0111100580543279648 -0.0248318221420049667
0.0361182503402233124 -0.0120547991245985031 -0.0243359841406345367
0.0431371182203292847 -0.0193506814539432526 -0.019129602238535881
0.0400696396827697754 -0.0185000915080308914 -0.0198831576853990555
0.0435919463634490967 -0.018129441887140274 -0.0202115252614021301
0.0430799461901187897 -0.0184686128050088882 -0.0199110470712184906
0.0435166731476783752 -0.0165897384285926819 -0.0215755831450223923
0.0408339165151119232 -0.0191276893019676208 -0.0193271543830633163
0.0391138643026351929 -0.0195082910358905792 -0.0189899709075689316
0.0438186675310134888 -0.0179455932229757309 -0.0203744005411863327
0.0415776744484901428 -0.018862040713429451 -0.0195624995976686478
0.0376167707145214081 -0.017779570072889328 -0.020521482452750206
0.0361646413803100586 -0.016172235831618309 -0.0219454579055309296
0.0389400050044059753 -0.0183010250329971313 -0.020059516653418541
0.0361884459853172302 -0.0165745411068201065 -0.0215890482068061829
0.0403242893517017365 -0.017599884420633316 -0.0206806715577840805
0.0378610566258430481 -0.0168738923966884613 -0.0213238447904586792
0.0370377935469150543 -0.0191499553620815277 -0.0193074308335781097
0.0438781715929508209 -0.015709221363067627 -0.0223556533455848694
0.0377885662019252777 -0.017497604712843895 -0.0207712836563587189
0.0401392132043838501 -0.022673342376947403 -0.014946875162422657
0.0434116125106811523 -0.0220305174589157104 -0.0158781670033931732
0.0429574772715568542 -0.0227012168616056442 -0.0149064920842647552
0.039163835346698761 -0.0229529049247503281 -0.0145418588072061539
0.0419868938624858856 -0.0221298113465309143 -0.0157343149185180664
0.0399261079728603363 -0.0235859453678131104 -0.0136247407644987106
0.0409326069056987762 -0.0225848481059074402 -0.0150750791653990746
0.0429810434579849243 -0.0219649337232112885 -0.0159731805324554443
0.0387456640601158142 -0.023073660209774971 -0.0143669126555323601
0.0375386252999305725 -0.0231666360050439835 -0.0142322154715657234
0.0377078130841255188 -0.0221186205744743347 -0.0157505273818969727
0.0372249074280261993 -0.022467099130153656 -0.0152456695213913918
0.0428844653069972992 -0.0205909330397844315 -0.0179637670516967773
0.0398650951683521271 -0.0210609417408704758 -0.0172828380018472672
0.0362229235470294952 -0.0213533714413642883 -0.0168591830879449844
0.0358065962791442871 -0.0207579154521226883 -0.0177218485623598099
0.0362147502601146698 -0.0235182512551546097 -0.013722812756896019
0.0383809618651866913 -0.0227825380861759186 -0.014788677915930748
0.0441078990697860718 -0.0256375744938850403 -0.00896501541137695312
0.0432031378149986267 -0.0255036652088165283 -0.00931810867041349411
0.0362528786063194275 -0.0264167357236146927 -0.0069105406291782856
0.0434157252311706543 -0.0247104298323392868 -0.011409698985517025
0.0418012663722038269 -0.0251352228224277496 -0.0102896075695753098
0.042628902941942215 -0.025636281818151474 -0.00896842684596776962
0.0417302884161472321 -0.0250830482691526413 -0.0104271825402975082
0.0390155799686908722 -0.0265241824090480804 -0.00662722252309322357
0.0436576195061206818 -0.0251448452472686768 -0.0102642402052879333
0.0360951125621795654 -0.0252201911062002182 -0.0100655639544129372
0.0363157056272029877 -0.0258420780301094055 -0.0084257880225777626
0.03691081702709198 -0.0261016171425580978 -0.00774144008755683899
0.0400842949748039246 -0.0244276411831378937 -0.0121553493663668633
0.0360488221049308777 -0.0255214720964431763 -0.0092711523175239563
0.0361054018139839172 -0.0245269071310758591 -0.0118936058133840561
0.035885985940694809 -0.0260196849703788757 -0.00795747712254524231
0.0399389304220676422 -0.0250883381813764572 -0.0104132359847426414
0.0373697802424430847 -0.025149000808596611 -0.0102532766759395599
0.0436369515955448151 -0.0271278731524944305 -0.00182937830686569214
0.0435536690056324005 -0.0266887135803699493 -0.00544617790728807449
0.0431573651731014252 -0.0267548020929098129 -0.00490188691765069962
0.043720245361328125 -0.0270958635956048965 -0.00209299498237669468
0.0411856472492218018 -0.0269052982330322266 -0.00366244837641716003
0.0370386838912963867 -0.0273303408175706863 -0.000161895746714435518
0.0415339693427085876 -0.0272104665637016296 -0.00114914902951568365
0.039631672203540802 -0.0271006356924772263 -0.00205370038747787476
0.0386601462960243225 -0.0271874237805604935 -0.0013389284722507
0.0398561283946037292 -0.0269385334104299545 -0.00338872848078608513
0.0397027283906936646 -0.0266078859567642212 -0.00611185934394598007
0.0415607355535030365 -0.0267307069152593613 -0.00510034617036581039
0.0396275483071804047 -0.0268006492406129837 -0.00452431151643395424
0.0404719114303588867 -0.0269082635641098022 -0.00363802933134138584
0.0394470654428005219 -0.0268346406519412994 -0.00424435827881097794
0.0420491285622119904 -0.0265663675963878632 -0.00645380374044179916
0.0379345826804637909 -0.026807805523276329 -0.00446537556126713753
0.0357832945883274078 -0.0273007713258266449 -0.000405424070777371526
0.0396345891058444977 -0.026940222829580307 -0.00337480823509395123
-0.0163750648498535156 -0.0341121070086956024 0.0014524518046528101
-0.0165993478149175644 -0.0336143858730792999 0.000500808237120509148
-0.0181973278522491455 -0.0273253545165061951 0.00141312310006469488
-0.0174669399857521057 -0.0302084516733884811 0.000972095178440213203
-0.0187553167343139648 -0.0250200293958187103 0.00203821784816682339
-0.0171249303966760635 -0.031289856880903244 0.00151897629257291555
-0.0176392793655395508 -0.0291230268776416779 0.00221242010593414307
-0.0180522892624139786 -0.0279675386846065521 0.00113017368130385876
-0.0168840233236551285 -0.0320244915783405304 0.00198017037473618984
-0.0182729344815015793 -0.0273238774389028549 0.000625911285169422626
-0.0173420850187540054 -0.0308056902140378952 0.000603932654485106468
-0.0180755183100700378 -0.0279299262911081314 0.000992515124380588531
-0.016611902043223381 -0.0324638262391090393 0.00327848806045949459
-0.014462021179497242 -0.0401004776358604431 0.00359918968752026558
-0.0148459393531084061 -0.0381342396140098572 0.00486318301409482956
-0.0166431330144405365 -0.0323068276047706604 0.00337481964379549026
-0.0147704519331455231 -0.0403696596622467041 0.000560373766347765923
-0.0149772055447101593 -0.039194691926240921 0.0014956202358007431
-0.015590643510222435 -0.0365392677485942841 0.0024488519411534071
-0.0157960802316665649 -0.0362780913710594177 0.00139068532735109329
-0.0155305899679660797 -0.0356564857065677643 0.00486145773902535439
-0.0164372716099023819 -0.0329902805387973785 0.00351034221239387989
-0.0165629144757986069 -0.0328618884086608887 0.00279446039348840714
-0.0171887855976819992 -0.030040450394153595 0.00401303218677639961
-0.0151864103972911835 -0.0377346426248550415 0.00303656957112252712
-0.0164598803967237473 -0.033078707754611969 0.00313695031218230724
-0.0146445790305733681 -0.0404582209885120392 0.00136542890686541796
-0.0143740903586149216 -0.0404590927064418793 0.00351084442809224129
-0.014791206456720829 -0.0348622985184192657 0.00807143934071063995
-0.0155281675979495049 -0.0325485318899154663 0.00784226227551698685
-0.0165364053100347519 -0.0279745999723672867 0.00852851010859012604
-0.0158838797360658646 -0.0287602804601192474 0.0096279531717300415
-0.0150218000635504723 -0.0359487086534500122 0.00671464810147881508
-0.013433464802801609 -0.0368240997195243835 0.010126989334821701
-0.0153383482247591019 -0.0331548117101192474 0.00789396464824676514
-0.0139403147622942924 -0.036996547132730484 0.0087173832580447197
-0.0156450364738702774 -0.0319221280515193939 0.00799010787159204483
-0.0149009004235267639 -0.0321236737072467804 0.00973684806376695633
-0.0122215878218412399 -0.0399096421897411346 0.0110144224017858505
-0.014679701067507267 -0.0329143926501274109 0.00973732117563486099
-0.0143825151026248932 -0.0379553958773612976 0.006913741584867239
-0.0142691023647785187 -0.0345363803207874298 0.00962872430682182312
-0.0151335587725043297 -0.0325047485530376434 0.00887548550963401794
-0.0155576067045331001 -0.0308257509022951126 0.00899039674550294876
-0.0168334804475307465 -0.0273979995399713516 0.00818335171788930893
-0.0160747300833463669 -0.03314952552318573 0.00560620520263910294
-0.0172209404408931732 -0.0274225771427154541 0.00685079675167798996
-0.0152595257386565208 -0.0358766689896583557 0.00595850171521306038
-0.0169651005417108536 -0.0302891824394464493 0.00511268153786659241
-0.0178856123238801956 -0.0256810560822486877 0.00612036464735865593
-0.0170708522200584412 -0.0286803450435400009 0.0062208985909819603
-0.0162175782024860382 -0.0327711254358291626 0.00545301055535674095
-0.0160765405744314194 -0.0324119478464126587 0.00627798307687044144
-0.0169924739748239517 -0.0270161647349596024 0.00802590604871511459
-0.0171519182622432709 -0.0273345652967691422 0.00717384368181228638
-0.0171180777251720428 -0.0282201152294874191 0.00647837202996015549
-0.0159399788826704025 -0.0326367244124412537 0.00655036792159080505
-0.0127321891486644745 -0.0364756584167480469 0.0118502313271164894
-0.0145577918738126755 -0.0276794489473104477 0.0126925129443407059
-0.0113505115732550621 -0.0399345830082893372 0.0124460402876138687
-0.012505674734711647 -0.0304584316909313202 0.0144867971539497375
-0.0136559111997485161 -0.0314731188118457794 0.0124891912564635277
-0.0117125613614916801 -0.0335211493074893951 0.0144134322181344032
-0.0154784247279167175 -0.0245417486876249313 0.0126167060807347298
-0.0131519706919789314 -0.0302594490349292755 0.0136609505861997604
-0.0104267625138163567 -0.0384860336780548096 0.0142946476116776466
-0.0121397925540804863 -0.0350429005920886993 0.0132300043478608131
-0.012653011828660965 -0.0320269018411636353 0.0136762363836169243
-0.0126038370653986931 -0.0317015200853347778 0.0138703780248761177
-0.0100471694022417068 -0.036890961229801178 0.0154398176819086075
-0.0120014538988471031 -0.0386850945651531219 0.0120187746360898018
-0.0144685478881001472 -0.0261401869356632233 0.0134106818586587906
-0.0150119252502918243 -0.0246066823601722717 0.0132431508973240852
-0.0115296309813857079 -0.0334135368466377258 0.0147103946655988693
-0.0116851311177015305 -0.0388946719467639923 0.0123797198757529259
-0.00953683257102966309 -0.0390306264162063599 0.0153274713084101677
-0.0158577486872673035 -0.0288084577769041061 0.00965883489698171616
-0.0149661730974912643 -0.030881788581609726 0.0103612393140792847
-0.0166774056851863861 -0.0235008075833320618 0.0108330370858311653
-0.015165502205491066 -0.0282366834580898285 0.0113714151084423065
-0.0155080016702413559 -0.0295861121267080307 0.0099534597247838974
-0.0146618848666548729 -0.0318450182676315308 0.0104642044752836227
-0.015613100491464138 -0.0268119797110557556 0.0112241450697183609
-0.0155952926725149155 -0.0288281738758087158 0.0101816030219197273
-0.0148684345185756683 -0.0290594771504402161 0.0115348407998681068
-0.0150599880144000053 -0.0270185712724924088 0.0122375516220927238
-0.0140599515289068222 -0.0323788821697235107 0.0114017101004719734
-0.0142664611339569092 -0.0321607440710067749 0.0110987918451428413
-0.0164439473301172256 -0.0271031316369771957 0.00938006862998008728
-0.0138809559866786003 -0.0238122083246707916 0.0150705743581056595
-0.0117072435095906258 -0.0300462692975997925 0.0157229546457529068
-0.0121481027454137802 -0.0304165966808795929 0.0149888228625059128
-0.0122327571734786034 -0.0288652665913105011 0.0154451681300997734
-0.014837765134871006 -0.021780211478471756 0.0145212616771459579
-0.0121105927973985672 -0.0288897473365068436 0.0156018054112792015
-0.0156281553208827972 -0.0216808728873729706 0.0134860873222351074
-0.0142599483951926231 -0.0230576265603303909 0.0148344738408923149
-0.0146752391010522842 -0.0191959217190742493 0.0156930647790431976
-0.0132023440673947334 -0.0284480713307857513 0.014284028671681881
-0.0143851088359951973 -0.0223698355257511139 0.0149179762229323387
-0.0149577902629971504 -0.0219029486179351807 0.0143133224919438362
-0.0131437024101614952 -0.0256047509610652924 0.0154103320091962814
-0.0143295088782906532 -0.0248363763093948364 0.0140852956101298332
-0.0106945373117923737 -0.025540398433804512 0.0179970134049654007
-0.009449041448533535 -0.0290004033595323563 0.0182319749146699905
-0.00979648809880018234 -0.0290424730628728867 0.0179255120456218719
-0.00840740837156772614 -0.0328146517276763916 0.0182082988321781158
-0.00830658525228500366 -0.035587504506111145 0.0176311042159795761
-0.00580376433208584785 -0.0384465791285037994 0.0190824046730995178
-0.0103280600160360336 -0.0252604503184556961 0.0183766074478626251
-0.00677258195355534554 -0.0331871435046195984 0.0195138547569513321
-0.00824712309986352921 -0.0326709039509296417 0.0183794163167476654
-0.00764193478971719742 -0.0303916297852993011 0.0194408465176820755
-0.00808826182037591934 -0.036938149482011795 0.0174943115562200546
-0.00790282338857650757 -0.032653413712978363 0.0186773166060447693
-0.00842329952865839005 -0.0277162566781044006 0.0194141604006290436
-0.00556545937433838844 -0.0372010692954063416 0.0195835977792739868
-0.00691911764442920685 -0.035793788731098175 0.0187653973698616028
-0.00480269966647028923 -0.0376836284995079041 0.0201188810169696808
-0.00894228927791118622 -0.0350183546543121338 0.0172249209135770798
-0.0101504232734441757 -0.0264956913888454437 0.0182327069342136383
-0.00906381011009216309 -0.0314880348742008209 0.0179656259715557098
-0.00863128993660211563 -0.030511634424328804 0.0185681376606225967
-0.00858578644692897797 -0.032688431441783905 0.0180863160640001297
-0.0108033390715718269 -0.0225166007876396179 0.0186274200677871704
-0.0118057010695338249 -0.0218712463974952698 0.0178865175694227219
-0.0131383510306477547 -0.0179562605917453766 0.0175961852073669434
-0.0126141402870416641 -0.0242297686636447906 0.016480298712849617
-0.0104515077546238899 -0.0329420268535614014 0.016338421031832695
-0.0134562598541378975 -0.0191771034151315689 0.0169669650495052338
-0.0123231727629899979 -0.0223236940801143646 0.0172611512243747711
-0.0101317707449197769 -0.0315321311354637146 0.0170185621827840805
-0.0106799667701125145 -0.0295025371015071869 0.0170080531388521194
-0.0110870786011219025 -0.0246446132659912109 0.0178709812462329865
-0.0124187357723712921 -0.0248918924480676651 0.0164999812841415405
-0.0110509777441620827 -0.027423374354839325 0.0171842947602272034
-0.0115067530423402786 -0.027928616851568222 0.0166057497262954712
-0.0119094038382172585 -0.0212582536041736603 0.0179440528154373169
-0.011500130407512188 -0.0236925277858972549 0.0177130755037069321
-0.00253040948882699013 -0.0310760363936424255 0.0223095398396253586
-0.00279321335256099701 -0.0347940027713775635 0.0216532349586486816
-0.000905556604266166687 -0.0332515984773635864 0.0228248368948698044
-0.00798480212688446045 -0.0182142648845911026 0.0213623270392417908
-0.0035332157276570797 -0.032542206346988678 0.0215960778295993805
-0.00645577581599354744 -0.0237959530204534531 0.0213496517390012741
-0.00582620128989219666 -0.0307935904711484909 0.0206828434020280838
-0.00718031870201230049 -0.0241709668189287186 0.0209305044263601303
-0.00928147509694099426 -0.0149956913664937019 0.0211598053574562073
-0.00628508813679218292 -0.0260836482048034668 0.0211138911545276642
-0.00618211273103952408 -0.0229055732488632202 0.0216133743524551392
-0.00696772942319512367 -0.0202903356403112411 0.0215843189507722855
-0.00565783586353063583 -0.0306936129927635193 0.0207820497453212738
-0.00522048957645893097 -0.0330780856311321259 0.0206674952059984207
-0.00423672422766685486 -0.0280558113008737564 0.0218719653785228729
-0.00411562435328960419 -0.0359882116317749023 0.0208164583891630173
-0.00226374249905347824 -0.033542439341545105 0.0220971498638391495
-0.00385189475491642952 -0.0302660111337900162 0.0217553917318582535
-0.00439309142529964447 -0.0305710267275571823 0.0214388035237789154
-0.00376868643797934055 -0.0336890257894992828 0.0213155653327703476
-0.00189814576879143715 -0.0349014215171337128 0.0220906864851713181
-0.00261001568287611008 -0.0340642444789409637 0.021848602220416069
-0.00380998034961521626 -0.0351049602031707764 0.02109534852206707
-0.000284906476736068726 -0.0344919078052043915 0.0229640454053878784
-0.00810030661523342133 -0.0220364555716514587 0.0207476522773504257
-0.00846156757324934006 -0.0225531347095966339 0.0203925631940364838
-0.00826922617852687836 -0.0233393311500549316 0.0203820150345563889
-0.00887978449463844299 -0.0212874561548233032 0.0203320346772670746
-0.0102767264470458031 -0.0197389647364616394 0.0196259655058383942
-0.00702100852504372597 -0.0277213547378778458 0.0204489808529615402
-0.0106899067759513855 -0.0186304785311222076 0.0195394698530435562
-0.0104981614276766777 -0.013780166395008564 0.0205885991454124451
-0.010007430799305439 -0.0203639548271894455 0.0197006743401288986
-0.00771695747971534729 -0.0265165679156780243 0.0201787222176790237
-0.00898574665188789368 -0.0227552242577075958 0.0199803318828344345
-0.0100321285426616669 -0.0164859946817159653 0.0204124040901660919
-0.0113428393378853798 -0.0177761539816856384 0.0192340053617954254
-0.00823125801980495453 -0.0246120542287826538 0.0201697498559951782
-0.0101850172504782677 -0.0163568649441003799 0.0203275401145219803
0.000433115637861192226 -0.0340970642864704132 0.0232651419937610626
0.00206239055842161179 -0.0326923877000808716 0.0237432457506656647
-0.00444863596931099892 -0.0138397160917520523 0.0234084762632846832
-0.00385114038363099098 -0.0191224534064531326 0.0232103690505027771
0.00474439375102519989 -0.0343826785683631897 0.0242724604904651642
-0.00024445168673992157 -0.03241705521941185 0.0232121497392654419
-0.0062611754983663559 -0.00960908271372318268 0.0232497397810220718
-0.000493478495627641678 -0.0214571449905633926 0.0238588284701108932
-0.00162940355949103832 -0.0258716922253370285 0.0233042351901531219
0.00126225827261805534 -0.0351830832660198212 0.023392457515001297
-0.00163633923511952162 -0.0255380086600780487 0.0233240779489278793
0.00415580533444881439 -0.0320818275213241577 0.0242806244641542435
-0.0025747520849108696 -0.0189968403428792953 0.0235221311450004578
-0.00126309040933847427 -0.0237166844308376312 0.0235301889479160309
-0.00179743487387895584 -0.0202717725187540054 0.0236249472945928574
-0.00155567610636353493 -0.0204291939735412598 0.023672325536608696
0.00363658694550395012 -0.0299060661345720291 0.0242972373962402344
0.00586733827367424965 -0.0350112281739711761 0.0244991406798362732
0.00291860150173306465 -0.0358696393668651581 0.023742305114865303
0.00437779352068901062 -0.0326465032994747162 0.0242970678955316544
-0.000652055139653384686 -0.030672561377286911 0.0232275370508432388
0.000439546070992946625 -0.0306652095168828964 0.0234877187758684158
0.00294632557779550552 -0.0288943387567996979 0.0241981782019138336
0.00149667123332619667 -0.0257316436618566513 0.0240569934248924255
0.00546725746244192123 -0.035098634660243988 0.0243983268737792969
-0.00165790878236293793 -0.0198482759296894073 0.0236854199320077896
0.00164970150217413902 -0.0296342801302671432 0.0238420329988002777
0.00513028958812355995 -0.033634379506111145 0.0244124680757522583
-0.00813796557486057281 -0.0135887665674090385 0.0218843128532171249
-0.0092245154082775116 -0.012808394618332386 0.0214673038572072983
-0.00247954856604337692 -0.0270197819918394089 0.0228691641241312027
-0.00490020029246807098 -0.0192929692566394806 0.0226988494396209717
-0.00335897249169647694 -0.0220713168382644653 0.0230785924941301346
-0.00403893645852804184 -0.023278411477804184 0.0226028133183717728
-0.00137818604707717896 -0.0309049934148788452 0.0228998232632875443
-0.00796362385153770447 -0.0176074281334877014 0.0214579254388809204
-0.00594195537269115448 -0.0207888465374708176 0.0220147073268890381
-0.00163177680224180222 -0.0295321978628635406 0.022953355684876442
-0.00293249636888504028 -0.0238412655889987946 0.0230568256229162216
-0.00349622638896107674 -0.0272150039672851562 0.0223617218434810638
-0.0090821506455540657 -0.0142630096524953842 0.0213505961000919342
-0.00765775050967931747 -0.0134891737252473831 0.0221249330788850784
-0.00467489659786224365 -0.0161660704761743546 0.0232020001858472824
-0.00259959930554032326 -0.0245659444481134415 0.0231230668723583221
-0.00784725882112979889 -0.011706213466823101 0.0222608577460050583
-0.00546309910714626312 -0.022244967520236969 0.0220575742423534393
-0.00106652826070785522 -0.0324137583374977112 0.0228566378355026245
-0.00470635294914245605 -0.0172419138252735138 0.0230507552623748779
-0.00350363645702600479 -0.0256204418838024139 0.0225602332502603531
-0.00655093882232904434 -0.0169493202120065689 0.0222120340913534164
-0.00260657863691449165 -0.0288808476179838181 0.022573055699467659
0.00038724532350897789 -0.0194284860044717789 0.0242360979318618774
-0.000594170298427343369 -0.0202990807592868805 0.0239168591797351837
-9.13278199732303619e-05 -0.0219297334551811218 0.0239252578467130661
0.00226039998233318329 -0.0242052450776100159 0.0243643373250961304
-0.00144997541792690754 -0.0180801954120397568 0.0238609947264194489
-0.00325911538675427437 -0.0121710523962974548 0.0238339453935623169
-0.000137567054480314255 -0.0208873488008975983 0.0239911656826734543
9.82382334768772125e-05 -0.0203188210725784302 0.0240947194397449493
-0.00129210343584418297 -0.0175407733768224716 0.0239421892911195755
-0.00294009223580360413 -0.0121803320944309235 0.0239158794283866882
0.00141764408908784389 -0.0205202680081129074 0.0244213975965976715
0.00124918529763817787 -0.0218339599668979645 0.0242796093225479126
-0.00108871259726583958 -0.0126022249460220337 0.0243638679385185242
-0.00297851813957095146 -0.0112484898418188095 0.0239755529910326004
0.00289519783109426498 -0.027577374130487442 0.0242767911404371262
0.00476108863949775696 -0.0319028086960315704 0.0244368724524974823
-0.000583032146096229553 -0.0151262655854225159 0.0243062488734722137
0.00368163455277681351 -0.0293808206915855408 0.0243457295000553131
-0.0034446448553353548 -0.0130614060908555984 0.0237193666398525238
-0.002584800124168396 -0.0142902527004480362 0.0238502509891986847
5.38928434252738953e-05 -0.02130904421210289 0.0240092463791370392
0.00411908840760588646 -0.0302216336131095886 0.024396207183599472
-0.00405869260430335999 -0.00568462861701846123 0.024111507460474968
0.00608517508953809738 -0.0288258474320173264 0.0246308799833059311
0.00259033986367285252 -0.0105315279215574265 0.024725036695599556
0.00703987805172801018 -0.031352166086435318 0.0246172584593296051
0.00895645841956138611 -0.0312442295253276825 0.0246152710169553757
0.00843270774930715561 -0.0290912128984928131 0.0246265009045600891
0.00191556208301335573 -0.00950970128178596497 0.0247309263795614243
0.00968340318650007248 -0.0332274138927459717 0.0246046073734760284
0.00419130362570285797 -0.0118166450411081314 0.0247166436165571213
0.00854757241904735565 -0.0318559557199478149 0.0246128123253583908
0.00844290759414434433 -0.0299333333969116211 0.0246223639696836472
0.00736213522031903267 -0.0219842307269573212 0.0246627014130353928
0.010495264083147049 -0.0321350544691085815 0.0246088914573192596
0.01092555932700634 -0.0338605232536792755 0.024599878117442131
0.00655476842075586319 -0.0278446227312088013 0.0246350672096014023
0.00436998996883630753 -0.0206486284732818604 0.0246731657534837723
0.00643281219527125359 -0.0245661288499832153 0.0246512796729803085
0.00392883364111185074 -0.0197829641401767731 0.0246779844164848328
0.0087861623615026474 -0.0283389855176210403 0.0246297195553779602
0.00786047801375389099 -0.024512389674782753 0.024649670347571373
0.00821748562157154083 -0.0325570069253444672 0.024609813466668129
0.00523468852043151855 -0.0193336326628923416 0.024678470566868782
0.00393613241612911224 -0.0166432969272136688 0.0246933475136756897
0.00534602534025907516 -0.0185750182718038559 0.0246820393949747086
0.00602612597867846489 -0.0284867770969867706 0.0246326159685850143
0.00716468598693609238 -0.0264589022845029831 0.0246410500258207321
0.00414750352501869202 -0.0157145671546459198 0.0246976166963577271
0.00396525254473090172 -0.0203177258372306824 0.024675317108631134
0.00639363750815391541 -0.0266215074807405472 0.0246412679553031921
0.00791002810001373291 -0.0310909897089004517 0.0246173925697803497
0.00493958685547113419 -0.0229573585093021393 0.024661114439368248
0.00113402190618216991 -0.00563850533217191696 0.0247509051114320755
0.0072992006316781044 -0.0263028815388679504 0.0246416404843330383
0.00456176232546567917 -0.0178837105631828308 0.0246864538639783859
0.0071209985762834549 -0.0347137115895748138 0.024600692093372345
4.19745847466401756e-05 -0.00102567893918603659 0.0247621312737464905
0.000524937175214290619 -0.00986384879797697067 0.024618878960609436
0.00177420105319470167 -0.0170696713030338287 0.0245776083320379257
0.00330243096686899662 -0.0199425965547561646 0.0246520992368459702
-0.000128403655253350735 -0.0130435246974229813 0.0244943201541900635
-0.000923490151762962341 -0.00279465271160006523 0.0246396902948617935
0.0014526653103530407 -0.0122706806287169456 0.0246501583606004715
0.000309176160953938961 -0.00963759608566761017 0.0246045887470245361
-0.000208632773137651384 -0.00184688344597816467 0.0247227344661951065
-0.00205490458756685257 -0.00482264673337340355 0.0244971495121717453
-0.001844027079641819 -0.00544966757297515869 0.0245025791227817535
0.00192083907313644886 -0.014748942106962204 0.0246393661946058273
-0.00158998172264546156 -0.00706317462027072906 0.0244910698384046555
0.000808071577921509743 -0.0068185846321284771 0.0247079245746135712
-0.000511330203153192997 -0.0114277135580778122 0.0244944989681243896
0.00110223190858960152 -0.011034664697945118 0.024645218625664711
0.00135459797456860542 -0.0101436488330364227 0.0246862377971410751
-0.00011469726450741291 -0.0142383938655257225 0.0244704000651836395
0.000572979974094778299 -0.00707549881190061569 0.0246817674487829208
0.00132263719569891691 -0.00753681361675262451 0.0247382447123527527
0.00258312234655022621 -0.0177390873432159424 0.0246349424123764038
-0.00214734394103288651 -0.00446807174012064934 0.0244964472949504852
0.00205710274167358875 -0.0125515181571245193 0.0246976129710674286
0.0167385376989841461 -0.0291263498365879059 0.0232076346874237061
0.0137929189950227737 -0.0233964063227176666 0.0235416963696479797
0.0133057115599513054 -0.0190637260675430298 0.0233801305294036865
0.0138032454997301102 -0.0231230165809392929 0.0235217269510030746
0.0154362758621573448 -0.0254122838377952576 0.0232796855270862579
0.0129557736217975616 -0.0151839843019843102 0.0232149064540863037
0.0137903550639748573 -0.029452051967382431 0.0239301919937133789
0.016317194327712059 -0.0275265984237194061 0.0232054479420185089
0.0129635725170373917 -0.0158386342227458954 0.023254983127117157
0.0121143655851483345 -0.0126075483858585358 0.0232501402497291565
0.0121531840413808823 -0.0294800754636526108 0.0243216510862112045
0.0124911488965153694 -0.0238662287592887878 0.0238816235214471817
0.012660040520131588 -0.0209590904414653778 0.0236552134156227112
0.0123135168105363846 -0.0243173651397228241 0.023952798917889595
0.011904214508831501 -0.0167881157249212265 0.0235679410398006439
0.0163847450166940689 -0.0316246561706066132 0.0234518665820360184
0.0127722220495343208 -0.0244433246552944183 0.0238516908138990402
0.0125333471223711967 -0.0213662143796682358 0.0237114448100328445
0.0147318178787827492 -0.0222421027719974518 0.0232442915439605713
0.0168857872486114502 -0.030887192115187645 0.0232853777706623077
0.0119955446571111679 -0.0164148975163698196 0.0235222969204187393
0.0163371358066797256 -0.0312115959823131561 0.023436741903424263
0.0134663330391049385 -0.0183747746050357819 0.0232977736741304398
0.00722570763900876045 -0.0150454454123973846 0.0243554878979921341
0.000333704316290095448 -0.000406999373808503151 0.0247422903776168823
0.00327160698361694813 -0.00303834397345781326 0.0243504345417022705
0.00469864672049880028 -0.00991079956293106079 0.0245119556784629822
0.00917139369994401932 -0.0143874138593673706 0.0239449795335531235
0.010069764219224453 -0.0154850855469703674 0.0238435864448547363
0.00714983604848384857 -0.00886285305023193359 0.0239810235798358917
0.00544510968029499054 -0.00478284340351819992 0.0240478161722421646
0.0117099182680249214 -0.0320398956537246704 0.0245736539363861084
0.0080401785671710968 -0.00631753774359822273 0.023652026429772377
0.00890438351780176163 -0.0222478751093149185 0.0244900248944759369
0.00861023925244808197 -0.0224829725921154022 0.0245606135576963425
0.0105422576889395714 -0.0261559411883354187 0.0244250986725091934
0.00656739948317408562 -0.0118694407865405083 0.0242806188762187958
0.00996768474578857422 -0.0190598145127296448 0.0240877885371446609
0.0071206558495759964 -0.0057463538832962513 0.0237905438989400864
0.00575801264494657516 -0.0112084345892071724 0.0243925955146551132
