ply
format ascii 1.0
element vertex 704
property float x
property float y
property float z
end_header
-0.00711075728759169579 0.0334249287843704224 -0.0149908112362027168
-0.00657191220670938492 0.0180913936346769333 -0.0152736194431781769
-0.00758222769945859909 0.0363418459892272949 -0.0147433644160628319
-0.0061747133731842041 0.0396688990294933319 -0.015482085756957531
-0.00637662783265113831 0.00873795710504055023 -0.0153761124238371849
-0.00642480840906500816 0.0120383631438016891 -0.0153508251532912254
-0.00719679985195398331 0.0421030893921852112 -0.0149456532672047615
-0.00723993638530373573 0.0301456525921821594 -0.0149230137467384338
-0.00628529395908117294 0.00964692607522010803 -0.0154240485280752182
-0.0074175763875246048 0.022840576246380806 -0.0148297809064388275
-0.00791018269956111908 0.0296536199748516083 -0.0145712411031126976
-0.00834580976516008377 0.0387421995401382446 -0.0143426060676574707
-0.00759347667917609215 0.0364527516067028046 -0.0147374607622623444
-0.00742947962135076523 0.00994155928492546082 -0.0148235335946083069
-0.00714964699000120163 0.00161591160576790571 -0.0149704013019800186
-0.00755216041579842567 0.0120346797630190849 -0.0147591456770896912
-0.00795395020395517349 0.0212205667048692703 -0.0145482700318098068
-0.00808958802372217178 0.00490918802097439766 -0.0144770825281739235
-0.00727587565779685974 0.00198949780315160751 -0.0149041507393121719
-0.00853176601231098175 0.0302315298467874527 -0.0142450081184506416
-0.00891782529652118683 0.0344207920134067535 -0.0140423886477947235
-0.00919360946863889694 0.0419044420123100281 -0.0138976462185382843
-0.00734916701912879944 0.0195303559303283691 -0.0148656843230128288
-0.00769882975146174431 0.015650525689125061 -0.0146821672096848488
-0.00694447755813598633 0.00185722997412085533 -0.0150780817493796349
-0.00896844733506441116 0.038770526647567749 -0.0140158208087086678
-0.00789356138557195663 0.00565864378586411476 -0.0145799648016691208
-0.00939406827092170715 0.0440252646803855896 -0.0137924384325742722
-0.00811690278351306915 0.0153835872188210487 -0.0144627466797828674
-0.00759853236377239227 0.00310924369841814041 -0.0147348083555698395
-0.00884520914405584335 0.00878804735839366913 -0.0140805011615157127
-0.0034997621551156044 0.0387036316096782684 -0.0162117742002010345
-0.00541711971163749695 0.0484117045998573303 -0.0157391894608736038
-0.00214005936868488789 0.00301922066137194633 -0.0165469124913215637
-0.00515577290207147598 0.0456085763871669769 -0.015803605318069458
-0.00474156998097896576 0.040433935821056366 -0.0159056968986988068
-0.003297402523458004 0.0306508056819438934 -0.0162616521120071411
-0.00414221547544002533 0.0468351580202579498 -0.0160534251481294632
-0.00331466365605592728 0.0240537375211715698 -0.0162573978304862976
-0.0027044250164180994 0.0260918699204921722 -0.0164078082889318466
-0.00438691722229123116 0.0413922294974327087 -0.0159931108355522156
-0.00403535645455121994 0.034459337592124939 -0.0160797629505395889
-0.00339726265519857407 0.0473412200808525085 -0.0162370391190052032
-0.00219827331602573395 0.015852704644203186 -0.0165325626730918884
-0.00354063347913324833 0.0473481975495815277 -0.0162017010152339935
-0.0034638112410902977 0.0234265550971031189 -0.0162206366658210754
-0.00439523346722126007 0.0309656746685504913 -0.0159910619258880615
-0.0030348622240126133 0.0370333492755889893 -0.0163263622671365738
-0.00312542496249079704 0.0430323556065559387 -0.01630404032766819
-0.0048250989057123661 0.00763577735051512718 -0.015885109081864357
-0.00415460951626300812 0.00341477640904486179 -0.0160503704100847244
-0.00468157324939966202 0.0277241282165050507 -0.0159204863011837006
-0.0043194829486310482 0.01092483289539814 -0.0160097312182188034
-0.00503319129347801208 0.00461114337667822838 -0.0158338192850351334
-0.00498961377888917923 0.0229615196585655212 -0.0158445592969655991
-0.0033498997800052166 0.00948041118681430817 -0.0162487123161554337
-0.00482729636132717133 0.00683734100311994553 -0.0158845670521259308
-0.00412759324535727501 0.0175934247672557831 -0.0160570293664932251
-0.00357073149643838406 0.00681804167106747627 -0.0161942839622497559
-0.00334482919424772263 0.00260605569928884506 -0.0162499640136957169
-0.00543787470087409019 0.0289533529430627823 -0.0157340746372938156
-0.00587324798107147217 0.0303228925913572311 -0.0156267620623111725
-0.00567462434992194176 0.0328809656202793121 -0.015675719827413559
-0.00461168354377150536 0.00444060284644365311 -0.0159377101808786392
-0.00502391206100583076 0.0321857258677482605 -0.015836106613278389
-0.00475801434367895126 0.000205960197490639985 -0.0159016437828540802
-0.00543952453881502151 0.0222270935773849487 -0.015733666718006134
0.00136735732667148113 0.0345069095492362976 -0.01657823845744133
2.93215271085500717e-05 0.04923199862241745 -0.01657823845744133
0.00172656332142651081 0.0400848612189292908 -0.01657823845744133
0.00194041500799357891 0.0435680560767650604 -0.01657823845744133
0.000242983223870396614 0.0351699218153953552 -0.01657823845744133
0.00193358887918293476 0.0225010495632886887 -0.01657823845744133
0.00198016641661524773 0.0083875143900513649 -0.01657823845744133
-0.00063897203654050827 0.0331950411200523376 -0.01657823845744133
0.000804727198556065559 0.033402271568775177 -0.01657823845744133
0.000554014113731682301 0.0344830155372619629 -0.01657823845744133
-6.70934095978736877e-05 0.0339234322309494019 -0.01657823845744133
0.000761325471103191376 0.0442770421504974365 -0.01657823845744133
-0.0005842624232172966 0.0422886982560157776 -0.01657823845744133
0.00150223239324986935 0.0193405747413635254 -0.01657823845744133
0.000402073841542005539 0.0284856632351875305 -0.01657823845744133
-0.000224692514166235924 0.0448068603873252869 -0.01657823845744133
-0.00106101855635643005 0.0408560968935489655 -0.01657823845744133
-0.000461001880466938019 0.0481621995568275452 -0.01657823845744133
-0.00187745736911892891 0.00606131972745060921 -0.01657823845744133
-0.00100102904252707958 0.0285450611263513565 -0.01657823845744133
-0.00072349852416664362 0.010501570999622345 -0.01657823845744133
-0.00152383465319871902 0.00269854185171425343 -0.01657823845744133
-0.00192924845032393932 0.0347012989223003387 -0.01657823845744133
0.0005071982741355896 0.0142237422987818718 -0.01657823845744133
-0.00106203032191842794 0.0128383617848157883 -0.01657823845744133
-0.000976793235167860985 0.0305831599980592728 -0.01657823845744133
0.00128102046437561512 0.00886920932680368423 -0.01657823845744133
-0.00164011737797409296 0.0019396668067201972 -0.01657823845744133
-0.000801463611423969269 0.0308455564081668854 -0.01657823845744133
-0.00134569534566253424 0.0163448918610811234 -0.01657823845744133
-0.000838201376609504223 0.0238682925701141357 -0.01657823845744133
-0.00183179578743875027 0.00428600702434778214 -0.01657823845744133
0.000415603222791105509 0.0102018574252724648 -0.01657823845744133
-0.00108321954030543566 0.0108336871489882469 -0.01657823845744133
0.000252310826908797026 0.0109911225736141205 -0.01657823845744133
-0.000794323859736323357 0.0282000321894884109 -0.01657823845744133
0.00516928313300013542 0.015605495311319828 -0.0158002749085426331
0.00576298590749502182 0.0218849536031484604 -0.0156539399176836014
0.00433269841596484184 0.0342238694429397583 -0.0160064753144979477
0.00586423510685563087 0.00246709305793046951 -0.015628984197974205
0.0048760613426566124 0.0268327072262763977 -0.0158725474029779434
0.00539390416815876961 0.014420902356505394 -0.0157449115067720413
0.00552835548296570778 0.0104801151901483536 -0.0157117713242769241
0.00295201432891190052 0.049357924610376358 -0.0163467824459075928
0.00294389831833541393 0.0461279600858688354 -0.0163487829267978668
0.00580332893878221512 0.0446667708456516266 -0.0156439971178770065
0.00371753564104437828 0.0348674654960632324 -0.0161580983549356461
0.00537028908729553223 0.0469425134360790253 -0.0157507322728633881
0.00482606608420610428 0.0187720321118831635 -0.0158848706632852554
0.00537752686068415642 0.0235352888703346252 -0.0157489478588104248
0.0049028308130800724 0.042909085750579834 -0.0158659499138593674
0.00346299423836171627 0.0400345586240291595 -0.0162208378314971924
0.00471501750871539116 0.0420679524540901184 -0.0159122422337532043
0.00231972243636846542 0.0433063730597496033 -0.0165026281028985977
0.00261361594311892986 0.0203562453389167786 -0.016430191695690155
0.00296744680963456631 0.0368420742452144623 -0.0163429789245128632
0.00391646334901452065 0.0173823796212673187 -0.0161090679466724396
0.00203030044212937355 0.0442893169820308685 -0.0165739655494689941
0.00285516702570021152 0.0356564261019229889 -0.0163706541061401367
0.00277982675470411777 0.0355890579521656036 -0.0163892228156328201
0.00382371386513113976 0.0201064515858888626 -0.0161319281905889511
0.00315684312954545021 0.00755753926932811737 -0.0162962973117828369
0.00245292996987700462 0.0152721554040908813 -0.0164697971194982529
0.00226002302952110767 0.0323929376900196075 -0.0165173448622226715
0.00432115141302347183 0.00377775379456579685 -0.0160093195736408234
0.00216449471190571785 0.0223125908523797989 -0.0165408905595541
0.00332152470946311951 0.032038666307926178 -0.0162557065486907959
0.00239765318110585213 0.00523205287754535675 -0.0164834205061197281
0.00363318878225982189 0.0209633931517601013 -0.016178889200091362
0.0026380650233477354 0.0273160561919212341 -0.0164241641759872437
0.00440080231055617332 0.0122824283316731453 -0.0159896891564130783
0.00940980482846498489 0.0134931877255439758 -0.0137841785326600075
0.00823834352195262909 0.0231420900672674179 -0.0143990088254213333
0.00903553701937198639 0.043587222695350647 -0.0139806093648076057
0.00640304246917366982 0.0482045486569404602 -0.0153622487559914589
0.00885559432208538055 0.046204589307308197 -0.0140750501304864883
0.00947918463498353958 0.040341891348361969 -0.0137477656826376915
0.00683610141277313232 0.0410946570336818695 -0.0151349622756242752
0.00947423838078975677 0.0467307455837726593 -0.0137503612786531448
0.00675438158214092255 0.049193747341632843 -0.0151778515428304672
0.00878144241869449615 0.0318503379821777344 -0.01411396823823452
0.00863538868725299835 0.0452658422291278839 -0.0141906235367059708
0.0084968889132142067 0.0168811827898025513 -0.0142633141949772835
0.00921296887099742889 0.011584114283323288 -0.013887486420571804
0.0091790221631526947 0.0167325008660554886 -0.0139053026214241982
0.00787618197500705719 0.0455049090087413788 -0.0145890861749649048
0.00900514796376228333 0.0285696834325790405 -0.0139965591952204704
0.00896016228944063187 0.0398620031774044037 -0.0140201691538095474
0.00786272343248128891 0.0253471806645393372 -0.0145961493253707886
0.00598239712417125702 0.0140015501528978348 -0.0155830215662717819
0.00889096967875957489 0.00694073969498276711 -0.0140564842149615288
0.00775762228295207024 0.00290317344479262829 -0.0146513106301426888
0.00629243720322847366 0.0207833647727966309 -0.0154202990233898163
0.00715499836951494217 0.0255423262715339661 -0.0149675924330949783
0.00607473962008953094 0.0172514151781797409 -0.0155345555394887924
0.0079419109970331192 0.0132366335019469261 -0.0145545881241559982
0.00605330988764762878 0.0291940700262784958 -0.0155458021908998489
0.00665937550365924835 0.00120344350580126047 -0.0152277154847979546
0.00596930691972374916 0.0439827442169189453 -0.0155898910015821457
0.0071400003507733345 0.00360196991823613644 -0.0149754639714956284
0.00626373849809169769 0.0366600677371025085 -0.015435362234711647
0.00664129061624407768 0.0143385082483291626 -0.0152372065931558609
0.00718764960765838623 0.0196646526455879211 -0.0149504551663994789
0.00750517286360263824 0.0222021713852882385 -0.0147838061675429344
0.00748153356835246086 0.0240785740315914154 -0.0147962123155593872
0.00892006233334541321 0.00519915483891963959 -0.014041215181350708
0.00695335166528820992 0.0208218954503536224 -0.0150734242051839828
0.0113627249374985695 0.0476721599698066711 -0.0120818000286817551
0.0103214308619499207 0.0360708720982074738 -0.0130043067038059235
0.0115089276805520058 0.0186661295592784882 -0.0119522763416171074
0.0102638630196452141 0.0459894463419914246 -0.0130553077906370163
0.0124693727120757103 0.0377151928842067719 -0.0111013967543840408
0.0111033748835325241 0.0415633693337440491 -0.0123115647584199905
0.0116933742538094521 0.0348932668566703796 -0.0117888711392879486
0.0119300074875354767 0.0232206620275974274 -0.0115792322903871536
0.0123120741918683052 0.0233410913497209549 -0.0112407505512237549
0.0121469395235180855 0.0130286868661642075 -0.0113870473578572273
0.0107596432790160179 0.033990863710641861 -0.0126160848885774612
0.0103853233158588409 0.0381761863827705383 -0.0129477027803659439
0.0124519690871238708 0.039006449282169342 -0.0111168147996068001
0.0112394653260707855 0.0234639383852481842 -0.0121909994632005692
0.0122329415753483772 0.0077108689583837986 -0.0113108567893505096
0.0119995055720210075 0.013998914510011673 -0.0115176625549793243
0.0114977173507213593 0.0196789894253015518 -0.0119622070342302322
0.0118097914382815361 0.0195046178996562958 -0.0116857346147298813
0.00958255026489496231 0.00468809949234127998 -0.0136588979512453079
0.0113577833399176598 0.00301604275591671467 -0.0120861781761050224
0.00986097473651170731 0.0105119869112968445 -0.0134122343733906746
0.0101588694378733635 0.0179800335317850113 -0.0131483236327767372
0.0101698692888021469 0.0332952998578548431 -0.0131385782733559608
0.0111661255359649658 0.0200424380600452423 -0.012255973182618618
0.0116855213418602943 0.0124220671132206917 -0.0117958281189203262
0.00975156202912330627 0.0367393866181373596 -0.0135091673582792282
0.00958358403295278549 0.0171994809061288834 -0.0136579824611544609
0.0116650713607668877 0.00868954416364431381 -0.0118139451369643211
0.0122678978368639946 0.00324999261647462845 -0.0112798875197768211
0.0109748914837837219 0.0140097802504897118 -0.0124253910034894943
0.00968188047409057617 0.0269699059426784515 -0.013570898212492466
0.0103426259011030197 0.0234212782233953476 -0.0129855303093791008
0.0110460799187421799 0.00300398911349475384 -0.0123623227700591087
0.00980025902390480042 0.00689108530059456825 -0.0134660247713327408
0.0115041118115186691 0.00861955340951681137 -0.0119565427303314209
0.0147713441401720047 0.00405054213479161263 -0.00778372632339596748
0.0145463570952415466 0.0163604617118835449 -0.00810967572033405304
0.014376702718436718 0.0279968306422233582 -0.00835546292364597321
0.0143402554094791412 0.0361556969583034515 -0.00840826705098152161
0.013217034749686718 0.0445753969252109528 -0.0100355325266718864
0.0140339070931077003 0.0277817696332931519 -0.00885208882391452789
0.0132127972319722176 0.0417693443596363068 -0.0100416708737611771
0.013329007662832737 0.0463285334408283234 -0.00987331196665763855
0.0141184087842702866 0.0226446297019720078 -0.00872966647148132324
0.0125448256731033325 0.0490021780133247375 -0.0110093941912055016
0.0146234361454844475 0.0403571426868438721 -0.00799800828099250793
0.0144957080483436584 0.00870752427726984024 -0.00818305369466543198
0.0147490166127681732 0.0354032963514328003 -0.00781607348471879959
0.0144625185057520866 0.0183488819748163223 -0.00823113787919282913
0.0139717636629939079 0.024324856698513031 -0.00894211884588003159
0.0145947840064764023 0.0297690145671367645 -0.00803951732814311981
0.0143254334107041359 0.047545306384563446 -0.00842973962426185608
0.0147329755127429962 0.0281467214226722717 -0.00783931184560060501
0.0125997569411993027 9.06195054994896054e-06 -0.0109298126772046089
0.0135811557993292809 0.0100705921649932861 -0.0095080127939581871
0.0141067123040556908 0.00520256953313946724 -0.00874661188572645187
0.0140935061499476433 0.0112646445631980896 -0.00876574404537677765
0.0129134003072977066 0.035593029111623764 -0.0104754213243722916
0.013136276975274086 0.0332963764667510986 -0.0101525289937853813
0.0125876450911164284 0.0426421426236629486 -0.0109473597258329391
0.013311140239238739 0.0050866943784058094 -0.00989919621497392654
0.0125705907121300697 0.0102246794849634171 -0.0109720677137374878
0.0127909146249294281 0.0166894290596246719 -0.0106528718024492264
0.0126397814601659775 0.0459402352571487427 -0.0108718285337090492
0.0137653779238462448 0.0143242264166474342 -0.00924111995846033096
0.0139156859368085861 0.0164484791457653046 -0.00902335997670888901
0.0139252860099077225 0.00181209819857031107 -0.00900945346802473068
0.0127247143536806107 0.0187271591275930405 -0.010748780332505703
0.0131425410509109497 0.00391326658427715302 -0.0101434551179409027
0.0141458995640277863 0.0127617493271827698 -0.00868983939290046692
0.0133051909506320953 0.0203034710139036179 -0.0099078156054019928
0.0151242669671773911 0.0386492013931274414 -0.00687188189476728439
0.0160981044173240662 0.0128017514944076538 -0.00430408306419849396
0.0161084234714508057 0.00427442416548728943 -0.00427687354385852814
0.0158561989665031433 0.0491704046726226807 -0.00494193378835916519
0.0151629997417330742 0.0463099777698516846 -0.00676975306123495102
0.0159080177545547485 0.0384194701910018921 -0.00480530271306633949
0.0150842079892754555 0.0451886989176273346 -0.00697751017287373543
0.0161539707332849503 0.0437381565570831299 -0.0041567743755877018
0.0157155301421880722 0.0196960177272558212 -0.00531285163015127182
0.0158571694046258926 0.0141851305961608887 -0.00493937823921442032
0.0161686986684799194 0.00697672273963689804 -0.00411794055253267288
0.01570904441177845 0.0319219045341014862 -0.0053299502469599247
0.0159365963190793991 0.0235088523477315903 -0.0047299475409090519
0.0159285441040992737 0.0118273748084902763 -0.00475117657333612442
0.0155047373846173286 0.0408681482076644897 -0.00586866354569792747
0.016115821897983551 0.0431423261761665344 -0.00425736699253320694
0.0159100610762834549 0.0222949646413326263 -0.00479991268366575241
0.0161637309938669205 0.0378545783460140228 -0.00413104100152850151
0.0149008650332689285 0.0354037396609783173 -0.00746094528585672379
0.0148210842162370682 0.0200684703886508942 -0.00767130963504314423
0.0160316247493028641 0.00462877005338668823 -0.00447937613353133202
0.0150557877495884895 0.0389772020280361176 -0.00705244671553373337
0.0148539841175079346 0.0446679703891277313 -0.00758456066250801086
0.0156723614782094955 0.00286891800351440907 -0.00542667647823691368
0.0151180252432823181 0.0238115489482879639 -0.00688833929598331451
0.0157538242638111115 0.0118982996791601181 -0.00521187437698245049
0.015766732394695282 0.0126534411683678627 -0.00517784105613827705
0.0149155315011739731 0.037771914154291153 -0.00742227397859096527
0.0153398690745234489 0.00657859118655323982 -0.00630338769406080246
0.0150729576125741005 0.0393300727009773254 -0.00700717233121395111
0.0151003869250416756 0.0164122302085161209 -0.00693484954535961151
0.0151171619072556496 0.0348043516278266907 -0.00689061451703310013
0.0148728629574179649 0.00994824245572090149 -0.00753478286787867546
0.0149411028251051903 0.00846698135137557983 -0.00735484622418880463
0.0155379455536603928 0.00508224917575716972 -0.00578110013157129288
0.0166858714073896408 0.0344942323863506317 -0.000116351482574827969
0.0164007022976875305 0.0360254421830177307 -0.00246493355371057987
0.016608191654086113 0.0323396474123001099 -0.000756100809667259455
0.0166175737977027893 0.0212420076131820679 -0.00067883648443967104
0.0165239255875349045 0.0284469723701477051 -0.00145010801497846842
0.01662430539727211 0.0320825055241584778 -0.000623401952907443047
0.0166979487985372543 0.04307560995221138 -1.68894312082557008e-05
0.016665928065776825 0.0459938831627368927 -0.000280611333437263966
0.0163926500827074051 0.0410749167203903198 -0.00253124977461993694
0.0164205189794301987 0.0403434820473194122 -0.00230172695592045784
0.0166512485593557358 0.0065175006166100502 -0.000401493802201002836
0.0166332200169563293 0.0148370508104562759 -0.000549976248294115067
0.016271539032459259 0.0476512052118778229 -0.0035286999773234129
0.0164229925721883774 0.0374125391244888306 -0.00228136498481035233
0.0166322290897369385 0.0141489384695887566 -0.000558138766791671515
0.0164618156850337982 0.0261367075145244598 -0.00196162075735628605
0.0162385609000921249 0.0494289211928844452 -0.00380029366351664066
0.0162900276482105255 0.0416807681322097778 -0.00337642920203506947
0.016226576641201973 0.00302204396575689316 -0.00389897963032126427
0.0162537954747676849 0.0340024307370185852 -0.00367482658475637436
0.0163159705698490143 0.0111325532197952271 -0.0031627691350877285
0.0164013504981994629 0.0295554511249065399 -0.0024595954455435276
0.0163996629416942596 0.0294748060405254364 -0.00247348262928426266
0.0162758100777864456 0.0139386141672730446 -0.00349351111799478531
0.0162340272217988968 0.0125382384285330772 -0.00383763015270233154
0.0165550969541072845 0.0079623861238360405 -0.00119338114745914936
0.0164331533014774323 0.0259002596139907837 -0.00219768378883600235
0.0164146628230810165 0.000983133795671164989 -0.00234996736980974674
0.0165733806788921356 0.00871043186634778976 -0.00104279536753892899
0.0163250211626291275 0.0206910278648138046 -0.00308822281658649445
0.016497492790222168 0.00745125627145171165 -0.00166779640130698681
0.0162878613919019699 0.0393458269536495209 -0.00339425983838737011
0.0163282174617052078 0.0110361315310001373 -0.00306190084666013718
0.0163145419210195541 0.0327926166355609894 -0.00317453499883413315
0.0162980891764163971 0.029200354591012001 -0.00331003242172300816
-0.019019613042473793 0.0571999996900558472 0.000486383738461881876
-0.00866053998470306396 0.0571999996900558472 0.00437869923189282417
0.00114285433664917946 0.0571999996900558472 0.00829012226313352585
-0.0101308580487966537 0.0571999996900558472 0.00681196758523583412
-0.013036755844950676 0.0571999996900558472 0.00349627900868654251
-0.0101570822298526764 0.0571999996900558472 0.00695345085114240646
0.00498383538797497749 0.0571999996900558472 0.00994871370494365692
-0.0103539749979972839 0.0571999996900558472 0.00666597485542297363
-0.0183453485369682312 0.0571999996900558472 0.00221603712998330593
-0.0183391179889440536 0.0571999996900558472 0.00388472015038132668
-0.00267952773720026016 0.0571999996900558472 0.00773909501731395721
-0.0167744364589452744 0.0571999996900558472 0.00459762988612055779
-0.0178546477109193802 0.0571999996900558472 0.00395655911415815353
-0.0104842428117990494 0.0571999996900558472 0.00463125156238675117
-0.0129672754555940628 0.0571999996900558472 0.0029698624275624752
-0.0170495379716157913 0.0571999996900558472 0.00706254411488771439
-0.000931224320083856583 0.0571999996900558472 0.0100427642464637756
-0.0134304631501436234 0.0571999996900558472 0.0074931364506483078
-0.000159403658472001553 0.0571999996900558472 0.00974079687148332596
-0.0156165696680545807 0.0571999996900558472 0.00866495911031961441
-0.0156856775283813477 0.0571999996900558472 0.00596806174144148827
-0.014986163005232811 0.0571999996900558472 0.00656775804236531258
-0.0143813733011484146 0.0571999996900558472 0.00959392264485359192
-0.0163766480982303619 0.0571999996900558472 0.00932631734758615494
-0.0115961357951164246 0.0571999996900558472 0.00757282273843884468
-0.0145494667813181877 0.0571999996900558472 0.00945459026843309402
-0.0141006512567400932 0.0571999996900558472 0.00936378911137580872
0.000202337279915809631 0.0571999996900558472 0.0109719540923833847
-0.0143120428547263145 0.0571999996900558472 0.0109538743272423744
-0.0107351765036582947 0.0571999996900558472 0.0131653165444731712
0.00389001425355672836 0.0571999996900558472 0.0133059052750468254
-0.0133158368989825249 0.0571999996900558472 0.0121046565473079681
-0.000614969059824943542 0.0571999996900558472 0.0125759858638048172
0.004435777198523283 0.0571999996900558472 0.01284829992800951
-0.00596291292458772659 0.0571999996900558472 0.0113088935613632202
-0.0166247002780437469 0.0571999996900558472 0.0100945495069026947
0.00126852095127105713 0.0571999996900558472 0.0120509825646877289
-0.00383933214470744133 0.0571999996900558472 0.0117673492059111595
-0.00755532644689083099 0.0571999996900558472 0.0120387272909283638
-0.0114764412865042686 0.0571999996900558472 0.0164772737771272659
-0.0099751083180308342 0.0571999996900558472 0.0143366381525993347
-0.0111721642315387726 0.0571999996900558472 0.0147638190537691116
0.00101894419640302658 0.0571999996900558472 0.0147546865046024323
-0.0126463267952203751 0.0571999996900558472 0.0142450500279664993
-0.0137657942250370979 0.0571999996900558472 0.0141006633639335632
-0.0115508856251835823 0.0571999996900558472 0.0162171218544244766
-0.0123416157439351082 0.0571999996900558472 0.015675913542509079
-0.00294571928679943085 0.0571999996900558472 0.0143258431926369667
0.0073961024172604084 0.0571999996900558472 0.0147730214521288872
0.00524662341922521591 0.0571999996900558472 0.0149570107460021973
-0.00420241151005029678 0.0571999996900558472 0.0180450864136219025
-0.00562545470893383026 0.0571999996900558472 0.0178622771054506302
-0.000528981909155845642 0.0571999996900558472 0.0161641892045736313
-0.00874157808721065521 0.0571999996900558472 0.0178518369793891907
0.00359053513966500759 0.0571999996900558472 0.0166503563523292542
0.000507031567394733429 0.0571999996900558472 0.0181061793118715286
0.00523029360920190811 0.0571999996900558472 0.0170076712965965271
-0.00237500830553472042 0.0571999996900558472 0.0176878161728382111
0.000800363719463348389 0.0571999996900558472 0.0197058841586112976
0.00191607978194952011 0.0571999996900558472 0.0189791731536388397
0.00304943975061178207 0.0571999996900558472 0.0182728637009859085
0.0101520121097564697 0.0571999996900558472 0.0163205955177545547
0.00509064272046089172 0.0571999996900558472 0.0188402961939573288
0.0117287039756774902 0.0571999996900558472 0.0160924550145864487
0.0158687904477119446 0.0571999996900558472 0.011956031434237957
0.0186000950634479523 0.0571999996900558472 0.00463332235813140869
0.0189456678926944733 0.0571999996900558472 0.00307126715779304504
0.0184517651796340942 0.0571999996900558472 0.0010274471715092659
0.0184668097645044327 0.0571999996900558472 0.0024629589170217514
0.0185199882835149765 0.0571999996900558472 0.000990657135844230652
0.0187726989388465881 0.0571999996900558472 -0.00277566676959395409
0.0166980978101491928 0.0571999996900558472 0.00368739617988467216
0.0167494583874940872 0.0571999996900558472 -0.000609414651989936829
0.017225189134478569 0.0571999996900558472 -0.000192959792912006378
0.0180213749408721924 0.0571999996900558472 -0.00655637029558420181
0.0163008160889148712 0.0571999996900558472 -0.00123139237985014915
0.0159191954880952835 0.0571999996900558472 -0.00864248722791671753
0.0167272966355085373 0.0571999996900558472 -0.00524741271510720253
0.0156838409602642059 0.0571999996900558472 -0.0102463886141777039
0.0154394758865237236 0.0571999996900558472 0.00342834508046507835
0.0154180554673075676 0.0571999996900558472 0.00999397970736026764
0.0154609289020299911 0.0571999996900558472 -0.00968579389154911041
0.0141628244891762733 0.0571999996900558472 0.00134029937908053398
0.013962981291115284 0.0571999996900558472 -0.000471926294267177582
0.0145537778735160828 0.0571999996900558472 0.00508417282253503799
0.014998309314250946 0.0571999996900558472 -0.00795506220310926437
0.0147532122209668159 0.0571999996900558472 -0.00390290236100554466
0.0127348210662603378 0.0571999996900558472 -0.0110091473907232285
0.013604944571852684 0.0571999996900558472 0.00118145253509283066
0.0138207478448748589 0.0571999996900558472 -0.0101691326126456261
0.0139901209622621536 0.0571999996900558472 0.00459843780845403671
0.0120983105152845383 0.0571999996900558472 -0.0066874353215098381
0.0113578075543045998 0.0571999996900558472 -0.00926903076469898224
0.010880359448492527 0.0571999996900558472 -0.00996403582394123077
0.0131819462403655052 0.0571999996900558472 0.00321854418143630028
0.0117210205644369125 0.0571999996900558472 -0.00788678042590618134
0.0137814879417419434 0.0571999996900558472 0.00330927735194563866
0.012174069881439209 0.0571999996900558472 0.000338268466293811798
0.011006002314388752 0.0571999996900558472 -0.0123269334435462952
0.0120936837047338486 0.0571999996900558472 -0.00624702731147408485
0.0113197183236479759 0.0571999996900558472 -0.0160104110836982727
0.0107491733506321907 0.0571999996900558472 -0.00881795864552259445
0.00924035627394914627 0.0571999996900558472 -0.00765116605907678604
0.0100825484842061996 0.0571999996900558472 -0.00116735417395830154
0.00757772382348775864 0.0571999996900558472 -0.0129570998251438141
0.00820764340460300446 0.0571999996900558472 -0.00609488226473331451
0.00992546789348125458 0.0571999996900558472 -0.00420000776648521423
0.00292646884918212891 0.0571999996900558472 -0.0192803535610437393
0.00737618887796998024 0.0571999996900558472 -0.0160479433834552765
0.0127725666388869286 0.0571999996900558472 0.00629216153174638748
0.0115595459938049316 0.0571999996900558472 0.000641139224171638489
0.00930382683873176575 0.0571999996900558472 -0.00220202654600143433
0.00415012706071138382 0.0571999996900558472 -0.0180049575865268707
0.00533943623304367065 0.0571999996900558472 -0.0148909315466880798
0.00575955444946885109 0.0571999996900558472 -0.013777904212474823
0.00567646138370037079 0.0571999996900558472 -0.0108266305178403854
-0.000265399925410747528 0.0571999996900558472 -0.0193448662757873535
0.00571027491241693497 0.0571999996900558472 -0.00992794614285230637
0.00213424582034349442 0.0571999996900558472 -0.017310386523604393
-0.000771599821746349335 0.0571999996900558472 -0.0192287452518939972
0.00308983027935028076 0.0571999996900558472 -0.0152490921318531036
0.00469979178160429001 0.0571999996900558472 -0.0134661328047513962
0.00526106171309947968 0.0571999996900558472 -0.0121698873117566109
0.00627581728622317314 0.0571999996900558472 -0.00560152623802423477
0.00813015736639499664 0.0571999996900558472 -0.00137677416205406189
0.00401982851326465607 0.0571999996900558472 -0.00809002015739679337
0.0105879558250308037 0.0571999996900558472 0.00157908548135310411
-0.00118641462177038193 0.0571999996900558472 -0.0176651366055011749
0.00978389941155910492 0.0571999996900558472 0.00140715250745415688
0.00495640654116868973 0.0571999996900558472 -0.0106868576258420944
0.00191609933972358704 0.0571999996900558472 -0.00762027129530906677
0.00586793152615427971 0.0571999996900558472 -0.00101665966212749481
-0.0036243535578250885 0.0571999996900558472 -0.0166757181286811829
0.00217181630432605743 0.0571999996900558472 -0.0100298812612891197
0.00671839667484164238 0.0571999996900558472 -0.00127660669386386871
0.013819405809044838 0.0571999996900558472 0.0114571079611778259
0.00882081314921379089 0.0571999996900558472 0.00302407611161470413
-0.000335629098117351532 0.0571999996900558472 -0.00942581146955490112
0.00346746435388922691 0.0571999996900558472 -0.00788877625018358231
-0.000988764688372612 0.0571999996900558472 -0.011401936411857605
0.00211356696672737598 0.0571999996900558472 -0.010288420133292675
0.000338944606482982635 0.0571999996900558472 -0.00987136922776699066
-0.00199074693955481052 0.0571999996900558472 -0.0177063234150409698
0.00218225689604878426 0.0571999996900558472 -0.00812501925975084305
0.00919615756720304489 0.0571999996900558472 0.0026757875457406044
0.00224570604041218758 0.0571999996900558472 -0.00878335908055305481
-0.00204225443303585052 0.0571999996900558472 -0.00876399688422679901
-0.00492408685386180878 0.0571999996900558472 -0.0104344207793474197
0.00281296763569116592 0.0571999996900558472 -0.00167533755302429199
-0.00443196669220924377 0.0571999996900558472 -0.0112121086567640305
0.00618921220302581787 0.0571999996900558472 0.00271132122725248337
0.00153695419430732727 0.0571999996900558472 -0.00265713594853878021
-0.00235415296629071236 0.0571999996900558472 -0.011564500629901886
-0.00660503050312399864 0.0571999996900558472 -0.0176800563931465149
0.00720020290464162827 0.0571999996900558472 0.00447249412536621094
-0.00267572421580553055 0.0571999996900558472 -0.00922678317874670029
-0.00407133717089891434 0.0571999996900558472 -0.0114386873319745064
0.00317808007821440697 0.0571999996900558472 -0.00251196138560771942
-0.00483120232820510864 0.0571999996900558472 -0.0128459976986050606
-0.00253600254654884338 0.0571999996900558472 -0.00968536268919706345
-0.000314351171255111694 0.0571999996900558472 -0.00601699575781822205
0.0075924331322312355 0.0571999996900558472 0.00407629506662487984
-0.00789244286715984344 0.0571999996900558472 -0.0143886655569076538
0.0133540183305740356 0.0571999996900558472 0.0115040242671966553
0.0086168777197599411 0.0571999996900558472 0.00741333933547139168
-0.00346363196149468422 0.0571999996900558472 -0.00743621215224266052
0.00363027863204479218 0.0571999996900558472 0.00307528302073478699
-0.0114053422585129738 0.0571999996900558472 -0.0157044325023889542
0.00566952070221304893 0.0571999996900558472 0.00407460285350680351
0.000328758760588243604 0.0571999996900558472 -0.00319862784817814827
-0.00426946254447102547 0.0571999996900558472 -0.00822967104613780975
-0.00891212746500968933 0.0571999996900558472 -0.00917102955281734467
-0.0106777874752879143 0.0571999996900558472 -0.0128381559625267982
0.00240337522700428963 0.0571999996900558472 0.000831594225019216537
-0.0122274113819003105 0.0571999996900558472 -0.0147287501022219658
-0.00117070332635194063 0.0571999996900558472 -0.00457403482869267464
-0.000571762677282094955 0.0571999996900558472 -0.00274539412930607796
-0.00546096451580524445 0.0571999996900558472 -0.00704435165971517563
0.00593991950154304504 0.0571999996900558472 0.00318711483851075172
0.0105417389422655106 0.0571999996900558472 0.00905838795006275177
-0.0136480545625090599 0.0571999996900558472 -0.00894337799400091171
-0.016545373946428299 0.0571999996900558472 -0.010721142403781414
-0.00446093641221523285 0.0571999996900558472 -0.00117166340351104736
-0.0145127605646848679 0.0571999996900558472 -0.00895796995609998703
0.00227363966405391693 0.0571999996900558472 0.00447612721472978592
-0.0133564872667193413 0.0571999996900558472 -0.00868914462625980377
0.00174427218735218048 0.0571999996900558472 0.00348365399986505508
-0.0053378688171505928 0.0571999996900558472 -0.00179388001561164856
-0.0111835412681102753 0.0571999996900558472 -0.00766999274492263794
-0.0113859549164772034 0.0571999996900558472 -0.00629010749980807304
0.00113452854566276073 0.0571999996900558472 0.00164053170010447502
-0.0123389223590493202 0.0571999996900558472 -0.0106672113761305809
0.0005081971175968647 0.0571999996900558472 0.000931744463741779327
-0.0127246621996164322 0.0571999996900558472 -0.00701906066387891769
-0.00952716358006000519 0.0571999996900558472 -0.0041823340579867363
-0.0114190327003598213 0.0571999996900558472 -0.0100615127012133598
-0.00276867207139730453 0.0571999996900558472 0.00082268938422203064
-0.00972407497465610504 0.0571999996900558472 -0.000916220247745513916
-0.0147374104708433151 0.0571999996900558472 -0.0048200986348092556
-0.00642567873001098633 0.0571999996900558472 -0.00119127973448485136
-0.00262700393795967102 0.0571999996900558472 0.00210051611065864563
-0.00215461850166320801 0.0571999996900558472 0.00374907348304986954
-0.00150087638758122921 0.0571999996900558472 0.00195394549518823624
-0.0156591888517141342 0.0571999996900558472 -0.00698799639940261841
-0.00248956028372049332 0.0571999996900558472 0.00407347176223993301
-0.0185763183981180191 0.0571999996900558472 -0.00619544833898544312
-0.00678680185228586197 0.0571999996900558472 0.00177650712430477142
0.00420302338898181915 0.0571999996900558472 0.00731576792895793915
-0.0101456362754106522 0.0571999996900558472 -0.0032575950026512146
-0.00767652411013841629 0.0571999996900558472 0.000108391046524047852
-0.00447206851094961166 0.0571999996900558472 0.00280521996319293976
-0.0109887924045324326 0.0571999996900558472 -0.00367524521425366402
-0.00261258799582719803 0.0571999996900558472 0.002446743194013834
-0.0115066086873412132 0.0571999996900558472 -0.00353714730590581894
-0.000222048256546258926 0.0571999996900558472 0.00582364387810230255
-0.00185047648847103119 0.0571999996900558472 0.00601815525442361832
-0.0132332341745495796 0.0571999996900558472 -0.00145468884147703648
0.000978678464889526367 0.0571999996900558472 0.00718869920819997787
0.00739297317340970039 0.0571999996900558472 0.0101826991885900497
-0.00819763354957103729 0.0571999996900558472 0.00404006335884332657
-0.0136226695030927658 0.0571999996900558472 -0.000993670662865042686
-0.0195473376661539078 0.0571999996900558472 -0.00169593608006834984
0.00191380176693201065 0.0571999996900558472 0.0075831729918718338
0.00234108953736722469 0.0571999996900558472 0.00718065444380044937
-0.00103493453934788704 0.0571999996900558472 0.0060232863761484623
-0.0197082925587892532 0.0571999996900558472 -0.000835717655718326569
-0.00513999909162521362 0.0571999996900558472 0.00483999401330947876
-0.0169583316892385483 0.0571999996900558472 -0.00106524862349033356
0.00301905255764722824 0.0571999996900558472 0.00808883830904960632
-0.0133437076583504677 0.0494999997317790985 0.00821088813245296478
-0.0151288537308573723 0.0494999997317790985 0.00201481441035866737
-0.0147527651861310005 0.0494999997317790985 0.00183162139728665352
-0.0137686152011156082 0.0494999997317790985 0.00267836311832070351
-0.0137274926528334618 0.0494999997317790985 0.00151387602090835571
-0.0139462212100625038 0.0494999997317790985 -0.00400083139538764954
-0.0138568468391895294 0.0494999997317790985 -0.00412149215117096901
-0.0132398800924420357 0.0494999997317790985 -0.00350216822698712349
-0.0137565778568387032 0.0494999997317790985 -0.00235634669661521912
-0.0102117685601115227 0.0494999997317790985 -0.013042978011071682
-0.0104228490963578224 0.0494999997317790985 -0.0119355171918869019
-0.0112994611263275146 0.0494999997317790985 0.000776198692619800568
-0.0101409126073122025 0.0494999997317790985 -0.0128753921017050743
-0.0123072899878025055 0.0494999997317790985 -0.00243483670055866241
-0.0102655766531825066 0.0494999997317790985 -0.0102129597216844559
-0.00968907773494720459 0.0494999997317790985 -0.0118613475933670998
-0.00898293685168027878 0.0494999997317790985 -0.00894861016422510147
-0.00689107645303010941 0.0494999997317790985 -0.014160902239382267
-0.00675542140379548073 0.0494999997317790985 -0.0122866695746779442
-0.0081499926745891571 0.0494999997317790985 -0.00731858331710100174
-0.0104721337556838989 0.0494999997317790985 0.0027103126049041748
-0.0105093056336045265 0.0494999997317790985 -0.00106147490441799164
-0.00822015758603811264 0.0494999997317790985 -0.0101910028606653214
-0.00694373995065689087 0.0494999997317790985 -0.00606194604188203812
-0.003329042112454772 0.0494999997317790985 -0.0134990913793444633
-0.00704421428963541985 0.0494999997317790985 -0.00769014563411474228
-0.0103147588670253754 0.0494999997317790985 0.00319534540176391602
-0.00446928013116121292 0.0494999997317790985 -0.0115378256887197495
-0.00528151076287031174 0.0494999997317790985 -0.0107271336019039154
-0.00256384117528796196 0.0494999997317790985 -0.015688825398683548
-0.00834564957767724991 0.0494999997317790985 -0.00204465445131063461
-0.00441130669787526131 0.0494999997317790985 -0.0110493693500757217
-0.00777624128386378288 0.0494999997317790985 0.000613382086157798767
-0.00685457140207290649 0.0494999997317790985 -0.00115262344479560852
-0.00497936038300395012 0.0494999997317790985 -0.00390272308140993118
-0.0118136070668697357 0.0494999997317790985 0.00933420658111572266
-0.000278650288237258792 0.0494999997317790985 -0.0165475457906723022
-0.00369588518515229225 0.0494999997317790985 -0.00988744944334030151
-0.00289962254464626312 0.0494999997317790985 -0.0139008620753884315
-0.0048783598467707634 0.0494999997317790985 -0.00517288967967033386
-0.00259397155605256557 0.0494999997317790985 -0.0136545337736606598
-0.0105051547288894653 0.0494999997317790985 0.0063573736697435379
0.00405352842062711716 0.0494999997317790985 -0.0137507002800703049
0.00234369141981005669 0.0494999997317790985 -0.0108501734212040901
-0.00873140059411525726 0.0494999997317790985 0.00550015084445476532
0.000415523070842027664 0.0494999997317790985 -0.0116879111155867577
-0.00198573479428887367 0.0494999997317790985 -0.00653546210378408432
-0.00574952317401766777 0.0494999997317790985 -0.00121666397899389267
-0.00444811303168535233 0.0494999997317790985 -0.00255935639142990112
-0.00613113073632121086 0.0494999997317790985 -0.000691766850650310516
0.00264015491120517254 0.0494999997317790985 -0.0117427166551351547
0.0036099608987569809 0.0494999997317790985 -0.015149272046983242
-0.000562291126698255539 0.0494999997317790985 -0.00683496333658695221
-0.00282557262107729912 0.0494999997317790985 -0.00262994226068258286
0.00271073170006275177 0.0494999997317790985 -0.00660648057237267494
0.00515986932441592216 0.0494999997317790985 -0.00905334670096635818
-9.5344148576259613e-05 0.0494999997317790985 -0.00300910603255033493
0.00313724367879331112 0.0494999997317790985 -0.0111959818750619888
0.00237694010138511658 0.0494999997317790985 -0.0068205283023416996
-1.81868672370910645e-05 0.0494999997317790985 -0.00583532731980085373
0.0081004733219742775 0.0494999997317790985 -0.0134344380348920822
-0.00779836345463991165 0.0494999997317790985 0.00549322925508022308
0.00530885253101587296 0.0494999997317790985 -0.0135835856199264526
0.00567900761961936951 0.0494999997317790985 -0.01334349624812603
-0.00599567592144012451 0.0494999997317790985 0.00313444994390010834
0.00844693742692470551 0.0494999997317790985 -0.010920695960521698
0.00100095383822917938 0.0494999997317790985 -0.0015501026064157486
0.00671064900234341621 0.0494999997317790985 -0.00890672765672206879
0.00353339780122041702 0.0494999997317790985 -0.00455279462039470673
-0.000126524828374385834 0.0494999997317790985 -0.000973743386566638947
-0.000372095033526420593 0.0494999997317790985 -0.00180347450077533722
0.00801420863717794418 0.0494999997317790985 -0.0082943793386220932
0.00948614906519651413 0.0494999997317790985 -0.0106413848698139191
0.00708706118166446686 0.0494999997317790985 -0.0100792767480015755
-0.00486165471374988556 0.0494999997317790985 0.00364065729081630707
-0.00389359798282384872 0.0494999997317790985 0.00238301884382963181
0.01008621696382761 0.0494999997317790985 -0.0110206501558423042
-0.00470926240086555481 0.0494999997317790985 0.00448785815387964249
0.0123645709827542305 0.0494999997317790985 -0.00816876348108053207
0.0132189812138676643 0.0494999997317790985 -0.00961044896394014359
-0.00268578808754682541 0.0494999997317790985 0.00286184810101985931
-0.0014405176043510437 0.0494999997317790985 0.00195275526493787766
-0.00836528930813074112 0.0494999997317790985 0.00788952969014644623
0.0087734004482626915 0.0494999997317790985 -0.00552086252719163895
-0.0091701168566942215 0.0494999997317790985 0.00818960089236497879
0.0124110477045178413 0.0494999997317790985 -0.00761105027049779892
0.0130526283755898476 0.0494999997317790985 -0.00747090810909867287
0.0135106043890118599 0.0494999997317790985 -0.00816746428608894348
0.0125076854601502419 0.0494999997317790985 -0.0110192662104964256
-0.00323464721441268921 0.0494999997317790985 0.00520012155175209045
-0.0115309413522481918 0.0494999997317790985 0.0105636604130268097
0.0112411733716726303 0.0494999997317790985 -0.00262166233733296394
-0.00502849556505680084 0.0494999997317790985 0.00606794003397226334
0.00163656752556562424 0.0494999997317790985 0.00148407416418194771
-0.00492727383971214294 0.0494999997317790985 0.00615060282871127129
0.0117619521915912628 0.0494999997317790985 -0.0026787114329636097
0.00272918492555618286 0.0494999997317790985 0.00167128117755055428
-0.00307858176529407501 0.0494999997317790985 0.00458221882581710815
0.0105053242295980453 0.0494999997317790985 -0.0015273229219019413
0.0140347704291343689 0.0494999997317790985 -0.00572330877184867859
0.00438745971769094467 0.0494999997317790985 -0.000367472879588603973
0.00853192806243896484 0.0494999997317790985 0.000589317874982953072
0.0140833184123039246 0.0494999997317790985 -0.000946509884670376778
-0.00823354534804821014 0.0494999997317790985 0.00936148036271333694
0.00578376930207014084 0.0494999997317790985 0.00285530462861061096
0.00210144557058811188 0.0494999997317790985 0.0052981153130531311
0.0143273305147886276 0.0494999997317790985 -0.00208645639941096306
0.0158743467181921005 0.0494999997317790985 -0.000821392459329217672
0.00875853281468153 0.0494999997317790985 0.000752376625314354897
-0.00648236647248268127 0.0494999997317790985 0.00858438946306705475
0.0161214116960763931 0.0494999997317790985 -0.00203357264399528503
0.00628237612545490265 0.0494999997317790985 0.00205711135640740395
0.00532620865851640701 0.0494999997317790985 0.00497656874358654022
0.0143455499783158302 0.0494999997317790985 0.00402770703658461571
0.0148887159302830696 0.0494999997317790985 0.00346874119713902473
0.0121176997199654579 0.0494999997317790985 0.00403146538883447647
-0.00126175954937934875 0.0494999997317790985 0.00730216037482023239
0.016324210911989212 0.0494999997317790985 0.000508840079419314861
0.0109314722940325737 0.0494999997317790985 0.00360461603850126266
0.00517301913350820541 0.0494999997317790985 0.00539294164627790451
0.00729348976165056229 0.0494999997317790985 0.00597760267555713654
0.00844469387084245682 0.0494999997317790985 0.00530411675572395325
-0.00343401823192834854 0.0494999997317790985 0.00889004301279783249
-0.0052933916449546814 0.0494999997317790985 0.00971474964171648026
0.0103956898674368858 0.0494999997317790985 0.00713352067396044731
-0.00561777222901582718 0.0494999997317790985 0.010056888684630394
-0.00151472818106412888 0.0494999997317790985 0.00865592621266841888
0.0136841023340821266 0.0494999997317790985 0.0047455797903239727
-0.000827341340482234955 0.0494999997317790985 0.00874834507703781128
0.0107844900339841843 0.0494999997317790985 0.00683504901826381683
0.0099251866340637207 0.0494999997317790985 0.00724045978859066963
0.0116380453109741211 0.0494999997317790985 0.00970571208745241165
0.00370724592357873917 0.0494999997317790985 0.0109041519463062286
0.00867927726358175278 0.0494999997317790985 0.00876032840460538864
0.0112470900639891624 0.0494999997317790985 0.0106241749599575996
0.00694605614989995956 0.0494999997317790985 0.00923810619860887527
-0.00568965263664722443 0.0494999997317790985 0.0108358869329094887
-0.00610213540494441986 0.0494999997317790985 0.010368826799094677
0.00347444135695695877 0.0494999997317790985 0.0109189311042428017
0.000854901969432830811 0.0494999997317790985 0.0121637145057320595
0.00703298440203070641 0.0494999997317790985 0.0121802100911736488
-0.00697626173496246338 0.0494999997317790985 0.0111295534297823906
0.00455684307962656021 0.0494999997317790985 0.0115862973034381866
0.00432678638026118279 0.0494999997317790985 0.0121771106496453285
0.000324623659253120422 0.0494999997317790985 0.0116235893219709396
-0.0016821911558508873 0.0494999997317790985 0.0130333546549081802
0.00405061431229114532 0.0494999997317790985 0.0135271027684211731
-0.000696442555636167526 0.0494999997317790985 0.013678709976375103
-0.00859944149851799011 0.0494999997317790985 0.0116461217403411865
0.00324278278276324272 0.0494999997317790985 0.0133050717413425446
0.00391076179221272469 0.0494999997317790985 0.0156450122594833374
-0.0043620401993393898 0.0494999997317790985 0.0131627433001995087
0.00015292363241314888 0.0494999997317790985 0.0148053299635648727
-0.00145870435517281294 0.0494999997317790985 0.0157554298639297485
-0.001467857975512743 0.0494999997317790985 0.0155749227851629257
-0.00897531211376190186 0.0494999997317790985 0.0130254728719592094
-0.0100991036742925644 0.0494999997317790985 0.012916959822177887
-0.0133655434474349022 0.0494999997317790985 0.00940144341439008713
-0.0195194724947214127 0.0494999997317790985 -0.000688926433213055134
-0.0163146480917930603 0.0494999997317790985 0.00969545543193817139
