ply
format ascii 1.0
element vertex 715
property float x
property float y
property float z
end_header
-0.022734886035323143 -0.00980475638061761856 0.0270388256758451462
-0.0211720280349254608 -0.0105611393228173256 0.0266534984111785889
-0.0258420482277870178 -0.00730278622359037399 0.0282042790204286575
-0.0320609360933303833 -0.0102509083226323128 0.0273538678884506226
-0.039845295250415802 -0.0102898217737674713 0.0277502536773681641
-0.0421266332268714905 -0.00974659435451030731 0.0280883237719535828
-0.0284253545105457306 -0.00664727110415697098 0.0286032538861036301
-0.0287887118756771088 -0.00706355739384889603 0.028455931693315506
-0.02950306236743927 -0.00870196335017681122 0.0278382226824760437
-0.0342206582427024841 -0.00652287527918815613 0.0289597176015377045
-0.022383345291018486 -0.00901401136070489883 0.0273365937173366547
0.00352416373789310455 0.0484957285225391388 0.00322911981493234634
0.00429617892950773239 0.0489896312355995178 0.00259677926078438759
0.00891147181391716003 0.0526431836187839508 0.00266627734526991844
0.00392151437699794769 0.048689618706703186 0.00257236277684569359
0.0013151196762919426 0.0465299375355243683 0.00200353190302848816
-0.00123129645362496376 0.0446215085685253143 0.00255491584539413452
0.00148977106437087059 0.0465516634285449982 0.00136609131004661322
0.00850648432970046997 0.0523305423557758331 0.00270386319607496262
0.00143596995621919632 0.0465880706906318665 0.00179920229129493237
0.00555689353495836258 0.0497902035713195801 0.00153133179992437363
-0.000800889916718006134 0.0451307669281959534 0.00348713761195540428
0.00546654313802719116 0.0498277731239795685 0.0021291845478117466
-0.00229146052151918411 0.0438757538795471191 0.00305246328935027122
-0.00121704209595918655 0.0448511987924575806 0.00375477620400488377
0.0121372435241937637 0.0552398674190044403 0.00295159104280173779
0.00175569159910082817 0.0469690710306167603 0.00250655016861855984
0.000975195318460464478 0.0465041063725948334 0.00333459116518497467
-0.00246107671409845352 0.043794725090265274 0.00334236025810241699
0.0127490796148777008 0.0556643679738044739 0.00263212085701525211
0.0116832144558429718 0.0547316521406173706 0.00212746439501643181
0.0108770094811916351 0.0542103499174118042 0.00275743892416357994
-0.00064973440021276474 0.0455341115593910217 0.00504759978502988815
-0.00295251794159412384 0.0437665581703186035 0.00531709706410765648
0.00535386335104703903 0.0496971309185028076 0.00189985497854650021
0.0078126322478055954 0.0516712963581085205 0.00208933302201330662
-0.00638342369347810745 0.0411392822861671448 0.00575258955359458923
0.00829547643661499023 0.0521394349634647369 0.00256847799755632877
0.00712317973375320435 0.0511048659682273865 0.00196553906425833702
0.00365448743104934692 0.0485547930002212524 0.00298882788047194481
0.0429570004343986511 0.0101061165332794189 0.0171063244342803955
0.0432031042873859406 0.0102308262139558792 0.017020057886838913
0.0490812547504901886 0.013920169323682785 0.0158412829041481018
0.0400573909282684326 0.00765826087445020676 0.016908721998333931
0.0460809916257858276 0.0121195409446954727 0.0165452249348163605
0.0317870713770389557 0.00174729339778423309 0.0176736786961555481
0.0451611354947090149 0.011819375678896904 0.0170735623687505722
0.0493504777550697327 0.014204367995262146 0.0159302502870559692
0.0424213744699954987 0.00998218357563018799 0.0174770597368478775
0.0490429438650608063 0.0148872137069702148 0.0170785654336214066
0.0379016026854515076 0.00631308276206254959 0.0173508021980524063
0.0485661961138248444 0.0138931674882769585 0.0163121335208415985
0.0310563109815120697 0.00118983723223209381 0.0176976397633552551
0.0372967831790447235 0.0056785261258482933 0.0171557869762182236
0.0523349083960056305 0.016197914257645607 0.0154811516404151917
0.052216358482837677 0.0175254344940185547 0.0172442253679037094
0.0482533387839794159 0.0131713282316923141 0.0157229360193014145
0.0474470630288124084 0.0133763011544942856 0.0167667567729949951
0.040372110903263092 0.00815169326961040497 0.017212720587849617
0.00571439601480960846 0.0446993410587310791 0.015694035217165947
0.0163569189608097076 0.0546272322535514832 0.0134286209940910339
0.0164882782846689224 0.0549912489950656891 0.0130346585065126419
0.0119248460978269577 0.0504396222531795502 0.0144525971263647079
0.0142128448933362961 0.0521401427686214447 0.0146231260150671005
0.0153313595801591873 0.0533202141523361206 0.0141778988763689995
0.0123176220804452896 0.0502014346420764923 0.0152853420004248619
0.011283552274107933 0.0492657199501991272 0.0154616329818964005
0.0169681552797555923 0.0550573132932186127 0.0135108744725584984
0.0171540491282939911 0.0546043552458286285 0.0144206658005714417
0.0160061642527580261 0.0536301843822002411 0.0145185431465506554
0.0130306966602802277 0.0510708242654800415 0.0148240663111209869
0.0149304717779159546 0.0532870851457118988 0.0137466341257095337
0.000646882690489292145 0.0417957715690135956 0.0149949491024017334
0.00423750560730695724 0.0453913211822509766 0.0140075217932462692
0.0015048799104988575 0.0423964783549308777 0.0149812148883938789
0.000938323326408863068 0.0441054031252861023 0.0131800221279263496
0.0077292323112487793 0.0479155443608760834 0.0138832172378897667
0.00938199181109666824 0.0502339974045753479 0.0128583302721381187
0.00121700949966907501 0.043939642608165741 0.0134858200326561928
0.00767334550619125366 0.0479413345456123352 0.0138282980769872665
0.00357909779995679855 0.0440445393323898315 0.0147796357050538063
-0.00108839757740497589 0.0418876521289348602 0.0138992210850119591
0.00142042245715856552 0.0443840883672237396 0.013222898356616497
0.000918980687856674194 0.0446992255747318268 0.0126581545919179916
-0.000522611662745475769 0.0397816114127635956 0.0160413812845945358
1.60173512995243073e-05 0.0419694483280181885 0.0144759984686970711
-0.00772173982113599777 0.0390061847865581512 0.0124899260699748993
-0.00491894688457250595 0.0410336591303348541 0.0123890368267893791
-0.00343109853565692902 0.0397006087005138397 0.0144068775698542595
0.00626511871814727783 0.0472681745886802673 0.0135819297283887863
-0.00528788845986127853 0.0386181250214576721 0.0142496014013886452
-0.0130324605852365494 0.0355398766696453094 0.0123583972454071045
0.00806124694645404816 0.0489453598856925964 0.0131923733279109001
-0.00314635876566171646 0.0411526411771774292 0.0133253410458564758
-0.00905637163668870926 0.0366827696561813354 0.0137054780498147011
0.0016499226912856102 0.0447123721241950989 0.0130751263350248337
0.00140246469527482986 0.0416551865637302399 0.0155585296452045441
0.00258324947208166122 0.0445897094905376434 0.0137274386361241341
0.00701713375747203827 0.0486837700009346008 0.0128055037930607796
-0.00158450473099946976 0.0418974980711936951 0.0136000737547874451
0.00625168066471815109 0.0474087856709957123 0.0134531678631901741
0.00870603788644075394 0.0493714585900306702 0.0132038313895463943
0.00535601750016212463 0.0466352701187133789 0.0135934073477983475
0.00633433181792497635 0.0467277765274047852 0.0140870874747633934
0.00311515666544437408 0.0435267798602581024 0.0149529436603188515
0.00652220472693443298 0.046431809663772583 0.0144516248255968094
-0.00157354469411075115 0.0401040948927402496 0.0151483602821826935
0.00410836935043334961 0.0456725955009460449 0.0136900357902050018
-0.0055043613538146019 0.0383747220039367676 0.0143320318311452866
0.00317850988358259201 0.0429798774421215057 0.0154602574184536934
0.0119926324114203453 0.0513824447989463806 0.0134005900472402573
0.0103378221392631531 0.0497976057231426239 0.0137935550883412361
0.00562409218400716782 0.0468315184116363525 0.0135817518457770348
-0.0053651188500225544 0.0399649366736412048 0.0130464378744363785
-0.00547339161857962608 0.0379677042365074158 0.0147001082077622414
0.00830121245235204697 0.0492382384836673737 0.0130811752751469612
0.00418304186314344406 0.045255124568939209 0.0140927061438560486
0.0215793885290622711 0.0417147204279899597 0.0269514899700880051
0.0186182484030723572 0.0396235845983028412 0.0268629472702741623
0.0164716988801956177 0.0388399884104728699 0.0264956280589103699
0.0252876952290534973 0.0455563217401504517 0.0265561770647764206
0.0241960436105728149 0.0450107678771018982 0.0264302436262369156
0.0160263553261756897 0.0375259295105934143 0.0268960855901241302
0.0213167332112789154 0.0419947914779186249 0.0267509147524833679
0.0264923423528671265 0.0450909696519374847 0.0271369926631450653
0.0260595455765724182 0.04538007453083992 0.0268778540194034576
0.0252647548913955688 0.0453288815915584564 0.0266429353505373001
0.0157776251435279846 0.0377518869936466217 0.0267223995178937912
0.0241159610450267792 0.0450638681650161743 0.0263824593275785446
0.0157536584883928299 0.037739776074886322 0.0267196912318468094
0.0190510246902704239 0.0401254482567310333 0.0267946533858776093
0.0147102884948253632 0.0435617119073867798 0.0230052713304758072
0.0105545260012149811 0.0402926020324230194 0.0228953156620264053
0.0174588952213525772 0.0453897267580032349 0.0232760123908519745
0.0214283764362335205 0.0475859940052032471 0.023929942399263382
0.0224604606628417969 0.0493143945932388306 0.0234141498804092407
0.0139522440731525421 0.0429540574550628662 0.022991938516497612
0.0208394639194011688 0.047883935272693634 0.0234632939100265503
0.0184279847890138626 0.045393139123916626 0.0237513631582260132
0.0214580930769443512 0.0472514480352401733 0.0241428203880786896
0.0212351605296134949 0.047040790319442749 0.0241578333079814911
0.0223952829837799072 0.0483452863991260529 0.0239563062787055969
0.0359921008348464966 0.00191350560635328293 0.0131639400497078896
0.0369210727512836456 0.00261657708324491978 0.0131320180371403694
0.0328159965574741364 -0.00171345961280167103 0.0112891802564263344
0.0279481522738933563 -0.0052946917712688446 0.0116233304142951965
0.0481974370777606964 0.011009913869202137 0.0125159518793225288
0.0298122186213731766 -0.00490289740264415741 0.00990659836679697037
0.0407498106360435486 0.00426345504820346832 0.0109717575833201408
0.0411738976836204529 0.00435001077130436897 0.0105770053341984749
0.0416934043169021606 0.00549038127064704895 0.0117710195481777191
0.0327971763908863068 -0.000526538817211985588 0.0132379885762929916
0.030590403825044632 -0.00488307187333703041 0.00895679555833339691
0.0381599925458431244 0.00272188195958733559 0.0117394700646400452
0.0443800948560237885 0.00766749121248722076 0.0119118420407176018
0.0543026663362979889 0.015843905508518219 0.0126522369682788849
0.0505538508296012878 0.0127388732507824898 0.0123466802760958672
0.0390433222055435181 0.00399347813799977303 0.0126872286200523376
0.0418701693415641785 0.0053322669118642807 0.0112915206700563431
0.0332492366433143616 -0.00176899298094213009 0.0106524275615811348
0.0312692634761333466 -0.00225668842904269695 0.0123598780483007431
0.0320820137858390808 -0.0030999411828815937 0.0099666425958275795
0.0543850436806678772 0.0158799365162849426 0.0126067269593477249
0.029526272788643837 -0.00489516789093613625 0.0102799553424119949
0.0411061346530914307 0.00420150207355618477 0.0104216476902365685
0.0433228537440299988 0.0071403970941901207 0.0123910363763570786
0.0498666837811470032 0.0124626820906996727 0.0127658350393176079
0.0380084998905658722 0.00164734828285872936 0.0101878568530082703
0.028366846963763237 -0.0051409783773124218 0.0113443052396178246
0.0292259305715560913 -0.0047661755234003067 0.0108681544661521912
0.0419723354279994965 0.00619164714589715004 0.0125564299523830414
0.0408891960978507996 0.0051213516853749752 0.0121872881427407265
0.0300957467406988144 -0.00400598393753170967 0.011003522202372551
0.0374382957816123962 0.00182183296419680119 0.011190369725227356
0.0399096831679344177 0.00330200651660561562 0.0104725146666169167
0.0387737639248371124 0.00381997926160693169 0.0127459755167365074
0.0288350172340869904 -0.00375631917268037796 0.0129993055015802383
0.0345861390233039856 -0.000757026311475783587 0.0106067489832639694
0.0379889123141765594 0.00201151915825903416 0.0108032207936048508
0.0394716113805770874 0.00358665827661752701 0.0114869698882102966
0.0269648395478725433 -0.00564597733318805695 0.0122943837195634842
0.0499178990721702576 0.0124991396442055702 0.0127603393048048019
0.0291663762181997299 -0.00511413253843784332 0.0103789558634161949
0.027250220999121666 -0.00627573486417531967 0.0102349845692515373
0.0266858935356140137 -0.00582792935892939568 0.0122838728129863739
0.0268641151487827301 -0.00655489787459373474 0.00999296084046363831
0.0268723145127296448 -0.00628731539472937584 0.0107326619327068329
0.0282413177192211151 -0.00562280695885419846 0.0106775285676121712
0.0177152920514345169 -0.0101760774850845337 0.0126623772084712982
0.0130572151392698288 -0.0127929616719484329 0.0118508888408541679
0.0241672005504369736 -0.00722156418487429619 0.0119050405919551849
0.0126226041465997696 -0.0127191860228776932 0.0126677453517913818
0.0280172713100910187 -0.00614226935431361198 0.00953353103250265121
0.0292963217943906784 -0.00551501242443919182 0.00950002297759056091
0.016146516427397728 -0.010756881907582283 0.0132327685132622719
0.0202444586902856827 -0.00960857607424259186 0.0107072442770004272
0.0173699893057346344 -0.0106441816315054893 0.011832674965262413
0.0113630928099155426 -0.0135459750890731812 0.0121136801317334175
0.0185593832284212112 -0.00976695120334625244 0.0126267215237021446
0.0218180976808071136 -0.00811526551842689514 0.0126917818561196327
0.0266475975513458252 -0.00592941045761108398 0.0120527073740959167
0.0209324974566698074 -0.00887593813240528107 0.0117987478151917458
0.0209374669939279556 -0.00936994422227144241 0.0104049108922481537
0.0201504342257976532 -0.00877849943935871124 0.013169500045478344
0.0235859546810388565 -0.00783358141779899597 0.0110023394227027893
0.0211241878569126129 -0.0090566026046872139 0.011022619903087616
0.0193180032074451447 -0.00924947671592235565 0.0130151538178324699
0.0244438201189041138 0.0331220291554927826 0.0296416841447353363
0.0180076342076063156 0.0274046193808317184 0.0296451840549707413
0.0193171706050634384 0.0297676883637905121 0.0294765494763851166
0.0171172469854354858 0.0303257852792739868 0.029126117005944252
0.0163787361234426498 0.0240248478949069977 0.0299165826290845871
0.0180504526942968369 0.0289896801114082336 0.0294286385178565979
0.0174877997487783432 0.0290600545704364777 0.0293491389602422714
0.0124548003077507019 0.0252055805176496506 0.0292655956000089645
0.0187393948435783386 0.0284488163888454437 0.0295896176248788834
0.0263762380927801132 0.0336906276643276215 0.0298013091087341309
0.013338048942387104 0.0208923667669296265 0.0299786105751991272
0.026397358626127243 0.035867791622877121 0.0294992066919803619
0.0127943521365523338 0.0216718483716249466 0.0298022124916315079
0.0234149917960166931 0.0319717787206172943 0.0296753179281949997
0.0170188844203948975 0.0277824215590953827 0.0294699110090732574
0.0201066192239522934 0.0297764483839273453 0.0295730456709861755
0.0152417011559009552 0.0249641519039869308 0.0296443663537502289
0.019878532737493515 0.0277368649840354919 0.0298302751034498215
0.021693909540772438 0.0293526593595743179 0.0298288464546203613
0.0204811915755271912 0.0285205207765102386 0.0297951959073543549
0.0197120271623134613 0.0310478080064058304 0.0293462611734867096
0.0278085470199584961 0.0366498604416847229 0.0295644346624612808
0.0200427845120429993 0.0295299999415874481 0.0295996386557817459
0.0257082805037498474 0.0343542769551277161 0.0296257399022579193
0.0187965501099824905 0.0280377604067325592 0.0296542253345251083
0.0213574022054672241 0.029385589063167572 0.0297825820744037628
0.0227852649986743927 0.0318890362977981567 0.029608946293592453
0.0122337033972144127 0.0199381578713655472 0.0299754608422517776
0.0149810565635561943 0.028838546946644783 0.0290698390454053879
0.0212226733565330505 0.031793598085641861 0.0294288769364356995
0.0191786549985408783 0.0304572321474552155 0.029362894594669342
0.0154267977923154831 0.0277209952473640442 0.0292814299464225769
0.0137806236743927002 0.0227697193622589111 0.0297706406563520432
0.0303859859704971313 0.037894420325756073 0.0297092963010072708
0.0261865854263305664 0.0339406877756118774 0.0297428350895643234
0.0302637442946434021 0.0380010753870010376 0.0296792369335889816
0.0232539214193820953 0.0309595242142677307 0.0297970566898584366
0.0185796953737735748 0.0385512895882129669 0.0272535532712936401
0.0078975483775138855 0.029888862743973732 0.027285352349281311
0.00952416472136974335 0.0317131504416465759 0.0271405857056379318
0.0144547224044799805 0.0336375907063484192 0.0277002789080142975
0.0129497498273849487 0.0322265997529029846 0.0277575384825468063
0.0234796851873397827 0.041463267058134079 0.027532968670129776
0.00742505351081490517 0.0293077956885099411 0.0273415707051753998
0.0223158895969390869 0.0402289442718029022 0.0276169087737798691
0.0145544726401567459 0.0315319262444972992 0.0283055603504180908
0.0128532843664288521 0.0296364370733499527 0.0284535214304924011
0.00838289596140384674 0.0291740335524082184 0.0275908894836902618
0.0171210914850234985 0.0365610010921955109 0.0274815279990434647
0.0167533010244369507 0.0329344496130943298 0.0284044127911329269
0.0115140387788414955 0.0285543650388717651 0.0284564103931188583
0.0238026529550552368 0.0419236607849597931 0.0274770334362983704
0.0197265930473804474 0.03621688112616539 0.0281542465090751648
0.0110270623117685318 0.030654221773147583 0.0277669243514537811
0.0196702703833580017 0.0378774404525756836 0.0276818647980690002
0.0171169545501470566 0.0334333442151546478 0.0283468328416347504
0.00984266772866249084 0.0308578051626682281 0.0274480637162923813
0.013271944597363472 0.0307874400168657303 0.0282275229692459106
0.0181692726910114288 0.0367405936121940613 0.0276640783995389938
0.010942382737994194 0.0325000584125518799 0.0272369440644979477
0.0237306207418441772 0.0412616655230522156 0.0276444125920534134
0.008101683109998703 0.031105702742934227 0.0269935820251703262
0.0117906993255019188 0.0288264285773038864 0.0284423716366291046
0.019242454320192337 0.0369631350040435791 0.0278402771800756454
0.0228364355862140656 0.0404776111245155334 0.0276633966714143753
0.00777911627665162086 0.0294333659112453461 0.0273852609097957611
0.0100246332585811615 0.0289642456918954849 0.0280128195881843567
0.00763822300359606743 0.0292128045111894608 0.0274151209741830826
0.00998176541179418564 0.0306231919676065445 0.0275438670068979263
-0.0043917093425989151 -0.0119315041229128838 0.0220694299787282944
-0.0161686521023511887 -0.0149271273985505104 0.0227066706866025925
-0.00411768071353435516 -0.012430218979716301 0.0214906018227338791
-0.000768249854445457458 -0.0118570905178785324 0.0210326891392469406
-0.00733623653650283813 -0.0134092438966035843 0.0215056575834751129
0.00307651050388813019 -0.0128926699981093407 0.018826749175786972
-0.00168111000675708055 -0.0136849302798509598 0.0194988362491130829
-0.00154590979218482971 -0.0106885433197021484 0.0224305093288421631
-1.77109614014625549e-05 -0.012757839635014534 0.0199088994413614273
-0.0106640635058283806 -0.0137544069439172745 0.0221831426024436951
-0.00175230391323566437 -0.0103654293343424797 0.0228143688291311264
-0.0141337122768163681 -0.0154610844328999519 0.0215531587600708008
0.00162761285901069641 -0.0117024313658475876 0.0204518232494592667
0.00394927570596337318 -0.0119944252073764801 0.0194505155086517334
0.00211333716288208961 -0.0134766083210706711 0.0185425560921430588
0.00279453769326210022 -0.00995694659650325775 0.0218260902911424637
0.00204568332992494106 -0.0133455321192741394 0.0186933502554893494
-0.0210870504379272461 -0.0165104381740093231 0.0226431302726268768
-0.0190789736807346344 -0.0158383417874574661 0.022694537416100502
-0.000617206096649169922 -0.011435849592089653 0.021404363214969635
-0.0133172627538442612 -0.0144167076796293259 0.0223391838371753693
-0.00745144113898277283 -0.0139890909194946289 0.02096562460064888
0.00165331736207008362 -0.0111838281154632568 0.0209585186094045639
-0.00217846129089593887 -0.0123018212616443634 0.0210236366838216782
-0.00719780568033456802 -0.0120738502591848373 0.0227882470935583115
-0.00406760722398757935 -0.013657713308930397 0.0202572960406541824
0.00210926774889230728 -0.0102622611448168755 0.0217331796884536743
-0.0140326404944062233 -0.0152242360636591911 0.0217571873217821121
-0.011171828955411911 -0.0143388686701655388 0.0217588506639003754
-0.00606999266892671585 -0.0140378503128886223 0.0204938352108001709
-0.00343114882707595825 -0.0120663195848464966 0.0216412525624036789
0.0030426420271396637 -0.0102613326162099838 0.0214480254799127579
-0.00154031533747911453 -0.0113524254411458969 0.0217700675129890442
-0.00960430316627025604 -0.0128934765234589577 0.0227125715464353561
-0.0128873158246278763 -0.0151818478479981422 0.021448211744427681
-0.00109647214412689209 -0.0102296695113182068 0.0227480661123991013
-0.00356438569724559784 -0.0106857409700751305 0.0230519436299800873
-0.00605111662298440933 -0.0120801832526922226 0.0224305093288421631
-0.00313859758898615837 -0.0140302497893571854 0.0196029152721166611
0.00020484626293182373 -0.010237840935587883 0.0223411079496145248
-0.0148455332964658737 -0.014597257599234581 0.02262844517827034
-0.00719773583114147186 -0.013091561384499073 0.021778421476483345
-0.00306825153529644012 -0.010684785433113575 0.022900829091668129
-0.00488971499726176262 -0.0138930724933743477 0.0202757380902767181
0.00614871783182024956 0.0342171788215637207 0.0243168752640485764
0.0108131207525730133 0.0398270860314369202 0.0232973024249076843
0.0088479798287153244 0.0385049507021903992 0.0231124237179756165
0.0117310965433716774 0.0384391918778419495 0.0245669633150100708
0.00837979186326265335 0.0379861071705818176 0.0231886561959981918
0.0132961254566907883 0.040953025221824646 0.0238522309809923172
0.0142660476267337799 0.0401507541537284851 0.0248018726706504822
0.0124853635206818581 0.039605259895324707 0.0242493301630020142
0.00956922955811023712 0.0358761847019195557 0.025017639622092247
0.00785847567021846771 0.0318276770412921906 0.0265663210302591324
0.00996285118162631989 0.0353851765394210815 0.0255006346851587296
0.00875957589596509933 0.0384175665676593781 0.0231205727905035019
0.00791674666106700897 0.032870464026927948 0.0259796585887670517
0.0106317661702632904 0.0371074751019477844 0.0248128939419984818
0.00749175157397985458 0.0341868698596954346 0.0249942485243082047
0.0143949193879961967 0.0391555763781070709 0.0254523344337940216
0.011086752638220787 0.0361946001648902893 0.0255749374628067017
0.0112990792840719223 0.0392647683620452881 0.0238677114248275757
0.0128953838720917702 0.0411935485899448395 0.0235135313123464584
0.00704932026565074921 0.0369902960956096649 0.0231228899210691452
0.0086082732304930687 0.0356956981122493744 0.024652259424328804
0.00621738890185952187 0.0338294282555580139 0.0245793797075748444
0.00747381569817662239 0.0381416566669940948 0.0226520020514726639
0.0137426769360899925 0.0381811559200286865 0.0257069915533065796
0.00733968941494822502 0.0324354581534862518 0.0259529650211334229
0.0114492513239383698 0.0402657315135002136 0.0233508553355932236
0.0116272745653986931 0.0394327081739902496 0.0239297822117805481
0.0190155878663063049 0.0449299216270446777 0.0243142619729042053
0.0128751397132873535 0.0408528894186019897 0.0237045902758836746
0.00929350592195987701 0.0373284332454204559 0.0240253787487745285
0.0132792908698320389 0.040452219545841217 0.0241394545882940292
0.0100442115217447281 0.0374423451721668243 0.0243267975747585297
0.00800840184092521667 0.0378485396504402161 0.0230874549597501755
0.00782644189894199371 0.0333070717751979828 0.0256777051836252213
0.0145794935524463654 0.0421025529503822327 0.0238041654229164124
0.00762464432045817375 0.037288229912519455 0.0232296120375394821
0.0093166278675198555 -0.00686284806579351425 0.0218032095581293106
0.0144578162580728531 -0.00706127472221851349 0.0191571973264217377
0.0177717320621013641 -0.00476290611550211906 0.0197231210768222809
0.0133160920813679695 -0.00680245319381356239 0.0199458636343479156
0.0113773737102746964 -0.00855479761958122253 0.0192330516874790192
0.0140998475253582001 -0.00644666608422994614 0.0199039019644260406
0.0130444616079330444 -0.00697852252051234245 0.0199110116809606552
0.0108359111472964287 -0.00810562167316675186 0.0199126824736595154
0.0115694496780633926 -0.00773507263511419296 0.0199085697531700134
0.00520112505182623863 -0.0102633386850357056 0.0205890592187643051
0.0104378070682287216 -0.00966728851199150085 0.0186411440372467041
0.0171072166413068771 -0.00499276630580425262 0.0198259204626083374
0.0136274583637714386 -0.00814608670771121979 0.0185389444231987
0.0042034471407532692 -0.0105142705142498016 0.0208315588533878326
0.0147485621273517609 -0.00627714488655328751 0.0197521746158599854
0.00861596688628196716 -0.00986277125775814056 0.019329950213432312
0.0177667327225208282 -0.00617315340787172318 0.0184052307158708572
0.0129590258002281189 -0.00669250078499317169 0.0202196724712848663
0.00440253224223852158 -0.00865057483315467834 0.0224810969084501266
0.00717069953680038452 -0.0118287866935133934 0.0181809626519680023
0.00407431228086352348 -0.0100218933075666428 0.0213543213903903961
0.0138073638081550598 -0.00819983053952455521 0.0184025391936302185
0.0108496081084012985 -0.00623574759811162949 0.0216567199677228928
0.0129364021122455597 -0.00863949861377477646 0.0184077043086290359
0.017218882218003273 -0.00671189650893211365 0.0181630197912454605
0.0210590064525604248 -0.00460028974339365959 0.0183022860437631607
0.00658183684572577477 -0.008538074791431427 0.0215435437858104706
0.00933819543570280075 -0.00787716172635555267 0.0208432804793119431
0.0148715144023299217 -0.00694640493020415306 0.0190667714923620224
0.0119419842958450317 -0.00806599576026201248 0.0194204859435558319
0.00664629973471164703 -0.0118040591478347778 0.0184550564736127853
0.00567006971687078476 -0.0095319356769323349 0.0210493970662355423
0.00989969726651906967 -0.00674251886084675789 0.0216368436813354492
0.0122244358062744141 -0.00892467796802520752 0.0184814184904098511
0.01070423424243927 -0.00800526421517133713 0.0200696513056755066
0.0178103409707546234 -0.00563068222254514694 0.0188922267407178879
0.00419073179364204407 -0.00945803243666887283 0.0218265019357204437
0.00584194157272577286 -0.0098918648436665535 0.0206301826983690262
-0.0143532110378146172 0.0344470031559467316 0.0130976764485239983
-0.00830430909991264343 0.0365276932716369629 0.0146414283663034439
-0.0157120395451784134 0.0322448126971721649 0.0163270421326160431
-0.0115384655073285103 0.033991202712059021 0.0167515464127063751
-0.00877412222325801849 0.0359323695302009583 0.015415615402162075
-0.00661418167874217033 0.0365469604730606079 0.0162315052002668381
-0.0124617703258991241 0.034543938934803009 0.0147217707708477974
-0.016451934352517128 0.0326486527919769287 0.0147810643538832664
-0.00594524480402469635 0.0369980856776237488 0.0159465968608856201
-0.012228858657181263 0.0338798984885215759 0.0163152515888214111
-0.0157528724521398544 0.0321628376841545105 0.01645665243268013
-0.0155731234699487686 0.0318298190832138062 0.0173164810985326767
-0.0103461723774671555 0.0344354361295700073 0.0169855151325464249
-0.0135930329561233521 0.0330349691212177277 0.016741536557674408
-0.00927273090928792953 0.0349810905754566193 0.0168958045542240143
-0.0140138464048504829 0.0342371910810470581 0.0138574372977018356
-0.0149243203923106194 0.0322976484894752502 0.0169777199625968933
-0.0130123058333992958 0.0336019247770309448 0.0161327943205833435
-0.0094370674341917038 0.0358459800481796265 0.0149544142186641693
-0.0100630195811390877 0.0361244156956672668 0.0137768285349011421
-0.0104311136528849602 0.0349249653518199921 0.0158944744616746902
-0.00703406985849142075 0.0369599461555480957 0.014975259080529213
-0.014473428949713707 0.0347330570220947266 0.0123920571058988571
-0.0106110135093331337 0.0356024913489818573 0.0143243120983242989
-0.0142442211508750916 0.034910246729850769 0.0122478194534778595
-0.0152180623263120651 0.0326697304844856262 0.0159274432808160782
-0.00326770171523094177 0.0380935780704021454 0.0162702649831771851
-0.0073777991347014904 0.0361600778996944427 0.0162926781922578812
0.0137552721425890923 0.0458634868264198303 0.020672602578997612
0.00851078610867261887 0.0442365482449531555 0.0184845440089702606
0.006936629768460989 0.0382148362696170807 0.0223068352788686752
0.00305802770890295506 0.0385970436036586761 0.0194053053855895996
0.00452067703008651733 0.0400302894413471222 0.0192226674407720566
0.013834991492331028 0.0476217567920684814 0.0193026289343833923
0.0177653040736913681 0.051085151731967926 0.019125860184431076
0.0153863485902547836 0.04937773197889328 0.0189180430024862289
0.00599760003387928009 0.0425957664847373962 0.0181330777704715729
0.00561183178797364235 0.0412078425288200378 0.0189987290650606155
0.00317691359668970108 0.0397046133875846863 0.0185882281512022018
0.00260087032802402973 0.0399355888366699219 0.0180162806063890457
0.00600730860605835915 0.0382619388401508331 0.021647624671459198
0.00855300575494766235 0.0409161485731601715 0.0212004873901605606
0.0172335729002952576 0.0499090626835823059 0.0197224915027618408
0.00478025991469621658 0.0390531271696090698 0.0201871301978826523
0.00538641959428787231 0.0393375083804130554 0.0203620418906211853
0.0148065686225891113 0.0474343970417976379 0.0201036166399717331
0.00336697185412049294 0.0396505445241928101 0.0187590122222900391
0.00206850399263203144 0.0407434850931167603 0.0170065294951200485
0.0055544218048453331 0.0409806966781616211 0.0191442277282476425
0.0192413795739412308 0.0520093515515327454 0.0193642489612102509
0.00516519881784915924 0.0391021929681301117 0.0204046722501516342
0.00760458502918481827 0.0434352569282054901 0.0185275264084339142
0.0139192333444952965 0.0483163297176361084 0.0187967028468847275
0.00527599547058343887 0.039349190890789032 0.0202787835150957108
0.00400727475062012672 0.0416292473673820496 0.017585262656211853
0.00977866724133491516 0.0454302243888378143 0.0183656644076108932
0.00830664951354265213 0.0421151705086231232 0.0200652852654457092
0.0163753330707550049 0.0498024821281433105 0.0192351825535297394
0.00806400272995233536 0.0442174896597862244 0.0182013772428035736
0.00335532892495393753 0.0404632426798343658 0.0180933866649866104
0.00716574769467115402 0.040581677109003067 0.020544096827507019
0.0120590673759579659 0.0439671948552131653 0.0210739634931087494
0.0102648744359612465 0.0431731380522251129 0.0205176249146461487
0.0115220807492733002 0.0436595939099788666 0.0209640767425298691
0.0149094397202134132 0.0481992289423942566 0.0195532664656639099
0.00701072346419095993 0.0423630811274051666 0.0189985185861587524
0.00456148339435458183 -0.0191868264228105545 0.00394328031688928604
0.00705641787499189377 -0.0178658626973628998 0.00664540892466902733
0.00500773871317505836 -0.0193453989923000336 0.00071586662670597434
0.00201890058815479279 -0.0205950886011123657 0.000606196175795048475
0.00429895240813493729 -0.0196381676942110062 0.000723578094039112329
0.00704156048595905304 -0.0183883365243673325 0.001793092698790133
0.00892603024840354919 -0.0176250655204057693 0.00163047050591558218
0.00426024943590164185 -0.0195329971611499786 0.00186262954957783222
0.0112847192212939262 -0.016636185348033905 0.00174210418481379747
0.00915768556296825409 -0.0172978024929761887 0.00380427855998277664
0.00654696347191929817 -0.0182290654629468918 0.00521524576470255852
0.00690951384603977203 -0.018314337357878685 0.00300255650654435158
0.00463768467307090759 -0.019138747826218605 0.00409847591072320938
0.00751944072544574738 -0.0182972270995378494 0.000789048091974109411
0.00688159465789794922 -0.0181949473917484283 0.00423325225710868835
0.0098783569410443306 -0.0172693412750959396 0.00126636074855923653
0.0124935256317257881 -0.0162399560213088989 0.000760245777200907469
0.00779102090746164322 -0.0176920332014560699 0.00541943078860640526
0.00926900003105401993 -0.01731833815574646 0.00317796343006193638
0.0117135569453239441 -0.0164855606853961945 0.00148829026147723198
-0.0115038026124238968 -0.0246767289936542511 0.00149398704525083303
-0.00253538903780281544 -0.021211063489317894 0.00497301016002893448
-0.013429650105535984 -0.0249717589467763901 0.00295342807658016682
-0.0142576573416590691 -0.0247192736715078354 0.00544433249160647392
-0.0107373706996440887 -0.0234816558659076691 0.00620703259482979774
-0.0145622957497835159 -0.0250306166708469391 0.00437500886619091034
-0.00725768646225333214 -0.0223908647894859314 0.00630979705601930618
-0.015146210789680481 -0.0248208418488502502 0.00628743041306734085
-0.00169899314641952515 -0.0211658552289009094 0.00393181992694735527
-0.0037677024956792593 -0.0211549531668424606 0.00710989534854888916
-0.00918417889624834061 -0.0229377653449773788 0.00653293589130043983
-0.0135670378804206848 -0.0244777537882328033 0.00558767933398485184
-0.00134779675863683224 -0.0203962624073028564 0.0071819135919213295
-0.0121704908087849617 -0.0242679230868816376 0.00450913328677415848
-0.01016252301633358 -0.0229984987527132034 0.00771225336939096451
-0.0106858108192682266 -0.0243720076978206635 0.00175542058423161507
-0.0138574540615081787 -0.0242151487618684769 0.00731633184477686882
-0.00772562297061085701 -0.0222784858196973801 0.00756860710680484772
-0.00758574344217777252 -0.0227064918726682663 0.00525480927899479866
-0.00809368584305047989 -0.023225320503115654 0.00347331073135137558
-0.00323663488961756229 -0.0211104098707437515 0.00652659172192215919
-0.00773295853286981583 -0.0227782409638166428 0.00512470118701457977
-0.0111595997586846352 -0.0246890243142843246 0.00091371836606413126
-0.0161965563893318176 -0.0249337237328290939 0.00731933210045099258
-0.0139953996986150742 -0.0250354409217834473 0.00349509669467806816
-0.0134846065193414688 -0.0239170808345079422 0.00821741297841072083
-0.00960819423198699951 -0.0234235022217035294 0.00478723132982850075
-0.00941070541739463806 -0.023176286369562149 0.00570337381213903427
-0.00671253493055701256 -0.0230433903634548187 0.0022809694055467844
-0.00926875881850719452 -0.0240662451833486557 0.00111717591062188148
-0.00547763705253601074 -0.0215434152632951736 0.00778426323086023331
-0.0167486183345317841 -0.025065787136554718 0.00750440359115600586
-0.00508572626858949661 -0.0218517780303955078 0.00567753240466117859
-0.00598933268338441849 -0.0222503598779439926 0.0050843358039855957
-0.01140578743070364 -0.0245512295514345169 0.00196245335973799229
-0.00887157674878835678 -0.0233647264540195465 0.00396340619772672653
-0.00875165686011314392 -0.0227533932775259018 0.00678537739440798759
-0.00617253407835960388 -0.022234572097659111 0.00543858949095010757
0.000699750729836523533 -0.0199642851948738098 0.00621139444410800934
-0.0109919747337698936 -0.0245496612042188644 0.00134514214005321264
-0.0171802341938018799 -0.0250223930925130844 0.00836946442723274231
-0.00842832773923873901 -0.0229175779968500137 0.00549048278480768204
-0.00396326044574379921 -0.0218276903033256531 0.00410051504150032997
-0.0102363741025328636 -0.0233123283833265305 0.0062821563333272934
-0.00196854234673082829 -0.0208239797502756119 0.00601836107671260834
-0.00275588873773813248 -0.0210180357098579407 0.00625426415354013443
-0.0132648227736353874 -0.024879874661564827 0.00315585709176957607
0.0149305462837219238 0.0504947453737258911 0.0174391735345125198
0.0145149137824773788 0.0500513277947902679 0.017558712512254715
0.0149048268795013428 0.0506323538720607758 0.0172764286398887634
0.0187346860766410828 0.0519062839448451996 0.0190737154334783554
0.00477208290249109268 0.0429143905639648438 0.0170029923319816589
0.0124487634748220444 0.0482328459620475769 0.0177552308887243271
0.0106537574902176857 0.0468220338225364685 0.0177517160773277283
0.0175640750676393509 0.0518915131688117981 0.0181381963193416595
0.010886073112487793 0.0472993515431880951 0.0174483489245176315
0.0181422065943479538 0.0516180247068405151 0.018889671191573143
0.0174811054021120071 0.0522665120661258698 0.0176842361688613892
0.0183124318718910217 0.053256988525390625 0.0173383764922618866
0.0121687985956668854 0.0478794686496257782 0.0178921297192573547
0.0144059155136346817 0.0513839498162269592 0.0158820617944002151
0.0172818507999181747 0.0527268722653388977 0.0170077774673700333
0.00379061978310346603 0.0427470579743385315 0.0163138452917337418
0.0112259397283196449 0.048609316349029541 0.0162448864430189133
0.0173053722828626633 0.0532161183655261993 0.0164208691567182541
0.0114767737686634064 0.0482168197631835938 0.0169782787561416626
0.0157701913267374039 0.0519608631730079651 0.016491033136844635
0.00882638245820999146 0.0464157648384571075 0.0166431386023759842
0.0138951912522315979 0.05033155158162117 0.016696631908416748
0.0152626736089587212 0.0524143502116203308 0.0154317561537027359
0.00489477068185806274 0.0434176921844482422 0.0165527891367673874
0.0163209792226552963 0.0526820942759513855 0.0161282382905483246
0.0153778214007616043 0.0525264032185077667 0.0154041759669780731
-0.0336073040962219238 0.0141830630600452423 0.027497757226228714
-0.0381769202649593353 0.0142054557800292969 0.0273110382258892059
-0.0328432396054267883 0.012593364343047142 0.0280880909413099289
-0.0314075201749801636 0.0133573999628424644 0.027874920517206192
-0.0298850573599338531 0.0157593227922916412 0.0270877238363027573
-0.0361942537128925323 0.0119622573256492615 0.0281794462352991104
-0.0415058471262454987 0.0118434596806764603 0.0280134659260511398
-0.0315610542893409729 0.012555302120745182 0.0281516853719949722
-0.0324256382882595062 0.0122444881126284599 0.0282274261116981506
-0.0339821688830852509 0.0119343185797333717 0.0282758604735136032
-0.0374026857316493988 0.0133630409836769104 0.0276383217424154282
-0.0334827452898025513 0.013734256848692894 0.027660854160785675
-0.0288383495062589645 0.0111005110666155815 0.0287711061537265778
-0.0349011793732643127 0.0148149710148572922 0.027224348857998848
-0.0304353535175323486 0.0150285102427005768 0.0273238308727741241
-0.0390163920819759369 0.0122847296297550201 0.0279553215950727463
-0.038928251713514328 0.01225263811647892 0.0279700849205255508
-0.0325395092368125916 0.0150511004030704498 0.0272335242480039597
-0.0401416793465614319 0.0118860648944973946 0.0280518308281898499
-0.0316647663712501526 0.0111160771921277046 0.0286550130695104599
-0.0431394651532173157 0.0133093418553471565 0.0274327546358108521
-0.0435414090752601624 0.0130687421187758446 0.0275018475949764252
-0.035981450229883194 0.014631553553044796 0.0272467378526926041
-0.0254430640488862991 0.0165949985384941101 0.0269669443368911743
-0.0439760386943817139 0.0132793411612510681 0.0274105947464704514
-0.0289873033761978149 0.0108768288046121597 0.0288441367447376251
-0.0288935154676437378 0.0131866270676255226 0.0280335061252117157
-0.0434723794460296631 0.0132309067994356155 0.0274473782628774643
-0.0462639555335044861 0.0122936815023422241 0.0276685450226068497
-0.0456721149384975433 0.0129886306822299957 0.0274467095732688904
-0.0394646413624286652 0.0142987584695219994 0.0272277519106864929
-0.0331534110009670258 0.0123854177072644234 0.0281492620706558228
0.0281026512384414673 0.0402898676693439484 0.028950035572052002
0.0173986144363880157 0.0316901318728923798 0.0289157982915639877
0.0291437543928623199 0.0419312641024589539 0.0287557635456323624
0.0272211935371160507 0.0416158959269523621 0.0284478608518838882
0.02584044449031353 0.0394082777202129364 0.028713056817650795
0.0278344098478555679 0.0394923798739910126 0.0290920417755842209
0.02788543701171875 0.041813872754573822 0.0285323895514011383
0.0253376103937625885 0.0378649197518825531 0.0289911441504955292
0.0286361426115036011 0.0427186116576194763 0.0284607503563165665
0.0264688320457935333 0.0386308208107948303 0.0290298480540513992
0.028129206970334053 0.040394563227891922 0.0289296582341194153
0.0183262787759304047 0.0321447663009166718 0.0289901178330183029
-0.000471204402856528759 0.0213484615087509155 0.0287064462900161743
0.00536842923611402512 0.0264768321067094803 0.0279513951390981674
0.00352662196382880211 0.0255963429808616638 0.0279108621180057526
0.00338897202163934708 0.0260431263595819473 0.0277140103280544281
0.00452017132192850113 0.0266032274812459946 0.0277315974235534668
0.0122354906052350998 0.0277670491486787796 0.0288559775799512863
-0.0011188149219378829 0.0211006328463554382 0.0286688413470983505
-5.60302869416773319e-05 0.0212347693741321564 0.0288336221128702164
0.00478380965068936348 0.0259786266833543777 0.0280212331563234329
0.0101245399564504623 0.0272981971502304077 0.028605220839381218
0.0086476476863026619 0.0258964821696281433 0.0288357716053724289
0.0054264427162706852 0.0252033118158578873 0.0284447073936462402
0.00631511211395263672 0.0261371172964572906 0.0282718092203140259
0.000835699494928121567 0.0229018386453390121 0.0283840782940387726
0.00409230636432766914 0.0233022682368755341 0.0288930144160985947
0.00448485463857650757 0.0266393646597862244 0.0277107730507850647
0.00751167722046375275 0.0266526006162166595 0.0283195208758115768
0.00683390628546476364 0.0267026592046022415 0.0281631611287593842
0.00404662126675248146 0.024508180096745491 0.0284277666360139847
0.0049267238937318325 0.0258511137217283249 0.0280984286218881607
0.00463054515421390533 0.0239296294748783112 0.0287649333477020264
0.00627192482352256775 0.0247176624834537506 0.0287997834384441376
-0.00594114512205123901 0.0179538019001483917 0.0288809016346931458
0.0110624628141522408 0.0278308317065238953 0.0285940021276473999
0.0106097664684057236 0.0256282277405261993 0.0290785226970911026
0.00378262205049395561 0.0182865913957357407 0.0295637268573045731
0.00550275249406695366 0.0184565763920545578 0.0296615343540906906
0.0119286486878991127 0.0247193258255720139 0.0292896591126918793
0.00748299900442361832 0.0246433969587087631 0.0289892721921205521
0.00574882421642541885 0.0224114041775465012 0.0291606150567531586
0.0093379877507686615 0.0216336939483880997 0.0295130442827939987
0.00694660516455769539 0.0193200148642063141 0.0296492110937833786
0.00922912545502185822 0.0234235115349292755 0.0292709711939096451
-0.00689893169328570366 0.0171973723918199539 0.0289607811719179153
0.00526637863367795944 0.0194899309426546097 0.0295096617192029953
0.00296220323070883751 0.0201809704303741455 0.0292582865804433823
0.000864923465996980667 0.0199512168765068054 0.0291419830173254013
0.00830222573131322861 0.0235093217343091965 0.0291950274258852005
0.0103299384936690331 0.0248639248311519623 0.0291591156274080276
0.00718707358464598656 0.0237810537219047546 0.0290815848857164383
0.0107665229588747025 0.0252401567995548248 0.0291403047740459442
0.00370199419558048248 0.0184024535119533539 0.0295429211109876633
0.0102615272626280785 0.0189843829721212387 0.0299245808273553848
0.004886615090072155 0.0226304382085800171 0.0290717333555221558
0.0064889024943113327 0.0180793851613998413 0.0297797881066799164
0.00542747694998979568 0.0237428527325391769 0.0289637595415115356
0.00693603092804551125 0.0178245697170495987 0.0298443809151649475
0.00291600055061280727 0.0184442959725856781 0.0294825714081525803
0.00845013093203306198 0.0220267400145530701 0.029399573802947998
0.007015240378677845 0.0239966083317995071 0.0290413517504930496
-0.00171967921778559685 0.0195317622274160385 0.0290165115147829056
0.00886415224522352219 0.0183973871171474457 0.0299039334058761597
0.0010365867055952549 0.0192677658051252365 0.0292434990406036377
0.0113807860761880875 0.0210785791277885437 0.0297283641993999481
0.0070256674662232399 0.0205976888537406921 0.0294873490929603577
0.010209694504737854 0.0204749852418899536 0.0297256875783205032
-0.000351868569850921631 0.0204566959291696548 0.0289908237755298615
0.00792408175766468048 0.0197499115020036697 0.0296611245721578598
-0.00121358188334852457 0.0177162941545248032 0.0292896721512079239
-0.00411390233784914017 0.017432384192943573 0.029124407097697258
-0.000636623939499258995 0.0191971082240343094 0.0291359573602676392
0.011213524267077446 0.0185620859265327454 0.0300463587045669556
-0.0431392490863800049 0.00802702084183692932 0.0292301103472709656
-0.0440702401101589203 0.0074030696414411068 0.0293498393148183823
-0.0484339669346809387 0.00716325500980019569 0.0293158367276191711
-0.0468516871333122253 0.00828118529170751572 0.0290996059775352478
-0.0376050844788551331 0.0090901469811797142 0.0291049685329198837
-0.044487539678812027 0.00861625093966722488 0.0290725491940975189
-0.047949422150850296 0.00746327126398682594 0.0292590036988258362
-0.0436662659049034119 0.00732497591525316238 0.0293752215802669525
-0.0501194261014461517 0.00733845727518200874 0.0292433276772499084
-0.0390848778188228607 0.00821719691157341003 0.0292689390480518341
-0.048283800482749939 0.0067221703939139843 0.029416622593998909
-0.0458637624979019165 0.00811707787215709686 0.0291557200253009796
0.0290991142392158508 0.0331172086298465729 0.0300704799592494965
0.0347420647740364075 0.035636216402053833 0.0301302466541528702
0.0217303149402141571 0.0269185826182365417 0.0300953220576047897
0.0275989826768636703 0.0303651262074708939 0.0301282405853271484
0.0324857011437416077 0.0349873751401901245 0.0300936717540025711
0.0293244551867246628 0.0316709652543067932 0.0301275737583637238
0.0285194497555494308 0.0306305736303329468 0.0301431324332952499
0.0309999324381351471 0.0340822376310825348 0.0300864912569522858
0.0277672633528709412 0.0318962819874286652 0.0300785265862941742
0.02898373082280159 0.0326486080884933472 0.0300840083509683609
0.0333954393863677979 0.0353569351136684418 0.0301046017557382584
0.0273892618715763092 0.0314319804310798645 0.030084976926445961
0.0265302956104278564 0.0293740145862102509 0.0301351007074117661
0.0320003330707550049 0.035548478364944458 0.0300610251724720001
0.018417753279209137 0.0241250414401292801 0.0301067382097244263
0.0353019982576370239 0.0364600643515586853 0.030115881934762001
0.0299297962337732315 0.0337293148040771484 0.030070742592215538
0.0271642934530973434 0.0366307459771633148 0.0294863246381282806
0.0264564082026481628 0.037737332284450531 0.0291962567716836929
0.0226432532072067261 0.0350209996104240417 0.0291165430098772049
0.0300768353044986725 0.0392266921699047089 0.0294581521302461624
0.0300529655069112778 0.0392480567097663879 0.0294510945677757263
0.0261152572929859161 0.0381156802177429199 0.0290829408913850784
0.0244239233434200287 0.0365919321775436401 0.0291020814329385757
0.0257577449083328247 0.0364652127027511597 0.029313988983631134
0.0290044099092483521 0.0398396141827106476 0.0292004421353340149
0.0276335142552852631 0.0384237244725227356 0.0292468592524528503
0.0256514288485050201 0.0371771752834320068 0.0291771590709686279
0.0229460690170526505 0.0355635210871696472 0.0290670264512300491
-0.0129176434129476547 -0.0167236663401126862 0.0199832189828157425
-0.0143675524741411209 -0.0184595808386802673 0.0187762249261140823
-0.0177056454122066498 -0.019142618402838707 0.0191324688494205475
-0.0132297007367014885 -0.0162226706743240356 0.020550951361656189
-0.0161661002784967422 -0.0169068500399589539 0.0207854770123958588
-0.0144462110474705696 -0.0161250699311494827 0.0210086405277252197
-0.00131985172629356384 -0.0139709794893860817 0.0191046148538589478
-0.0131725920364260674 -0.0165667515248060226 0.0202082488685846329
-0.0189141016453504562 -0.0187573954463005066 0.0198598708957433701
-0.00794547237455844879 -0.0149189475923776627 0.0201975051313638687
-0.0154906352981925011 -0.0172174982726573944 0.0202887039631605148
-0.0118920756503939629 -0.0182244628667831421 0.0182552449405193329
-0.0213887393474578857 -0.0171602889895439148 0.0221141520887613297
-0.0087582319974899292 -0.0152948033064603806 0.0200859792530536652
-0.0122871892526745796 -0.0174883343279361725 0.0190703924745321274
