ply
format ascii 1.0
element vertex 763
property float x
property float y
property float z
end_header
0.373463481664657593 0.143664747476577759 0.548545122146606445
0.569075882434844971 0.00702196359634399414 0.209734559059143066
0.42801278829574585 0.584142684936523438 0.45406302809715271
0.354422688484191895 0.274373829364776611 0.581524789333343506
0.464889228343963623 0.00470376014709472656 0.390191107988357544
0.427046537399291992 0.621858477592468262 0.455736637115478516
0.42270931601524353 0.539193153381347656 0.463248908519744873
0.473899722099304199 0.0413618087768554688 0.374584496021270752
0.373811781406402588 0.436871588230133057 0.547941923141479492
0.421383976936340332 0.457036256790161133 0.465544462203979492
0.516393125057220459 0.181928873062133789 0.30098375678062439
0.464343130588531494 0.0311753153800964355 0.391137003898620605
0.432511210441589355 0.3909035325050354 0.44627147912979126
0.385246425867080688 0.631108880043029785 0.528136491775512695
0.383123040199279785 0.808373749256134033 0.531814336776733398
0.485022693872451782 0.340438306331634521 0.355318963527679443
0.570929586887359619 0.0102224946022033691 0.2065238356590271
0.357023537158966064 0.751400232315063477 0.577019989490509033
0.505550146102905273 0.246805131435394287 0.31976434588432312
0.400885432958602905 0.611095309257507324 0.501048922538757324
0.443564862012863159 0.51862788200378418 0.427126049995422363
0.37082904577255249 0.0793121010065078735 0.553108096122741699
0.349701762199401855 0.576141297817230225 0.589701652526855469
0.407448709011077881 0.118935227394104004 0.489681035280227661
0.352659225463867188 0.519846022129058838 0.584579169750213623
0.556484580039978027 0.0397223234176635742 0.23154333233833313
0.447625726461410522 0.184412747621536255 0.420092403888702393
0.486778020858764648 0.0254051685333251953 0.352278679609298706
0.403119504451751709 0.260177582502365112 0.49717944860458374
0.393135488033294678 0.196034938097000122 0.514472246170043945
0.380844593048095703 0.151465624570846558 0.535760700702667236
0.358874529600143433 0.580872535705566406 0.573813974857330322
0.368656843900680542 0.637521982192993164 0.556870520114898682
0.45755237340927124 0.417253166437149048 0.402898967266082764
0.396815717220306396 0.605521678924560547 0.50809788703918457
0.487684667110443115 0.259344220161437988 0.350708305835723877
0.392776936292648315 0.043923109769821167 0.515093326568603516
0.523701786994934082 0.172777354717254639 0.288324832916259766
0.448416978120803833 0.396141916513442993 0.418721914291381836
0.349191725254058838 0.188978448510169983 0.590585052967071533
0.366297215223312378 0.677857756614685059 0.560957491397857666
0.458829492330551147 0.0422999560832977295 0.400686919689178467
0.398043155670166016 0.737886905670166016 0.505971908569335938
0.35761106014251709 0.53415602445602417 0.576002359390258789
0.361458897590637207 0.793871104717254639 0.569337725639343262
0.427312493324279785 0.0941844284534454346 0.455275982618331909
0.491108536720275879 0.306725621223449707 0.344777971506118774
0.480686932802200317 0.403276562690734863 0.362828731536865234
0.369966745376586914 0.695673584938049316 0.554601669311523438
0.363313406705856323 0.36016392707824707 0.566125631332397461
0.477989435195922852 0.0958691239356994629 0.367500960826873779
0.401117026805877686 0.312798500061035156 0.500647842884063721
0.425492852926254272 0.31996619701385498 0.458427667617797852
0.405619800090789795 0.157655537128448486 0.492848783731460571
0.448434650897979736 0.323301017284393311 0.418691277503967285
0.446055859327316284 0.196325212717056274 0.42281147837638855
0.385283857583999634 0.042357325553894043 0.52807164192199707
0.436906933784484863 0.0601971149444580078 0.438657879829406738
0.398757100105285645 0.225901320576667786 0.504735350608825684
0.423428833484649658 0.0891135036945343018 0.462002664804458618
0.387089580297470093 0.159617155790328979 0.524944067001342773
0.36250460147857666 0.789005041122436523 0.567526519298553467
0.353601813316345215 0.687682509422302246 0.582946598529815674
0.464667320251464844 0.22708892822265625 0.390575528144836426
0.495696961879730225 0.172776877880096436 0.336830615997314453
0.384809136390686035 0.826240718364715576 0.528893887996673584
0.382441669702529907 0.69075465202331543 0.532994508743286133
0.537619471549987793 0.106954395771026611 0.264218628406524658
0.368991434574127197 0.821940958499908447 0.556290984153747559
0.383900612592697144 0.773527085781097412 0.530467510223388672
0.399162352085113525 0.446102499961853027 0.504033446311950684
0.359916597604751587 0.553066849708557129 0.572009027004241943
0.353834420442581177 0.909543812274932861 0.582543671131134033
0.436895102262496948 0.191742777824401855 0.438678383827209473
0.446215808391571045 0.55406653881072998 0.422534406185150146
0.498753637075424194 0.0495041608810424805 0.331536263227462769
0.352700233459472656 0.422710448503494263 0.584508180618286133
0.378264963626861572 0.400964409112930298 0.540228784084320068
0.442549526691436768 0.0609375834465026855 0.428884625434875488
0.413856029510498047 0.476200103759765625 0.478583216667175293
0.382621914148330688 0.510971963405609131 0.532682299613952637
0.484488487243652344 0.158234477043151855 0.35624423623085022
0.452938497066497803 0.283863276243209839 0.410890460014343262
0.38655129075050354 0.322718024253845215 0.525876402854919434
0.472117096185684204 0.146145045757293701 0.377672135829925537
0.4413585364818573 0.205208569765090942 0.430947482585906982
0.384268403053283691 0.428312897682189941 0.529830455780029297
0.505965054035186768 0.266741335391998291 0.319045722484588623
0.383784204721450806 0.756492495536804199 0.530669152736663818
0.390190303325653076 0.623939216136932373 0.519573450088500977
0.37627759575843811 0.571685075759887695 0.543671011924743652
0.385808587074279785 0.606377959251403809 0.527162790298461914
0.472880542278289795 0.792244017124176025 0.376349806785583496
0.520461320877075195 0.556067943572998047 0.293937444686889648
0.446040928363800049 0.781284153461456299 0.422837316989898682
0.440101832151412964 0.913534700870513916 0.433124184608459473
0.454270988702774048 0.741657435894012451 0.408582448959350586
0.50957036018371582 0.464616596698760986 0.312801212072372437
0.474924057722091675 0.493731021881103516 0.372810304164886475
0.560685098171234131 0.313065826892852783 0.224267870187759399
0.442992955446243286 0.871018588542938232 0.42811661958694458
0.418766617774963379 0.963443875312805176 0.470077842473983765
0.527227938175201416 0.918894648551940918 0.282217323780059814
0.564175128936767578 0.126364707946777344 0.218222931027412415
0.49735713005065918 0.557113170623779297 0.333955109119415283
0.492065846920013428 0.835945844650268555 0.34311985969543457
0.495032042264938354 0.401533782482147217 0.337982267141342163
0.549383401870727539 0.873033642768859863 0.243842959403991699
0.400921940803527832 0.924971818923950195 0.50098574161529541
0.483101934194564819 0.491810083389282227 0.358645796775817871
0.560065209865570068 0.311805665493011475 0.225341513752937317
0.562832057476043701 0.50277024507522583 0.220549210906028748
0.567746818065643311 0.179413914680480957 0.212036624550819397
0.485017925500869751 0.861836075782775879 0.355327188968658447
0.525764226913452148 0.936060190200805664 0.284752607345581055
0.383811086416244507 0.910699665546417236 0.530622601509094238
0.49992978572845459 0.688049793243408203 0.329499125480651855
0.551825463771820068 0.191578924655914307 0.239613175392150879
0.51480710506439209 0.398694634437561035 0.30373084545135498
0.542518079280853271 0.158800184726715088 0.255734056234359741
0.570271611213684082 0.484968125820159912 0.20766352117061615
0.487366020679473877 0.503707647323608398 0.351260185241699219
0.490617930889129639 0.667861104011535645 0.345627725124359131
0.497076511383056641 0.521137773990631104 0.334441184997558594
0.56169050931930542 0.476575672626495361 0.222526371479034424
0.383088469505310059 0.995224058628082275 0.531874239444732666
0.555250108242034912 0.645987272262573242 0.233681485056877136
0.43636283278465271 0.850893020629882812 0.439600288867950439
0.557882070541381836 0.276403188705444336 0.229122847318649292
0.502003252506256104 0.64978492259979248 0.325907796621322632
0.538591563701629639 0.171489298343658447 0.262534976005554199
0.564420342445373535 0.229729115962982178 0.217798247933387756
0.533099949359893799 0.632838010787963867 0.272046685218811035
0.530878961086273193 0.351381003856658936 0.275893598794937134
0.46857452392578125 0.615249335765838623 0.383808016777038574
0.411329180002212524 0.769011378288269043 0.482959866523742676
0.403048396110534668 0.909185707569122314 0.497302621603012085
0.406556546688079834 0.748251676559448242 0.491226345300674438
0.556901693344116211 0.503583788871765137 0.230820894241333008
0.412831544876098633 0.985260605812072754 0.48035767674446106
0.543605983257293701 0.839644372463226318 0.25384974479675293
0.555733978748321533 0.742875337600708008 0.232843488454818726
0.433678179979324341 0.791349172592163086 0.444250285625457764
0.394155412912368774 0.952314674854278564 0.512705683708190918
0.49521249532699585 0.392376363277435303 0.337669730186462402
0.494259655475616455 0.941253125667572021 0.339320093393325806
0.553938210010528564 0.926088333129882812 0.235953778028488159
0.524041950702667236 0.375729143619537354 0.287735641002655029
0.532153189182281494 0.876426994800567627 0.273686528205871582
0.553275108337402344 0.587013840675354004 0.237102270126342773
0.389122992753982544 0.822967946529388428 0.521422147750854492
0.504576921463012695 0.659555912017822266 0.32145005464553833
0.527461707592010498 0.701183676719665527 0.281812489032745361
0.448714673519134521 0.668308138847351074 0.418206274509429932
0.547836065292358398 0.408834397792816162 0.246523037552833557
0.375472426414489746 0.982355356216430664 0.545065522193908691
0.548768460750579834 0.376341402530670166 0.244908049702644348
0.573692500591278076 0.865620970726013184 0.201738327741622925
0.562037646770477295 0.381108999252319336 0.221925154328346252
0.545580625534057617 0.315429806709289551 0.250429511070251465
0.410082757472991943 0.786350727081298828 0.485118776559829712
0.515018582344055176 0.755996346473693848 0.30336463451385498
0.516755461692810059 0.416672706604003906 0.300356179475784302
0.455633729696273804 0.693674564361572266 0.406222134828567505
0.490571409463882446 0.590868890285491943 0.345708310604095459
0.383320033550262451 0.936889886856079102 0.531473159790039062
0.557361900806427002 0.266281664371490479 0.23002372682094574
0.419365435838699341 0.927787303924560547 0.469040662050247192
0.502628326416015625 0.482190728187561035 0.324825167655944824
0.521996021270751953 0.752369403839111328 0.291279256343841553
0.50407099723815918 0.528803825378417969 0.322326302528381348
0.431140899658203125 0.826889753341674805 0.44864499568939209
0.543217957019805908 0.422097444534301758 0.254521846771240234
0.497767806053161621 0.806449711322784424 0.333243757486343384
0.569043576717376709 0.280230939388275146 0.209790527820587158
0.573298037052154541 0.882914364337921143 0.202421575784683228
0.383581697940826416 0.964000403881072998 0.531019926071166992
0.480649471282958984 0.4490775465965271 0.362893640995025635
0.476893901824951172 0.582618355751037598 0.369398415088653564
0.486851423978805542 0.820013046264648438 0.35215151309967041
0.522300839424133301 0.628850579261779785 0.290751278400421143
0.527126967906951904 0.706766664981842041 0.282392263412475586
0.50452953577041626 0.585715413093566895 0.321532100439071655
0.474970400333404541 0.458337306976318359 0.372730016708374023
0.482562780380249023 0.579383790493011475 0.359579652547836304
0.415689975023269653 0.872101426124572754 0.475406736135482788
0.41542971134185791 0.749253213405609131 0.475857526063919067
0.544175326824188232 0.332794427871704102 0.252863645553588867
0.520328640937805176 0.685478270053863525 0.294167280197143555
0.482423961162567139 0.74150550365447998 0.359820097684860229
0.497255057096481323 0.95923614501953125 0.334131896495819092
0.51189124584197998 0.500344753265380859 0.308781206607818604
0.508852958679199219 0.783670186996459961 0.314043790102005005
0.525297105312347412 0.607330083847045898 0.285561621189117432
0.491253107786178589 0.504668951034545898 0.344527572393417358
0.529237866401672363 0.547753095626831055 0.27873605489730835
0.542662441730499268 0.737599372863769531 0.25548398494720459
0.550787031650543213 0.37733161449432373 0.241411775350570679
0.565638184547424316 0.141274988651275635 0.215688794851303101
0.549609899520874023 0.677395224571228027 0.24345068633556366
0.43699270486831665 0.745071172714233398 0.438509374856948853
0.549167454242706299 0.135918021202087402 0.244216978549957275
0.426289558410644531 0.851635992527008057 0.457047700881958008
0.496592402458190918 0.55746835470199585 0.335279673337936401
0.520467460155487061 0.358946919441223145 0.293926835060119629
0.556788027286529541 0.977289676666259766 0.231017798185348511
0.541109681129455566 0.501210808753967285 0.258173435926437378
0.565997421741485596 0.712007522583007812 0.215066626667976379
0.530739784240722656 0.47289729118347168 0.276134669780731201
0.412708491086959839 0.815384864807128906 0.480570822954177856
0.466550350189208984 0.96682286262512207 0.387313961982727051
0.463586270809173584 0.645778298377990723 0.392447918653488159
0.519719481468200684 0.57724452018737793 0.295222371816635132
0.549503803253173828 0.530280470848083496 0.243634447455406189
0.502641558647155762 0.323777079582214355 0.324802219867706299
0.521448016166687012 0.987153887748718262 0.292228430509567261
0.412429273128509521 0.978007853031158447 0.481054425239562988
0.565162897109985352 0.881263196468353271 0.216512098908424377
0.548751235008239746 0.278643548488616943 0.244937926530838013
0.432646274566650391 0.861312568187713623 0.446037530899047852
0.568551719188690186 0.545184135437011719 0.210642427206039429
0.552360296249389648 0.504550457000732422 0.238686844706535339
0.54801476001739502 0.544389247894287109 0.246213465929031372
0.518890321254730225 0.974257946014404297 0.296658515930175781
0.533244609832763672 0.339588344097137451 0.271796196699142456
0.44892805814743042 0.783386766910552979 0.417836666107177734
0.499610573053359985 0.667768359184265137 0.330052018165588379
0.544844865798950195 0.643441557884216309 0.251703888177871704
0.507900416851043701 0.881714701652526855 0.31569361686706543
0.462681770324707031 0.684906721115112305 0.394014596939086914
0.537368476390838623 0.395814895629882812 0.264653414487838745
0.521447122097015381 0.571326375007629395 0.292229950428009033
0.414609342813491821 0.876510739326477051 0.477278441190719604
0.571019887924194336 0.236859500408172607 0.206367433071136475
0.546013951301574707 0.708435893058776855 0.249679043889045715
0.514821827411651611 0.731563091278076172 0.303705334663391113
0.566820502281188965 0.704227328300476074 0.213641062378883362
0.541819989681243896 0.791233599185943604 0.25694313645362854
0.514703571796417236 0.805578947067260742 0.303910225629806519
0.389211893081665039 0.913876056671142578 0.521268129348754883
0.56467968225479126 0.18875885009765625 0.217349037528038025
0.48164600133895874 0.792228758335113525 0.361167550086975098
0.442491292953491211 0.708081960678100586 0.428985476493835449
0.551811516284942627 0.280599117279052734 0.239637300372123718
0.470949530601501465 0.920499861240386963 0.37969440221786499
0.543452918529510498 0.498303532600402832 0.254114866256713867
0.513065814971923828 0.813427269458770752 0.306746810674667358
0.546816349029541016 0.443710625171661377 0.248289257287979126
0.471943378448486328 0.90106046199798584 0.377972990274429321
0.470422565937042236 0.735628902912139893 0.380607157945632935
0.371245026588439941 0.982794046401977539 0.552387595176696777
0.49350440502166748 0.609243035316467285 0.340628206729888916
0.470186948776245117 0.694203853607177734 0.381015241146087646
0.561920762062072754 0.740354955196380615 0.222127571702003479
0.567045688629150391 0.181771337985992432 0.213250994682312012
0.551382362842559814 0.817428469657897949 0.240380629897117615
0.5648345947265625 0.163010120391845703 0.217080637812614441
0.547836005687713623 0.84035789966583252 0.246523097157478333
0.422776997089385986 0.978394746780395508 0.463131695985794067
0.473843812942504883 0.849667727947235107 0.374681353569030762
0.544137179851531982 0.925813794136047363 0.252929657697677612
0.544054031372070312 0.515043377876281738 0.253073692321777344
0.504376232624053955 0.909474194049835205 0.321797668933868408
0.510539114475250244 0.814836800098419189 0.31112322211265564
0.488404810428619385 0.918578147888183594 0.349460959434509277
0.459724754095077515 0.662600874900817871 0.39913630485534668
0.442662030458450317 0.785247683525085449 0.428689777851104736
0.499092161655426025 0.863203763961791992 0.330949902534484863
0.481340289115905762 0.664074301719665527 0.361697077751159668
0.391977578401565552 0.813680350780487061 0.516477823257446289
0.360838651657104492 0.988919556140899658 0.570412039756774902
0.510959148406982422 0.450681567192077637 0.310395687818527222
0.553759396076202393 0.322727739810943604 0.236263498663902283
0.541969060897827148 0.460747241973876953 0.256684958934783936
0.448307603597640991 0.593560099601745605 0.418911367654800415
0.521242856979370117 0.747482061386108398 0.292583763599395752
0.495989054441452026 0.907334685325622559 0.336324691772460938
0.495622545480728149 0.928816556930541992 0.336959481239318848
0.471656680107116699 0.889331161975860596 0.378469586372375488
0.480154931545257568 0.526458978652954102 0.363750159740447998
0.459810197353363037 0.818096816539764404 0.398988276720046997
0.433466970920562744 0.799245297908782959 0.444616138935089111
0.371872186660766602 0.913454353809356689 0.551301360130310059
0.563086509704589844 0.539098858833312988 0.220108509063720703
0.471618741750717163 0.630801796913146973 0.378535270690917969
0.427358835935592651 0.786150872707366943 0.455195695161819458
0.513911902904510498 0.537264704704284668 0.30528143048286438
0.478883564472198486 0.756092369556427002 0.365952283143997192
0.524446666240692139 0.483306527137756348 0.287034690380096436
0.46902039647102356 0.576349794864654541 0.383035778999328613
0.437594115734100342 0.969473302364349365 0.437467694282531738
0.503322362899780273 0.688268542289733887 0.323623001575469971
0.412860572338104248 0.818025112152099609 0.480307430028915405
0.54794776439666748 0.442830383777618408 0.246329545974731445
0.524457097053527832 0.942895650863647461 0.287016570568084717
0.542286992073059082 0.276908278465270996 0.256134331226348877
0.418809354305267334 0.84531104564666748 0.470003843307495117
0.540986299514770508 0.518574357032775879 0.258387178182601929
0.55883181095123291 0.176751554012298584 0.22747783362865448
0.53384929895401001 0.202828526496887207 0.27074885368347168
0.440245568752288818 0.665215194225311279 0.432875245809555054
0.560464441776275635 0.781778991222381592 0.224650084972381592
0.499048829078674316 0.459001302719116211 0.331024974584579468
0.539527833461761475 0.285991013050079346 0.260913312435150146
0.532221972942352295 0.803299427032470703 0.273567378520965576
0.495851784944534302 0.432357609272003174 0.336562395095825195
0.445367127656936646 0.61745297908782959 0.424004405736923218
0.498163610696792603 0.53054201602935791 0.332558244466781616
0.534230887889862061 0.967740774154663086 0.270087838172912598
0.45303499698638916 0.874015212059020996 0.410723268985748291
0.443487495183944702 0.887408792972564697 0.427260041236877441
0.541051864624023438 0.602643072605133057 0.258273601531982422
0.490040898323059082 0.748832643032073975 0.346627146005630493
0.455238103866577148 0.751212775707244873 0.406907349824905396
0.477819919586181641 0.891166448593139648 0.367794513702392578
0.378377556800842285 0.879584372043609619 0.540033698081970215
0.498444050550460815 0.770720899105072021 0.33207249641418457
0.469215512275695801 0.482605695724487305 0.382697790861129761
0.529165089130401611 0.835605919361114502 0.278862118721008301
0.460865914821624756 0.804416239261627197 0.397159725427627563
0.557688236236572266 0.66120302677154541 0.229458600282669067
0.553724586963653564 0.940479278564453125 0.236323758959770203
0.451337307691574097 0.621407628059387207 0.413663744926452637
0.573032140731811523 0.0888271927833557129 0.202882170677185059
0.572906553745269775 0.250942587852478027 0.203099697828292847
0.559040963649749756 0.625234842300415039 0.227115541696548462
0.536917507648468018 0.403142809867858887 0.265434503555297852
0.4236641526222229 0.712500810623168945 0.461595058441162109
0.458778828382492065 0.738491058349609375 0.400774657726287842
0.572579383850097656 0.498765647411346436 0.203666329383850098
0.502714872360229492 0.960137605667114258 0.324675202369689941
0.468375921249389648 0.893039405345916748 0.384152054786682129
0.534534811973571777 0.497930943965911865 0.269561409950256348
0.549194216728210449 0.381777584552764893 0.244170650839805603
0.473802715539932251 0.457283973693847656 0.374752521514892578
0.395038604736328125 0.847442030906677246 0.511175990104675293
0.50738447904586792 0.611505806446075439 0.316587269306182861
0.494998276233673096 0.925482809543609619 0.338040769100189209
0.474011212587356567 0.817088544368743896 0.374391406774520874
0.537878513336181641 0.864084541797637939 0.263770014047622681
0.534893453121185303 0.713153958320617676 0.268940329551696777
0.511395931243896484 0.655957937240600586 0.309639126062393188
0.511768102645874023 0.690446972846984863 0.308994561433792114
0.502905428409576416 0.373984754085540771 0.324345201253890991
0.503570377826690674 0.65367889404296875 0.32319343090057373
0.507794499397277832 0.891240596771240234 0.315877020359039307
0.532627701759338379 0.979787051677703857 0.272864639759063721
0.550630509853363037 0.780423998832702637 0.241682872176170349
0.5205727219581604 0.575656294822692871 0.293744564056396484
0.478782176971435547 0.597494781017303467 0.366127848625183105
0.42679893970489502 0.945531010627746582 0.456165462732315063
0.513219952583312988 0.289202451705932617 0.306479841470718384
0.392604351043701172 0.970914840698242188 0.515392184257507324
0.473381161689758301 0.592287957668304443 0.375482678413391113
0.568909168243408203 0.810669302940368652 0.210023358464241028
0.527268052101135254 0.207836508750915527 0.282147854566574097
0.475585341453552246 0.676250696182250977 0.371664941310882568
0.479334652423858643 0.642550945281982422 0.365170955657958984
0.499904721975326538 0.705321907997131348 0.32954251766204834
0.489500343799591064 0.860583782196044922 0.347563445568084717
0.50214231014251709 0.55540168285369873 0.325666904449462891
0.44844365119934082 0.686396479606628418 0.418675720691680908
0.509831905364990234 0.598741769790649414 0.31234818696975708
0.469654202461242676 0.56932830810546875 0.381937980651855469
0.531538188457489014 0.335079193115234375 0.274751812219619751
0.459337800741195679 0.743930697441101074 0.399806499481201172
0.442336380481719971 0.600578844547271729 0.429253816604614258
0.463415563106536865 0.847668766975402832 0.39274364709854126
0.395264565944671631 0.850433349609375 0.510784626007080078
0.438268125057220459 0.642068326473236084 0.436300218105316162
0.558480620384216309 0.394487202167510986 0.228086128830909729
0.437396466732025146 0.78309398889541626 0.437810003757476807
0.515454590320587158 0.617373228073120117 0.302609354257583618
0.45318564772605896 0.834500432014465332 0.410462319850921631
0.430839836597442627 0.705719113349914551 0.449166417121887207
0.445507943630218506 0.846836388111114502 0.423760503530502319
0.562900245189666748 0.12036818265914917 0.220431059598922729
0.562288820743560791 0.965604901313781738 0.221490144729614258
0.458434015512466431 0.556914091110229492 0.401371896266937256
0.545042812824249268 0.954976141452789307 0.251361042261123657
0.551325857639312744 0.809822380542755127 0.240478515625
0.567246377468109131 0.37399446964263916 0.212903395295143127
0.472854405641555786 0.898897945880889893 0.376395046710968018
0.572483062744140625 0.557146668434143066 0.203833222389221191
0.469582021236419678 0.614233613014221191 0.382062971591949463
0.571398079395294189 0.695619702339172363 0.205712437629699707
0.47044798731803894 0.860198736190795898 0.380563110113143921
0.510233759880065918 0.33600616455078125 0.311652094125747681
0.514166355133056641 0.474089503288269043 0.304840624332427979
0.512120425701141357 0.399856388568878174 0.30838426947593689
0.541358768939971924 0.493427097797393799 0.257742017507553101
0.519508600234985352 0.758389115333557129 0.29558756947517395
0.547504305839538574 0.223339617252349854 0.247097641229629517
0.522712647914886475 0.705436825752258301 0.290038049221038818
0.400811254978179932 0.927058279514312744 0.501177430152893066
0.446621179580688477 0.682145178318023682 0.42183232307434082
0.487806171178817749 0.467163324356079102 0.350497841835021973
0.412719190120697021 0.873115301132202148 0.48055228590965271
0.441595017910003662 0.826023221015930176 0.430537909269332886
0.404745131731033325 0.82658231258392334 0.494363784790039062
0.566834211349487305 0.817549824714660645 0.213617295026779175
0.547796487808227539 0.385619699954986572 0.246591553092002869
0.489148646593093872 0.470170378684997559 0.348172605037689209
0.44846305251121521 0.9078521728515625 0.418642103672027588
0.467291146516799927 0.890950262546539307 0.386030912399291992
0.572436690330505371 0.149917542934417725 0.203913509845733643
0.556160271167755127 0.870633482933044434 0.23210512101650238
0.412097513675689697 0.781316995620727539 0.481629043817520142
0.401302337646484375 0.83609616756439209 0.500326871871948242
0.476720601320266724 0.504377365112304688 0.369698643684387207
0.4557076096534729 0.873055696487426758 0.406094163656234741
0.546791791915893555 0.561818838119506836 0.248331815004348755
0.414092361927032471 0.948280513286590576 0.478173881769180298
0.463160306215286255 0.549696028232574463 0.393185734748840332
0.524776995182037354 0.438381493091583252 0.286462455987930298
0.522557556629180908 0.672620773315429688 0.290306627750396729
0.546931147575378418 0.206786572933197021 0.248090371489524841
0.472905784845352173 0.578671097755432129 0.376306056976318359
0.563028812408447266 0.242781341075897217 0.220208391547203064
0.463269501924514771 0.96466529369354248 0.39299657940864563
0.504260659217834473 0.601854860782623291 0.321997791528701782
0.415321290493011475 0.84424746036529541 0.476045340299606323
0.537459373474121094 0.437442183494567871 0.264495939016342163
0.569522738456726074 0.468405425548553467 0.208960548043251038
0.488847076892852783 0.872215926647186279 0.348694920539855957
0.43249136209487915 0.796683967113494873 0.44630587100982666
0.497922807931900024 0.687816500663757324 0.332975327968597412
0.527155756950378418 0.609979152679443359 0.282342344522476196
0.45967593789100647 0.590190887451171875 0.399220824241638184
0.385306835174560547 0.909839749336242676 0.528031826019287109
0.520830273628234863 0.570800483226776123 0.29329836368560791
0.561153531074523926 0.614124774932861328 0.223456531763076782
0.568531513214111328 0.545041918754577637 0.210677474737167358
0.522440910339355469 0.456099092960357666 0.290508657693862915
0.556122481822967529 0.93380427360534668 0.232170507311820984
0.407700002193450928 0.94036102294921875 0.489245802164077759
0.522499918937683105 0.56723332405090332 0.290406495332717896
0.566183328628540039 0.700991988182067871 0.214744597673416138
0.564599215984344482 0.581441164016723633 0.21748843789100647
0.503683984279632568 0.696536719799041748 0.322996675968170166
0.546672403812408447 0.764632701873779297 0.248538494110107422
0.46968156099319458 0.72894972562789917 0.381890594959259033
0.425065457820892334 0.762982428073883057 0.459167927503585815
0.452243208885192871 0.97396695613861084 0.412094712257385254
0.503613710403442383 0.790649235248565674 0.323118448257446289
0.405846595764160156 0.831075131893157959 0.492455989122390747
0.477283388376235962 0.831692993640899658 0.368723809719085693
0.509687483310699463 0.617110848426818848 0.312598317861557007
0.410096347332000732 0.738338351249694824 0.485095173120498657
0.560606300830841064 0.159502983093261719 0.224404275417327881
0.56681591272354126 0.259577274322509766 0.213648900389671326
0.553358733654022217 0.259854733943939209 0.236957505345344543
0.450027257204055786 0.921378254890441895 0.415932834148406982
0.543180942535400391 0.166193544864654541 0.254585951566696167
0.519116401672363281 0.989024460315704346 0.29626697301864624
0.557510137557983398 0.663144052028656006 0.229767069220542908
0.448074817657470703 0.572674989700317383 0.419314563274383545
0.444556891918182373 0.825148463249206543 0.425407767295837402
0.549828052520751953 0.746739745140075684 0.243072837591171265
0.490922689437866211 0.477859556674957275 0.345099866390228271
0.455075979232788086 0.948564350605010986 0.407188206911087036
0.437003135681152344 0.767995119094848633 0.438491255044937134
0.495435953140258789 0.732135593891143799 0.337282687425613403
0.375806570053100586 0.963672459125518799 0.544486880302429199
0.432300567626953125 0.666571855545043945 0.446636378765106201
0.488284438848495483 0.742166280746459961 0.349669456481933594
0.396727800369262695 0.933552205562591553 0.508250236511230469
0.446831017732620239 0.805265545845031738 0.421468883752822876
0.512750148773193359 0.732888340950012207 0.307293593883514404
0.511563479900360107 0.623102426528930664 0.309348940849304199
0.57080376148223877 0.799260199069976807 0.206741839647293091
0.475617378950119019 0.758549630641937256 0.37160944938659668
0.524511933326721191 0.605009019374847412 0.286921560764312744
0.563541829586029053 0.21789097785949707 0.21931988000869751
0.532729208469390869 0.363886594772338867 0.272688865661621094
0.526650011539459229 0.789137721061706543 0.283218294382095337
0.544700443744659424 0.799635052680969238 0.251954138278961182
0.559860765933990479 0.288525760173797607 0.2256956547498703
0.559615015983581543 0.240592777729034424 0.226121276617050171
0.538823187351226807 0.927686512470245361 0.262133777141571045
0.378540098667144775 0.920469880104064941 0.539752185344696045
0.547269701957702637 0.741162478923797607 0.247503966093063354
0.389020830392837524 0.824776411056518555 0.521599054336547852
0.511448144912719727 0.946897268295288086 0.309548795223236084
0.377998471260070801 0.891719400882720947 0.540690362453460693
0.567576467990875244 0.796897590160369873 0.212331667542457581
0.486376643180847168 0.438363313674926758 0.352973878383636475
0.548491835594177246 0.821541726589202881 0.245387151837348938
0.551796555519104004 0.88152080774307251 0.239663302898406982
0.479982376098632812 0.751774787902832031 0.364049017429351807
0.481363654136657715 0.688256263732910156 0.361656606197357178
0.56526559591293335 0.592530727386474609 0.216334238648414612
0.439923852682113647 0.720021724700927734 0.433432430028915405
0.452832996845245361 0.622095644474029541 0.411073118448257446
0.54595029354095459 0.176600873470306396 0.249789267778396606
0.553484916687011719 0.280822157859802246 0.236738905310630798
0.514728784561157227 0.837248325347900391 0.30386650562286377
0.440744608640670776 0.698678493499755859 0.432010859251022339
0.481969088315963745 0.530464649200439453 0.36060798168182373
0.517674803733825684 0.769924759864807129 0.298763841390609741
0.505687832832336426 0.973332762718200684 0.319525867700576782
0.437285959720611572 0.9554634690284729 0.438001394271850586
0.481218576431274414 0.959817707538604736 0.361907869577407837
0.447492420673370361 0.839000821113586426 0.420323312282562256
0.515206813812255859 0.281775891780853271 0.303038597106933594
0.479389160871505737 0.876551210880279541 0.365076541900634766
0.529717564582824707 0.79674220085144043 0.27790522575378418
0.478242784738540649 0.797781705856323242 0.367062091827392578
0.536170661449432373 0.262980222702026367 0.266728103160858154
0.498288393020629883 0.747101247310638428 0.332342147827148438
0.565446197986602783 0.0584304928779602051 0.21602138876914978
0.556267440319061279 0.182855546474456787 0.231919482350349426
0.516851067543029785 0.890879392623901367 0.300190567970275879
0.491522699594497681 0.89560467004776001 0.344060599803924561
0.427000612020492554 0.732119500637054443 0.455816149711608887
0.441903293132781982 0.596584558486938477 0.430004000663757324
0.475194364786148071 0.962826251983642578 0.372342109680175781
0.508948683738708496 0.295848429203033447 0.31387794017791748
0.493255198001861572 0.828631162643432617 0.341059833765029907
0.501236796379089355 0.664925694465637207 0.327235370874404907
0.563702702522277832 0.684298276901245117 0.219041228294372559
0.532487154006958008 0.88345414400100708 0.273108124732971191
0.384661823511123657 0.90077662467956543 0.529149055480957031
0.436882317066192627 0.950148701667785645 0.438700497150421143
0.496758401393890381 0.472431361675262451 0.334992110729217529
0.490487247705459595 0.944798707962036133 0.345854073762893677
0.564238488674163818 0.573655545711517334 0.218113183975219727
0.568461418151855469 0.0769036412239074707 0.21079881489276886
0.570937275886535645 0.617060005664825439 0.206510573625564575
0.559199094772338867 0.183839082717895508 0.226841643452644348
0.493835121393203735 0.748426914215087891 0.340055406093597412
0.540463924407958984 0.809238910675048828 0.259291946887969971
0.494875639677047729 0.729166150093078613 0.338253200054168701
0.559703528881072998 0.235627472400665283 0.22596798837184906
0.509551823139190674 0.585688531398773193 0.312833309173583984
0.516945540904998779 0.562740445137023926 0.300026923418045044
0.544216454029083252 0.979410052299499512 0.252792388200759888
0.541742563247680664 0.587462067604064941 0.257077276706695557
0.533777892589569092 0.407882452011108398 0.270872533321380615
0.554121971130371094 0.905159294605255127 0.235635489225387573
0.490082859992980957 0.697358667850494385 0.346554458141326904
0.544822871685028076 0.955960869789123535 0.251742035150527954
0.462652742862701416 0.677386820316314697 0.394064873456954956
0.538784325122833252 0.234816074371337891 0.262201130390167236
0.434056580066680908 0.662423133850097656 0.443594872951507568
0.462085425853729248 0.705273151397705078 0.395047456026077271
0.557346582412719727 0.320839524269104004 0.230050265789031982
0.516088962554931641 0.331236124038696289 0.301510632038116455
0.539662837982177734 0.516186237335205078 0.260679513216018677
0.560866951942443848 0.312717735767364502 0.223952904343605042
0.497817635536193848 0.400486409664154053 0.333157479763031006
0.567562997341156006 0.154042661190032959 0.212354972958564758
0.50416409969329834 0.93436664342880249 0.322165131568908691
0.470731228590011597 0.934272408485412598 0.380072504281997681
0.511458039283752441 0.406468331813812256 0.309531569480895996
0.504816055297851562 0.587033748626708984 0.321035891771316528
0.559293866157531738 0.822047531604766846 0.226677507162094116
0.46670842170715332 0.746609985828399658 0.387040227651596069
0.551020622253417969 0.155403017997741699 0.241007223725318909
0.482327818870544434 0.982011616230010986 0.359986662864685059
0.562447845935821533 0.621257543563842773 0.221214666962623596
0.437399744987487793 0.962127983570098877 0.437804281711578369
0.460897713899612427 0.791277170181274414 0.39710468053817749
0.463896065950393677 0.858931064605712891 0.391911327838897705
0.516395807266235352 0.996515035629272461 0.300979137420654297
0.555973291397094727 0.857864797115325928 0.232428908348083496
0.392585575580596924 0.818982422351837158 0.515424728393554688
0.509738564491271973 0.860257506370544434 0.312509804964065552
0.540955841541290283 0.9101143479347229 0.258439928293228149
0.510216236114501953 0.950821161270141602 0.311682432889938354
0.568649232387542725 0.809624254703521729 0.210473522543907166
0.569253265857696533 0.243803739547729492 0.209427312016487122
0.539939701557159424 0.924410223960876465 0.260199904441833496
0.550074100494384766 0.196984708309173584 0.24264661967754364
0.532980561256408691 0.225255668163299561 0.272253543138504028
0.426190793514251709 0.906294882297515869 0.457218796014785767
0.481997966766357422 0.717992663383483887 0.360557913780212402
0.434148669242858887 0.801279306411743164 0.443435341119766235
0.568043053150177002 0.0990223288536071777 0.211523443460464478
0.470536559820175171 0.89819490909576416 0.380409717559814453
0.503859937191009521 0.703223466873168945 0.322691917419433594
0.472983270883560181 0.926901340484619141 0.37617182731628418
0.551074028015136719 0.324870645999908447 0.240914717316627502
0.514904618263244629 0.523620784282684326 0.303561985492706299
0.536445915699005127 0.375203132629394531 0.26625138521194458
0.536698102951049805 0.811608731746673584 0.26581457257270813
0.410750627517700195 0.772068500518798828 0.483961939811706543
0.471212029457092285 0.721848070621490479 0.379239737987518311
0.558133304119110107 0.321541130542755127 0.228687644004821777
0.37627100944519043 0.96645355224609375 0.543682396411895752
0.453165769577026367 0.66267549991607666 0.410496771335601807
0.494092673063278198 0.416047751903533936 0.339609295129776001
0.441640138626098633 0.702647864818572998 0.430459737777709961
0.491763532161712646 0.587538003921508789 0.343643486499786377
0.487163007259368896 0.392278075218200684 0.351611852645874023
0.47255098819732666 0.590913534164428711 0.376920610666275024
0.542563438415527344 0.38450700044631958 0.255655437707901001
0.484072089195251465 0.782835125923156738 0.356965482234954834
0.509186387062072754 0.704340338706970215 0.313466191291809082
0.493884384632110596 0.39520561695098877 0.33997008204460144
0.517281651496887207 0.626207470893859863 0.299444824457168579
0.569471836090087891 0.574258804321289062 0.209048807621002197
0.465017259120941162 0.76596379280090332 0.389969408512115479
0.496717214584350586 0.739291369915008545 0.335063457489013672
0.525570392608642578 0.709759712219238281 0.285088270902633667
0.545455038547515869 0.680757761001586914 0.250647038221359253
0.520347654819488525 0.406265199184417725 0.294134378433227539
0.545416712760925293 0.176814377307891846 0.250713437795639038
0.557277917861938477 0.650343060493469238 0.230169221758842468
0.477087974548339844 0.693014800548553467 0.369062274694442749
0.521657764911651611 0.597278833389282227 0.29186519980430603
0.378365457057952881 0.996364951133728027 0.540054678916931152
0.48377305269241333 0.644481301307678223 0.357483386993408203
0.453542947769165039 0.731635451316833496 0.409843474626541138
0.548171162605285645 0.709960639476776123 0.245942622423171997
0.522544443607330322 0.327612817287445068 0.290329396724700928
0.520765423774719238 0.64908832311630249 0.293410718441009521
0.547276496887207031 0.993978321552276611 0.247492223978042603
0.540585875511169434 0.547819375991821289 0.259080708026885986
0.448541104793548584 0.82053065299987793 0.418506920337677002
0.572871387004852295 0.0967614054679870605 0.203160554170608521
0.573371708393096924 0.0897528529167175293 0.20229397714138031
0.536711275577545166 0.907801389694213867 0.265791773796081543
0.480496883392333984 0.725299239158630371 0.363157868385314941
0.51578521728515625 0.46305316686630249 0.30203673243522644
0.449008136987686157 0.753238916397094727 0.417697995901107788
0.495416373014450073 0.65622103214263916 0.337316572666168213
0.499063253402709961 0.652997970581054688 0.331000030040740967
0.564294278621673584 0.874367058277130127 0.218016579747200012
0.460218161344528198 0.932734787464141846 0.398281663656234741
0.535346567630767822 0.813974678516387939 0.268155515193939209
0.555431246757507324 0.332251787185668945 0.233367756009101868
0.527694106101989746 0.582205057144165039 0.281409949064254761
0.490319818258285522 0.601221084594726562 0.34614408016204834
0.543223917484283447 0.302245020866394043 0.254511475563049316
0.362312376499176025 0.974181234836578369 0.567859470844268799
0.382042229175567627 0.884665489196777344 0.533686399459838867
0.541209697723388672 0.99492114782333374 0.258000165224075317
0.423403114080429077 0.886327147483825684 0.462047189474105835
0.443479806184768677 0.587733268737792969 0.427273333072662354
0.539785802364349365 0.247444093227386475 0.260466456413269043
0.488489121198654175 0.60673820972442627 0.34931492805480957
0.483169823884963989 0.832565665245056152 0.358528256416320801
0.566763162612915039 0.437620878219604492 0.213740363717079163
0.466950088739395142 0.672895908355712891 0.386621654033660889
0.471001595258712769 0.735138297080993652 0.379604220390319824
0.446563810110092163 0.672246158123016357 0.421931684017181396
0.431992769241333008 0.769272446632385254 0.447169512510299683
0.533278524875640869 0.756590962409973145 0.271737396717071533
0.492497295141220093 0.38741832971572876 0.34237256646156311
0.552115797996520996 0.186203718185424805 0.239110276103019714
0.45544898509979248 0.757503986358642578 0.406542122364044189
0.444198071956634521 0.653137445449829102 0.426029235124588013
0.530957639217376709 0.2660408616065979 0.275757312774658203
0.49275362491607666 0.443292319774627686 0.341928601264953613
0.518150925636291504 0.369335412979125977 0.297939151525497437
0.510445177555084229 0.623533964157104492 0.311285912990570068
0.437693268060684204 0.955050945281982422 0.437295913696289062
0.458940774202346802 0.854189097881317139 0.400494188070297241
0.447780221700668335 0.720569491386413574 0.419824808835983276
0.553513646125793457 0.249218285083770752 0.236689135432243347
0.430473506450653076 0.694424629211425781 0.44980090856552124
0.500858664512634277 0.924754798412322998 0.327890247106552124
0.423512369394302368 0.938736557960510254 0.46185794472694397
0.543053805828094482 0.729644358158111572 0.25480613112449646
0.561455845832824707 0.710938930511474609 0.222932830452919006
0.567318320274353027 0.363657534122467041 0.212778791785240173
0.529535055160522461 0.848868072032928467 0.278221249580383301
0.516865015029907227 0.926630675792694092 0.300166428089141846
0.544001460075378418 0.739847064018249512 0.253164708614349365
0.485563218593597412 0.883892178535461426 0.354382723569869995
0.406728506088256836 0.767935335636138916 0.490928500890731812
0.565920054912567139 0.931771755218505859 0.215200632810592651
0.407536923885345459 0.91520082950592041 0.489528238773345947
0.400935173034667969 0.883721530437469482 0.500962793827056885
0.408557534217834473 0.947801351547241211 0.4877605140209198
0.511233925819396973 0.860854268074035645 0.309919774532318115
0.551195859909057617 0.849748730659484863 0.24070371687412262
0.501035094261169434 0.604657948017120361 0.327584683895111084
0.486619949340820312 0.432663559913635254 0.352552413940429688
0.480913072824478149 0.610784351825714111 0.362437039613723755
0.49294164776802063 0.543588638305664062 0.341602921485900879
0.404110491275787354 0.796466469764709473 0.495462983846664429
0.490770190954208374 0.930913805961608887 0.345364004373550415
0.50214087963104248 0.38528066873550415 0.325669407844543457
0.451196789741516113 0.84230494499206543 0.413907170295715332
0.524801015853881836 0.547955989837646484 0.286420941352844238
0.500367462635040283 0.483007907867431641 0.328741073608398438
0.541748583316802979 0.503352344036102295 0.257066875696182251
0.52653956413269043 0.874922871589660645 0.283409655094146729
0.410227417945861816 0.813274800777435303 0.484868168830871582
0.389441251754760742 0.874678254127502441 0.520870804786682129
0.542093634605407715 0.362862288951873779 0.256469219923019409
0.534592986106872559 0.411357462406158447 0.26946064829826355
0.485465556383132935 0.622406601905822754 0.354551911354064941
0.529226481914520264 0.557255268096923828 0.278755784034729004
0.565612554550170898 0.306620955467224121 0.21573321521282196
0.465612947940826416 0.941928088665008545 0.388937592506408691
0.531713783740997314 0.34284508228302002 0.274447619915008545
0.433876782655715942 0.882723510265350342 0.443906277418136597
0.539058268070220947 0.884373068809509277 0.261726617813110352
0.543368697166442871 0.653904139995574951 0.254260718822479248
0.564778983592987061 0.571682751178741455 0.217177033424377441
0.547659516334533691 0.185077011585235596 0.246828824281692505
0.488055050373077393 0.520112335681915283 0.35006675124168396
0.572606563568115234 0.554772555828094482 0.203619226813316345
0.545595645904541016 0.904059290885925293 0.250403523445129395
0.447692126035690308 0.938860416412353516 0.419977396726608276
0.491173744201660156 0.893647193908691406 0.344665020704269409
0.552890241146087646 0.198864519596099854 0.237768903374671936
0.437834471464157104 0.607036828994750977 0.437051355838775635
0.510542988777160645 0.735919594764709473 0.311116516590118408
0.466559171676635742 0.717552363872528076 0.387298703193664551
0.505478203296661377 0.869340121746063232 0.319888949394226074
0.460471689701080322 0.798928439617156982 0.397842556238174438
0.541266322135925293 0.472008585929870605 0.257902085781097412
0.567679941654205322 0.0618491172790527344 0.212152451276779175
0.556786596775054932 0.152422785758972168 0.231020212173461914
0.507504940032958984 0.675056576728820801 0.316378533840179443
0.538195192813873291 0.330540060997009277 0.263221502304077148
0.411440998315811157 0.822329998016357422 0.482766181230545044
0.498672902584075928 0.705195426940917969 0.331676125526428223
0.439563572406768799 0.746192216873168945 0.434056460857391357
0.47190248966217041 0.610729455947875977 0.378043830394744873
0.491319417953491211 0.789773762226104736 0.344412714242935181
0.563642024993896484 0.200269818305969238 0.219146296381950378
0.514433681964874268 0.936658740043640137 0.304377585649490356
0.524954915046691895 0.771451771259307861 0.286154329776763916
0.396018505096435547 0.792508780956268311 0.50947868824005127
0.488295257091522217 0.448963582515716553 0.349650740623474121
0.556883931159973145 0.173411667346954346 0.230851635336875916
0.439157038927078247 0.765694081783294678 0.434760600328445435
0.402644693851470947 0.924320340156555176 0.498001813888549805
0.399633049964904785 0.840707898139953613 0.503218173980712891
0.533186733722686768 0.617827534675598145 0.271896392107009888
0.482213020324707031 0.762339115142822266 0.360185474157333374
0.515405893325805664 0.367972135543823242 0.302693694829940796
0.553480386734008789 0.0918512344360351562 0.236746743321418762
0.498968362808227539 0.390393733978271484 0.331164330244064331
0.544748246669769287 0.741386115550994873 0.251871228218078613
0.444414496421813965 0.587427854537963867 0.425654411315917969
0.542723715305328369 0.359078168869018555 0.255377829074859619
0.421408683061599731 0.991722941398620605 0.465501666069030762
0.479283392429351807 0.816935598850250244 0.365259766578674316
0.531612098217010498 0.282662272453308105 0.274623751640319824
0.496718376874923706 0.666551887989044189 0.335061430931091309
0.565192341804504395 0.850712239742279053 0.216461122035980225
0.404590576887130737 0.990429997444152832 0.494631469249725342
0.370833367109298706 0.920273244380950928 0.553100705146789551
0.52824777364730835 0.932797372341156006 0.280450940132141113
0.544516265392303467 0.534599423408508301 0.252273052930831909
0.558272659778594971 0.870329737663269043 0.228446319699287415
0.523472070693969727 0.389798402786254883 0.288722693920135498
0.381371468305587769 0.965752840042114258 0.53484809398651123
0.548597812652587891 0.834746181964874268 0.245203584432601929
0.487026125192642212 0.519888579845428467 0.351848900318145752
0.454122573137283325 0.612818479537963867 0.408839523792266846
0.482107639312744141 0.755969583988189697 0.360368013381958008
0.463285207748413086 0.976829111576080322 0.392969369888305664
0.48198014497756958 0.974453270435333252 0.36058884859085083
0.557928204536437988 0.819206714630126953 0.229042962193489075
0.53462451696395874 0.522092938423156738 0.26940608024597168
0.498320221900939941 0.435953676700592041 0.332286953926086426
