ply
format ascii 1.0
element vertex 712
property float x
property float y
property float z
end_header
0.18367922306060791 1.98452365651746732e-15 0.0517054349184036255
0.110275477170944214 1.98452365651746732e-15 0.00891704857349395752
0.0545892901718616486 1.98452365651746732e-15 0.0331312939524650574
0.074976600706577301 1.98452365651746732e-15 0.135313048958778381
0.000449692190159112215 1.98452365651746732e-15 0.171985164284706116
0.067996487021446228 1.98452365651746732e-15 0.0316615961492061615
0.0684614628553390503 1.98452365651746732e-15 0.0105672068893909454
0.17583918571472168 1.98452365651746732e-15 0.00664243102073669434
0.0135427871719002724 1.98452365651746732e-15 0.0457036644220352173
0.06919126957654953 1.98452365651746732e-15 0.0457514598965644836
0.0345630086958408356 1.98452365651746732e-15 0.0323550738394260406
0.029371313750743866 1.98452365651746732e-15 0.0836450010538101196
0.157074302434921265 1.98452365651746732e-15 0.0894869416952133179
0.156433165073394775 1.98452365651746732e-15 0.0655206888914108276
0.180996745824813843 1.98452365651746732e-15 0.0763791948556900024
0.186387538909912109 1.98452365651746732e-15 0.0284782946109771729
0.18645709753036499 1.98452365651746732e-15 0.0115384012460708618
0.114941522479057312 1.98452365651746732e-15 0.029424518346786499
0.00685370247811079025 1.98452365651746732e-15 0.0316025391221046448
0.00435416912660002708 1.98452365651746732e-15 0.124816671013832092
0.136792302131652832 1.98452365651746732e-15 0.0587063506245613098
0.185347437858581543 1.98452365651746732e-15 0.0123871862888336182
0.232240021228790283 1.98452365651746732e-15 0.04359397292137146
0.249247178435325623 1.98452365651746732e-15 0.0123734474182128906
0.0585124269127845764 1.98452365651746732e-15 0.060913529247045517
0.0682237967848777771 1.98452365651746732e-15 0.0536508038640022278
0.0984014645218849182 1.98452365651746732e-15 0.12085588276386261
0.141393348574638367 1.98452365651746732e-15 0.0268777906894683838
0.227758452296257019 1.98452365651746732e-15 0.0157206952571868896
0.015597103163599968 1.98452365651746732e-15 0.161136209964752197
0.0490901581943035126 1.98452365651746732e-15 0.0998920723795890808
0.0849010944366455078 1.98452365651746732e-15 0.0380334407091140747
0.12943500280380249 1.98452365651746732e-15 0.0288692638278007507
0.0893277302384376526 1.98452365651746732e-15 0.0232281796634197235
0.0338161401450634003 1.98452365651746732e-15 0.111202530562877655
0.112341828644275665 1.98452365651746732e-15 0.0943349599838256836
0.0631132721900939941 1.98452365651746732e-15 0.0101550072431564331
0.0295899808406829834 1.98452365651746732e-15 0.0637324228882789612
0.244733899831771851 1.98452365651746732e-15 0.0090704113245010376
0.0513466782867908478 1.98452365651746732e-15 0.15630301833152771
0.213722839951515198 1.98452365651746732e-15 0.0569896101951599121
0.143003359436988831 1.98452365651746732e-15 0.0427258387207984924
0.0953538492321968079 1.98452365651746732e-15 0.107651740312576294
0.181635022163391113 1.98452365651746732e-15 0.0204531401395797729
0.0526723414659500122 1.98452365651746732e-15 0.13286726176738739
0.00932651758193969727 1.98452365651746732e-15 0.19128844141960144
0.090132586658000946 1.98452365651746732e-15 0.0735037922859191895
0.158154264092445374 1.98452365651746732e-15 0.0515437498688697815
0.140965044498443604 1.98452365651746732e-15 0.10593096911907196
0.0130914393812417984 1.98452365651746732e-15 0.0342832058668136597
0.111192435026168823 1.98452365651746732e-15 0.00845867395401000977
0.272796809673309326 1.98452365651746732e-15 0.0105195790529251099
0.235253497958183289 1.98452365651746732e-15 0.0187138020992279053
0.0257390085607767105 1.98452365651746732e-15 0.0639905035495758057
0.104646869003772736 1.98452365651746732e-15 0.0936930403113365173
0.180560305714607239 1.98452365651746732e-15 0.076052643358707428
0.076415136456489563 1.98452365651746732e-15 0.0666802972555160522
0.064935341477394104 1.98452365651746732e-15 0.0648612678050994873
0.0897088870406150818 1.98452365651746732e-15 0.0602714680135250092
0.0596435070037841797 1.98452365651746732e-15 0.152375251054763794
0.0788775235414505005 1.98452365651746732e-15 0.0614696741104125977
0.038374830037355423 1.98452365651746732e-15 0.036527290940284729
0.191069439053535461 1.98452365651746732e-15 0.00200572609901428223
0.0865791067481040955 1.98452365651746732e-15 0.0200583003461360931
0.010122787207365036 1.98452365651746732e-15 0.0741650313138961792
0.0151709215715527534 1.98452365651746732e-15 0.163950353860855103
0.236333206295967102 1.98452365651746732e-15 0.00264783203601837158
0.131954044103622437 1.98452365651746732e-15 0.0163889825344085693
0.268033832311630249 1.98452365651746732e-15 0.0209419876337051392
0.0468654856085777283 1.98452365651746732e-15 0.0179657898843288422
0.216649577021598816 1.98452365651746732e-15 0.0440663993358612061
0.0632224157452583313 1.98452365651746732e-15 0.00832219421863555908
0.0787985995411872864 1.98452365651746732e-15 0.113005280494689941
0.0291374232620000839 1.98452365651746732e-15 0.0277375541627407074
0.00189132080413401127 1.98452365651746732e-15 0.0672967955470085144
0.128876566886901855 1.98452365651746732e-15 0.0915154740214347839
0.218714877963066101 1.98452365651746732e-15 0.00234605371952056885
0.164177566766738892 1.98452365651746732e-15 0.000599823892116546631
0.152939274907112122 1.98452365651746732e-15 0.0260830596089363098
0.0726838409900665283 1.98452365651746732e-15 0.0807329863309860229
0.043917730450630188 1.98452365651746732e-15 0.00856813788414001465
0.134680852293968201 1.98452365651746732e-15 0.0125405043363571167
0.0292442329227924347 1.98452365651746732e-15 0.140826568007469177
0.104015938937664032 1.98452365651746732e-15 0.0435939580202102661
0.0112688587978482246 1.98452365651746732e-15 0.1285056471824646
0.0300193857401609421 1.98452365651746732e-15 0.0561364144086837769
0.137758135795593262 1.98452365651746732e-15 0.0795182064175605774
0.0605983026325702667 1.98452365651746732e-15 0.0691372677683830261
0.0671673864126205444 1.98452365651746732e-15 0.0382111594080924988
0.157574087381362915 1.98452365651746732e-15 0.0191617980599403381
0.0566992573440074921 1.98452365651746732e-15 0.0309158302843570709
0.0313831567764282227 1.98452365651746732e-15 0.0323399677872657776
0.147014319896697998 1.98452365651746732e-15 0.0213624835014343262
0.0197397340089082718 1.98452365651746732e-15 0.0738781839609146118
0.0275591444224119186 1.98452365651746732e-15 0.094172745943069458
0.204224765300750732 1.98452365651746732e-15 0.0421400517225265503
0.172070041298866272 1.98452365651746732e-15 0.0723713859915733337
0.117188714444637299 1.98452365651746732e-15 0.0884945392608642578
0.114767171442508698 1.98452365651746732e-15 0.104639545083045959
0.0431187078356742859 1.98452365651746732e-15 0.0134611241519451141
0.0208347011357545853 1.98452365651746732e-15 0.0709830224514007568
0.105011902749538422 1.98452365651746732e-15 0.0383965149521827698
0.0420763827860355377 1.98452365651746732e-15 0.0327154025435447693
0.0161864105612039566 1.98452365651746732e-15 0.137863308191299438
0.00344011723063886166 1.98452365651746732e-15 0.0570867322385311127
0.0648548975586891174 1.98452365651746732e-15 0.0476646535098552704
0.0368842706084251404 1.98452365651746732e-15 0.0820057839155197144
0.00278869341127574444 1.98452365651746732e-15 0.136705055832862854
0.10170503705739975 1.98452365651746732e-15 0.0468901917338371277
0.194593086838722229 1.98452365651746732e-15 0.0506330281496047974
0.0631635338068008423 1.98452365651746732e-15 0.112236522138118744
0.0481567233800888062 1.98452365651746732e-15 0.0314701162278652191
0.103029653429985046 1.98452365651746732e-15 0.0626034662127494812
0.0527984239161014557 1.98452365651746732e-15 0.0205203965306282043
0.114170432090759277 1.98452365651746732e-15 0.0454967319965362549
0.267566710710525513 1.98452365651746732e-15 0.0214489549398422241
0.0583421513438224792 1.98452365651746732e-15 0.0661648958921432495
0.0636115372180938721 1.98452365651746732e-15 0.134499996900558472
0.187277883291244507 1.98452365651746732e-15 0.0674539729952812195
0.00411466555669903755 1.98452365651746732e-15 0.101733632385730743
0.164361149072647095 1.98452365651746732e-15 0.0621530264616012573
0.0272473003715276718 1.98452365651746732e-15 0.058200344443321228
0.0149958264082670212 1.98452365651746732e-15 0.165121227502822876
0.0726783126592636108 1.98452365651746732e-15 0.146597355604171753
0.162266388535499573 1.98452365651746732e-15 0.0211014673113822937
0.103860862553119659 1.98452365651746732e-15 0.0651912540197372437
0.20963345468044281 1.98452365651746732e-15 0.0451448559761047363
0.116758048534393311 1.98452365651746732e-15 0.0891933068633079529
0.0790973156690597534 1.98452365651746732e-15 0.0151338428258895874
0.0589857213199138641 1.98452365651746732e-15 0.0172158554196357727
0.0429281815886497498 1.98452365651746732e-15 0.137932091951370239
0.12357628345489502 1.98452365651746732e-15 0.0992880091071128845
0.1061430424451828 1.98452365651746732e-15 0.0508723929524421692
0.0328330434858798981 1.98452365651746732e-15 0.123370297253131866
0.174416303634643555 1.98452365651746732e-15 0.0495273768901824951
0.209847956895828247 1.98452365651746732e-15 0.016270071268081665
0.0989667773246765137 1.98452365651746732e-15 0.0443316027522087097
0.0355710610747337341 1.98452365651746732e-15 0.0330459102988243103
0.186383649706840515 1.98452365651746732e-15 0.0668376907706260681
0.023615548387169838 1.98452365651746732e-15 0.0556453503668308258
0.204849570989608765 1.98452365651746732e-15 0.043040931224822998
0.0562814511358737946 1.98452365651746732e-15 0.00866178423166275024
0.0207906048744916916 1.98452365651746732e-15 0.0964633449912071228
0.102323032915592194 1.98452365651746732e-15 0.124671295285224915
0.0576145090162754059 1.98452365651746732e-15 0.0157790854573249817
0.0800781771540641785 1.98452365651746732e-15 0.0370035655796527863
0.00626368634402751923 1.98452365651746732e-15 0.156765162944793701
0.0596002228558063507 1.98452365651746732e-15 0.119607076048851013
0.0345680415630340576 1.98452365651746732e-15 0.017608642578125
0.0667030215263366699 1.98452365651746732e-15 0.0109639652073383331
0.190053090453147888 1.98452365651746732e-15 0.038508683443069458
0.0133952749893069267 1.98452365651746732e-15 0.132499828934669495
0.235014334321022034 1.98452365651746732e-15 0.00381173193454742432
0.222362115979194641 1.98452365651746732e-15 0.0267837196588516235
0.139664635062217712 1.98452365651746732e-15 0.0871330574154853821
0.0343034863471984863 1.98452365651746732e-15 0.175634905695915222
0.0450624153017997742 1.98452365651746732e-15 0.0846225768327713013
0.0280447881668806076 1.98452365651746732e-15 0.028003595769405365
0.032666333019733429 1.98452365651746732e-15 0.0386587530374526978
0.0522789843380451202 1.98452365651746732e-15 0.0256434231996536255
0.0101249674335122108 1.98452365651746732e-15 0.0230218861252069473
0.0576825551688671112 1.98452365651746732e-15 0.118450090289115906
0.0841793343424797058 1.98452365651746732e-15 0.110457643866539001
0.0181904174387454987 1.98452365651746732e-15 0.0542165711522102356
0.0653569325804710388 1.98452365651746732e-15 0.0174405947327613831
0.0758544281125068665 1.98452365651746732e-15 0.0516194961965084076
0.0700007453560829163 1.98452365651746732e-15 0.00524821504950523376
0.180333182215690613 1.98452365651746732e-15 0.0381079837679862976
0.0353138484060764313 1.98452365651746732e-15 0.0449334830045700073
0.213399246335029602 1.98452365651746732e-15 0.021650850772857666
0.150551453232765198 1.98452365651746732e-15 0.0483139082789421082
0.0295433085411787033 1.98452365651746732e-15 0.140903770923614502
0.00822147633880376816 1.98452365651746732e-15 0.104766778647899628
0.103165797889232635 1.98452365651746732e-15 0.129699051380157471
0.108863294124603271 1.98452365651746732e-15 0.0289219990372657776
0.0160266105085611343 1.98452365651746732e-15 0.117722548544406891
0.152984410524368286 1.98452365651746732e-15 0.0241398736834526062
0.00724447797983884811 1.98452365651746732e-15 0.123107172548770905
0.00275622913613915443 1.98452365651746732e-15 0.135469287633895874
0.04541817307472229 1.98452365651746732e-15 0.108240015804767609
0.120947174727916718 1.98452365651746732e-15 0.0663282275199890137
0.00108692131470888853 1.98452365651746732e-15 0.100066870450973511
0.268034011125564575 1.98452365651746732e-15 0.01240500807762146
0.0562475211918354034 1.98452365651746732e-15 0.0204576030373573303
0.0711068511009216309 1.98452365651746732e-15 0.11208711564540863
0.0656633153557777405 1.98452365651746732e-15 0.085691407322883606
0.0387875325977802277 1.98452365651746732e-15 0.00403018482029438019
0.103940501809120178 1.98452365651746732e-15 0.000763379037380218506
0.0917776226997375488 1.98452365651746732e-15 0.0525455735623836517
0.0577207989990711212 1.98452365651746732e-15 0.106333479285240173
0.194422990083694458 1.98452365651746732e-15 0.0105535537004470825
0.134695962071418762 1.98452365651746732e-15 0.0242588520050048828
0.0599734187126159668 1.98452365651746732e-15 0.105625450611114502
0.078159429132938385 1.98452365651746732e-15 0.0320646725594997406
0.129092603921890259 1.98452365651746732e-15 0.0828444808721542358
0.0166231561452150345 1.98452365651746732e-15 0.156401887536048889
0.181218862533569336 1.98452365651746732e-15 0.029824472963809967
0.0110358390957117081 1.98452365651746732e-15 0.123091235756874084
0.0169026069343090057 1.98452365651746732e-15 0.00492027681320905685
0.0547719486057758331 1.98452365651746732e-15 0.128126651048660278
0.0999271944165229797 1.98452365651746732e-15 0.019399203360080719
0.124016784131526947 1.98452365651746732e-15 0.106959953904151917
0.16899833083152771 1.98452365651746732e-15 0.0190467387437820435
0.235045269131660461 1.98452365651746732e-15 0.0157721042633056641
0.0399612598121166229 1.98452365651746732e-15 0.028837183490395546
0.0415416024625301361 1.98452365651746732e-15 0.0783076062798500061
0.00105560594238340855 1.98452365651746732e-15 0.192852109670639038
0.0238071512430906296 1.98452365651746732e-15 0.0343663692474365234
0.132391840219497681 1.98452365651746732e-15 0.0643949434161186218
0.0951991006731987 1.98452365651746732e-15 0.0783916786313056946
0.0199005305767059326 1.98452365651746732e-15 0.0828910842537879944
0.189839914441108704 1.98452365651746732e-15 0.0593463778495788574
0.0267374478280544281 1.98452365651746732e-15 0.0500985682010650635
0.067548997700214386 1.98452365651746732e-15 0.015300411731004715
0.0612904466688632965 1.98452365651746732e-15 0.0564783811569213867
0.0899925157427787781 1.98452365651746732e-15 0.0791543126106262207
0.031356126070022583 1.98452365651746732e-15 0.0249194465577602386
0.0324926450848579407 1.98452365651746732e-15 0.0178303234279155731
0.0921944007277488708 1.98452365651746732e-15 0.135818049311637878
0.111516252160072327 1.98452365651746732e-15 0.0802031233906745911
0.103406168520450592 1.98452365651746732e-15 0.0784555003046989441
0.142283990979194641 1.98452365651746732e-15 0.05645732581615448
0.0428076870739459991 1.98452365651746732e-15 0.146421819925308228
0.144470259547233582 1.98452365651746732e-15 0.0791075974702835083
0.0731166303157806396 1.98452365651746732e-15 0.0378021001815795898
0.143625631928443909 1.98452365651746732e-15 0.0698803067207336426
0.222135409712791443 1.98452365651746732e-15 0.0288556963205337524
0.019770333543419838 1.98452365651746732e-15 0.0143874632194638252
0.207472875714302063 1.98452365651746732e-15 0.018735840916633606
0.150664463639259338 1.98452365651746732e-15 0.065142415463924408
0.0515888221561908722 1.98452365651746732e-15 0.006590280681848526
0.201640620827674866 1.98452365651746732e-15 0.0279295593500137329
0.0553581938147544861 1.98452365651746732e-15 0.0780221521854400635
0.0688583105802536011 1.98452365651746732e-15 0.0146200284361839294
0.0208033677190542221 1.98452365651746732e-15 0.134664624929428101
0.0459336787462234497 1.98452365651746732e-15 0.0254950821399688721
0.153291881084442139 1.98452365651746732e-15 0.0208048224449157715
0.0155140804126858711 1.98452365651746732e-15 0.0551300458610057831
0.0335340909659862518 1.98452365651746732e-15 0.0442079342901706696
0.133177205920219421 1.98452365651746732e-15 0.00972977280616760254
0.0641388967633247375 1.98452365651746732e-15 0.146073758602142334
0.0199509952217340469 1.98452365651746732e-15 0.0942440629005432129
0.180554032325744629 1.98452365651746732e-15 0.0490813776850700378
0.0207766406238079071 1.98452365651746732e-15 0.163188725709915161
0.0822964981198310852 1.98452365651746732e-15 0.019998062402009964
0.206413492560386658 1.98452365651746732e-15 0.0591298490762710571
0.272944450378417969 1.98452365651746732e-15 0.0152779668569564819
0.00579922087490558624 1.98452365651746732e-15 0.180249616503715515
0.186069652438163757 1.98452365651746732e-15 0.0135686472058296204
0.026834879070520401 1.98452365651746732e-15 0.040035635232925415
0.00182834395673125982 1.98452365651746732e-15 0.0883254781365394592
0.0328240580856800079 1.98452365651746732e-15 0.142911642789840698
0.115885674953460693 1.98452365651746732e-15 0.0709465518593788147
0.032030053436756134 1.98452365651746732e-15 0.0521973930299282074
0.176767453551292419 1.98452365651746732e-15 0.0496011748909950256
0.0689289048314094543 1.98452365651746732e-15 0.151028171181678772
0.077459581196308136 1.98452365651746732e-15 0.0508281774818897247
0.104133881628513336 1.98452365651746732e-15 0.0310217887163162231
0.0665136948227882385 1.98452365651746732e-15 0.119298949837684631
0.148505032062530518 1.98452365651746732e-15 0.0324132218956947327
0.20350898802280426 1.98452365651746732e-15 0.0466783195734024048
0.149068042635917664 1.98452365651746732e-15 0.0100134387612342834
0.231887176632881165 1.98452365651746732e-15 0.0381201505661010742
0.182831957936286926 1.98452365651746732e-15 0.0660795792937278748
0.21442316472530365 1.98452365651746732e-15 0.0410628765821456909
0.122851692140102386 1.98452365651746732e-15 0.117664434015750885
0.0573247708380222321 1.98452365651746732e-15 0.0581963174045085907
0.100356675684452057 1.98452365651746732e-15 0.00935681164264678955
0.18828970193862915 1.98452365651746732e-15 0.0338510423898696899
0.112637430429458618 1.98452365651746732e-15 0.120717711746692657
0.011617640033364296 1.98452365651746732e-15 0.154980838298797607
0.0724258869886398315 1.98452365651746732e-15 0.0118494890630245209
0.106802545487880707 1.98452365651746732e-15 0.0519595220685005188
0.221800640225410461 1.98452365651746732e-15 0.0364461839199066162
0.0872801914811134338 1.98452365651746732e-15 0.110456585884094238
0.0835989117622375488 1.98452365651746732e-15 0.138394922018051147
0.0935731083154678345 1.98452365651746732e-15 0.0622479468584060669
0.0921009927988052368 1.98452365651746732e-15 0.0797491446137428284
0.0146479764953255653 1.98452365651746732e-15 0.0997801721096038818
0.176657915115356445 1.98452365651746732e-15 0.0323884487152099609
0.204686865210533142 1.98452365651746732e-15 0.018276020884513855
0.20284503698348999 1.98452365651746732e-15 0.0122801810503005981
0.00372229469940066338 1.98452365651746732e-15 0.0484561212360858917
0.233634933829307556 1.98452365651746732e-15 0.0143447518348693848
0.212116584181785583 1.98452365651746732e-15 0.0114574581384658813
0.00545778963714838028 1.98452365651746732e-15 0.0796960741281509399
0.0242417454719543457 1.98452365651746732e-15 0.175657168030738831
0.0477610491216182709 1.98452365651746732e-15 0.145409524440765381
0.0461086034774780273 1.98452365651746732e-15 0.0784625709056854248
0.0734420940279960632 1.98452365651746732e-15 0.145142272114753723
0.0437501110136508942 1.98452365651746732e-15 0.132844552397727966
0.00013168359873816371 1.98452365651746732e-15 0.0414920970797538757
0.012910512275993824 1.98452365651746732e-15 0.151393383741378784
0.0362653061747550964 1.98452365651746732e-15 0.145817533135414124
0.266704380512237549 1.98452365651746732e-15 0.020930066704750061
0.109263069927692413 1.98452365651746732e-15 0.0962574928998947144
0.15911102294921875 1.98452365651746732e-15 0.0337051674723625183
0.0217639878392219543 1.98452365651746732e-15 0.0175110362470149994
0.00671053444966673851 1.98452365651746732e-15 0.0188132040202617645
0.111045166850090027 1.98452365651746732e-15 0.0796025022864341736
0.060328993946313858 1.98452365651746732e-15 0.0883463099598884583
0.0392177477478981018 1.98452365651746732e-15 0.00801913067698478699
0.00327042420394718647 1.98452365651746732e-15 0.0488047264516353607
0.0118978330865502357 1.98452365651746732e-15 0.179316207766532898
0.068278871476650238 1.98452365651746732e-15 0.046037621796131134
0.0593873150646686554 1.98452365651746732e-15 0.0149580016732215881
0.131952151656150818 1.98452365651746732e-15 0.0646386072039604187
0.274804085493087769 1.98452365651746732e-15 0.0085585862398147583
0.00963706336915493011 1.98452365651746732e-15 0.110941357910633087
0.0291561800986528397 1.98452365651746732e-15 0.0675135403871536255
0.100748904049396515 1.98452365651746732e-15 0.0775957480072975159
0.255838006734848022 1.98452365651746732e-15 0.00435087084770202637
0.0463777408003807068 1.98452365651746732e-15 0.0323342829942703247
0.189622536301612854 1.98452365651746732e-15 0.0442717671394348145
0.0988948419690132141 1.98452365651746732e-15 0.0855531543493270874
0.0716092213988304138 1.98452365651746732e-15 0.118797361850738525
0.0333212167024612427 1.98452365651746732e-15 0.00150834023952484131
0.0591831468045711517 1.98452365651746732e-15 0.112167060375213623
0.0872628837823867798 1.98452365651746732e-15 0.132205978035926819
0.17190927267074585 1.98452365651746732e-15 0.0604292824864387512
0.0215729661285877228 1.98452365651746732e-15 0.183258816599845886
0.0325039215385913849 1.98452365651746732e-15 0.0636405050754547119
0.12987053394317627 1.98452365651746732e-15 0.0204149484634399414
0.206120282411575317 1.98452365651746732e-15 0.0594817101955413818
0.0157652497291564941 1.98452365651746732e-15 0.171616584062576294
0.192150875926017761 1.98452365651746732e-15 0.0361803770065307617
0.213864311575889587 1.98452365651746732e-15 0.0016002953052520752
0.182042986154556274 1.98452365651746732e-15 0.0425587892532348633
0.0869251936674118042 1.98452365651746732e-15 0.0240797661244869232
0.106545455753803253 1.98452365651746732e-15 0.0471227541565895081
0.0942454785108566284 1.98452365651746732e-15 0.131911426782608032
0.0568320713937282562 1.98452365651746732e-15 0.0445108376443386078
0.0365020260214805603 1.98452365651746732e-15 0.130782946944236755
0.241672709584236145 1.98452365651746732e-15 0.0285128206014633179
0.047452293336391449 1.98452365651746732e-15 0.0441437177360057831
0.0591076761484146118 1.98452365651746732e-15 0.0154701359570026398
0.164079561829566956 1.98452365651746732e-15 0.0648863986134529114
0.00110048160422593355 1.98452365651746732e-15 0.0899456590414047241
0.00187431706581264734 1.98452365651746732e-15 0.0254826322197914124
0.011706717312335968 1.98452365651746732e-15 0.124322064220905304
0.247926607728004456 1.98452365651746732e-15 0.02836570143699646
0.00670857680961489677 1.98452365651746732e-15 0.195455342531204224
0.179887875914573669 1.98452365651746732e-15 0.0565968528389930725
0.0708303600549697876 1.98452365651746732e-15 0.128458186984062195
0.229035481810569763 1.98452365651746732e-15 0.0116682052612304688
0.145849660038948059 1.98452365651746732e-15 0.0104901939630508423
0.150117933750152588 1.98452365651746732e-15 0.0911984220147132874
0.0056446385569870472 1.98452365651746732e-15 0.10960262268781662
0.228074893355369568 1.98452365651746732e-15 0.03361491858959198
0.165739357471466064 1.98452365651746732e-15 0.0725216716527938843
0.0530825108289718628 1.98452365651746732e-15 0.0536880828440189362
0.064328707754611969 1.98452365651746732e-15 0.0741551518440246582
0.00779249938204884529 1.98452365651746732e-15 0.0669302865862846375
0.0261094886809587479 1.98452365651746732e-15 0.178018540143966675
0.0595345944166183472 1.98452365651746732e-15 0.0944226086139678955
0.178173571825027466 1.98452365651746732e-15 0.0254983231425285339
0.16652873158454895 1.98452365651746732e-15 0.0613205283880233765
0.0771558880805969238 1.98452365651746732e-15 0.135564208030700684
0.0378853604197502136 1.98452365651746732e-15 0.0984523743391036987
0.0156943034380674362 1.98452365651746732e-15 0.138715416193008423
0.123321898281574249 1.98452365651746732e-15 0.106644704937934875
0.0988245382905006409 1.98452365651746732e-15 0.0463003292679786682
0.0779213458299636841 1.98452365651746732e-15 0.0692344382405281067
0.0377100929617881775 1.98452365651746732e-15 0.119983255863189697
0.201440185308456421 1.98452365651746732e-15 0.00108261406421661377
0.274854838848114014 1.98452365651746732e-15 0.00374273955821990967
0.026699896901845932 1.98452365651746732e-15 0.147465705871582031
0.109481446444988251 1.98452365651746732e-15 0.0539223402738571167
0.0528484843671321869 1.98452365651746732e-15 0.0792279914021492004
0.124810554087162018 1.98452365651746732e-15 0.0814095661044120789
0.0875303074717521667 1.98452365651746732e-15 0.0354349873960018158
0.138248711824417114 1.98452365651746732e-15 0.0945319756865501404
0.176641300320625305 1.98452365651746732e-15 0.0121249780058860779
0.103489719331264496 1.98452365651746732e-15 0.127141237258911133
0.0712793394923210144 1.98452365651746732e-15 0.140189766883850098
0.154826179146766663 1.98452365651746732e-15 0.00762541592121124268
0.0583246946334838867 1.98452365651746732e-15 0.0681692063808441162
0.0359937213361263275 1.98452365651746732e-15 0.00022393837571144104
0.140628427267074585 1.98452365651746732e-15 0.0752016603946685791
0.00109180866274982691 1.98452365651746732e-15 0.0501089431345462799
0.133811876177787781 1.98452365651746732e-15 0.0661064758896827698
0.244132056832313538 1.98452365651746732e-15 0.00734207034111022949
0.13217376172542572 1.98452365651746732e-15 0.00596170872449874878
0.0578945130109786987 1.98452365651746732e-15 0.115411892533302307
0.11402883380651474 1.98452365651746732e-15 0.0968034937977790833
0.0789746791124343872 1.98452365651746732e-15 0.129197806119918823
0.182815402746200562 1.98452365651746732e-15 0.0126130208373069763
0.105240456759929657 1.98452365651746732e-15 0.0192089155316352844
0.0101479450240731239 1.98452365651746732e-15 0.0804417431354522705
0.163488462567329407 1.98452365651746732e-15 0.088375575840473175
0.0143814506009221077 1.98452365651746732e-15 0.0228230617940425873
0.0345343239605426788 1.98452365651746732e-15 0.106088884174823761
0.0604274049401283264 1.98452365651746732e-15 0.0583533383905887604
0.0269372425973415375 1.98452365651746732e-15 0.0803240463137626648
0.0695778802037239075 1.98452365651746732e-15 0.141659051179885864
0.0122919511049985886 1.98452365651746732e-15 0.164488822221755981
0.20638728141784668 1.98452365651746732e-15 0.0522057712078094482
0.0396728180348873138 1.98452365651746732e-15 0.107585728168487549
0.0277282539755105972 1.98452365651746732e-15 0.099261060357093811
0.152164727449417114 1.98452365651746732e-15 0.0367383435368537903
0.0293701570481061935 1.98452365651746732e-15 0.110537163913249969
0.00982436724007129669 1.98452365651746732e-15 0.184296652674674988
0.0283322259783744812 1.98452365651746732e-15 0.145950421690940857
0.0785868614912033081 1.98452365651746732e-15 0.0046531185507774353
0.0572683326900005341 1.98452365651746732e-15 0.129666194319725037
0.074837610125541687 1.98452365651746732e-15 0.143903046846389771
0.136514961719512939 1.98452365651746732e-15 0.0767191275954246521
0.0488248951733112335 1.98452365651746732e-15 0.148441150784492493
0.194629102945327759 1.98452365651746732e-15 0.0338067710399627686
0.109910227358341217 1.98452365651746732e-15 0.0722505152225494385
0.0518079362809658051 1.98452365651746732e-15 0.11301538348197937
0.0998796671628952026 1.98452365651746732e-15 0.057684287428855896
0.0370587483048439026 1.98452365651746732e-15 0.0631449967622756958
0.0710732117295265198 1.98452365651746732e-15 0.0326367281377315521
0.250920116901397705 1.98452365651746732e-15 0.0222493261098861694
0.0226088576018810272 1.98452365651746732e-15 0.149196222424507141
0.130912184715270996 1.98452365651746732e-15 0.0848973914980888367
0.228499487042427063 1.98452365651746732e-15 0.044879034161567688
0.116423480212688446 1.98452365651746732e-15 0.0920053422451019287
0.101049870252609253 1.98452365651746732e-15 0.0373427122831344604
0.0917725116014480591 1.98452365651746732e-15 0.0443252399563789368
0.00348979094997048378 1.98452365651746732e-15 0.175517305731773376
0.0339647494256496429 1.98452365651746732e-15 0.164327830076217651
0.0944936797022819519 1.98452365651746732e-15 0.097815193235874176
0.106578953564167023 1.98452365651746732e-15 0.0714629217982292175
0.19489036500453949 1.98452365651746732e-15 0.013489067554473877
0.103336900472640991 1.98452365651746732e-15 0.0686571672558784485
0.0654997825622558594 1.98452365651746732e-15 0.0375067330896854401
0.143656998872756958 1.98452365651746732e-15 0.0393496528267860413
0.0899692326784133911 1.98452365651746732e-15 0.098131909966468811
0.124852195382118225 1.98452365651746732e-15 0.106847457587718964
0.24028313159942627 1.98452365651746732e-15 0.0210565179586410522
0.115745671093463898 1.98452365651746732e-15 0.0313387215137481689
0.115593425929546356 1.98452365651746732e-15 0.00869606435298919678
0.00135096977464854717 1.98452365651746732e-15 0.0720007345080375671
0.218360483646392822 1.98452365651746732e-15 0.0229674279689788818
0.162124425172805786 1.98452365651746732e-15 0.0657319426536560059
0.0992911830544471741 1.98452365651746732e-15 0.0748410075902938843
0.0434491001069545746 1.98452365651746732e-15 0.14150257408618927
0.160623103380203247 1.98452365651746732e-15 0.0106394514441490173
0.0722990706562995911 1.98452365651746732e-15 0.0420225858688354492
0.0616455152630805969 1.98452365651746732e-15 0.140153110027313232
0.0969714820384979248 1.98452365651746732e-15 0.0230649262666702271
0.0460071265697479248 1.98452365651746732e-15 0.00180788338184356689
0.189264342188835144 1.98452365651746732e-15 0.0622225403785705566
0.000197513640159741044 1.98452365651746732e-15 0.0585963353514671326
0.239080175757408142 1.98452365651746732e-15 0.0222172290086746216
0.0286573395133018494 1.98452365651746732e-15 0.0980986356735229492
0.0018804940627887845 1.98452365651746732e-15 0.0706042200326919556
0.0191482529044151306 1.98452365651746732e-15 0.162448644638061523
0.0889114513993263245 1.98452365651746732e-15 0.0835068672895431519
0.143099069595336914 1.98452365651746732e-15 0.0913343280553817749
0.0127560077235102654 1.98452365651746732e-15 0.137899443507194519
0.0798045694828033447 1.98452365651746732e-15 0.0150023698806762695
0.108832843601703644 1.98452365651746732e-15 0.110249564051628113
0.0600506514310836792 1.98452365651746732e-15 0.0323961116373538971
0.202723711729049683 1.98452365651746732e-15 0.00534461438655853271
0.138967067003250122 1.98452365651746732e-15 0.0547375530004501343
0.083265647292137146 1.98452365651746732e-15 0.0603754967451095581
0.18832726776599884 1.98452365651746732e-15 0.0142727643251419067
0.15329386293888092 1.98452365651746732e-15 0.028722710907459259
0.0444556139409542084 1.98452365651746732e-15 0.114581100642681122
0.0519256703555583954 1.98452365651746732e-15 0.140813484787940979
0.194701120257377625 1.98452365651746732e-15 0.0586491823196411133
0.135717719793319702 1.98452365651746732e-15 0.00291168689727783203
0.0985061749815940857 1.98452365651746732e-15 0.0512965917587280273
0.0703398361802101135 1.98452365651746732e-15 0.152916610240936279
0.0423612147569656372 1.98452365651746732e-15 0.147192537784576416
0.0869806334376335144 1.98452365651746732e-15 0.140762865543365479
0.115383587777614594 1.98452365651746732e-15 0.0832223445177078247
0.0289176423102617264 1.98452365651746732e-15 0.133870542049407959
0.0264783706516027451 1.98452365651746732e-15 0.0657045692205429077
0.0985627919435501099 1.98452365651746732e-15 0.0389975756406784058
0.00419201841577887535 1.98452365651746732e-15 0.0623767562210559845
0.0609117709100246429 1.98452365651746732e-15 0.131198793649673462
0.0940469726920127869 1.98452365651746732e-15 0.131032228469848633
0.0349388867616653442 1.98452365651746732e-15 0.0526443570852279663
0.246321186423301697 1.98452365651746732e-15 0.0348588824272155762
0.219576030969619751 1.98452365651746732e-15 0.0448249131441116333
0.103013306856155396 1.98452365651746732e-15 0.103840656578540802
0.0175326596945524216 1.98452365651746732e-15 0.181067273020744324
0.0731088519096374512 1.98452365651746732e-15 0.127841591835021973
0.164761379361152649 1.98452365651746732e-15 0.0894173309206962585
0.0685285627841949463 1.98452365651746732e-15 0.134054049849510193
0.0777983143925666809 1.98452365651746732e-15 0.0665165483951568604
0.0270113218575716019 1.98452365651746732e-15 0.0944114625453948975
0.162264853715896606 1.98452365651746732e-15 0.0233556255698204041
0.0308911297470331192 1.98452365651746732e-15 0.00155112519860267639
0.0229929611086845398 1.98452365651746732e-15 0.0964502468705177307
0.169249430298805237 1.98452365651746732e-15 0.00878401100635528564
0.00193694408517330885 1.98452365651746732e-15 0.174190014600753784
0.0813300237059593201 1.98452365651746732e-15 0.13109278678894043
0.00765737658366560936 1.98452365651746732e-15 0.188528135418891907
0.0135558880865573883 1.98452365651746732e-15 0.0736646875739097595
0.19121938943862915 1.98452365651746732e-15 0.0604680031538009644
0.146712973713874817 1.98452365651746732e-15 0.0970164313912391663
0.0178359951823949814 1.98452365651746732e-15 0.0839564800262451172
0.0879471898078918457 1.98452365651746732e-15 0.0733397677540779114
0.0549305789172649384 1.98452365651746732e-15 0.13689836859703064
0.15455259382724762 1.98452365651746732e-15 0.0204830467700958252
0.140679389238357544 1.98452365651746732e-15 0.0255829095840454102
0.163285762071609497 1.98452365651746732e-15 0.0187525451183319092
0.0186393521726131439 1.98452365651746732e-15 0.00149249378591775894
0.166389748454093933 1.98452365651746732e-15 0.00283870100975036621
0.0303289759904146194 1.98452365651746732e-15 0.0721045807003974915
0.0241256356239318848 1.98452365651746732e-15 0.0589972883462905884
0.0291235689073801041 1.98452365651746732e-15 0.00177877582609653473
0.0540282204747200012 1.98452365651746732e-15 0.0289096571505069733
0.0651603341102600098 1.98452365651746732e-15 0.109208032488822937
0.00665678875520825386 1.98452365651746732e-15 0.150875091552734375
0.16926845908164978 1.98452365651746732e-15 0.0427091047167778015
0.0426606908440589905 1.98452365651746732e-15 0.13430100679397583
0.0199474692344665527 1.98452365651746732e-15 0.0467044636607170105
0.0690192058682441711 1.98452365651746732e-15 0.0404528118669986725
0.0153982751071453094 1.98452365651746732e-15 0.0168742947280406952
0.0520993508398532867 1.98452365651746732e-15 0.052671581506729126
0.00784142967313528061 1.98452365651746732e-15 0.112562142312526703
0.0136923789978027344 1.98452365651746732e-15 0.0666943639516830444
0.0562012940645217896 1.98452365651746732e-15 0.11642184853553772
0.0126899285241961479 1.98452365651746732e-15 0.0247047282755374908
0.0548433549702167511 1.98452365651746732e-15 0.0226164460182189941
0.0112961819395422935 1.98452365651746732e-15 0.153780713677406311
0.135356634855270386 1.98452365651746732e-15 0.0327225401997566223
0.0140873836353421211 1.98452365651746732e-15 0.0316080003976821899
0.0798413529992103577 1.98452365651746732e-15 0.122651368379592896
0.16685408353805542 1.98452365651746732e-15 0.0337342619895935059
0.201942518353462219 1.98452365651746732e-15 0.0510534495115280151
0.0409138239920139313 1.98452365651746732e-15 0.0209761355072259903
0.0353791713714599609 1.98452365651746732e-15 0.0627961456775665283
0.0621665306389331818 1.98452365651746732e-15 0.120063133537769318
0.0558872148394584656 1.98452365651746732e-15 0.159235820174217224
0.113527782261371613 1.98452365651746732e-15 0.00321532785892486572
0.0285696033388376236 1.98452365651746732e-15 0.165557920932769775
0.0503242649137973785 1.98452365651746732e-15 0.127535492181777954
0.0766420662403106689 1.98452365651746732e-15 0.0789860188961029053
0.175111308693885803 1.98452365651746732e-15 0.03165464848279953
0.0192403383553028107 1.98452365651746732e-15 0.0477447658777236938
0.215147107839584351 1.98452365651746732e-15 0.0460361093282699585
0.101380817592144012 1.98452365651746732e-15 0.12761804461479187
0.181721091270446777 1.98452365651746732e-15 0.010823369026184082
0.100475333631038666 1.98452365651746732e-15 0.0777662098407745361
0.0941861644387245178 1.98452365651746732e-15 0.0506158545613288879
0.00794676132500171661 1.98452365651746732e-15 0.115166112780570984
0.118501268327236176 1.98452365651746732e-15 0.0302504375576972961
0.0200215447694063187 1.98452365651746732e-15 0.0362431146204471588
0.0286842398345470428 1.98452365651746732e-15 0.0659644529223442078
0.0325051769614219666 1.98452365651746732e-15 0.0848000943660736084
0.0159838814288377762 1.98452365651746732e-15 0.0391732938587665558
0.0155887836590409279 1.98452365651746732e-15 0.0202121827751398087
0.090716242790222168 1.98452365651746732e-15 0.0932295322418212891
0.175630152225494385 1.98452365651746732e-15 0.00673373043537139893
0.259317457675933838 1.98452365651746732e-15 0.00764521956443786621
0.0442324206233024597 1.98452365651746732e-15 0.166543781757354736
0.0438605435192584991 1.98452365651746732e-15 0.161119669675827026
0.0620072372257709503 1.98452365651746732e-15 0.100478410720825195
0.176877513527870178 1.98452365651746732e-15 0.0366807803511619568
0.0471574999392032623 1.98452365651746732e-15 0.117161080241203308
0.193709909915924072 1.98452365651746732e-15 0.00901614129543304443
0.219454959034919739 1.98452365651746732e-15 0.00541825592517852783
0.254728555679321289 1.98452365651746732e-15 0.0104708969593048096
0.084088250994682312 1.98452365651746732e-15 0.102380670607089996
0.281915962696075439 1.98452365651746732e-15 0.0061031728982925415
0.153770416975021362 1.98452365651746732e-15 0.0718741267919540405
0.120344743132591248 1.98452365651746732e-15 0.112806819379329681
0.014679846353828907 1.98452365651746732e-15 0.177580550312995911
0.116344556212425232 1.98452365651746732e-15 0.0812572315335273743
0.0562676675617694855 1.98452365651746732e-15 0.027033049613237381
0.0510551147162914276 1.98452365651746732e-15 0.163423642516136169
0.239345252513885498 1.98452365651746732e-15 0.027482450008392334
0.120591931045055389 1.98452365651746732e-15 0.0995357558131217957
0.0721164122223854065 1.98452365651746732e-15 0.135946124792098999
0.214585050940513611 1.98452365651746732e-15 0.0418619513511657715
0.170273318886756897 1.98452365651746732e-15 0.0864328369498252869
0.0133473183959722519 1.98452365651746732e-15 0.056060299277305603
0.174180760979652405 1.98452365651746732e-15 0.0265787318348884583
0.100671067833900452 1.98452365651746732e-15 0.0443775951862335205
0.207738593220710754 1.98452365651746732e-15 0.00893862545490264893
0.0203983504325151443 1.98452365651746732e-15 0.0688939914107322693
0.126124352216720581 1.98452365651746732e-15 0.0286685153841972351
0.0313736498355865479 1.98452365651746732e-15 0.134283468127250671
0.170332878828048706 1.98452365651746732e-15 0.00429151952266693115
0.0122725330293178558 1.98452365651746732e-15 0.120766341686248779
0.195919647812843323 1.98452365651746732e-15 0.0497935861349105835
0.0901688635349273682 1.98452365651746732e-15 0.0772219523787498474
0.176388412714004517 1.98452365651746732e-15 0.0276101529598236084
0.16872037947177887 1.98452365651746732e-15 0.0334010645747184753
0.0519507527351379395 1.98452365651746732e-15 0.013116251677274704
0.238976225256919861 1.98452365651746732e-15 0.0207137465476989746
0.0157613065093755722 1.98452365651746732e-15 0.0414457321166992188
0.015321892686188221 1.98452365651746732e-15 0.0752494260668754578
0.259646326303482056 1.98452365651746732e-15 0.0178352892398834229
0.038069751113653183 1.98452365651746732e-15 0.105775296688079834
0.101213753223419189 1.98452365651746732e-15 0.0164635330438613892
0.059961024671792984 1.98452365651746732e-15 0.00824118033051490784
0.0157310441136360168 1.98452365651746732e-15 0.115009024739265442
0.0342848487198352814 1.98452365651746732e-15 0.152623012661933899
0.0604190677404403687 1.98452365651746732e-15 0.154606491327285767
0.0548670291900634766 1.98452365651746732e-15 0.0231028608977794647
0.0353831648826599121 1.98452365651746732e-15 0.175119593739509583
0.196489289402961731 1.98452365651746732e-15 0.0361392050981521606
0.022602129727602005 1.98452365651746732e-15 0.00225263647735118866
0.16566738486289978 1.98452365651746732e-15 0.0593238323926925659
0.0109461117535829544 1.98452365651746732e-15 0.138835802674293518
0.165966764092445374 1.98452365651746732e-15 0.0316109880805015564
0.109624713659286499 1.98452365651746732e-15 0.0894627794623374939
0.0262433942407369614 1.98452365651746732e-15 0.047663472592830658
0.0189294721931219101 1.98452365651746732e-15 0.0185501538217067719
0.173845797777175903 1.98452365651746732e-15 0.0494109839200973511
0.221930205821990967 1.98452365651746732e-15 0.0398765057325363159
0.0849597528576850891 1.98452365651746732e-15 0.0879617929458618164
0.0607884712517261505 1.98452365651746732e-15 0.0064436495304107666
0.0200829934328794479 1.98452365651746732e-15 0.116500616073608398
0.0348155610263347626 1.98452365651746732e-15 0.15801885724067688
0.0778835564851760864 1.98452365651746732e-15 0.00591598078608512878
0.160843729972839355 1.98452365651746732e-15 0.0321506485342979431
0.0543087311089038849 1.98452365651746732e-15 0.0990107730031013489
0.0873736068606376648 1.98452365651746732e-15 0.0254897512495517731
0.164333924651145935 1.98452365651746732e-15 0.0459465160965919495
0.0518736466765403748 1.98452365651746732e-15 0.0804434716701507568
0.114834457635879517 1.98452365651746732e-15 0.00651093572378158569
0.0160144958645105362 1.98452365651746732e-15 0.0976486951112747192
0.122614391148090363 1.98452365651746732e-15 0.0828309506177902222
0.146140426397323608 1.98452365651746732e-15 0.000892199575901031494
0.0594346374273300171 1.98452365651746732e-15 0.040257919579744339
0.0809053331613540649 1.98452365651746732e-15 0.00632930919528007507
0.172748565673828125 1.98452365651746732e-15 0.0439815521240234375
0.214543655514717102 1.98452365651746732e-15 0.0385995209217071533
0.0476423539221286774 1.98452365651746732e-15 0.059808824211359024
0.0231523960828781128 1.98452365651746732e-15 0.127952992916107178
0.061155267059803009 1.98452365651746732e-15 0.00691634044051170349
0.0988124236464500427 1.98452365651746732e-15 0.11298777163028717
0.0271439012140035629 1.98452365651746732e-15 0.17351001501083374
0.0194408595561981201 1.98452365651746732e-15 0.169702857732772827
0.00586016383022069931 1.98452365651746732e-15 0.175181403756141663
0.173825442790985107 1.98452365651746732e-15 0.0405961498618125916
0.0640850439667701721 1.98452365651746732e-15 0.125340014696121216
0.158341109752655029 1.98452365651746732e-15 0.000641942024230957031
0.0332971327006816864 1.98452365651746732e-15 0.00225239433348178864
0.0807527080178260803 1.98452365651746732e-15 0.120256513357162476
0.0666009336709976196 1.98452365651746732e-15 0.141465112566947937
0.129662454128265381 1.98452365651746732e-15 0.00581917911767959595
0.0525083057582378387 1.98452365651746732e-15 0.0647279918193817139
0.129364639520645142 1.98452365651746732e-15 0.111930295825004578
0.0320172123610973358 1.98452365651746732e-15 0.103022605180740356
0.17078845202922821 1.98452365651746732e-15 0.0454953387379646301
0.0577389784157276154 1.98452365651746732e-15 0.0564246699213981628
0.0905103236436843872 1.98452365651746732e-15 0.0364847220480442047
0.0209378432482481003 1.98452365651746732e-15 0.0881938114762306213
0.0762869566679000854 1.98452365651746732e-15 0.100251339375972748
0.137814536690711975 1.98452365651746732e-15 0.0740097761154174805
0.0327847413718700409 1.98452365651746732e-15 0.0928129404783248901
0.0592676699161529541 1.98452365651746732e-15 0.13693884015083313
0.240135326981544495 1.98452365651746732e-15 0.0311878174543380737
0.158468648791313171 1.98452365651746732e-15 0.0904264375567436218
0.0328859947621822357 1.98452365651746732e-15 0.120347805321216583
0.0407480709254741669 1.98452365651746732e-15 0.165340706706047058
0.190510809421539307 1.98452365651746732e-15 0.0411464720964431763
0.0608796067535877228 1.98452365651746732e-15 0.0610762089490890503
0.0689768493175506592 1.98452365651746732e-15 0.0826560556888580322
0.143484637141227722 1.98452365651746732e-15 0.034930594265460968
0.0719690918922424316 1.98452365651746732e-15 0.0654855221509933472
0.1253795325756073 1.98452365651746732e-15 0.0494537129998207092
0.0405766777694225311 1.98452365651746732e-15 0.011075066402554512
0.133422836661338806 1.98452365651746732e-15 0.0264845117926597595
0.0266870893537998199 1.98452365651746732e-15 0.0838222205638885498
0.0611276626586914062 1.98452365651746732e-15 0.00216552242636680603
0.0452060699462890625 1.98452365651746732e-15 0.0704336166381835938
0.0180322732776403427 1.98452365651746732e-15 0.0142417512834072113
0.107281707227230072 1.98452365651746732e-15 0.109989538788795471
0.0124525716528296471 1.98452365651746732e-15 0.0190248396247625351
0.101949900388717651 1.98452365651746732e-15 0.0628578737378120422
0.0882714539766311646 1.98452365651746732e-15 0.103516891598701477
0.131296306848526001 1.98452365651746732e-15 0.0486165061593055725
0.246891379356384277 1.98452365651746732e-15 0.00404512882232666016
0.256539791822433472 1.98452365651746732e-15 2.72393226623535156e-05
0.182166755199432373 1.98452365651746732e-15 0.0733392909169197083
0.0314761549234390259 1.98452365651746732e-15 0.0712059736251831055
0.202766850590705872 1.98452365651746732e-15 0.0385727137327194214
0.000411410961532965302 1.98452365651746732e-15 0.05447421595454216
0.0295044537633657455 1.98452365651746732e-15 0.129352450370788574
0.237402603030204773 1.98452365651746732e-15 0.173603534698486328
0.190462067723274231 1.98452365651746732e-15 0.10360940545797348
0.181294634938240051 1.98452365651746732e-15 0.0969049334526062012
0.152204215526580811 1.98452365651746732e-15 0.150021165609359741
0.193549633026123047 1.98452365651746732e-15 0.0834023579955101013
0.145079642534255981 1.98452365651746732e-15 0.149733901023864746
0.227381855249404907 1.98452365651746732e-15 0.0989201292395591736
0.129681229591369629 1.98452365651746732e-15 0.113643720746040344
0.269348889589309692 1.98452365651746732e-15 0.12164682149887085
0.142354100942611694 1.98452365651746732e-15 0.174603089690208435
0.106842949986457825 1.98452365651746732e-15 0.143936276435852051
0.239214405417442322 1.98452365651746732e-15 0.0811067372560501099
0.187600016593933105 1.98452365651746732e-15 0.095921054482460022
0.198095619678497314 1.98452365651746732e-15 0.147536247968673706
0.177368953824043274 1.98452365651746732e-15 0.134798049926757812
0.206269964575767517 1.98452365651746732e-15 0.0993915721774101257
0.266578793525695801 1.98452365651746732e-15 0.146665304899215698
0.178225398063659668 1.98452365651746732e-15 0.11300203949213028
0.250107109546661377 1.98452365651746732e-15 0.0642612874507904053
0.196580708026885986 1.98452365651746732e-15 0.0956207290291786194
0.208539694547653198 1.98452365651746732e-15 0.189227372407913208
0.146810740232467651 1.98452365651746732e-15 0.145246595144271851
0.163703829050064087 1.98452365651746732e-15 0.164033621549606323
0.181131839752197266 1.98452365651746732e-15 0.086523786187171936
0.272835344076156616 1.98452365651746732e-15 0.0883624330163002014
0.0728913098573684692 1.98452365651746732e-15 0.196287259459495544
0.243567511439323425 1.98452365651746732e-15 0.0997544750571250916
0.05540485680103302 1.98452365651746732e-15 0.184876561164855957
0.238100349903106689 1.98452365651746732e-15 0.0433718562126159668
0.233942210674285889 1.98452365651746732e-15 0.15882718563079834
0.192979633808135986 1.98452365651746732e-15 0.106743238866329193
0.0283693373203277588 1.98452365651746732e-15 0.196863278746604919
