ply
format ascii 1.0
element vertex 751
property float x
property float y
property float z
end_header
0.0821100622415542603 0.111029312014579773 0.135726630687713623
0.142565175890922546 0.111029312014579773 0.154223531484603882
0.0444047637283802032 0.111029312014579773 0.0510066449642181396
0.161507368087768555 0.111029312014579773 0.170688554644584656
0.00446049636229872704 0.111029312014579773 0.140733003616333008
0.00528954016044735909 0.111029312014579773 0.0325688868761062622
0.0171676576137542725 0.111029312014579773 0.0833940505981445312
0.234634220600128174 0.111029312014579773 0.173515781760215759
0.232423350214958191 0.111029312014579773 0.160526052117347717
0.0778047889471054077 0.111029312014579773 0.100525252521038055
0.0593376681208610535 0.111029312014579773 0.164839863777160645
0.212906062602996826 0.111029312014579773 0.192405566573143005
0.0366269238293170929 0.111029312014579773 0.155555769801139832
0.226791888475418091 0.111029312014579773 0.146633714437484741
0.219109281897544861 0.111029312014579773 0.198592185974121094
0.0330147780478000641 0.111029312014579773 0.198315173387527466
0.0124167781323194504 0.111029312014579773 0.144612237811088562
0.0919083505868911743 0.111029312014579773 0.107245117425918579
0.198557600378990173 0.111029312014579773 0.150063306093215942
0.152228683233261108 0.111029312014579773 0.101140215992927551
0.00427882466465234756 0.111029312014579773 0.137311369180679321
0.0358528755605220795 0.111029312014579773 0.19373476505279541
0.0967964828014373779 0.111029312014579773 0.102734208106994629
0.224704921245574951 0.111029312014579773 0.173535719513893127
0.135830551385879517 0.111029312014579773 0.176227390766143799
0.0213667508214712143 0.111029312014579773 0.0170357674360275269
0.0323446504771709442 0.111029312014579773 0.154311373829841614
0.0159911960363388062 0.111029312014579773 0.0236505419015884399
0.0637211054563522339 0.111029312014579773 0.0708333402872085571
0.0658774673938751221 0.111029312014579773 0.0717953592538833618
0.154336929321289062 0.111029312014579773 0.168219834566116333
0.017389204353094101 0.111029312014579773 0.0632920563220977783
0.0740110799670219421 0.111029312014579773 0.134500056505203247
0.092681393027305603 0.111029312014579773 0.180313825607299805
0.188968926668167114 0.111029312014579773 0.155001536011695862
0.0357252024114131927 0.111029312014579773 0.108091719448566437
0.154627114534378052 0.111029312014579773 0.110106781125068665
0.0703109726309776306 0.111029312014579773 0.143667846918106079
0.175308838486671448 0.111029312014579773 0.169760242104530334
0.0915341377258300781 0.111029312014579773 0.156799405813217163
0.246454685926437378 0.111029312014579773 0.171871915459632874
0.109522432088851929 0.111029312014579773 0.14521414041519165
0.0827225968241691589 0.111029312014579773 0.193407148122787476
0.0766603052616119385 0.111029312014579773 0.0748223066329956055
0.0228019207715988159 0.111029312014579773 0.0721320956945419312
0.112984471023082733 0.111029312014579773 0.100234054028987885
0.177767857909202576 0.111029312014579773 0.195725500583648682
0.129394456744194031 0.111029312014579773 0.134357839822769165
0.257771670818328857 0.111029312014579773 0.16370728611946106
0.150077477097511292 0.111029312014579773 0.196997746825218201
0.120538927614688873 0.111029312014579773 0.17979353666305542
0.193143293261528015 0.111029312014579773 0.172442704439163208
0.13516746461391449 0.111029312014579773 0.106387495994567871
0.20588250458240509 0.111029312014579773 0.184307947754859924
0.260522335767745972 0.111029312014579773 0.167815938591957092
0.029933582991361618 0.111029312014579773 0.0212291181087493896
0.136456295847892761 0.111029312014579773 0.0918306931853294373
0.0911622047424316406 0.111029312014579773 0.0732343494892120361
0.164731740951538086 0.111029312014579773 0.112040869891643524
0.256179511547088623 0.111029312014579773 0.165597721934318542
0.278807342052459717 0.111029312014579773 0.176331281661987305
0.0272770896553993225 0.111029312014579773 0.164956659078598022
0.189180806279182434 0.111029312014579773 0.177041247487068176
0.0422892086207866669 0.111029312014579773 0.148782268166542053
0.0295212212949991226 0.111029312014579773 0.128604009747505188
0.0613516159355640411 0.111029312014579773 0.0519587844610214233
0.158938169479370117 0.111029312014579773 0.174415558576583862
0.196885079145431519 0.111029312014579773 0.195392623543739319
0.186370819807052612 0.111029312014579773 0.125184118747711182
0.080693565309047699 0.111029312014579773 0.122159384191036224
0.175308495759963989 0.111029312014579773 0.189768999814987183
0.0433685481548309326 0.111029312014579773 0.0802140161395072937
0.0393951274454593658 0.111029312014579773 0.124813392758369446
0.0231126081198453903 0.111029312014579773 0.0607852637767791748
0.0624520890414714813 0.111029312014579773 0.0841688066720962524
0.0843770876526832581 0.111029312014579773 0.0608746111392974854
0.0980554372072219849 0.111029312014579773 0.138547956943511963
0.11268085241317749 0.111029312014579773 0.116974934935569763
0.00735108787193894386 0.111029312014579773 0.0418985337018966675
0.0718280524015426636 0.111029312014579773 0.152347207069396973
0.0887724682688713074 0.111029312014579773 0.136152446269989014
0.00902559328824281693 0.111029312014579773 0.194975435733795166
0.000692478555720299482 0.111029312014579773 0.128510355949401855
0.0298714805394411087 0.111029312014579773 0.111463256180286407
0.0205034296959638596 0.111029312014579773 0.0521051585674285889
0.257561266422271729 0.111029312014579773 0.181771978735923767
0.0601603351533412933 0.111029312014579773 0.151289850473403931
0.0371076613664627075 0.111029312014579773 0.0902864933013916016
0.00394776184111833572 0.111029312014579773 0.0253458321094512939
0.0456014573574066162 0.111029312014579773 0.0890023335814476013
0.112694099545478821 0.111029312014579773 0.154533222317695618
0.072702459990978241 0.111029312014579773 0.0746287554502487183
0.113172069191932678 0.111029312014579773 0.19581352174282074
0.0445282198488712311 0.111029312014579773 0.0677286386489868164
0.167854025959968567 0.111029312014579773 0.146605730056762695
0.15770411491394043 0.111029312014579773 0.183737725019454956
0.0800275877118110657 0.111029312014579773 0.16774103045463562
0.0554981082677841187 0.111029312014579773 0.166914641857147217
0.0915951356291770935 0.111029312014579773 0.113687746226787567
0.140548005700111389 0.111029312014579773 0.10691545158624649
0.0733293741941452026 0.111029312014579773 0.0460018515586853027
0.13549390435218811 0.111029312014579773 0.173170462250709534
0.126227200031280518 0.111029312014579773 0.133209407329559326
0.223557770252227783 0.111029312014579773 0.161668166518211365
0.00242504850029945374 0.111029312014579773 0.172225043177604675
0.0175131428986787796 0.111029312014579773 0.0321279466152191162
0.132888033986091614 0.111029312014579773 0.135288432240486145
0.0401396453380584717 0.111029312014579773 0.0880355462431907654
0.101346783339977264 0.111029312014579773 0.167412593960762024
0.2550811767578125 0.111029312014579773 0.173680901527404785
0.226726830005645752 0.111029312014579773 0.165829926729202271
0.144389346241950989 0.111029312014579773 0.191164016723632812
0.0437475182116031647 0.111029312014579773 0.0299975872039794922
0.0570078641176223755 0.111029312014579773 0.188589885830879211
0.12711682915687561 0.111029312014579773 0.0970528945326805115
0.229898884892463684 0.111029312014579773 0.165902078151702881
0.251630514860153198 0.111029312014579773 0.182630002498626709
0.139996945858001709 0.111029312014579773 0.0893180295825004578
0.0185620617121458054 0.111029312014579773 0.0185640156269073486
0.0317675210535526276 0.111029312014579773 0.0782003551721572876
0.215953901410102844 0.111029312014579773 0.186368376016616821
0.0333355814218521118 0.111029312014579773 0.0873003378510475159
0.133096024394035339 0.111029312014579773 0.185158044099807739
0.0923515781760215759 0.111029312014579773 0.067888796329498291
0.00949462223798036575 0.111029312014579773 0.0134667456150054932
0.224212110042572021 0.111029312014579773 0.166270345449447632
0.006378155667334795 0.111029312014579773 0.00864960253238677979
0.09941844642162323 0.111029312014579773 0.184542238712310791
0.0697087571024894714 0.111029312014579773 0.0616709142923355103
0.146029144525527954 0.111029312014579773 0.186233013868331909
0.115688607096672058 0.111029312014579773 0.187608912587165833
0.0710415542125701904 0.111029312014579773 0.0756170898675918579
0.034455176442861557 0.111029312014579773 0.031235232949256897
0.14351421594619751 0.111029312014579773 0.159242495894432068
0.039088863879442215 0.111029312014579773 0.0801941156387329102
0.0460998527705669403 0.111029312014579773 0.171166732907295227
0.017065044492483139 0.111029312014579773 0.0682551115751266479
0.0300616323947906494 0.111029312014579773 0.123439587652683258
0.218704298138618469 0.111029312014579773 0.157858937978744507
0.113334260880947113 0.111029312014579773 0.0802471190690994263
0.212511062622070312 0.111029312014579773 0.193881452083587646
0.289788782596588135 0.111029312014579773 0.188595741987228394
0.307960480451583862 0.111029312014579773 0.194418206810951233
0.253762573003768921 0.111029312014579773 0.197193220257759094
0.161011859774589539 0.111029312014579773 0.125563129782676697
0.192190200090408325 0.111029312014579773 0.147836342453956604
0.0671331882476806641 0.111029312014579773 0.0967710986733436584
0.000476829183753579855 0.111029312014579773 0.073246687650680542
0.00108272337820380926 0.111029312014579773 0.08937864750623703
0.0705932378768920898 0.111029312014579773 0.162477687001228333
0.197790294885635376 0.111029312014579773 0.191061913967132568
0.191782191395759583 0.111029312014579773 0.187365218997001648
0.179735764861106873 0.111029312014579773 0.193449467420578003
0.0334064587950706482 0.111029312014579773 0.134374246001243591
0.0647407174110412598 0.111029312014579773 0.0809997916221618652
0.131640389561653137 0.111029312014579773 0.199869856238365173
0.148187845945358276 0.111029312014579773 0.115500584244728088
0.159051299095153809 0.111029312014579773 0.154694169759750366
0.0934600010514259338 0.111029312014579773 0.193036630749702454
0.221095249056816101 0.111029312014579773 0.178303748369216919
0.238253876566886902 0.111029312014579773 0.165906265377998352
0.0583110712468624115 0.111029312014579773 0.0370402634143829346
0.0325332842767238617 0.111029312014579773 0.177260056138038635
0.0851590782403945923 0.111029312014579773 0.13121601939201355
0.220675557851791382 0.111029312014579773 0.195650264620780945
0.0934884622693061829 0.111029312014579773 0.157457798719406128
0.0678391233086585999 0.111029312014579773 0.07093067467212677
0.163291677832603455 0.111029312014579773 0.196403250098228455
0.224721744656562805 0.111029312014579773 0.188931509852409363
0.208320274949073792 0.111029312014579773 0.199772238731384277
0.176564306020736694 0.111029312014579773 0.137630075216293335
0.273840129375457764 0.111029312014579773 0.19832804799079895
0.291206300258636475 0.111029312014579773 0.185026571154594421
0.0547809526324272156 0.111029312014579773 0.0937328338623046875
0.041566215455532074 0.111029312014579773 0.0636102259159088135
0.000388399756047874689 0.111029312014579773 0.0547481924295425415
0.0299687981605529785 0.111029312014579773 0.0652827173471450806
0.0338001661002635956 0.111029312014579773 0.077011600136756897
0.127875864505767822 0.111029312014579773 0.166276276111602783
0.162773892283439636 0.111029312014579773 0.154628545045852661
0.0209056641906499863 0.111029312014579773 0.126669496297836304
0.0138116106390953064 0.111029312014579773 0.0243369638919830322
0.155377760529518127 0.111029312014579773 0.173427164554595947
0.0379141271114349365 0.111029312014579773 0.0410161912441253662
0.0979413613677024841 0.111029312014579773 0.0713645070791244507
0.0478110983967781067 0.111029312014579773 0.152584105730056763
0.151365995407104492 0.111029312014579773 0.101996101438999176
0.0374569185078144073 0.111029312014579773 0.0375868082046508789
0.00660106539726257324 0.111029312014579773 0.0969617515802383423
0.0146346474066376686 0.111029312014579773 0.0933097973465919495
0.0829283818602561951 0.111029312014579773 0.166791826486587524
0.0468740463256835938 0.111029312014579773 0.118654869496822357
0.167721912264823914 0.111029312014579773 0.161399155855178833
0.151232227683067322 0.111029312014579773 0.16397520899772644
0.186343342065811157 0.111029312014579773 0.148451864719390869
0.0369190648198127747 0.111029312014579773 0.115570172667503357
0.0825154855847358704 0.111029312014579773 0.0598306953907012939
0.269934952259063721 0.111029312014579773 0.180478677153587341
0.105889499187469482 0.111029312014579773 0.095028996467590332
0.143095269799232483 0.111029312014579773 0.192505627870559692
0.0276333019137382507 0.111029312014579773 0.0974999219179153442
0.119258679449558258 0.111029312014579773 0.10901913046836853
0.181020259857177734 0.111029312014579773 0.133466392755508423
0.028158966451883316 0.111029312014579773 0.172528013586997986
0.0764419510960578918 0.111029312014579773 0.156521961092948914
0.058772653341293335 0.111029312014579773 0.135076284408569336
0.035593722015619278 0.111029312014579773 0.179197892546653748
0.0975300967693328857 0.111029312014579773 0.15231853723526001
0.1716737300157547 0.111029312014579773 0.13232247531414032
0.0631416589021682739 0.111029312014579773 0.0691648423671722412
0.211015880107879639 0.111029312014579773 0.175261914730072021
0.192791149020195007 0.111029312014579773 0.134351447224617004
0.0794345811009407043 0.111029312014579773 0.15887904167175293
0.147840112447738647 0.111029312014579773 0.196094557642936707
0.10009070485830307 0.111029312014579773 0.137915968894958496
0.0732071921229362488 0.111029312014579773 0.0514928996562957764
0.0429174639284610748 0.111029312014579773 0.0923545509576797485
0.0358427129685878754 0.111029312014579773 0.0671555399894714355
0.0909142643213272095 0.111029312014579773 0.138889476656913757
0.116056904196739197 0.111029312014579773 0.129887253046035767
0.0477081723511219025 0.111029312014579773 0.164133921265602112
0.231983885169029236 0.111029312014579773 0.173125237226486206
0.00716781010851264 0.111029312014579773 0.090572550892829895
0.0356563515961170197 0.111029312014579773 0.0367920547723770142
0.0416258238255977631 0.111029312014579773 0.175182968378067017
0.157226726412773132 0.111029312014579773 0.176916256546974182
0.0921023041009902954 0.111029312014579773 0.176376298069953918
0.177743241190910339 0.111029312014579773 0.146183088421821594
0.139199987053871155 0.111029312014579773 0.149356812238693237
0.151793107390403748 0.111029312014579773 0.124055594205856323
0.272444367408752441 0.111029312014579773 0.196191802620887756
0.217094779014587402 0.111029312014579773 0.143587484955787659
0.196189463138580322 0.111029312014579773 0.151072144508361816
0.0857611745595932007 0.111029312014579773 0.105775788426399231
0.0904594287276268005 0.111029312014579773 0.174831807613372803
0.135064214468002319 0.111029312014579773 0.131437212228775024
0.0365997441112995148 0.111029312014579773 0.0590652376413345337
0.0199989639222621918 0.111029312014579773 0.184099450707435608
0.220193058252334595 0.111029312014579773 0.182295158505439758
0.0131774973124265671 0.111029312014579773 0.0100803524255752563
0.065992407500743866 0.111029312014579773 0.169247344136238098
0.00404500728473067284 0.111029312014579773 0.0198975801467895508
0.174250736832618713 0.111029312014579773 0.189141646027565002
0.217820122838020325 0.111029312014579773 0.182626798748970032
0.0915520861744880676 0.111029312014579773 0.193682506680488586
0.212750017642974854 0.111029312014579773 0.175211817026138306
0.0702511891722679138 0.111029312014579773 0.092762283980846405
0.032287299633026123 0.111029312014579773 0.189830601215362549
0.161252528429031372 0.111029312014579773 0.195052444934844971
0.0843056365847587585 0.111029312014579773 0.195152774453163147
0.0677690431475639343 0.111029312014579773 0.180812686681747437
0.21989324688911438 0.111029312014579773 0.183483123779296875
0.110496737062931061 0.111029312014579773 0.173685148358345032
0.11809878796339035 0.111029312014579773 0.194314658641815186
0.14758579432964325 0.111029312014579773 0.138540476560592651
0.0999141782522201538 0.111029312014579773 0.0855663642287254333
0.0472011566162109375 0.111029312014579773 0.0964446067810058594
0.158048003911972046 0.111029312014579773 0.119889877736568451
0.060025479644536972 0.111029312014579773 0.147877171635627747
0.0381456092000007629 0.111029312014579773 0.133010298013687134
0.103039510548114777 0.111029312014579773 0.0948414728045463562
0.132285222411155701 0.111029312014579773 0.0882133468985557556
0.0217597130686044693 0.111029312014579773 0.0466853678226470947
0.0981630086898803711 0.111029312014579773 0.113191179931163788
0.0467122867703437805 0.111029312014579773 0.0823253393173217773
0.13307797908782959 0.111029312014579773 0.128585904836654663
0.142090886831283569 0.111029312014579773 0.12492949515581131
0.264971226453781128 0.111029312014579773 0.17943592369556427
0.0114242006093263626 0.111029312014579773 0.180617272853851318
0.00245984410867094994 0.111029312014579773 0.0161184817552566528
0.0559956096112728119 0.111029312014579773 0.129515767097473145
0.0618307329714298248 0.111029312014579773 0.173079356551170349
0.208274796605110168 0.111029312014579773 0.190379977226257324
0.145141199231147766 0.111029312014579773 0.168927103281021118
0.203388780355453491 0.111029312014579773 0.150794938206672668
0.132823839783668518 0.111029312014579773 0.196672797203063965
0.0817586779594421387 0.111029312014579773 0.13449394702911377
0.179009094834327698 0.111029312014579773 0.112795323133468628
0.0141446338966488838 0.111029312014579773 0.107078909873962402
0.156072273850440979 0.111029312014579773 0.170425981283187866
0.0218927375972270966 0.111029312014579773 0.0296142995357513428
0.0856383666396141052 0.111029312014579773 0.128413081169128418
0.184093087911605835 0.111029312014579773 0.158507943153381348
0.247847095131874084 0.111029312014579773 0.194092556834220886
0.0765573754906654358 0.111029312014579773 0.0752388611435890198
0.0261710230261087418 0.111029312014579773 0.0956485047936439514
0.00162488711066544056 0.111029312014579773 0.180165961384773254
0.179660111665725708 0.111029312014579773 0.16578732430934906
0.170884132385253906 0.111029312014579773 0.114312149584293365
0.139622703194618225 0.111029312014579773 0.112516187131404877
0.168533280491828918 0.111029312014579773 0.108443818986415863
0.111742846667766571 0.111029312014579773 0.112853065133094788
0.0182235818356275558 0.111029312014579773 0.0734669864177703857
0.149628788232803345 0.111029312014579773 0.0962816104292869568
0.0498823076486587524 0.111029312014579773 0.0742893517017364502
0.0247901678085327148 0.111029312014579773 0.190680772066116333
0.103194683790206909 0.111029312014579773 0.0809299126267433167
0.0563843920826911926 0.111029312014579773 0.191142156720161438
0.257659077644348145 0.111029312014579773 0.183782249689102173
0.127045497298240662 0.111029312014579773 0.108814157545566559
0.148236468434333801 0.111029312014579773 0.111057676374912262
0.12200608104467392 0.111029312014579773 0.0829404592514038086
0.0711103305220603943 0.111029312014579773 0.0977341532707214355
0.122704923152923584 0.111029312014579773 0.11291869729757309
0.1086316779255867 0.111029312014579773 0.0936277732253074646
0.0405469425022602081 0.111029312014579773 0.0408414304256439209
0.25169864296913147 0.111029312014579773 0.175822541117668152
0.0179138854146003723 0.111029312014579773 0.0323888957500457764
0.0924934446811676025 0.111029312014579773 0.168303936719894409
0.127646520733833313 0.111029312014579773 0.193518325686454773
0.131878137588500977 0.111029312014579773 0.166554868221282959
0.226338386535644531 0.111029312014579773 0.191882327198982239
0.0500734783709049225 0.111029312014579773 0.16276666522026062
0.118214845657348633 0.111029312014579773 0.0927616581320762634
0.112690366804599762 0.111029312014579773 0.192375808954238892
0.0280316490679979324 0.111029312014579773 0.0708350092172622681
0.0838223248720169067 0.111029312014579773 0.113637320697307587
0.0462195537984371185 0.111029312014579773 0.111527562141418457
0.18160673975944519 0.111029312014579773 0.181793570518493652
0.0788633301854133606 0.111029312014579773 0.143149241805076599
0.184413596987724304 0.111029312014579773 0.144880831241607666
0.0678450539708137512 0.111029312014579773 0.0554396212100982666
0.184674873948097229 0.111029312014579773 0.199646010994911194
0.251267790794372559 0.111029312014579773 0.158568874001502991
0.00724795693531632423 0.111029312014579773 0.0837124809622764587
0.00377178564667701721 0.111029312014579773 0.09829721599817276
0.224910467863082886 0.111029312014579773 0.199412152171134949
0.191725060343742371 0.111029312014579773 0.168410062789916992
0.00408775452524423599 0.111029312014579773 0.0442790240049362183
0.151333943009376526 0.111029312014579773 0.157864704728126526
0.106517724692821503 0.111029312014579773 0.153791189193725586
0.178930774331092834 0.111029312014579773 0.157970607280731201
0.0656726360321044922 0.111029312014579773 0.0507853180170059204
0.0495612658560276031 0.111029312014579773 0.0788447186350822449
0.224555462598800659 0.111029312014579773 0.170573636889457703
0.0082012200728058815 0.111029312014579773 0.0854450687766075134
0.0288217701017856598 0.111029312014579773 0.0256714522838592529
0.013914233073592186 0.111029312014579773 0.183945760130882263
0.141271993517875671 0.111029312014579773 0.147544011473655701
0.0928755775094032288 0.111029312014579773 0.0973519310355186462
0.161354601383209229 0.111029312014579773 0.140063747763633728
0.120546117424964905 0.111029312014579773 0.0841530710458755493
0.0925318598747253418 0.111029312014579773 0.0975753292441368103
0.115917854011058807 0.111029312014579773 0.110215388238430023
0.04223618283867836 0.111029312014579773 0.138403967022895813
0.162153258919715881 0.111029312014579773 0.196217373013496399
0.0699259713292121887 0.111029312014579773 0.0948949828743934631
0.0596567951142787933 0.111029312014579773 0.146917775273323059
0.145833760499954224 0.111029312014579773 0.174533277750015259
0.0498215891420841217 0.111029312014579773 0.136371731758117676
0.0121924914419651031 0.111029312014579773 0.0195762068033218384
0.156905665993690491 0.111029312014579773 0.109282940626144409
0.174925729632377625 0.111029312014579773 0.135864824056625366
0.0207200814038515091 0.111029312014579773 0.164640218019485474
0.268639117479324341 0.111029312014579773 0.181691095232963562
0.181082621216773987 0.111029312014579773 0.179649129509925842
0.0785566866397857666 0.111029312014579773 0.117183789610862732
0.128500118851661682 0.111029312014579773 0.0950840339064598083
0.13135722279548645 0.111029312014579773 0.115902207791805267
0.133397966623306274 0.111029312014579773 0.138857334852218628
0.0434150770306587219 0.111029312014579773 0.120207414031028748
0.0538884848356246948 0.111029312014579773 0.0551234334707260132
0.0683171004056930542 0.111029312014579773 0.199627712368965149
0.0332672558724880219 0.111029312014579773 0.0698222219944000244
0.0980572700500488281 0.111029312014579773 0.0964561030268669128
0.0153954010456800461 0.111029312014579773 0.0121332556009292603
0.10950808972120285 0.111029312014579773 0.191400796175003052
0.127575531601905823 0.111029312014579773 0.161524578928947449
0.00897127948701381683 0.111029312014579773 0.0717700421810150146
0.0435578003525733948 0.111029312014579773 0.0371883213520050049
0.154908269643783569 0.111029312014579773 0.129406452178955078
0.210819050669670105 0.111029312014579773 0.132025584578514099
0.0378598682582378387 0.111029312014579773 0.0453206002712249756
0.121591299772262573 0.111029312014579773 0.0835727974772453308
0.0792781636118888855 0.111029312014579773 0.103090845048427582
0.126733899116516113 0.111029312014579773 0.188810437917709351
0.179289281368255615 0.111029312014579773 0.147897869348526001
0.0398067720234394073 0.111029312014579773 0.143425986170768738
0.0879603773355484009 0.111029312014579773 0.0838024541735649109
0.0769787132740020752 0.111029312014579773 0.177358806133270264
0.0876252427697181702 0.111029312014579773 0.146010816097259521
0.0668359622359275818 0.111029312014579773 0.114552870392799377
0.0588536188006401062 0.111029312014579773 0.0704531371593475342
0.238663196563720703 0.111029312014579773 0.160681307315826416
0.0487451888620853424 0.111029312014579773 0.115223735570907593
0.0474141500890254974 0.111029312014579773 0.113013230264186859
0.0697643309831619263 0.111029312014579773 0.105400748550891876
0.00473333010450005531 0.111029312014579773 0.0720721036195755005
0.0828329771757125854 0.111029312014579773 0.187780439853668213
0.011415679007768631 0.111029312014579773 0.0591728389263153076
0.0205916166305541992 0.111029312014579773 0.143212690949440002
0.019779842346906662 0.111029312014579773 0.0975853577256202698
0.0622569769620895386 0.111029312014579773 0.0652421861886978149
0.0818701237440109253 0.111029312014579773 0.135429024696350098
0.157743886113166809 0.111029312014579773 0.104748569428920746
0.131447002291679382 0.111029312014579773 0.188441306352615356
0.0325180515646934509 0.111029312014579773 0.192988216876983643
0.213690578937530518 0.111029312014579773 0.17384706437587738
0.0671759024262428284 0.111029312014579773 0.142239809036254883
0.00425224937498569489 0.111029312014579773 0.0347673594951629639
0.0557481981813907623 0.111029312014579773 0.0985469147562980652
0.100731849670410156 0.111029312014579773 0.0684179216623306274
0.0696258768439292908 0.111029312014579773 0.159351974725723267
0.0273910835385322571 0.111029312014579773 0.0937737002968788147
0.0977211818099021912 0.111029312014579773 0.13817945122718811
0.0248295534402132034 0.111029312014579773 0.101881310343742371
0.0975032001733779907 0.111029312014579773 0.175082728266716003
0.204925075173377991 0.111029312014579773 0.142762809991836548
0.0101157426834106445 0.111029312014579773 0.100270293653011322
0.150379687547683716 0.111029312014579773 0.113715626299381256
0.0967181921005249023 0.111029312014579773 0.156220108270645142
0.00903075560927391052 0.111029312014579773 0.0829343721270561218
0.10230882465839386 0.111029312014579773 0.127974361181259155
0.0106292255222797394 0.111029312014579773 0.150652647018432617
0.184096351265907288 0.111029312014579773 0.194760829210281372
0.0595466345548629761 0.111029312014579773 0.0809791237115859985
0.00734843313694000244 0.111029312014579773 0.131974339485168457
0.145418345928192139 0.111029312014579773 0.184044957160949707
0.139990121126174927 0.111029312014579773 0.0954204127192497253
0.183412134647369385 0.111029312014579773 0.181873023509979248
0.0620574094355106354 0.111029312014579773 0.1746797114610672
0.201500788331031799 0.111029312014579773 0.194416999816894531
0.0726425871253013611 0.111029312014579773 0.0467910915613174438
0.157440528273582458 0.111029312014579773 0.138492748141288757
0.0138111310079693794 0.111029312014579773 0.17874222993850708
0.214436933398246765 0.111029312014579773 0.193293064832687378
0.0783052742481231689 0.111029312014579773 0.0864854604005813599
0.0843457877635955811 0.111029312014579773 0.108028851449489594
0.175340965390205383 0.111029312014579773 0.155678361654281616
0.191986724734306335 0.111029312014579773 0.173617854714393616
0.0869416370987892151 0.111029312014579773 0.152759432792663574
0.206297531723976135 0.111029312014579773 0.172826334834098816
0.0397140048444271088 0.111029312014579773 0.0319881737232208252
0.148984968662261963 0.111029312014579773 0.117894016206264496
0.106086604297161102 0.111029312014579773 0.168851763010025024
0.290692925453186035 0.111029312014579773 0.196818947792053223
0.27215266227722168 0.111029312014579773 0.173645541071891785
0.0340437032282352448 0.111029312014579773 0.0774433612823486328
0.162193581461906433 0.111029312014579773 0.10271482914686203
0.109328135848045349 0.111029312014579773 0.186382472515106201
0.123495817184448242 0.111029312014579773 0.165827810764312744
0.141558706760406494 0.111029312014579773 0.115797922015190125
0.0297264065593481064 0.111029312014579773 0.0869221463799476624
0.224724903702735901 0.111029312014579773 0.141386359930038452
0.0156301092356443405 0.111029312014579773 0.199125215411186218
0.0796289369463920593 0.111029312014579773 0.0809060707688331604
0.00784275587648153305 0.111029312014579773 0.181593194603919983
0.00485685840249061584 0.111029312014579773 0.0310745090246200562
0.0317356213927268982 0.111029312014579773 0.0878741070628166199
0.0669108256697654724 0.111029312014579773 0.171741083264350891
0.0671499520540237427 0.111029312014579773 0.101786211133003235
0.125593960285186768 0.111029312014579773 0.198706433176994324
0.0527140684425830841 0.111029312014579773 0.0963687524199485779
0.179675862193107605 0.111029312014579773 0.122626923024654388
0.159058302640914917 0.111029312014579773 0.099465884268283844
0.0379062965512275696 0.111029312014579773 0.0752573013305664062
0.292694538831710815 0.111029312014579773 0.191841036081314087
0.139822408556938171 0.111029312014579773 0.152880445122718811
0.100282885134220123 0.111029312014579773 0.159053727984428406
0.0173486098647117615 0.111029312014579773 0.0164474844932556152
0.144024744629859924 0.111029312014579773 0.168663769960403442
0.0753285139799118042 0.111029312014579773 0.0596618801355361938
0.0850905627012252808 0.111029312014579773 0.088205389678478241
0.223137050867080688 0.111029312014579773 0.147839203476905823
0.10599643737077713 0.111029312014579773 0.149483382701873779
0.163970410823822021 0.111029312014579773 0.164269506931304932
0.0214186552911996841 0.111029312014579773 0.118393592536449432
0.0514286607503890991 0.111029312014579773 0.130174010992050171
0.00824104622006416321 0.111029312014579773 0.123049713671207428
0.0192189328372478485 0.111029312014579773 0.0168122947216033936
0.0485294796526432037 0.111029312014579773 0.0683844685554504395
0.246502399444580078 0.111029312014579773 0.192030340433120728
0.0959920287132263184 0.111029312014579773 0.139191910624504089
0.137458056211471558 0.111029312014579773 0.0923715159296989441
0.0806369483470916748 0.111029312014579773 0.0971985086798667908
0.193005561828613281 0.111029312014579773 0.155163496732711792
0.131098166108131409 0.111029312014579773 0.191385433077812195
0.0574520193040370941 0.111029312014579773 0.148883655667304993
0.0274087358266115189 0.111029312014579773 0.150133892893791199
0.137222692370414734 0.111029312014579773 0.166225433349609375
0.0381273254752159119 0.111029312014579773 0.160472825169563293
0.0100748417899012566 0.111029312014579773 0.173082351684570312
0.171302661299705505 0.111029312014579773 0.134613156318664551
0.116508603096008301 0.111029312014579773 0.136101782321929932
0.0385319851338863373 0.111029312014579773 0.0803441628813743591
0.147642046213150024 0.111029312014579773 0.107656866312026978
0.2438763827085495 0.111029312014579773 0.164564281702041626
0.0618353486061096191 0.111029312014579773 0.04715728759765625
0.108273304998874664 0.111029312014579773 0.146519005298614502
0.001185588538646698 0.111029312014579773 0.0527042299509048462
0.117259763181209564 0.111029312014579773 0.170261934399604797
0.139858677983283997 0.111029312014579773 0.172007456421852112
0.251483827829360962 0.111029312014579773 0.177069783210754395
0.0482165701687335968 0.111029312014579773 0.195379823446273804
0.0948190018534660339 0.111029312014579773 0.099603608250617981
0.0473034977912902832 0.111029312014579773 0.113575972616672516
0.0378936231136322021 0.111029312014579773 0.190943226218223572
0.0439254380762577057 0.111029312014579773 0.0587493479251861572
0.173593416810035706 0.111029312014579773 0.130516231060028076
0.135122880339622498 0.111029312014579773 0.168725624680519104
0.0387688241899013519 0.111029312014579773 0.0532770454883575439
0.0195030272006988525 0.111029312014579773 0.193641126155853271
0.143724724650382996 0.111029312014579773 0.121424220502376556
0.00865705870091915131 0.111029312014579773 0.164104968309402466
0.0938932597637176514 0.111029312014579773 0.116100512444972992
0.283342480659484863 0.111029312014579773 0.19646841287612915
0.0937075912952423096 0.111029312014579773 0.130459219217300415
0.00246678735129535198 0.111029312014579773 0.13794708251953125
0.0459212735295295715 0.111029312014579773 0.0899382978677749634
0.0457089841365814209 0.111029312014579773 0.0525266826152801514
0.0214656777679920197 0.111029312014579773 0.115528896450996399
0.131487011909484863 0.111029312014579773 0.0929815992712974548
0.144284352660179138 0.111029312014579773 0.127280056476593018
0.0959056839346885681 0.111029312014579773 0.111972004175186157
0.0818212404847145081 0.111029312014579773 0.16120108962059021
0.067774750292301178 0.111029312014579773 0.149648174643516541
0.100478656589984894 0.111029312014579773 0.150512769818305969
0.107542455196380615 0.111029312014579773 0.182385772466659546
0.00563193624839186668 0.111029312014579773 0.0694527924060821533
0.160154744982719421 0.111029312014579773 0.19283825159072876
0.00105008878745138645 0.111029312014579773 0.176666900515556335
0.0803575888276100159 0.111029312014579773 0.114279620349407196
0.104587562382221222 0.111029312014579773 0.131581395864486694
0.110461801290512085 0.111029312014579773 0.0963579416275024414
0.230644360184669495 0.111029312014579773 0.19761088490486145
0.0980323776602745056 0.111029312014579773 0.150028616189956665
0.0830825865268707275 0.111029312014579773 0.181191623210906982
0.215898215770721436 0.111029312014579773 0.148294195532798767
0.158074453473091125 0.111029312014579773 0.126842916011810303
0.141355633735656738 0.111029312014579773 0.0963711142539978027
0.229818001389503479 0.111029312014579773 0.180797383189201355
0.109976708889007568 0.111029312014579773 0.129338175058364868
0.30765610933303833 0.111029312014579773 0.199975013732910156
0.198534995317459106 0.111029312014579773 0.175505176186561584
0.0143172908574342728 0.111029312014579773 0.112101428210735321
0.114406295120716095 0.111029312014579773 0.18856482207775116
0.190001145005226135 0.111029312014579773 0.198444277048110962
0.248454838991165161 0.111029312014579773 0.158075630664825439
0.0207242816686630249 0.111029312014579773 0.126383841037750244
0.142782792448997498 0.111029312014579773 0.186427175998687744
0.26733127236366272 0.111029312014579773 0.179617002606391907
0.0622035712003707886 0.111029312014579773 0.155822694301605225
0.0743281617760658264 0.111029312014579773 0.104383639991283417
0.163336247205734253 0.111029312014579773 0.196446746587753296
0.191301420331001282 0.111029312014579773 0.127992153167724609
0.129066839814186096 0.111029312014579773 0.13547922670841217
0.159690722823143005 0.111029312014579773 0.147780746221542358
0.145084917545318604 0.111029312014579773 0.0943026691675186157
0.190656080842018127 0.111029312014579773 0.149805769324302673
0.0180265121161937714 0.111029312014579773 0.199422210454940796
0.0984813496470451355 0.111029312014579773 0.06572684645652771
0.0189795345067977905 0.111029312014579773 0.0643257796764373779
0.0692625492811203003 0.111029312014579773 0.0537180006504058838
0.167041316628456116 0.111029312014579773 0.176102370023727417
0.10781792551279068 0.111029312014579773 0.189719423651695251
0.0692652240395545959 0.111029312014579773 0.128176271915435791
0.0724490731954574585 0.111029312014579773 0.056065291166305542
0.00177656079176813364 0.111029312014579773 0.0334908664226531982
0.0448123104870319366 0.111029312014579773 0.0976114049553871155
0.0329423099756240845 0.111029312014579773 0.0900344178080558777
0.00258127856068313122 0.111029312014579773 0.131178736686706543
0.102517947554588318 0.111029312014579773 0.127493947744369507
0.171229839324951172 0.111029312014579773 0.117334507405757904
0.0926318168640136719 0.111029312014579773 0.152808383107185364
0.248887628316879272 0.111029312014579773 0.198998615145683289
0.0736534073948860168 0.111029312014579773 0.110742866992950439
0.00886821839958429337 0.111029312014579773 0.183006465435028076
0.00347972288727760315 0.111029312014579773 0.194115504622459412
0.0627614259719848633 0.111029312014579773 0.10289156436920166
0.0222367346286773682 0.111029312014579773 0.114419348537921906
0.163890033960342407 0.111029312014579773 0.14474843442440033
0.0518890358507633209 0.111029312014579773 0.178672298789024353
0.091862112283706665 0.111029312014579773 0.119022451341152191
0.145973265171051025 0.111029312014579773 0.110345691442489624
0.165280848741531372 0.111029312014579773 0.120350673794746399
0.0740904435515403748 0.111029312014579773 0.0814000293612480164
0.136516585946083069 0.111029312014579773 0.129949718713760376
0.0343026444315910339 0.111029312014579773 0.118796393275260925
0.0523553043603897095 0.111029312014579773 0.116060525178909302
0.187089979648590088 0.111029312014579773 0.147469222545623779
0.273596584796905518 0.111029312014579773 0.199400126934051514
0.0689850375056266785 0.111029312014579773 0.173021003603935242
0.0171047132462263107 0.111029312014579773 0.143790856003761292
0.111050888895988464 0.111029312014579773 0.187743395566940308
0.00753373606130480766 0.111029312014579773 0.0482882410287857056
0.0278225969523191452 0.111029312014579773 0.0443243086338043213
0.120237566530704498 0.111029312014579773 0.0757793411612510681
0.173926964402198792 0.111029312014579773 0.159748449921607971
0.0950051024556159973 0.111029312014579773 0.197685599327087402
0.0851990953087806702 0.111029312014579773 0.0596456527709960938
0.0375103838741779327 0.111029312014579773 0.0833443775773048401
0.287118136882781982 0.111029312014579773 0.183452904224395752
0.0247119404375553131 0.111029312014579773 0.159943461418151855
0.0477506183087825775 0.111029312014579773 0.148950532078742981
0.0603847242891788483 0.111029312014579773 0.181589394807815552
0.081338249146938324 0.111029312014579773 0.141995877027511597
0.00904351845383644104 0.111029312014579773 0.01206989586353302
0.0770144239068031311 0.111029312014579773 0.191809967160224915
0.0604417920112609863 0.111029312014579773 0.134469002485275269
0.00976746343076229095 0.111029312014579773 0.194235354661941528
0.0403304621577262878 0.111029312014579773 0.124106511473655701
0.0243201684206724167 0.111029312014579773 0.0381233394145965576
0.0620059669017791748 0.111029312014579773 0.104458056390285492
0.151236787438392639 0.111029312014579773 0.1867484450340271
0.0135499965399503708 0.111029312014579773 0.0493638068437576294
0.0672472193837165833 0.111029312014579773 0.0436636954545974731
0.227752029895782471 0.111029312014579773 0.143695339560508728
0.183380350470542908 0.111029312014579773 0.15263029932975769
0.0725726112723350525 0.111029312014579773 0.0858960524201393127
0.197655990719795227 0.111029312014579773 0.16332709789276123
0.127732917666435242 0.111029312014579773 0.119385808706283569
0.0769820809364318848 0.111029312014579773 0.115480817854404449
0.155507087707519531 0.111029312014579773 0.12678152322769165
0.0683379843831062317 0.111029312014579773 0.178049147129058838
0.127175569534301758 0.111029312014579773 0.161243408918380737
0.04161033034324646 0.111029312014579773 0.0496222078800201416
0.0609321631491184235 0.111029312014579773 0.154768571257591248
0.0187370609492063522 0.111029312014579773 0.0231039673089981079
0.0525621064007282257 0.111029312014579773 0.0340910851955413818
0.00478461384773254395 0.111029312014579773 0.174463152885437012
0.0817947536706924438 0.111029312014579773 0.0731101334095001221
0.0994418114423751831 0.111029312014579773 0.0736403465270996094
0.193965941667556763 0.111029312014579773 0.188748881220817566
0.036195848137140274 0.111029312014579773 0.158664345741271973
0.0715355798602104187 0.111029312014579773 0.0733161866664886475
0.06380414217710495 0.111029312014579773 0.0537031888961791992
0.0268234219402074814 0.111029312014579773 0.192136064171791077
0.0490426532924175262 0.111029312014579773 0.0849887654185295105
0.128850802779197693 0.111029312014579773 0.190213575959205627
0.072375565767288208 0.111029312014579773 0.107633352279663086
0.117414012551307678 0.111029312014579773 0.174554064869880676
0.00209684437140822411 0.111029312014579773 0.0933925434947013855
0.138654947280883789 0.111029312014579773 0.120277523994445801
0.113433301448822021 0.111029312014579773 0.190660208463668823
0.0718790739774703979 0.111029312014579773 0.0664164721965789795
0.049968332052230835 0.111029312014579773 0.194496840238571167
0.0828099101781845093 0.111029312014579773 0.161478832364082336
0.0422554053366184235 0.111029312014579773 0.135305404663085938
0.00270739244297146797 0.111029312014579773 0.0464787185192108154
0.0953088179230690002 0.111029312014579773 0.0767113342881202698
0.14097227156162262 0.111029312014579773 0.147292181849479675
0.00311666028574109077 0.111029312014579773 0.139888718724250793
0.26940077543258667 0.111029312014579773 0.183320105075836182
0.22700837254524231 0.111029312014579773 0.198912307620048523
0.172867923974990845 0.111029312014579773 0.187810078263282776
0.0201839208602905273 0.111029312014579773 0.0314412713050842285
0.131252378225326538 0.111029312014579773 0.0898195728659629822
0.0162513330578804016 0.111029312014579773 0.171393945813179016
0.136737361550331116 0.111029312014579773 0.101968452334403992
0.0703994035720825195 0.111029312014579773 0.166468441486358643
0.0228167306631803513 0.111029312014579773 0.0590402781963348389
0.16285918653011322 0.111029312014579773 0.134604394435882568
0.179929465055465698 0.111029312014579773 0.132844746112823486
0.0792993530631065369 0.111029312014579773 0.0977305322885513306
0.107787013053894043 0.111029312014579773 0.177229836583137512
0.129217803478240967 0.111029312014579773 0.123011261224746704
0.095616459846496582 0.111029312014579773 0.120064027607440948
0.0372591130435466766 0.111029312014579773 0.19682389497756958
0.177481308579444885 0.111029312014579773 0.177368208765983582
0.0522785782814025879 0.111029312014579773 0.146394550800323486
0.12311360239982605 0.111029312014579773 0.191795960068702698
0.179432138800621033 0.111029312014579773 0.166047662496566772
0.030037999153137207 0.111029312014579773 0.148670405149459839
0.0348570980131626129 0.111029312014579773 0.189433962106704712
0.131834134459495544 0.111029312014579773 0.117748133838176727
0.0152815431356430054 0.111029312014579773 0.0245308429002761841
0.0708136558532714844 0.111029312014579773 0.105978094041347504
0.0494185686111450195 0.111029312014579773 0.189800187945365906
0.186633825302124023 0.111029312014579773 0.181799143552780151
0.0488006994128227234 0.111029312014579773 0.157228127121925354
0.274133443832397461 0.111029312014579773 0.179810881614685059
0.00976773630827665329 0.111029312014579773 0.133983507752418518
0.126234650611877441 0.111029312014579773 0.109615907073020935
0.0475083403289318085 0.111029312014579773 0.100225113332271576
0.208290204405784607 0.111029312014579773 0.151135116815567017
0.140291914343833923 0.111029312014579773 0.188340574502944946
0.0866221413016319275 0.111029312014579773 0.0567517578601837158
0.103875890374183655 0.111029312014579773 0.115172885358333588
0.0744234770536422729 0.111029312014579773 0.145052805542945862
0.00979898031800985336 0.111029312014579773 0.187987104058265686
0.180710509419441223 0.111029312014579773 0.132576137781143188
0.077861785888671875 0.111029312014579773 0.0887124538421630859
0.121354758739471436 0.111029312014579773 0.139751166105270386
0.0879907608032226562 0.111029312014579773 0.107114933431148529
0.168166741728782654 0.111029312014579773 0.170623421669006348
0.0943491086363792419 0.111029312014579773 0.164570629596710205
0.227881476283073425 0.111029312014579773 0.178255081176757812
0.0266634579747915268 0.111029312014579773 0.0269921272993087769
0.0837657153606414795 0.111029312014579773 0.111954741179943085
0.136331349611282349 0.111029312014579773 0.094877682626247406
0.164774343371391296 0.111029312014579773 0.110519066452980042
0.0983725041151046753 0.111029312014579773 0.179385542869567871
0.28879249095916748 0.111029312014579773 0.181390553712844849
0.109533801674842834 0.111029312014579773 0.081684209406375885
0.0755727142095565796 0.111029312014579773 0.0969928503036499023
0.0951060280203819275 0.111029312014579773 0.151393815875053406
0.235253557562828064 0.111029312014579773 0.149971470236778259
0.0227166861295700073 0.111029312014579773 0.0250504016876220703
0.0471912547945976257 0.111029312014579773 0.0380938947200775146
0.103381991386413574 0.111029312014579773 0.185157954692840576
0.0772299841046333313 0.111029312014579773 0.118186645209789276
0.040195465087890625 0.111029312014579773 0.187993228435516357
0.0967045128345489502 0.111029312014579773 0.166173368692398071
0.00901250913739204407 0.111029312014579773 0.139310106635093689
0.00966167449951171875 0.111029312014579773 0.0591325461864471436
0.208874523639678955 0.111029312014579773 0.163040235638618469
0.021374877542257309 0.111029312014579773 0.0423210561275482178
0.231474325060844421 0.111029312014579773 0.148547247052192688
0.0776369720697402954 0.111029312014579773 0.193018332123756409
0.0910414382815361023 0.111029312014579773 0.0867525115609169006
0.0732849612832069397 0.111029312014579773 0.168565660715103149
0.167038604617118835 0.111029312014579773 0.134431034326553345
0.262394338846206665 0.111029312014579773 0.177249163389205933
0.173870876431465149 0.111029312014579773 0.123212926089763641
0.0302980542182922363 0.111029312014579773 0.0770623311400413513
0.244492337107658386 0.111029312014579773 0.17092055082321167
0.0810761824250221252 0.111029312014579773 0.192225426435470581
0.0324986912310123444 0.111029312014579773 0.0577093958854675293
0.175047799944877625 0.111029312014579773 0.192780613899230957
0.0122279739007353783 0.111029312014579773 0.180425852537155151
0.0762656256556510925 0.111029312014579773 0.0812986418604850769
0.104173779487609863 0.111029312014579773 0.071347162127494812
0.0822286903858184814 0.111029312014579773 0.0851660370826721191
0.0029163062572479248 0.111029312014579773 0.0656442195177078247
0.245829179883003235 0.111029312014579773 0.184695631265640259
0.0210354272276163101 0.111029312014579773 0.0189642012119293213
0.0384023189544677734 0.111029312014579773 0.130758434534072876
0.0910826399922370911 0.111029312014579773 0.199150368571281433
0.0934382453560829163 0.111029312014579773 0.14699883759021759
0.128098949790000916 0.111029312014579773 0.157648801803588867
0.262710094451904297 0.111029312014579773 0.186238616704940796
0.165771976113319397 0.111029312014579773 0.18018302321434021
0.0334144681692123413 0.111029312014579773 0.114524669945240021
0.00541054550558328629 0.111029312014579773 0.131605863571166992
0.0370363481342792511 0.111029312014579773 0.0965163111686706543
0.0588952489197254181 0.111029312014579773 0.109282903373241425
0.00449455529451370239 0.111029312014579773 0.185647457838058472
0.0584015361964702606 0.111029312014579773 0.159789055585861206
0.180633127689361572 0.111029312014579773 0.183410048484802246
0.163220033049583435 0.111029312014579773 0.175536543130874634
0.145831942558288574 0.111029312014579773 0.147781252861022949
0.190082177519798279 0.111029312014579773 0.121207959949970245
0.224267840385437012 0.111029312014579773 0.157297894358634949
0.0177656654268503189 0.111029312014579773 0.0179879367351531982
0.242389962077140808 0.111029312014579773 0.195992708206176758
0.123634949326515198 0.111029312014579773 0.181696906685829163
0.0220871604979038239 0.111029312014579773 0.0931312814354896545
0.0221066735684871674 0.111029312014579773 0.17767469584941864
0.244411513209342957 0.111029312014579773 0.165792644023895264
0.181628167629241943 0.111029312014579773 0.11754240095615387
0.095787443220615387 0.111029312014579773 0.161692813038825989
