ply
format ascii 1.0
element vertex 690
property float x
property float y
property float z
end_header
-0.0281273443251848221 -0.0016612582840025425 0.00168442260473966599
-0.0281273443251848221 -0.00845254585146903992 0.0130257010459899902
-0.0281273443251848221 0.0181873645633459091 0.00455741025507450104
-0.0281273443251848221 0.00382290664128959179 0.0144022619351744652
-0.0281273443251848221 -0.00106007885187864304 0.00565637461841106415
-0.0281273443251848221 -0.0144439898431301117 0.00548249855637550354
-0.0281273443251848221 0.0109377894550561905 0.0029596877284348011
-0.0281273443251848221 -0.0144677646458148956 0.0066163279116153717
-0.0281273443251848221 0.00366017688065767288 0.00210830569267272949
-0.0281273443251848221 0.00479858182370662689 0.00681188097223639488
-0.0281273443251848221 0.00149091449566185474 0.0142252808436751366
-0.0281273443251848221 0.00115556363016366959 0.00788091495633125305
-0.0281273443251848221 -0.000692616216838359833 0.00638485560193657875
-0.0281273443251848221 0.0138549162074923515 0.00422980589792132378
-0.0281273443251848221 0.00070711551234126091 0.00771199911832809448
-0.0281273443251848221 -0.00650279130786657333 0.0133939627557992935
-0.0281273443251848221 -0.0142927952110767365 0.00180205143988132477
-0.0281273443251848221 -0.00136505800765007734 0.0147853139787912369
-0.0281273443251848221 -0.000714707071892917156 0.0145075507462024689
-0.0281273443251848221 0.00636374671012163162 0.00817493163049221039
-0.0281273443251848221 -0.00525706680491566658 0.00456702522933483124
-0.0281273443251848221 -0.0114570222795009613 0.00418070890009403229
-0.0281273443251848221 0.00160673307254910469 0.00819925684481859207
-0.0281273443251848221 -0.00603995751589536667 0.00940700434148311615
-0.0281273443251848221 -0.00465647457167506218 0.00980337150394916534
-0.0281273443251848221 -0.00873055402189493179 0.00367674697190523148
-0.0281273443251848221 -0.0160468444228172302 0.00335139408707618713
-0.0281273443251848221 9.04547050595283508e-06 0.00765758100897073746
-0.0281273443251848221 -0.0129917841404676437 0.00767605844885110855
-0.0281273443251848221 -0.0162858478724956512 0.00233273766934871674
-0.0281273443251848221 0.0101268533617258072 0.00878611579537391663
-0.0281273443251848221 0.0046018543653190136 0.0110067650675773621
-0.0281273443251848221 -0.00739635713398456573 0.0102411415427923203
-0.0281273443251848221 0.00769940484315156937 0.00924539379775524139
-0.0281273443251848221 -0.00192568427883088589 0.0130128767341375351
-0.0281273443251848221 -0.00712384283542633057 0.00326060689985752106
-0.0281273443251848221 -0.0068396558053791523 0.00522999744862318039
-0.0281273443251848221 -0.0129054496064782143 0.00787335261702537537
-0.0281273443251848221 -0.0076275593601167202 0.00454045366495847702
-0.0281273443251848221 -0.0166220050305128098 0.000696782022714614868
-0.0281273443251848221 0.00964106712490320206 0.00520780403167009354
-0.0281273443251848221 0.00424885936081409454 0.00906165409833192825
-0.0281273443251848221 -0.017721148207783699 0.00154834985733032227
-0.0281273443251848221 -0.0102714616805315018 0.00225608702749013901
-0.0281273443251848221 -0.0151274614036083221 0.00178320892155170441
-0.0281273443251848221 0.00123079214245080948 0.00832607690244913101
-0.0281273443251848221 0.00269627827219665051 0.0107789319008588791
-0.0281273443251848221 0.0154796838760375977 0.00547583401203155518
-0.0281273443251848221 0.00537229795008897781 0.00766264926642179489
-0.0281273443251848221 0.0135261388495564461 0.00711969099938869476
-0.0281273443251848221 -0.00257905852049589157 0.00582863762974739075
-0.0281273443251848221 -0.00248608528636395931 0.0190401431173086166
-0.0281273443251848221 -0.00420481106266379356 0.00875981152057647705
-0.0281273443251848221 -0.00522607751190662384 0.015145597979426384
-0.0281273443251848221 0.00904170796275138855 0.00782846380025148392
-0.0281273443251848221 -0.00788512825965881348 0.00295818783342838287
-0.0281273443251848221 -0.00500305835157632828 0.0127172525972127914
-0.0281273443251848221 -0.00278677977621555328 0.00720703927800059319
-0.0281273443251848221 -0.0113686630502343178 0.00736191309988498688
-0.0281273443251848221 0.00461938884109258652 0.00447021191939711571
-0.0281273443251848221 0.00509911682456731796 0.0031085633672773838
-0.0281273443251848221 0.00974608119577169418 0.00916991103440523148
-0.0281273443251848221 0.00157617544755339622 0.00980447698384523392
-0.0281273443251848221 -0.0131968734785914421 0.00581610668450593948
-0.0281273443251848221 0.00538524845615029335 0.00482333917170763016
-0.0281273443251848221 -0.0150856142863631248 0.000942932441830635071
-0.0281273443251848221 -0.00360874971374869347 0.00261936057358980179
-0.0281273443251848221 -0.00261274166405200958 0.00882640667259693146
-0.0281273443251848221 0.00810665730386972427 0.00741230510175228119
-0.0281273443251848221 -0.00479371193796396255 0.0147573389112949371
-0.0281273443251848221 -0.0060914340429008007 0.0017445804551243782
-0.0281273443251848221 0.000407009618356823921 0.010166252963244915
-0.0281273443251848221 0.0113792456686496735 0.00590466149151325226
-0.0281273443251848221 -0.00158885261043906212 0.0145347602665424347
-0.0281273443251848221 -0.00610481109470129013 0.00358758028596639633
-0.0281273443251848221 0.00939695537090301514 0.008680771104991436
-0.0281273443251848221 -0.00473630800843238831 0.0151071557775139809
-0.0281273443251848221 -0.00687885191291570663 0.00116449501365423203
-0.0281273443251848221 0.00395251624286174774 0.0143134472891688347
-0.0281273443251848221 -0.00338702322915196419 0.00283099431544542313
-0.0281273443251848221 0.00430689472705125809 0.00909010320901870728
-0.0281273443251848221 -0.00717423902824521065 0.00418060366064310074
-0.0281273443251848221 0.00782916322350502014 0.00879888609051704407
-0.0281273443251848221 -0.0018048575147986412 0.0132772894576191902
-0.0281273443251848221 -0.00309316441416740417 0.00643161125481128693
-0.0281273443251848221 0.0138686094433069229 0.00636233948171138763
-0.0281273443251848221 -0.0117490272969007492 0.00467705912888050079
-0.0281273443251848221 -0.00638954946771264076 0.00200947653502225876
-0.0281273443251848221 -0.00961915217339992523 0.00258167460560798645
-0.0281273443251848221 0.00404238142073154449 0.0140793910250067711
-0.0281273443251848221 0.00471631018444895744 0.0133758941665291786
-0.0281273443251848221 -0.0129499416798353195 0.00432987511157989502
-0.0281273443251848221 -0.00849896296858787537 0.0124905630946159363
-0.0281273443251848221 -0.00523209525272250175 0.00198712199926376343
-0.0281273443251848221 0.0107639357447624207 0.00828499067574739456
-0.0281273443251848221 -0.00538648571819067001 0.00522243790328502655
-0.0281273443251848221 -3.50647605955600739e-05 0.0036149909719824791
-0.0281273443251848221 -2.07591801881790161e-05 0.0116000045090913773
-0.0281273443251848221 -0.00194281386211514473 0.0100238258019089699
-0.0281273443251848221 0.00359634775668382645 0.00277594942599534988
-0.0281273443251848221 0.010209379717707634 0.00896518956869840622
-0.0281273443251848221 -0.0145585900172591209 0.00401586666703224182
-0.0281273443251848221 0.00320571172051131725 0.00837480276823043823
-0.0281273443251848221 0.00677383597940206528 0.0101567655801773071
-0.0281273443251848221 -0.0160933211445808411 0.00169814564287662506
-0.0281273443251848221 -0.0163551177829504013 0.00174712389707565308
-0.0281273443251848221 -0.00331436516717076302 0.0016751997172832489
-0.0281273443251848221 -0.0163004528731107712 0.00283728539943695068
-0.0281273443251848221 -0.0158982891589403152 0.00278909504413604736
-0.0281273443251848221 0.0189403202384710312 0.00400841375812888145
-0.0281273443251848221 0.00647711008787155151 0.0083540724590420723
-0.0281273443251848221 0.000722384080290794373 0.00553582748398184776
-0.0281273443251848221 -0.000882941531017422676 0.0150051470845937729
-0.0281273443251848221 -0.00364328408613801003 0.011134367436170578
-0.0281273443251848221 0.00065100938081741333 0.00666190637275576591
-0.0281273443251848221 -0.00743350479751825333 0.00819918420165777206
-0.0281273443251848221 -0.00469150254502892494 0.0123311867937445641
-0.0281273443251848221 -0.00393274705857038498 0.00692820269614458084
-0.0281273443251848221 -0.00768705736845731735 0.013643273152410984
-0.0281273443251848221 0.00845738500356674194 0.00459529506042599678
-0.0281273443251848221 -0.00307973241433501244 0.00209878012537956238
-0.0281273443251848221 -0.000414268579334020615 0.00704066688194870949
-0.0281273443251848221 -0.000144891906529664993 0.00935193244367837906
-0.0281273443251848221 -0.00587509153410792351 0.00396904256194829941
-0.0281273443251848221 0.00152696156874299049 0.00611550826579332352
-0.0281273443251848221 -0.00111041078343987465 0.00253524724394083023
-0.0281273443251848221 -0.000423457473516464233 0.0070443255826830864
-0.0281273443251848221 -0.000145999481901526451 0.0131135443225502968
-0.0281273443251848221 0.0111708194017410278 0.00779310613870620728
-0.0281273443251848221 -0.00342796393670141697 0.0149332843720912933
-0.0281273443251848221 -0.00846956949681043625 0.00499163009226322174
-0.0281273443251848221 0.00113340374082326889 0.0120204649865627289
-0.0281273443251848221 -0.00814354326575994492 0.00890952162444591522
-0.0281273443251848221 -0.0116640012711286545 0.00888059940189123154
-0.0281273443251848221 -0.0145863201469182968 0.0028446568176150322
-0.0281273443251848221 -0.000818516593426465988 0.00296457391232252121
-0.0281273443251848221 -0.00263824593275785446 0.00987815298140048981
-0.0281273443251848221 -0.00387570075690746307 0.015373528003692627
-0.0281273443251848221 -0.011976197361946106 0.00151322502642869949
-0.0281273443251848221 -0.0150050446391105652 0.00302331708371639252
-0.0281273443251848221 0.0105566885322332382 0.00482882186770439148
-0.0281273443251848221 0.0032873544842004776 0.00730556435883045197
-0.0281273443251848221 0.00657273642718791962 0.00631644017994403839
-0.0281273443251848221 0.000459153845440596342 0.0156538784503936768
-0.0281273443251848221 -0.0161666031926870346 0.000717420130968093872
-0.0281273443251848221 0.013514065183699131 0.00306821777485311031
-0.0281273443251848221 -0.0140050370246171951 0.00472167693078517914
-0.0281273443251848221 0.011325550265610218 0.00601793266832828522
-0.0281273443251848221 0.00901472102850675583 0.0108004985377192497
-0.0281273443251848221 -0.00152301625348627567 0.0179225150495767593
-0.0281273443251848221 -0.00968692824244499207 0.00872757099568843842
-0.0281273443251848221 -0.00167421530932188034 0.0058346092700958252
-0.0281273443251848221 0.0110648628324270248 0.00630201166495680809
-0.0281273443251848221 0.00371180777437984943 0.0089419512078166008
-0.0281273443251848221 -0.00278517929837107658 0.00597957242280244827
-0.0281273443251848221 -0.00101859541609883308 0.0139321787282824516
-0.0281273443251848221 -0.00731474673375487328 0.00608701538294553757
-0.0281273443251848221 0.0145329786464571953 0.00389770255424082279
-0.0281273443251848221 0.0139441592618823051 0.004019211046397686
-0.0281273443251848221 -0.00316721061244606972 0.0118048582226037979
-0.0281273443251848221 -0.00412911269813776016 0.0155504010617733002
-0.0281273443251848221 -0.0063158147968351841 0.00578522030264139175
-0.0281273443251848221 -0.0102477315813302994 0.00990854948759078979
-0.0281273443251848221 0.00574379507452249527 0.00473695248365402222
-0.0281273443251848221 -0.00557066034525632858 0.0035844193771481514
-0.0281273443251848221 0.00875779986381530762 0.00993272382766008377
-0.0281273443251848221 -0.0142595274373888969 0.00365370884537696838
-0.0281273443251848221 0.00269479025155305862 0.00734730018302798271
-0.0281273443251848221 -0.00914828106760978699 0.00848514214158058167
-0.0281273443251848221 -0.00694448594003915787 0.0117475893348455429
-0.0281273443251848221 -0.00139835989102721214 0.0106982830911874771
-0.0281273443251848221 0.00263567781075835228 0.00303620938211679459
-0.0281273443251848221 -0.0104667022824287415 0.00209152419120073318
-0.0281273443251848221 -0.0155645618215203285 0.00110886618494987488
-0.0281273443251848221 0.000341678503900766373 0.00546435872092843056
-0.0281273443251848221 0.0012315874919295311 0.0107051180675625801
-0.0281273443251848221 0.000833767000585794449 0.00954588968306779861
-0.0281273443251848221 0.0166918691247701645 0.00553180603310465813
-0.0281273443251848221 -0.000601584906689822674 0.0160684231668710709
-0.0281273443251848221 0.00231747515499591827 0.0136430580168962479
-0.0281273443251848221 -0.00778819620609283447 0.0120192859321832657
-0.0281273443251848221 0.00226232688874006271 0.0127758076414465904
-0.0281273443251848221 -0.0137098720297217369 -0.00310199870727956295
-0.0281273443251848221 0.0130041539669036865 -0.00388600211590528488
-0.0281273443251848221 -0.00901201553642749786 -0.00682913372293114662
-0.0281273443251848221 -0.00802250020205974579 -0.00661268504336476326
-0.0281273443251848221 -0.0125534310936927795 -0.0011935096699744463
-0.0281273443251848221 -0.00482060946524143219 -0.0155911240726709366
-0.0281273443251848221 0.00979092251509428024 -0.00252032233402132988
-0.0281273443251848221 -0.012386661022901535 -0.00196668226271867752
-0.0281273443251848221 -0.00303338794037699699 -0.0103118317201733589
-0.0281273443251848221 -0.0107010668143630028 -0.00341981742531061172
-0.0281273443251848221 -0.00771845225244760513 -0.0173574797809123993
-0.0281273443251848221 0.014143083244562149 -0.00246984721161425114
-0.0281273443251848221 0.00660729408264160156 -0.00468828110024333
-0.0281273443251848221 -0.0099832192063331604 -0.00696232914924621582
-0.0281273443251848221 -0.0122068226337432861 -0.00923404190689325333
-0.0281273443251848221 -0.00404721684753894806 -0.0134765533730387688
-0.0281273443251848221 0.00865296274423599243 -0.00418095150962471962
-0.0281273443251848221 -0.0048979329876601696 -0.0023459726944565773
-0.0281273443251848221 0.0114286383613944054 -0.0052675316110253334
-0.0281273443251848221 -0.0147098042070865631 -0.0077080167829990387
-0.0281273443251848221 -0.0113479616120457649 -0.00966645032167434692
-0.0281273443251848221 -0.00727546866983175278 -0.0153975281864404678
-0.0281273443251848221 -0.0101390015333890915 -0.00675635552033782005
-0.0281273443251848221 0.0179186295717954636 -0.00212884601205587387
-0.0281273443251848221 -0.0165286902338266373 -0.00219754897989332676
-0.0281273443251848221 -0.0068256845697760582 -0.0164412539452314377
-0.0281273443251848221 -0.00851971935480833054 -0.0178930889815092087
-0.0281273443251848221 0.0114022260531783104 -0.00562286237254738808
-0.0281273443251848221 -0.01080330740660429 -0.0129103539511561394
-0.0281273443251848221 0.00670422846451401711 -0.00817644409835338593
-0.0281273443251848221 -0.0143488021567463875 -0.0017105455044656992
-0.0281273443251848221 -0.0125978756695985794 -0.000532387057319283485
-0.0281273443251848221 0.00240317592397332191 -0.00472311116755008698
-0.0281273443251848221 -0.00342770852148532867 -0.0133876176550984383
-0.0281273443251848221 -0.00783607456833124161 -0.00196540448814630508
-0.0281273443251848221 -0.00555886374786496162 -0.00871112663298845291
-0.0281273443251848221 -0.00521858083084225655 -0.0120673561468720436
-0.0281273443251848221 0.00121214473620057106 -0.0103768249973654747
-0.0281273443251848221 0.0107130510732531548 -0.00348601443693041801
-0.0281273443251848221 0.00272444402799010277 -0.0115440273657441139
-0.0281273443251848221 0.0128238173201680183 -0.00525281112641096115
-0.0281273443251848221 -0.00816270895302295685 -0.0105377454310655594
-0.0281273443251848221 -0.0108585720881819725 -0.00172660849057137966
-0.0281273443251848221 0.0126436762511730194 -0.00527226366102695465
-0.0281273443251848221 -0.000794557854533195496 -0.0103874374181032181
-0.0281273443251848221 -0.00665292190387845039 -0.00689157936722040176
-0.0281273443251848221 0.00596218183636665344 -0.0082219541072845459
-0.0281273443251848221 -0.00686362199485301971 -0.0149678522720932961
-0.0281273443251848221 0.00532741891220211983 -0.00901156198233366013
-0.0281273443251848221 -0.0113344006240367889 -0.00382808386348187923
-0.0281273443251848221 0.00501553900539875031 -0.002264420036226511
-0.0281273443251848221 -0.0133624663576483727 -0.00457651261240243912
-0.0281273443251848221 -0.00194362318143248558 -0.0125613082200288773
-0.0281273443251848221 -0.00563743198290467262 -0.0112037314102053642
-0.0281273443251848221 -0.00924784783273935318 -0.0133447367697954178
-0.0281273443251848221 0.0055851740762591362 -0.00513935741037130356
-0.0281273443251848221 0.00721568241715431213 -0.00718144699931144714
-0.0281273443251848221 -0.00126978359185159206 -0.00348569289781153202
-0.0281273443251848221 -0.0146480342373251915 -0.00747116608545184135
-0.0281273443251848221 -0.010131513699889183 -0.0116077270358800888
-0.0281273443251848221 -0.00990383420139551163 -0.00774504290893673897
-0.0281273443251848221 0.000704859383404254913 -0.0032827302347868681
-0.0281273443251848221 -0.0117174042388796806 -0.00988127477467060089
-0.0281273443251848221 -0.00423594610765576363 -0.00739567959681153297
-0.0281273443251848221 -0.0115073500201106071 -0.00118339736945927143
-0.0281273443251848221 -0.00667438050732016563 -0.00110015762038528919
-0.0281273443251848221 -0.0116311041638255119 -0.00718684820458292961
-0.0281273443251848221 -0.00347799155861139297 -0.0150050735101103783
-0.0281273443251848221 -0.0102313775569200516 -0.0137522490695118904
-0.0281273443251848221 -0.00657816044986248016 -0.0161292590200901031
-0.0281273443251848221 -0.00268368562683463097 -0.00247166585177183151
-0.0281273443251848221 -0.0149768972769379616 -0.00383210787549614906
-0.0281273443251848221 0.00404393859207630157 -0.00938488822430372238
-0.0281273443251848221 0.00520774256438016891 -0.0046160481870174408
-0.0281273443251848221 0.00569637306034564972 -0.00981424562633037567
-0.0281273443251848221 -0.0046040751039981842 -0.00621593277901411057
-0.0281273443251848221 -0.00361602962948381901 -0.000736447167582809925
-0.0281273443251848221 -0.00730099715292453766 -0.00547306472435593605
-0.0281273443251848221 -0.00984260812401771545 -0.00524094514548778534
-0.0281273443251848221 -0.00154526438564062119 -0.00441658124327659607
-0.0281273443251848221 -0.00685849506407976151 -0.0100854560732841492
-0.0281273443251848221 -0.00778058916330337524 -0.00396174285560846329
-0.0281273443251848221 -0.00124425417743623257 -0.00635327724739909172
-0.0281273443251848221 -0.0102087408304214478 -0.00923585519194602966
-0.0281273443251848221 0.0144489267840981483 -0.00322184385731816292
-0.0281273443251848221 0.00137986801564693451 -0.00785540696233510971
-0.0281273443251848221 0.00433274172246456146 -0.00825228914618492126
-0.0281273443251848221 -0.0155141036957502365 -0.00178538286127150059
-0.0281273443251848221 -0.00618734164163470268 -0.0124251851812005043
-0.0281273443251848221 -0.00214485754258930683 -0.00539233069866895676
-0.0281273443251848221 -0.00300149340182542801 -0.0109463976696133614
-0.0281273443251848221 0.00159222027286887169 -0.00692669441923499107
-0.0281273443251848221 -0.000603331718593835831 -0.0121580036357045174
-0.0281273443251848221 0.00595496874302625656 -0.0055485195480287075
-0.0281273443251848221 -0.0114259608089923859 -0.00768959289416670799
-0.0281273443251848221 -0.00530110299587249756 -0.00358917727135121822
-0.0281273443251848221 -0.00361004890874028206 -0.0108809033408761024
-0.0281273443251848221 0.00545549020171165466 -0.00424460414797067642
-0.0281273443251848221 -0.00251846387982368469 -0.00847724359482526779
-0.0281273443251848221 -0.00272579770535230637 -0.00737966969609260559
-0.0281273443251848221 -0.0116470996290445328 -0.00959106534719467163
-0.0281273443251848221 0.00178092950955033302 -0.00654696440324187279
-0.0281273443251848221 -0.00828822795301675797 -0.00471408851444721222
-0.0281273443251848221 0.00709168706089258194 -0.00223891413770616055
-0.0281273443251848221 0.00257101096212863922 -0.00909090973436832428
-0.0281273443251848221 -0.00559614319354295731 -0.00252447696402668953
-0.0281273443251848221 -0.00932841002941131592 -0.0114534003660082817
-0.0281273443251848221 -0.00854096747934818268 -0.00840863771736621857
-0.0281273443251848221 -0.00129285408183932304 -0.00877467729151248932
-0.0281273443251848221 0.00641794269904494286 -0.00363606354221701622
-0.0281273443251848221 -0.0125208916142582893 -0.000478165893582627177
-0.0281273443251848221 0.0100752003490924835 -0.00585267134010791779
-0.0281273443251848221 0.00120761129073798656 -0.00559202814474701881
-0.0281273443251848221 0.0033478965051472187 -0.010579816997051239
-0.0281273443251848221 -0.0118136545643210411 -0.00942631158977746964
-0.0281273443251848221 -0.00226021558046340942 -0.014187052845954895
-0.0281273443251848221 -0.000605865847319364548 -0.00548926275223493576
-0.0281273443251848221 -0.00560542009770870209 -0.011263127438724041
-0.0281273443251848221 -0.0108809573575854301 -0.00865939725190401077
-0.0281273443251848221 0.00889302510768175125 -0.0023825399111956358
-0.0281273443251848221 -0.0129960570484399796 -0.00789883360266685486
-0.0281273443251848221 0.000583032611757516861 -0.0107043134048581123
-0.0281273443251848221 -0.0107991993427276611 -0.00562043720856308937
-0.0281273443251848221 -0.0135139934718608856 -0.00295294681563973427
-0.0281273443251848221 0.00447372905910015106 -0.00613113539293408394
-0.0281273443251848221 -0.00482566934078931808 -0.0124174244701862335
-0.0281273443251848221 -0.0100891990587115288 -0.0107877040281891823
-0.0281273443251848221 -0.00117332348600029945 -0.0108179999515414238
-0.0281273443251848221 0.0172285567969083786 -0.0017097588861361146
-0.0281273443251848221 -0.0130318449810147285 -0.00814180914312601089
-0.0281273443251848221 0.00208923732861876488 -0.00485765887424349785
-0.0281273443251848221 0.0140383895486593246 -0.00394296785816550255
-0.0281273443251848221 -0.0124362921342253685 -0.00664696004241704941
-0.0281273443251848221 -0.0109576256945729256 -0.0123989572748541832
-0.0281273443251848221 0.0141334421932697296 -0.00432053767144680023
-0.0281273443251848221 -0.0108833545818924904 -0.0142153715714812279
-0.0281273443251848221 0.0112652173265814781 -0.00393716245889663696
-0.0281273443251848221 -0.00578052457422018051 -0.0126950014382600784
-0.0281273443251848221 -0.00832779519259929657 -0.00786498188972473145
-0.0281273443251848221 -0.00229675974696874619 -0.0079835839569568634
-0.0281273443251848221 -0.00459663104265928268 -0.00561499223113059998
-0.0281273443251848221 0.00224095862358808517 -0.00772201735526323318
-0.0281273443251848221 -0.0127320941537618637 -0.0102650197222828865
-0.0281273443251848221 -0.0130090676248073578 -0.0105167226865887642
-0.0281273443251848221 -0.00183722423389554024 -0.0107148569077253342
-0.0281273443251848221 0.0123462816700339317 -0.00605675019323825836
-0.0281273443251848221 -0.00686881225556135178 -0.00949216913431882858
-0.0281273443251848221 -0.0175447426736354828 -0.00250428100116550922
-0.0281273443251848221 -0.0117623303085565567 -0.010957770049571991
-0.0281273443251848221 0.0163171030580997467 -0.00308320997282862663
-0.0281273443251848221 0.000146405305713415146 -0.00753809418529272079
-0.0281273443251848221 -0.00795981753617525101 -0.0177491828799247742
-0.0281273443251848221 -0.0125201800838112831 -0.00264668744057416916
-0.0281273443251848221 0.00615749415010213852 -0.00747691793367266655
-0.0281273443251848221 0.0114640863612294197 -0.00322633213363587856
-0.0281273443251848221 0.0164106618613004684 -0.00228612683713436127
-0.0281273443251848221 -0.00017676851712167263 -0.00633007707074284554
-0.0281273443251848221 -0.00596194341778755188 -0.00651254644617438316
-0.0281273443251848221 0.0123618161305785179 -0.0031211264431476593
-0.0281273443251848221 0.00325953401625156403 -0.00913714151829481125
-0.0281273443251848221 -0.000450221821665763855 -0.0126003436744213104
-0.0281273443251848221 0.00731737259775400162 -0.0049288296140730381
-0.0281273443251848221 0.00616408791393041611 -0.00692368252202868462
-0.0281273443251848221 -0.00520532345399260521 -0.0111914342269301414
-0.0281273443251848221 -0.0128545612096786499 -0.00257431645877659321
-0.0281273443251848221 -0.0167864523828029633 -0.00124252866953611374
-0.0281273443251848221 0.017869897186756134 -0.00298896618187427521
-0.0281273443251848221 -0.00859727058559656143 -0.0141504975035786629
-0.0281273443251848221 -0.000762249808758497238 -0.00792755279690027237
-0.0281273443251848221 0.0055489041842520237 -0.00791381858289241791
-0.0281273443251848221 0.001077248714864254 -0.0122620537877082825
-0.0281273443251848221 -0.016676364466547966 -0.00162000127602368593
-0.0281273443251848221 0.00832549203187227249 -0.00742307957261800766
-0.0281273443251848221 -0.0100814960896968842 -0.009227801114320755
-0.0281273443251848221 -0.000885158777236938477 -0.0137963220477104187
-0.0281273443251848221 -0.0177463684231042862 -0.00181487109512090683
-0.0281273443251848221 -0.0116605581715703011 -0.00223757862113416195
-0.0281273443251848221 -0.00332083366811275482 -0.0135051393881440163
-0.0281273443251848221 0.00876884534955024719 -0.00527735752984881401
-0.0281273443251848221 -0.0141778765246272087 -0.00114427879452705383
-0.0281273443251848221 0.00705030700191855431 -0.00235155317932367325
-0.0281273443251848221 0.00438605481758713722 -0.00861882045865058899
-0.0281273443251848221 0.00458239763975143433 -0.0103951888158917427
-0.0281273443251848221 -0.00165246147662401199 -0.0121305324137210846
-0.0281273443251848221 -0.0045691467821598053 -0.0058882678858935833
-0.0281273443251848221 -0.00997606944292783737 -0.00194692250806838274
-0.0281273443251848221 0.001964544877409935 -0.00845962390303611755
-0.0281273443251848221 -0.00797671359032392502 -0.00390610052272677422
-0.0281273443251848221 -0.0159723926335573196 -0.00383042078465223312
-0.0281273443251848221 -0.00424776365980505943 -0.011094667948782444
-0.0281273443251848221 -0.0100887808948755264 -0.00871862750500440598
-0.0281273443251848221 -0.00739801768213510513 -0.0128057729452848434
-0.0281273443251848221 -0.00117621803656220436 -0.0121189812198281288
-0.0281273443251848221 -0.00336149265058338642 -0.00084669794887304306
-0.0281273443251848221 -0.00683899363502860069 -0.0071130264550447464
-0.0281273443251848221 -0.00292182597331702709 -0.00473374314606189728
-0.0281273443251848221 -0.0121543481945991516 -0.00125118717551231384
-0.0281273443251848221 0.00637197773903608322 -0.00494811730459332466
-0.0281273443251848221 0.0187471546232700348 -0.00686770491302013397
-0.0281273443251848221 0.0186431575566530228 -0.00555863277986645699
-0.0281273443251848221 0.0185166262090206146 -0.00485462415963411331
-0.0281273443251848221 0.0187898464500904083 -0.00393733428791165352
-0.0281273443251848221 0.0155532658100128174 -0.0113595053553581238
-0.0281273443251848221 0.0165424253791570663 -0.00961659662425518036
-0.0281273443251848221 0.0170915238559246063 -0.00785429030656814575
-0.0281273443251848221 0.0155288241803646088 -0.011445237323641777
-0.0281273443251848221 0.0187851302325725555 -0.00515834474936127663
-0.0281273443251848221 0.0170665830373764038 -0.00920321140438318253
-0.0281273443251848221 0.0158996302634477615 -0.0119883576408028603
-0.0281273443251848221 0.0147513169795274734 -0.0134781170636415482
-0.0281273443251848221 0.0130328498780727386 -0.0115532819181680679
-0.0281273443251848221 0.00920987781137228012 -0.0148732522502541542
-0.0281273443251848221 0.0110319480299949646 -0.0134096145629882812
-0.0281273443251848221 0.0130110001191496849 -0.0103723136708140373
-0.0281273443251848221 0.0134932566434144974 -0.0119437985122203827
-0.0281273443251848221 0.0094182230532169342 -0.0160054098814725876
-0.0281273443251848221 0.0114383259788155556 -0.0122858472168445587
-0.0281273443251848221 0.00642951019108295441 -0.017785731703042984
-0.0281273443251848221 0.0112397978082299232 -0.0164657551795244217
-0.0281273443251848221 0.0113040562719106674 -0.0140129774808883667
-0.0281273443251848221 0.0136765576899051666 -0.0115458965301513672
-0.0281273443251848221 0.0155145255848765373 -0.00908316858112812042
-0.0281273443251848221 0.0113190514966845512 -0.0113828834146261215
-0.0281273443251848221 0.0106463683769106865 -0.0150561733171343803
-0.0281273443251848221 0.00900185480713844299 -0.0164922736585140228
-0.0281273443251848221 0.0136643163859844208 -0.00983374752104282379
-0.0281273443251848221 0.00975325517356395721 -0.0171550773084163666
-0.0281273443251848221 0.00811565294861793518 -0.0168540645390748978
-0.0281273443251848221 0.0101318545639514923 -0.01491532102227211
-0.0281273443251848221 0.0132946446537971497 -0.0129319494590163231
-0.0281273443251848221 0.0150748109444975853 -0.0102069340646266937
-0.0281273443251848221 0.0178667213767766953 -0.0052825557067990303
-0.0281273443251848221 0.0170065350830554962 -0.00517527898773550987
-0.0281273443251848221 0.011236727237701416 -0.0132598141208291054
-0.0281273443251848221 0.015359099954366684 -0.0095430789515376091
-0.0281273443251848221 0.0071484777145087719 -0.0148612018674612045
-0.0281273443251848221 0.00318616442382335663 -0.0194314718246459961
-0.0281273443251848221 0.00193103216588497162 -0.0188376959413290024
-0.0281273443251848221 0.0143304169178009033 -0.0066476818174123764
-0.0281273443251848221 0.00226024328731000423 -0.0126161528751254082
-0.0281273443251848221 0.00342561258003115654 -0.0190770141780376434
-0.0281273443251848221 0.00870971847325563431 -0.0139723708853125572
-0.0281273443251848221 -0.00469870725646615028 -0.016970636323094368
-0.0281273443251848221 0.013875509612262249 -0.00679802196100354195
-0.0281273443251848221 -0.00158084603026509285 -0.014723549596965313
-0.0281273443251848221 0.00823690369725227356 -0.014568776823580265
-0.0281273443251848221 0.0021891491487622261 -0.0185739640146493912
-0.0281273443251848221 0.000397371593862771988 -0.0163142122328281403
-0.0281273443251848221 0.00403003674000501633 -0.0130587546154856682
-0.0281273443251848221 -0.00104778120294213295 -0.0172618012875318527
-0.0281273443251848221 0.0140722058713436127 -0.00633255904540419579
-0.0281273443251848221 0.00769268767908215523 -0.0150491483509540558
-0.0281273443251848221 0.0150666153058409691 -0.00473694968968629837
-0.0281273443251848221 0.0119544379413127899 -0.00969044864177703857
-0.0281273443251848221 0.00314109772443771362 -0.0166148655116558075
-0.0281273443251848221 -0.00246736267581582069 -0.0186480265110731125
-0.0281273443251848221 0.00798654928803443909 -0.0141728157177567482
-0.0281273443251848221 0.0142071777954697609 -0.00570791773498058319
-0.0281273443251848221 0.010153607465326786 -0.00833020173013210297
-0.0281273443251848221 0.0110595030710101128 -0.00808261148631572723
-0.0281273443251848221 0.006124893669039011 -0.016069117933511734
-0.0281273443251848221 0.00359454192221164703 -0.0144934626296162605
-0.0281273443251848221 0.0169845931231975555 -0.00401262147352099419
-0.0281273443251848221 0.0100499643012881279 -0.00866808462888002396
-0.0281273443251848221 0.0076357121579349041 -0.0141908964142203331
-0.0281273443251848221 0.0148845883086323738 -0.0056190970353782177
-0.0281273443251848221 0.00509240059182047844 -0.0140491165220737457
-0.0281273443251848221 0.00742448912933468819 -0.014860483817756176
-0.0281273443251848221 -0.00182232237420976162 -0.0171084925532341003
-0.0281273443251848221 0.00646428484469652176 -0.0165374912321567535
-0.0281273443251848221 0.00613781949505209923 -0.0167437009513378143
-0.0281273443251848221 0.00200405623763799667 -0.0154259186238050461
-0.0281273443251848221 0.00463778804987668991 -0.0150311309844255447
-0.0281273443251848221 0.000110400374978780746 -0.0166243799030780792
-0.0281273443251848221 0.0114387031644582748 -0.00929170846939086914
-0.0281273443251848221 0.00751690473407506943 -0.0141466446220874786
-0.0281273443251848221 0.00993638671934604645 -0.00870323926210403442
-0.0281273443251848221 0.00410306872799992561 -0.0177758932113647461
-0.0281273443251848221 0.00461330125108361244 -0.0134193152189254761
-0.0281273443251848221 0.000798012595623731613 -0.0159270036965608597
-0.0281273443251848221 0.00235187867656350136 -0.0178537424653768539
-0.0281273443251848221 0.00775798549875617027 -0.0142686991021037102
-0.0281273443251848221 0.00597897404804825783 -0.0149608561769127846
-0.0281273443251848221 0.00724440068006515503 -0.0117488699033856392
-0.0281273443251848221 -0.00151119334623217583 -0.0190660879015922546
-0.0281273443251848221 0.00128666241653263569 -0.0136544583365321159
-0.0281273443251848221 0.00633880309760570526 -0.0164712704718112946
-0.0281273443251848221 0.0045801093801856041 -0.0184487905353307724
-0.0281273443251848221 0.0122517943382263184 -0.00961422454565763474
-0.0281273443251848221 0.008307640440762043 -0.0144656654447317123
-0.0281273443251848221 0.000405499245971441269 -0.0184314306825399399
-0.0281273443251848221 0.00862896442413330078 -0.0138959586620330811
-0.0281273443251848221 -0.0041699814610183239 -0.0182925090193748474
-0.0281273443251848221 0.00471967458724975586 -0.0132825104519724846
-0.0281273443251848221 -0.000249082688242197037 -0.0177863501012325287
-0.0281273443251848221 -0.00550546590238809586 -0.0169034432619810104
-0.0281273443251848221 0.00726193888112902641 -0.0102193746715784073
-0.0281273443251848221 0.000232690013945102692 -0.0191302783787250519
-0.0281273443251848221 -0.00138055591378360987 -0.0154301067814230919
-0.0281273443251848221 0.000448357430286705494 -0.0144089050590991974
-0.0281273443251848221 0.00554766785353422165 -0.0165831297636032104
-0.0281273443251848221 -0.001461829524487257 -0.0184554513543844223
-0.0281273443251848221 0.00900749117136001587 -0.00977594219148159027
-0.0281273443251848221 0.0072535565122961998 -0.0184087399393320084
-0.0281273443251848221 -0.0145380925387144089 -0.0138049237430095673
-0.0281273443251848221 -0.019052654504776001 -0.00507574249058961868
-0.0281273443251848221 -0.0195525512099266052 -0.00336828315630555153
-0.0281273443251848221 -0.0185017716139554977 -0.00629068724811077118
-0.0281273443251848221 -0.0178349763154983521 -0.00729973940178751945
-0.0281273443251848221 -0.017865598201751709 -0.00745953992009162903
-0.0281273443251848221 -0.0112860118970274925 -0.0143948355689644814
-0.0281273443251848221 -0.0145593713968992233 -0.00915377773344516754
-0.0281273443251848221 -0.0112249180674552917 -0.0154561419039964676
-0.0281273443251848221 -0.0110932840034365654 -0.0146392881870269775
-0.0281273443251848221 -0.0124420104548335075 -0.0123341735452413559
-0.0281273443251848221 -0.0102144423872232437 -0.0160477627068758011
-0.0281273443251848221 -0.0187587328255176544 -0.00252227950841188431
-0.0281273443251848221 -0.0136544778943061829 -0.0104849543422460556
-0.0281273443251848221 -0.0163426678627729416 -0.00674489419907331467
-0.0281273443251848221 -0.0189300384372472763 -0.0019817952997982502
-0.0281273443251848221 -0.00508293695747852325 -0.0191553551703691483
-0.0281273443251848221 -0.0140079595148563385 -0.0131842810660600662
-0.0281273443251848221 -0.0170215703547000885 -0.00866109319031238556
-0.0281273443251848221 -0.0147221749648451805 -0.012152339331805706
-0.0281273443251848221 -0.0147066507488489151 -0.0122377499938011169
-0.0281273443251848221 -0.0141774993389844894 -0.0138012198731303215
-0.0281273443251848221 -0.015923256054520607 -0.00953017733991146088
-0.0281273443251848221 -0.0162184834480285645 -0.0116729112342000008
-0.0281273443251848221 -0.0125096272677183151 -0.0153384022414684296
-0.0281273443251848221 -0.012230677530169487 -0.0156213510781526566
-0.0281273443251848221 -0.0123911788687109947 -0.0151015995070338249
-0.0281273443251848221 -0.0183235406875610352 -0.00360306678339838982
-0.0281273443251848221 -0.00189093314111232758 -0.0198880191892385483
-0.0281273443251848221 -0.00301834265701472759 -0.0193100348114967346
-0.0281273443251848221 -0.00135200563818216324 -0.019795319065451622
-0.0281273443251848221 -0.00634051114320755005 -0.000381272955564782023
-0.0281273443251848221 0.00359933637082576752 -0.000948788132518529892
-0.0281273443251848221 0.0179244335740804672 -0.000184858217835426331
-0.0281273443251848221 0.00852342694997787476 -0.00104243936948478222
-0.0281273443251848221 0.0168417524546384811 -0.000553712190594524145
-0.0281273443251848221 0.0188223067671060562 -0.00137508788611739874
-0.0281273443251848221 0.0108678527176380157 -0.000190749764442443848
-0.0281273443251848221 -0.000602438114583492279 -0.000625901331659406424
-0.0281273443251848221 -0.0084281526505947113 -0.000220959569560363889
-0.0281273443251848221 0.0147774145007133484 -0.00136253633536398411
-0.0281273443251848221 0.0129139591008424759 -0.000655110343359410763
-0.0281273443251848221 0.0127326138317584991 -0.000716527050826698542
-0.0281273443251848221 0.0121428407728672028 -0.000284789828583598137
-0.0281273443251848221 0.0188863947987556458 -0.00122550444211810827
-0.0281273443251848221 -0.00594099611043930054 -0.000453140877652913332
-0.0281273443251848221 0.00297450646758079529 -0.000841796398162841797
-0.0281273443251848221 0.0168955586850643158 -1.34821402753004804e-05
-0.0281273443251848221 0.0182740949094295502 -0.00141896936111152172
-0.0281273443251848221 0.00143422931432723999 -0.000525595445651561022
0.000562480185180902481 0.0301087610423564911 -0.00644081132486462593
-0.00666768429800868034 0.0250720623880624771 -0.00637326110154390335
0.00237478455528616905 0.0314640700817108154 -0.00621146941557526588
0.00478130485862493515 0.0334258414804935455 -0.00547683471813797951
0.00425353087484836578 0.033120814710855484 -0.00530571304261684418
0.00515315216034650803 0.0337010473012924194 -0.00543741416186094284
-0.00294329854659736156 0.0276473704725503922 -0.00645896419882774353
0.00500031514093279839 0.0332336276769638062 -0.00639373436570167542
0.00185627955943346024 0.0312259197235107422 -0.00588011089712381363
-0.0220365468412637711 -0.019762260839343071 -0.000714195426553487778
-0.0268588848412036896 -0.0198519267141819 -0.00242579751648008823
-0.0213244259357452393 -0.0197803322225809097 -0.000223595707211643457
-0.0277392193675041199 -0.0198883414268493652 -0.00258597708307206631
-0.0204877704381942749 -0.0197116173803806305 -0.000212919258046895266
-0.0220097899436950684 -0.0196407902985811234 -0.00126796634867787361
-0.0205426104366779327 -0.0192706268280744553 -0.00226883008144795895
-0.0232218876481056213 -0.0197485163807868958 -0.00135278748348355293
-0.020277438685297966 -0.0188572723418474197 -0.00404425011947751045
-0.0169379692524671555 -0.0187015533447265625 -0.00316127738915383816
-0.01891336590051651 -0.0190807059407234192 -0.00236248946748673916
-0.018090464174747467 -0.0186158493161201477 -0.0041077909991145134
-0.018848104402422905 -0.0188771653920412064 -0.00326801696792244911
-0.0138138933107256889 -0.0181260071694850922 -0.00431371340528130531
-0.0201378669589757919 -0.0193711090832948685 -0.00161248224321752787
-0.0195519700646400452 -0.0190756320953369141 -0.00269174622371792793
-0.020862434059381485 -0.0190792102366685867 -0.0033030225895345211
-0.0229389555752277374 -0.019431697204709053 -0.00267539592459797859
-0.0231210812926292419 -0.0194910019636154175 -0.00248969416134059429
-0.0176881216466426849 -0.0188489481806755066 -0.00284223840571939945
-0.0168573446571826935 -0.0183492675423622131 -0.00474403146654367447
-0.02555813267827034 -0.019477352499961853 -0.00371990259736776352
-0.0154332071542739868 -0.0184114947915077209 -0.00377544481307268143
-0.0212971288710832596 -0.0194399468600749969 -0.00185097160283476114
-0.0143150947988033295 -0.0181426499038934708 -0.00447719451040029526
-0.0208773314952850342 -0.0192194376140832901 -0.00266475789248943329
-0.00324616837315261364 -0.014188089407980442 -0.00825548823922872543
-0.00783304870128631592 -0.0155251603573560715 -0.00809990242123603821
-0.00537899043411016464 -0.0150019600987434387 -0.00776632130146026611
-0.00427113333716988564 -0.0147003903985023499 -0.00775754405185580254
-0.00461932551115751266 -0.0149872759357094765 -0.00734358886256814003
-0.0109636280685663223 -0.0170568414032459259 -0.00665071560069918633
-0.0052043059840798378 -0.0148849952965974808 -0.00791550986468791962
-0.00140521582216024399 -0.0137927774339914322 -0.00801137275993824005
-0.00701184617355465889 -0.0151850879192352295 -0.00834618043154478073
-0.00326467864215373993 -0.0144501207396388054 -0.00769816897809505463
-0.00560872815549373627 -0.0147082200273871422 -0.00854097586125135422
-0.00966890808194875717 -0.015431482344865799 -0.00940168648958206177
-0.0105024091899394989 -0.0165893062949180603 -0.0073889000341296196
-0.00616107834503054619 -0.0145933199673891068 -0.00912074465304613113
-0.00400723423808813095 -0.0141643742099404335 -0.00876235403120517731
-0.00962110236287117004 -0.0165739152580499649 -0.00689491257071495056
-0.0100523503497242928 -0.0155817419290542603 -0.00930519402027130127
-0.00233496516011655331 -0.0141262523829936981 -0.00784436333924531937
0.0223874412477016449 0.00277720484882593155 -0.0124416360631585121
0.0276607722043991089 0.00861285626888275146 -0.0137686775997281075
0.0266769267618656158 0.00679879076778888702 -0.01290118508040905
0.0204304605722427368 0.00103796366602182388 -0.0123136145994067192
0.0278116092085838318 0.00765628041699528694 -0.0128464028239250183
0.023714778944849968 0.00413042958825826645 -0.0126768164336681366
0.0266861822456121445 0.00759981106966733932 -0.0135793779045343399
0.0221347715705633163 0.00251384172588586807 -0.0123919406905770302
0.0213477704674005508 0.00207856344059109688 -0.0125662283971905708
0.0220009908080101013 0.00289754802361130714 -0.0128127560019493103
0.00259287958033382893 -0.0122880283743143082 -0.00829755049198865891
0.00716215372085571289 -0.0114092156291007996 -0.00516427820548415184
0.0087863728404045105 -0.00990050565451383591 -0.00650714710354804993
0.0105174276977777481 -0.00948713254183530807 -0.00548529624938964844
0.0117288483306765556 -0.00851650815457105637 -0.00616931170225143433
0.0101154325529932976 -0.00906847883015871048 -0.00677942484617233276
0.0119161894544959068 -0.00823989976197481155 -0.00653487164527177811
0.00960389338433742523 -0.0100415516644716263 -0.00533403409644961357
0.00763539597392082214 -0.0103939259424805641 -0.00673774629831314087
0.00655096909031271935 -0.0105694085359573364 -0.007549310103058815
0.0112643297761678696 -0.00890833884477615356 -0.00586668448522686958
0.00783639028668403625 -0.0106922471895813942 -0.00590793788433074951
0.00585211999714374542 -0.0115106552839279175 -0.00637169554829597473
0.010526701807975769 -0.00949988141655921936 -0.00544909387826919556
0.00417661154642701149 -0.0119095006957650185 -0.00736335292458534241
0.00456999195739626884 -0.0124299777671694756 -0.00586944166570901871
0.0104246903210878372 -0.00973998289555311203 -0.0050662909634411335
0.00597811629995703697 -0.0110437963157892227 -0.00719422521069645882
0.00377511885017156601 -0.0118507556617259979 -0.00791786890476942062
0.00484069250524044037 -0.0126606440171599388 -0.00510323047637939453
0.00569289084523916245 -0.0125342290848493576 -0.00444187410175800323
-0.0195262543857097626 -0.0183674544095993042 -0.00576892727985978127
-0.0244730748236179352 -0.0188078843057155609 -0.00595718156546354294
-0.0207959543913602829 -0.0185068994760513306 -0.00573351886123418808
-0.0203051213175058365 -0.0183417275547981262 -0.00610010139644145966
-0.0171818435192108154 -0.0181888360530138016 -0.00558420876041054726
-0.0164321381598711014 -0.0180701743811368942 -0.0057203252799808979
-0.0218976195901632309 -0.0186270177364349365 -0.00570556242018938065
-0.0277888588607311249 -0.0190965048968791962 -0.00610428024083375931
-0.0225635319948196411 -0.0186298191547393799 -0.00591005757451057434
0.0224241539835929871 -0.00167531974148005247 -0.00624773604795336723
0.0264153890311717987 0.00197113375179469585 -0.00682789506390690804
0.0204073339700698853 -0.00362090347334742546 -0.00576243037357926369
0.0308567136526107788 0.0059984070248901844 -0.00741677731275558472
0.0322572030127048492 0.00700207240879535675 -0.00710570253431797028
0.0315133482217788696 0.00695874821394681931 -0.0081846918910741806
0.0299496203660964966 0.00526524987071752548 -0.00746324658393859863
0.0211286395788192749 -0.00289128371514379978 -0.00599904637783765793
0.0289099495857954025 0.0043952413834631443 -0.00746110500767827034
-0.0263243168592453003 -0.0182927064597606659 -0.00784072466194629669
-0.0148773901164531708 -0.0177345685660839081 -0.00620037596672773361
-0.0246202759444713593 -0.0184763055294752121 -0.00695269647985696793
-0.0264368113130331039 -0.0184153486043214798 -0.0075740031898021698
-0.0230591539293527603 -0.0182179659605026245 -0.00716891232877969742
-0.0224173124879598618 -0.0182097945362329483 -0.00702110258862376213
-0.0152822434902191162 -0.0177472829818725586 -0.00627535115927457809
-0.0218019336462020874 -0.018255818635225296 -0.00674937339499592781
-0.0218100026249885559 -0.0170401632785797119 -0.00963488128036260605
-0.0181999187916517258 -0.0167181417346000671 -0.00961344223469495773
-0.0190632492303848267 -0.0168907269835472107 -0.00943497102707624435
-0.0268037095665931702 -0.017567068338394165 -0.00950805284082889557
-0.0250070318579673767 -0.0173920989036560059 -0.00952562969177961349
-0.0264852624386548996 -0.0176225341856479645 -0.00934504810720682144
-0.0277687367051839828 -0.0175360869616270065 -0.00973865669220685959
-0.00922366417944431305 -0.00697970343753695488 -0.0175542496144771576
-0.00844160467386245728 -0.00609844038262963295 -0.0179226510226726532
-0.00944582931697368622 -0.00901670847088098526 -0.0164154302328824997
-0.00994612835347652435 -0.00697860494256019592 -0.0176857821643352509
-0.00851604156196117401 -0.00798608735203742981 -0.0168435182422399521
-0.00281230080872774124 -0.00564761040732264519 -0.017163669690489769
-0.00572562729939818382 -0.00680067110806703568 -0.0170240942388772964
-0.00888571050018072128 -0.00681802770122885704 -0.0175865981727838516
-0.00960432179272174835 -0.00604982767254114151 -0.0181614533066749573
-0.00846756249666213989 -0.00836428999900817871 -0.016615821048617363
-0.000745819881558418274 -0.00605462538078427315 -0.0165536701679229736
-0.00869039632380008698 -0.00867062993347644806 -0.016478879377245903
-0.0109375258907675743 -0.00751784956082701683 -0.017553277313709259
-0.0099314618855714798 -0.00664869742467999458 -0.0178740844130516052
-0.00733659043908119202 -0.00805553793907165527 -0.0165896229445934296
-0.0110975196585059166 -0.00830606278032064438 -0.0171260274946689606
-0.00223292130976915359 -0.00545134767889976501 -0.017172299325466156
-0.0110553978011012077 -0.00908302795141935349 -0.0166686680167913437
-0.00970551278442144394 -0.0145142320543527603 -0.0108618997037410736
-0.003744862275198102 -0.0121873179450631142 -0.0116590512916445732
-0.00914383959025144577 -0.0145778264850378036 -0.0104613285511732101
-0.0107312919571995735 -0.0148881254717707634 -0.0107693662866950035
-0.00463349372148513794 -0.0122823528945446014 -0.0119637772440910339
-0.00902642123401165009 -0.0138960732147097588 -0.0115464562550187111
-7.84895382821559906e-06 -0.0106700155884027481 -0.0122571149840950966
-0.0085415523499250412 -0.0140138817951083183 -0.011094861663877964
-0.00353451934643089771 -0.0121131418272852898 -0.0116738304495811462
-0.00900945626199245453 -0.0139142060652375221 -0.0115070929750800133
-0.00664622336626052856 -0.0136931249871850014 -0.010643460787832737
-0.00569136347621679306 -0.013328898698091507 -0.0107568129897117615
-0.00272593763656914234 -0.0117586208507418633 -0.0118473321199417114
-0.00364491762593388557 -0.0115900225937366486 -0.0126112783327698708
-0.00751767354086041451 -0.0139712858945131302 -0.0106312446296215057
-0.0272507090121507645 -0.016499912366271019 -0.0113442549481987953
-0.0185101497918367386 -0.0164675582200288773 -0.01010124571621418
-0.0213690921664237976 -0.016523115336894989 -0.0104372240602970123
-0.0269123241305351257 -0.0168446209281682968 -0.0107530821114778519
