ply
format ascii 1.0
element vertex 703
property float x
property float y
property float z
end_header
0.0101854819804430008 0.0128740556538105011 -0.0105324229225516319
-0.00583255104720592499 0.0127593539655208588 -0.0106985969468951225
0.0351053513586521149 0.0127183245494961739 -0.0107580386102199554
0.0065296664834022522 0.0127108832821249962 -0.0107688186690211296
0.0214999429881572723 0.0134093770757317543 -0.00975687615573406219
0.0336454436182975769 0.0145746394991874695 -0.00806870125234127045
0.0222332626581192017 0.0125647112727165222 -0.0109805846586823463
0.0248266197741031647 0.0139776337891817093 -0.00893361493945121765
0.0112165417522192001 0.0131811900064349174 -0.0100874621421098709
0.0172269828617572784 0.0126041332259774208 -0.0109234731644392014
0.03594183549284935 0.0140122789889574051 -0.00888342224061489105
-0.00208103889599442482 0.0135246217250823975 -0.00958991516381502151
-0.0141869029030203819 0.0128038069233298302 -0.0106341959908604622
0.0211801491677761078 0.0139990514144301414 -0.00890258606523275375
0.0257001928985118866 0.0140938106924295425 -0.00876530259847640991
0.0241657011210918427 0.01392316073179245 -0.00901253242045640945
0.00441046804189682007 0.0134227471426129341 -0.00973750650882720947
0.0203820541501045227 0.0133631248027086258 -0.00982388388365507126
0.00409529590979218483 0.0135481217876076698 -0.00955586973577737808
0.0330064967274665833 0.0141951236873865128 -0.0086185261607170105
0.028051251545548439 0.0132855940610170364 -0.00993620697408914566
0.00973414815962314606 0.0130562558770179749 -0.0102684600278735161
-0.00835040491074323654 0.0131174279376864433 -0.0101798372343182564
0.0338696688413619995 0.0134517848491668701 -0.00969543773680925369
0.0302531290799379349 0.0133839938789606094 -0.00979364942759275436
0.00840798020362854004 0.012903435155749321 -0.0104898596182465553
0.0260576792061328888 0.0125562166795134544 -0.0109928920865058899
0.030872344970703125 0.0129979867488145828 -0.0103528779000043869
-0.0134135754778981209 0.0132275475189089775 -0.0100203016772866249
0.0124790286645293236 0.013657059520483017 -0.00939804688096046448
0.0168164428323507309 0.0132302809506654739 -0.0100163416936993599
0.00338145066052675247 0.0133138373494148254 -0.00989528931677341461
0.00365552306175231934 0.0125817218795418739 -0.0109559418633580208
-0.018541533499956131 0.01264995988458395 -0.0108570819720625877
-0.013884345069527626 0.0130938300862908363 -0.0102140242233872414
0.036237034946680069 0.0143293552100658417 -0.00842405762523412704
-0.0165630429983139038 0.0125568397343158722 -0.0109919896349310875
-0.0225543268024921417 0.0127032846212387085 -0.0107798269018530846
-0.00612063147127628326 0.0129738282412290573 -0.0103878770023584366
-0.0114667769521474838 0.013062821701169014 -0.0102589484304189682
0.00486602447926998138 0.0128603531047701836 -0.0105522749945521355
-0.00300248339772224426 0.0125468410551548004 -0.0110064754262566566
0.0138362832367420197 0.0135026993229985237 -0.00962167605757713318
0.0254130717366933823 0.0135648548603057861 -0.00953162740916013718
0.0205593667924404144 0.0129625760018825531 -0.0104041788727045059
-0.00533280149102210999 0.0126290470361709595 -0.0108873788267374039
0.00530906766653060913 0.0131879597902297974 -0.0100776543840765953
0.0169193129986524582 0.0136311575770378113 -0.00943557079881429672
0.0190786216408014297 0.0130113689228892326 -0.0103334905579686165
0.0353090800344944 0.0127668790519237518 -0.0106876939535140991
0.017403140664100647 0.0126868542283773422 -0.0108036315068602562
0.0304706133902072906 0.013592693954706192 -0.00949129648506641388
0.0348210744559764862 0.0126911792904138565 -0.0107973646372556686
0.0377464741468429565 0.0143375638872385025 -0.008412165567278862
-0.00855132564902305603 0.0126113938167691231 -0.0109129548072814941
0.0349792763590812683 0.0131052145734429359 -0.0101975305005908012
0.00536393746733665466 0.0126103619113564491 -0.010914449580013752
-0.0193652547895908356 0.012987152673304081 -0.0103685734793543816
0.0190426912158727646 0.013025159016251564 -0.0103135118260979652
-0.00386482290923595428 0.0130101032555103302 -0.0103353243321180344
0.0304490122944116592 0.0139260608702898026 -0.00900833122432231903
0.0121186878532171249 0.0127989416942000389 -0.0106412442401051521
-0.00968726165592670441 0.0125518394634127617 -0.0109992325305938721
-0.0345996096730232239 0.0125969266518950462 -0.0109339132905006409
0.0372276753187179565 0.0141468485817313194 -0.00868846382945775986
0.0281661860644817352 0.0127993924543261528 -0.0106405913829803467
0.0283018313348293304 0.0140180997550487518 -0.00887499004602432251
0.0284740589559078217 0.0134845133870840073 -0.00964802131056785583
0.0290534254163503647 0.0140378102660179138 -0.00884643383324146271
-0.0168635081499814987 0.0130041744560003281 -0.0103439139202237129
0.0301142036914825439 0.0141177643090486526 -0.00873060058802366257
0.0142437443137168884 0.0135338688269257545 -0.00957651901990175247
0.0356001034379005432 0.0143870729953050613 -0.00834043975919485092
-0.0212392285466194153 0.0129497339949011803 -0.0104227839037775993
-0.0336941331624984741 0.0144974347203969955 -0.00818055309355258942
-0.00626573711633682251 0.0139849130064249039 -0.00892306771129369736
-0.00344475358724594116 0.0139641119167208672 -0.00895320344716310501
-0.0241601206362247467 0.0138013241812586784 -0.00918904319405555725
-0.00544673949480056763 0.0142475897446274757 -0.00854251626878976822
-0.00417599081993103027 0.0145282521843910217 -0.00813590548932552338
-0.0343339517712593079 0.0143970716744661331 -0.00832595303654670715
-0.0303516928106546402 0.0141675444319844246 -0.00865848083049058914
-0.0242699608206748962 0.0137756112962961197 -0.00922629423439502716
-0.0367750376462936401 0.0128488950431346893 -0.0105688748881220818
-0.00125159323215484619 0.0140022682026028633 -0.00889792479574680328
-0.0140495989471673965 0.0138937504962086678 -0.0090551404282450676
-0.000954087823629379272 0.0139427119866013527 -0.00898420624434947968
-0.0199698284268379211 0.0141363563016057014 -0.0087036648765206337
-0.0124335568398237228 0.014200202189385891 -0.0086111677810549736
0.0333478711545467377 0.0147466398775577545 -0.0078195156529545784
0.0264626480638980865 0.0147410538047552109 -0.00782760977745056152
-0.0270807407796382904 0.0132043082267045975 -0.0100539699196815491
0.012152601033449173 0.0145244104787707329 -0.00814147200435400009
-0.0324018374085426331 0.0144288772717118263 -0.00827987585216760635
-0.0343196094036102295 0.0137719139456748962 -0.00923165027052164078
-0.00632356107234954834 0.0135918864980340004 -0.0094924652948975563
-0.0206057596951723099 0.0136482100933790207 -0.00941086746752262115
-0.0225063823163509369 0.0135378334671258926 -0.0095707746222615242
0.0269683413207530975 0.0145432092249393463 -0.00811423733830451965
-0.0345969237387180328 0.014758305624127388 -0.00780261633917689323
-0.0303759090602397919 0.0128590231761336327 -0.0105542019009590149
-0.0258389599621295929 0.0133682042360305786 -0.00981652643531560898
0.0176968909800052643 0.0147094987332820892 -0.0078733246773481369
-0.0355354808270931244 0.0141215501353144646 -0.0087251150980591774
-0.000170517712831497192 0.0137358950451016426 -0.00928383320569992065
-0.0110684297978878021 0.0135934231802821159 -0.00949023943394422531
-0.020870991051197052 0.013680419884622097 -0.0093642035499215126
-0.0296190120279788971 0.0137832807376980782 -0.00921518448740243912
-0.000894460827112197876 0.0146572384983301163 -0.00794903840869665146
-0.0108747836202383041 0.0139568569138646126 -0.0089637143537402153
-0.028993263840675354 0.0131453387439250946 -0.0101394010707736015
-0.0224793963134288788 0.0136548113077878952 -0.00940130464732646942
-0.025773586705327034 0.0143717303872108459 -0.00836266577243804932
-0.0247432813048362732 0.0144895156845450401 -0.00819202512502670288
-0.0332886464893817902 0.0143655398860573769 -0.00837163440883159637
-0.0240678638219833374 0.0137033499777317047 -0.00933098327368497849
-0.0336701869964599609 0.014301203191280365 -0.00846484210342168808
-0.000220712274312973022 0.014702565036714077 -0.00788336992263793945
-0.0124041009694337845 0.014786597341299057 -0.00776162836700677872
-0.0252535976469516754 0.0146339796483516693 -0.00798273272812366486
-0.0303957406431436539 0.0147799970582127571 -0.00777119118720293045
-0.0189157016575336456 0.0143514852970838547 -0.0083919968456029892
0.0119937397539615631 0.0141578484326601028 -0.0086725279688835144
-0.0258497968316078186 0.0129909804090857506 -0.010363028384745121
-0.0231016278266906738 0.014568171463906765 -0.00807807315140962601
-0.0147672016173601151 0.0146755250170826912 -0.00792254414409399033
-0.0109388958662748337 0.0133545408025383949 -0.00983631983399391174
-0.0337351337075233459 0.0126348193734884262 -0.0108790164813399315
-0.0215958878397941589 0.0130628803744912148 -0.0102588627487421036
-0.00276724621653556824 0.013804655522108078 -0.00918421614915132523
-0.0077158510684967041 0.0135445129126310349 -0.00956109724938869476
0.0115465521812438965 0.0147835779935121536 -0.00776600372046232224
-0.0148899350315332413 0.0138418097048997879 -0.00913038942962884903
-0.0130835752934217453 0.0145354289561510086 -0.00812550913542509079
-0.000673145055770874023 0.0145222339779138565 -0.00814462453126907349
-0.00665283203125 0.0141728762537240982 -0.00865075550973415375
-0.00803629122674465179 0.0136443385854363441 -0.00941647589206695557
0.00172514468431472778 0.0147418659180402756 -0.00782643444836139679
-0.0202065743505954742 0.0145850619301199913 -0.00805360358208417892
-0.0176969952881336212 0.0145455654710531235 -0.00811082310974597931
-0.0247334986925125122 0.0132940970361232758 -0.0099238865077495575
-0.0270975604653358459 0.0147612951695919037 -0.00779828475788235664
-0.0370111502707004547 0.0134249543771147728 -0.00973430927842855453
-0.0165004320442676544 0.0144212571904063225 -0.00829091668128967285
-0.0157328937202692032 0.0135391289368271828 -0.00956889800727367401
-0.0238408409059047699 0.014761083759367466 -0.00779859069734811783
0.000145558267831802368 0.014153188094496727 -0.00867928005754947662
-0.0256160087883472443 0.0143056660890579224 -0.00845837872475385666
-0.0375968180596828461 0.0140234483405947685 -0.00886724051088094711
-0.000790458172559738159 0.0137220202013850212 -0.00930393394082784653
0.0167767740786075592 0.0141758425161242485 -0.00864645931869745255
-0.0352818667888641357 0.0142156649380922318 -0.00858876574784517288
-0.0350811071693897247 0.0137450611218810081 -0.00927055347710847855
-0.0292806942015886307 0.0135258669033646584 -0.00958811119198799133
0.0130162686109542847 0.0140933599323034286 -0.00876595731824636459
-0.012073984369635582 0.0133652007207274437 -0.00982087664306163788
0.00990971550345420837 0.0141232926398515701 -0.00872259121388196945
-0.00897204503417015076 0.0134613020345568657 -0.00968165043741464615
-0.0043331049382686615 0.013872295618057251 -0.00908622331917285919
-0.0225291121751070023 0.0133418571203947067 -0.00985469575971364975
0.0181077122688293457 0.01449554692953825 -0.00818328745663166046
-0.0217356123030185699 0.0131648890674114227 -0.0101110786199569702
-0.0111978575587272644 0.0146609591320157051 -0.00794364698231220245
-0.00231266021728515625 0.0145248891785740852 -0.00814077816903591156
-0.0148654505610466003 0.0134223606437444687 -0.00973806623369455338
0.0126660987734794617 0.0145000088959932327 -0.00817682314664125443
0.0088021010160446167 0.0147793684154748917 -0.00777210108935832977
0.0234178006649017334 0.0145502593368291855 -0.00810402259230613708
-0.032696988433599472 0.0140303289517760277 -0.00885727163404226303
-0.0356936603784561157 0.0131512749940156937 -0.0101308012381196022
-0.0162519980221986771 0.0135827362537384033 -0.00950572174042463303
0.0103243663907051086 0.0141649264842271805 -0.00866227317601442337
-0.00369249656796455383 0.0140492422506213188 -0.00882987212389707565
-0.0339927822351455688 0.0143075631931424141 -0.00845562946051359177
-0.0299969669431447983 0.0138600701466202736 -0.00910393521189689636
0.0251697339117527008 0.0144420573487877846 -0.0082607809454202652
-0.0250074006617069244 0.0142033053562045097 -0.00860667135566473007
-0.0189725384116172791 0.0139898154884576797 -0.0089159645140171051
0.0084719732403755188 0.0139621449634432793 -0.00895605329424142838
-0.000423118472099304199 0.0139430798590183258 -0.00898367445915937424
-0.0250964760780334473 0.0135472854599356651 -0.00955708138644695282
-0.0165279675275087357 0.0145061612129211426 -0.0081679103896021843
-0.0344279296696186066 0.0145250605419278145 -0.00814052950590848923
-0.0252745132893323898 0.0129774929955601692 -0.0103825684636831284
-0.0347672849893569946 0.013013843446969986 -0.0103299049660563469
-0.0199236292392015457 0.0143444454297423363 -0.0084021957591176033
0.0122752711176872253 0.0142191648483276367 -0.00858369655907154083
-0.00955204479396343231 0.00959910638630390167 -0.0136442305520176888
0.0360396653413772583 0.0101456791162490845 -0.0131600089371204376
0.0162012428045272827 0.00969399884343147278 -0.0135601628571748734
0.0264947284013032913 0.0102427871897816658 -0.0130739789456129074
0.00120357982814311981 0.0104999784380197525 -0.0128461280837655067
0.0349117033183574677 0.0123411249369382858 -0.0112150134518742561
0.00266211852431297302 0.00948689598590135574 -0.0137436399236321449
0.0190324075520038605 0.009960944764316082 -0.013323669321835041
0.0213888548314571381 0.00975539721548557281 -0.0135057689622044563
0.0227004140615463257 0.0114619405940175056 -0.0119939036667346954
-0.000262957066297531128 0.00982793327420949936 -0.0134415067732334137
-0.0017195921391248703 0.00999404117465019226 -0.0132943484932184219
0.0346353799104690552 0.0118470815941691399 -0.011652698740363121
0.0371748395264148712 0.0108827231451869011 -0.0125070447102189064
-0.004718804731965065 0.00971872825175523758 -0.0135382553562521935
0.00873855594545602798 0.0107499882578849792 -0.0126246381551027298
0.0169384274631738663 0.0115359192714095116 -0.0119283637031912804
0.0106341391801834106 0.00952764227986335754 -0.013707541860640049
-0.0239886995404958725 0.00953318923711776733 -0.0137026282027363777
-0.0307515282183885574 0.00950230471789836884 -0.0137299895286560059
-0.00185379572212696075 0.0100900065153837204 -0.0132093308493494987
0.0351687967777252197 0.0105803851038217545 -0.012774893082678318
-0.0309862177819013596 0.00976036861538887024 -0.0135013638064265251
-0.00818055868148803711 0.0102991629391908646 -0.0130240349099040031
0.0214086882770061493 0.0116724856197834015 -0.0118073765188455582
0.0250312071293592453 0.0105411633849143982 -0.0128096407279372215
0.030985221266746521 0.0115133756771683693 -0.0119483359158039093
0.0183286629617214203 0.0112646603956818581 -0.01216867845505476
0.0206327363848686218 0.009677862748503685 -0.0135744586586952209
0.0118396729230880737 0.0108413975685834885 -0.0125436559319496155
-0.00194692704826593399 0.0103748561814427376 -0.0129569759592413902
-0.0202350951731204987 0.00974383670836687088 -0.0135160107165575027
-0.013688710518181324 0.00988902430981397629 -0.013387385755777359
0.0269664041697978973 0.0097609981894493103 -0.0135008068755269051
0.0204887613654136658 0.0102916983887553215 -0.013030647300183773
0.0312571227550506592 0.0114072849974036217 -0.0120423240587115288
0.0049960799515247345 0.00986439362168312073 -0.0134092066437005997
0.0340084657073020935 0.011655130423605442 -0.0118227526545524597
0.0228293202817440033 0.0116609549149870872 -0.0118175921961665154
0.0350324511528015137 0.00971978809684514999 -0.0135373156517744064
0.0104549769312143326 0.0102583002299070358 -0.0130602354183793068
0.0242112576961517334 0.0115664787590503693 -0.0119012901559472084
0.0131696015596389771 0.00974884629249572754 -0.0135115720331668854
0.00726974476128816605 0.0112187108024954796 -0.0122093865647912025
0.0238027442246675491 0.0101860128343105316 -0.0131242768839001656
0.0228841342031955719 0.0118172634392976761 -0.0116791147738695145
0.00433601951226592064 0.0109911970794200897 -0.0124109461903572083
0.0349503941833972931 0.00971560738980770111 -0.0135410195216536522
0.00638569891452789307 0.0100320717319846153 -0.0132606569677591324
-0.0129012148827314377 0.0100856311619281769 -0.0132132070139050484
0.0347536578774452209 0.00996672734618186951 -0.0133185461163520813
0.0268442146480083466 0.0114501891657710075 -0.0120043139904737473
0.00179969891905784607 0.00987487100064754486 -0.0133999241515994072
0.0276573915034532547 0.0105841122567653656 -0.0127715906128287315
0.00403695367276668549 0.0100711686536669731 -0.0132260201498866081
0.0285090841352939606 0.00953852944076061249 -0.0136978970840573311
-0.00227962154895067215 0.0105459243059158325 -0.012805422767996788
-0.0164315830916166306 0.0096622370183467865 -0.0135883018374443054
0.00229590199887752533 0.00987798906862735748 -0.0133971618488430977
0.0228377711027860641 0.0110218478366732597 -0.0123837916180491447
0.00796953961253166199 0.00992137845605611801 -0.0133587224408984184
0.0134202400222420692 0.0109718414023518562 -0.0124280937016010284
0.00740512926131486893 0.0107030384242534637 -0.0126662319526076317
0.0346310138702392578 0.0117686223238706589 -0.0117222070693969727
-0.00384724372997879982 0.0106350062415003777 -0.012726503424346447
0.0264786779880523682 0.00989051815122365952 -0.0133860623463988304
0.0186393074691295624 0.0111923199146986008 -0.0122327674180269241
0.00780803663656115532 0.0112836826592683792 -0.0121518261730670929
0.016862671822309494 0.00951710902154445648 -0.0137168737128376961
0.0292169526219367981 0.0110240532085299492 -0.0123818377032876015
0.0118184126913547516 0.0111834257841110229 -0.0122406464070081711
0.00813269801437854767 0.00996033381670713425 -0.0133242104202508926
0.0192042216658592224 0.0102223511785268784 -0.0130920838564634323
0.00537822768092155457 0.00999769009649753571 -0.0132911158725619316
0.0208901483565568924 0.0104122953489422798 -0.0129238078370690346
-0.00589137431234121323 0.0101525736972689629 -0.0131539013236761093
0.0360565856099128723 0.010715593583881855 -0.012655109167098999
0.00332155078649520874 0.0099067986011505127 -0.0133716389536857605
0.00852293334901332855 0.0111704049631953239 -0.0122521817684173584
0.00949779711663722992 0.0105005325749516487 -0.0128456363454461098
0.0191154051572084427 0.00983784627169370651 -0.0134327253326773643
0.0234259739518165588 0.00972858723253011703 -0.0135295204818248749
0.0253900885581970215 0.0100076561793684959 -0.0132822869345545769
0.0254174824804067612 0.0119302934035658836 -0.0115789789706468582
0.027953585609793663 0.0104816127568483353 -0.0128623982891440392
-0.0276001095771789551 0.00949250254780054092 -0.0137386731803417206
0.00941887125372886658 0.0105973491445183754 -0.012759864330291748
0.0232085827738046646 0.0103220697492361069 -0.0130037413910031319
-0.0100293774157762527 0.010290142148733139 -0.0130320256575942039
0.037199556827545166 0.00961873866617679596 -0.0136268381029367447
0.0129965692758560181 0.0095629589632153511 -0.013676254078745842
-0.0067017432302236557 0.00954492855817079544 -0.0136922281235456467
0.0277444925159215927 0.0101387733593583107 -0.0131661267951130867
0.0332653224468231201 0.0117417071014642715 -0.0117460517212748528
-0.0105410702526569366 0.00986113492399454117 -0.0134120937436819077
-0.0137971965596079826 0.0103729516267776489 -0.0129586635157465935
0.0242261476814746857 0.00970828812569379807 -0.0135475033894181252
0.0153482668101787567 0.00959638319909572601 -0.0136466426774859428
0.0141422823071479797 0.0103632239624857903 -0.0129672819748520851
-0.0200242456048727036 0.0100779207423329353 -0.0132200382649898529
-0.00414567627012729645 0.00980539340525865555 -0.0134614761918783188
0.00889502651989459991 0.0112070823088288307 -0.0122196879237890244
0.0289447139948606491 0.0104302112013101578 -0.0129079362377524376
0.00109972711652517319 0.0109293954446911812 -0.012465696781873703
0.0334426835179328918 0.0103681571781635284 -0.0129629112780094147
-0.0307153426110744476 0.00974754523485898972 -0.0135127250105142593
0.0213536005467176437 0.0106269391253590584 -0.0127336494624614716
0.0250180922448635101 0.0116596389561891556 -0.0118187572807073593
0.0213926546275615692 0.0117231244221329689 -0.0117625147104263306
0.019607100635766983 0.0107584167271852493 -0.0126171708106994629
0.0255777537822723389 0.00952864531427621841 -0.0137066543102264404
0.0106089226901531219 0.0109507227316498756 -0.0124468030408024788
0.0152795696631073952 0.0113937975838780403 -0.0120542729273438454
-0.0235872790217399597 0.00967787764966487885 -0.0135744456201791763
-0.00779741629958152771 0.0121507719159126282 -0.0113836517557501793
0.015878722071647644 0.0121987629681825638 -0.0113411350175738335
-0.0172553379088640213 0.0108685344457626343 -0.0125196157023310661
-0.0302125141024589539 0.00990445073693990707 -0.0133737185969948769
-0.0163217708468437195 0.0122461169958114624 -0.0112991845235228539
-0.0211331788450479507 0.0119705209508538246 -0.0115433400496840477
-0.030415831133723259 0.0102904913946986198 -0.0130317173898220062
-0.0189687591046094894 0.0111923776566982269 -0.0122327152639627457
-0.0361544415354728699 0.0112752532586455345 -0.0121592944487929344
0.020933154970407486 0.0123369889333844185 -0.011218678206205368
-0.0250763297080993652 0.0105904033407568932 -0.0127660175785422325
0.0181821584701538086 0.0118375783786177635 -0.011661117896437645
0.0184730105102062225 0.0124135110527276993 -0.0111508844420313835
-0.000180613249540328979 0.0124195702373981476 -0.0111455172300338745
-0.0349459759891033173 0.0118532190099358559 -0.0116472616791725159
-0.0281636174768209457 0.0114173330366611481 -0.0120334234088659286
-0.0137868374586105347 0.0111016770824790001 -0.0123130697757005692
0.0211687721312046051 0.0119390878826379776 -0.0115711875259876251
0.014711230993270874 0.0123858107253909111 -0.011175425723195076
0.0139368809759616852 0.0117724500596523285 -0.0117188151925802231
0.00717324018478393555 0.0118709933012723923 -0.0116315148770809174
-0.00976211018860340118 0.0116530507802963257 -0.0118245938792824745
0.00598754733800888062 0.0119471047073602676 -0.0115640852600336075
-0.01657063327729702 0.0116029838100075722 -0.0118689499795436859
-0.0337273590266704559 0.0100802583619952202 -0.0132179679349064827
0.0210764221847057343 0.0118811242282390594 -0.0116225387901067734
-0.00615094974637031555 0.0116233723238110542 -0.0118508869782090187
-0.0376619435846805573 0.0108660198748111725 -0.0125218434259295464
-0.0332338288426399231 0.0123633556067943573 -0.0111953197047114372
-0.00859312713146209717 0.01204642653465271 -0.0114760939031839371
-0.0272228941321372986 0.0119796600192785263 -0.0115352440625429153
-0.0295442119240760803 0.0102914879098534584 -0.0130308335646986961
-0.0365655384957790375 0.00960861425846815109 -0.0136358067393302917
0.00287688523530960083 0.0120170228183269501 -0.011502142995595932
0.0250827409327030182 0.0123091116547584534 -0.0112433750182390213
-0.0158327240496873856 0.011691010557115078 -0.0117909656837582588
-0.0244365036487579346 0.0104586957022547722 -0.0128827011212706566
0.00671562179923057556 0.0120049780234694481 -0.0115128150209784508
-0.0291299857199192047 0.0106519879773259163 -0.0127114588394761086
0.0225823000073432922 0.0123926037922501564 -0.0111694075167179108
-0.0259356014430522919 0.0119242649525403976 -0.0115843191742897034
0.0152258612215518951 0.0117566408589482307 -0.0117328222841024399
-0.0147332716733217239 0.0109775420278310776 -0.0124230431392788887
0.00638835132122039795 0.0113181611523032188 -0.0121212806552648544
0.00990468636155128479 0.0124291637912392616 -0.0111370189115405083
-0.00118687376379966736 0.0122106373310089111 -0.0113306157290935516
-0.0330043584108352661 0.0116065395995974541 -0.0118658002465963364
-0.0158840809017419815 0.0117031577974557877 -0.0117802033200860023
-0.0125927925109863281 0.0118405763059854507 -0.011658460833132267
-0.0354653783142566681 0.00984704308211803436 -0.0134245781227946281
0.0200078748166561127 0.0121770109981298447 -0.0113604059442877769
0.00568504258990287781 0.0122095271944999695 -0.0113315992057323456
-0.022826092317700386 0.0119964685291051865 -0.0115203522145748138
-0.0289745181798934937 0.0107773412019014359 -0.012600405141711235
0.0150827281177043915 0.0121083073318004608 -0.0114212715998291969
-0.013197191059589386 0.011473754420876503 -0.0119834374636411667
-0.0213937107473611832 0.0122941620647907257 -0.011256619356572628
0.0134267136454582214 0.0120311994105577469 -0.0114895841106772423
-0.0151977520436048508 0.0120755415409803391 -0.0114502999931573868
-0.018386518582701683 0.0119351744651794434 -0.0115746539086103439
-0.0187777001410722733 0.0103133600205183029 -0.0130114573985338211
-0.0240990407764911652 0.0120623223483562469 -0.0114620113745331764
-0.00479631870985031128 0.0122945830225944519 -0.0112562458962202072
-0.0336440466344356537 0.0113529432564973831 -0.0120904669165611267
-0.0264266058802604675 0.0110164647921919823 -0.0123885609209537506
-0.0317464955151081085 0.0103002851828932762 -0.0130230402573943138
-0.0335228964686393738 0.010189141146838665 -0.0131215061992406845
-0.016121305525302887 0.0105087393894791603 -0.0128383664414286613
-0.0310002118349075317 0.012300548143684864 -0.0112509625032544136
-0.0216051805764436722 0.0102157518267631531 -0.0130979306995868683
0.00402180850505828857 0.0119315115734934807 -0.0115778995677828789
-0.0335294269025325775 0.0108440285548567772 -0.0125413257628679276
-0.0220017153769731522 0.0104454932734370232 -0.0128943976014852524
-0.0339386202394962311 0.00993446074426174164 -0.0133471321314573288
-0.0133830662816762924 0.0119225252419710159 -0.011585860513150692
0.0127192959189414978 0.011977609246969223 -0.0115370601415634155
-0.0226006209850311279 0.0107253463938832283 -0.0126464692875742912
-0.00962199270725250244 0.011464754119515419 -0.0119914105162024498
-0.0140715446323156357 0.0123109500855207443 -0.0112417461350560188
-0.0155091229826211929 0.0104253944009542465 -0.0129122026264667511
-0.0200767386704683304 0.0108527326956391335 -0.012533615343272686
0.00740352272987365723 0.0121805816888809204 -0.0113572441041469574
-0.0296254195272922516 0.0110444491729140282 -0.0123637691140174866
-0.00111664459109306335 0.0122883031144738197 -0.0112618096172809601
-0.0348660312592983246 0.0100221186876296997 -0.0132694747298955917
-0.0237578824162483215 0.0116211874410510063 -0.0118528222665190697
-0.0347840413451194763 0.0107932379469275475 -0.0125863216817378998
-0.00779846496880054474 0.0112917050719261169 -0.0121447192505002022
0.00149050727486610413 0.0120344804599881172 -0.0114866774529218674
-0.0313424915075302124 0.0111108254641294479 -0.0123049644753336906
-0.00507409125566482544 0.0109646935015916824 -0.0124344257637858391
-0.00562875717878341675 0.0113616231828927994 -0.0120827769860625267
-0.0347336940467357635 0.0123918270692229271 -0.011170094832777977
-0.0209952313452959061 0.0115411672741174698 -0.0119237136095762253
-0.00592850148677825928 0.0110139427706599236 -0.0123907951638102531
-0.0321387201547622681 0.00988536514341831207 -0.0133906267583370209
-0.0171563960611820221 0.0119463866576552391 -0.0115647213533520699
0.00448844209313392639 0.0117690889164805412 -0.0117217935621738434
0.0127607323229312897 0.0123384371399879456 -0.0112173957750201225
-0.0174839552491903305 0.0111846383661031723 -0.0122395716607570648
-0.0370778106153011322 0.0122286872938275337 -0.0113146249204874039
-0.00438063591718673706 0.0116355568170547485 -0.0118400929495692253
-0.000286683440208435059 0.0119008468464016914 -0.0116050662472844124
-0.0182658657431602478 0.0109829353168606758 -0.0124182654544711113
-0.0348133295774459839 0.0103636672720313072 -0.0129668889567255974
-0.00619961321353912354 0.0118304481729865074 -0.0116674341261386871
-0.0265381708741188049 0.0101485634222626686 -0.0131574533879756927
0.012044079601764679 0.0116504309698939323 -0.0118269147351384163
-0.0309993177652359009 0.00997874792665243149 -0.0133078973740339279
-0.029053056612610817 0.0101011842489242554 -0.0131994280964136124
-0.0248129777610301971 0.0108147691935300827 -0.0125672472640872002
-0.0334388390183448792 0.0121515598148107529 -0.0113829532638192177
-0.0023791193962097168 0.0114370370283722878 -0.0120159657672047615
-0.00473460927605628967 0.00670419353991746902 -0.0152041930705308914
-0.0139357950538396835 0.00631723273545503616 -0.0154072856530547142
0.0279593411833047867 0.00757661182433366776 -0.0147463120520114899
0.0209039859473705292 0.00867956783622503281 -0.0141674363985657692
0.00634728185832500458 0.00744080450385808945 -0.0148175898939371109
0.030622558668255806 0.00777419283986091614 -0.0146426139399409294
0.00383498147130012512 0.00649516750127077103 -0.0153138982132077217
0.0368892550468444824 0.0090132448822259903 -0.0139923095703125
0.0345572195947170258 0.00607009092345833778 -0.015536995604634285
0.0316605269908905029 0.00746117439121007919 -0.0148068983107805252
0.0362880565226078033 0.00888947583734989166 -0.014057268388569355
-0.0187195856124162674 0.00657788338139653206 -0.0152704855427145958
0.0348246321082115173 0.00661658868193626404 -0.015250171534717083
0.0176779106259346008 0.00804793462157249451 -0.014498942531645298
-0.0191708747297525406 0.00647986354306340218 -0.0153219299390912056
-0.00637861713767051697 0.00598061643540859222 -0.0155839556828141212
0.0367509275674819946 0.00880065560340881348 -0.0141038848087191582
0.00828141532838344574 0.0079005509614944458 -0.0145762963220477104
0.0265632662922143936 0.00774939171969890594 -0.01465563103556633
0.0125480182468891144 0.00804002396762371063 -0.0145030943676829338
-0.0190884619951248169 0.00672643305733799934 -0.0151925208047032356
0.0200324095785617828 0.0062986370176076889 -0.0154170449823141098
0.00623206049203872681 0.00636577699333429337 -0.0153818074613809586
-0.0137650836259126663 0.00606038281694054604 -0.0155420908704400063
0.0229279026389122009 0.00615879148244857788 -0.015490441583096981
0.0212936215102672577 0.00866219960153102875 -0.0141765512526035309
-0.0284766014665365219 0.00593410758301615715 -0.0156083647161722183
0.037460818886756897 0.00766070559620857239 -0.0147021766752004623
0.0343168005347251892 0.00837971270084381104 -0.0143248122185468674
0.0265766419470310211 0.00723977386951446533 -0.0149230984970927238
0.0235691219568252563 0.00700173061341047287 -0.0150480335578322411
-0.0183522813022136688 0.0063480953685939312 -0.0153910871595144272
0.0201090201735496521 0.0065845344215631485 -0.015266994945704937
0.0303270407021045685 0.00643227435648441315 -0.0153469070792198181
0.0372071228921413422 0.00682288268581032753 -0.0151418996974825859
0.0306262094527482986 0.00726548768579959869 -0.0149096027016639709
0.00437973812222480774 0.00721523212268948555 -0.0149359786882996559
-0.00765342637896537781 0.00600703340023756027 -0.0155700910836458206
-0.0307337455451488495 0.00593153107911348343 -0.01560971699655056
0.00216119363903999329 0.00707117235288023949 -0.0150115871801972389
0.028089107945561409 0.00690661929547786713 -0.0150979515165090561
0.0302577503025531769 0.00707251764833927155 -0.0150108812376856804
0.0314198769629001617 0.00883269030600786209 -0.0140870716422796249
-0.00822880305349826813 0.00718892365694046021 -0.014949786476790905
0.017933771014213562 0.00634070439264178276 -0.0153949670493602753
0.01872299425303936 0.0085139228031039238 -0.0142543734982609749
0.0165691208094358444 0.00830086600035429001 -0.0143661946058273315
0.0194329917430877686 0.0072255660779774189 -0.01493055559694767
0.0343318358063697815 0.00696334755048155785 -0.0150681780651211739
0.0226819403469562531 0.00830471422523260117 -0.0143641745671629906
-0.0209744833409786224 0.00655729742720723152 -0.01528128981590271
-0.022733958438038826 0.00601499248296022415 -0.0155659131705760956
0.00323399435728788376 0.00743065308779478073 -0.0148229170590639114
0.0329208970069885254 0.00729849375784397125 -0.014892280101776123
0.00976485013961791992 0.00675567612051963806 -0.0151771726086735725
0.0264757275581359863 0.00853348895907402039 -0.01424410380423069
-0.00999346375465393066 0.00673873163759708405 -0.0151860658079385757
0.029047742486000061 0.00724153220653533936 -0.0149221755564212799
0.0321574248373508453 0.00623270217329263687 -0.0154516510665416718
0.0291884299367666245 0.00766037078574299812 -0.0147023517638444901
-0.0220941063016653061 0.00666414527222514153 -0.0152252120897173882
0.0341489091515541077 0.00769947096705436707 -0.0146818310022354126
0.012427033856511116 0.00818956457078456879 -0.0144246099516749382
0.0217150524258613586 0.00623578857630491257 -0.0154500305652618408
-0.003164658322930336 0.00644566817209124565 -0.0153398774564266205
0.023622976616024971 0.00857421103864908218 -0.014222731813788414
0.0282844472676515579 0.0066313999705016613 -0.0152423977851867676
0.0103076677769422531 0.00651727709919214249 -0.0153022939339280128
-0.0293581131845712662 0.00595294265076518059 -0.0155984796583652496
-0.0136356651782989502 0.00679624872282147408 -0.0151558788493275642
0.0253709368407726288 0.00839659664779901505 -0.0143159506842494011
0.0181389357894659042 0.00740830134600400925 -0.014834647998213768
0.0312930792570114136 0.00780508061870932579 -0.0146264024078845978
0.00849427282810211182 0.00683987606316804886 -0.0151329813525080681
0.0246028080582618713 0.0079688606783747673 -0.014540444128215313
0.0202053375542163849 0.00825165584683418274 -0.014392022043466568
-0.0101132132112979889 0.00693585257977247238 -0.0150826089084148407
-0.0195232722908258438 0.00594415701925754547 -0.0156030906364321709
-0.0222748331725597382 0.00633322726935148239 -0.0153988907113671303
0.00251581147313117981 0.00617270404472947121 -0.0154831400141119957
0.0222074370831251144 0.0074077509343624115 -0.0148349376395344734
-0.0197499934583902359 0.00629184488207101822 -0.0154206100851297379
0.0370866060256958008 0.00870631542056798935 -0.0141533985733985901
0.0283363014459609985 0.0076103992760181427 -0.0147285796701908112
0.0240212827920913696 0.00771297607570886612 -0.0146747427061200142
-0.0224077869206666946 0.00622971495613455772 -0.0154532184824347496
0.00933124497532844543 0.00693471124395728111 -0.0150832077488303185
-0.00676568038761615753 0.00673422124236822128 -0.0151884332299232483
0.020710894837975502 0.00842685811221599579 -0.0143000688403844833
0.0267922542989253998 0.00797605141997337341 -0.014536670409142971
0.018393244594335556 0.00602859817445278168 -0.0155587727203965187
0.0111923664808273315 0.00723816594108939171 -0.0149239422753453255
0.0203338973224163055 0.00820374395698308945 -0.0144171677529811859
0.0239756666123867035 0.0082347039133310318 -0.0144009189680218697
0.0149046033620834351 0.00663918536156415939 -0.0152383120730519295
0.0164384301751852036 0.00673885270953178406 -0.0151860024780035019
0.0142540913075208664 0.00625892961397767067 -0.0154378851875662804
0.0294937100261449814 0.00665686745196580887 -0.0152290314435958862
-0.0179145541042089462 0.00602148426696658134 -0.0155625063925981522
0.0348681062459945679 0.00814561545848846436 -0.0144476760178804398
-0.0115187494084239006 0.00701574981212615967 -0.0150406751781702042
-0.0204389356076717377 0.00654873624444007874 -0.0152857834473252296
0.0179282650351524353 0.00811254978179931641 -0.0144650302827358246
0.0292488429695367813 0.00771858403459191322 -0.0146717997267842293
0.00829794444143772125 0.00689319241791963577 -0.0151049988344311714
0.0369009748101234436 0.00745396409183740616 -0.0148106832057237625
0.011244453489780426 0.0068467259407043457 -0.0151293864473700523
0.0357286781072616577 0.00768114905804395676 -0.0146914469078183174
-0.0262352190911769867 0.00627573253586888313 -0.0154290664941072464
0.0127912117168307304 0.00773380231112241745 -0.0146638127043843269
0.00396657921373844147 0.00679248664528131485 -0.0151578532531857491
0.0238139517605304718 0.00789897888898849487 -0.0145771214738488197
0.00331746228039264679 0.006487283855676651 -0.0153180360794067383
-0.0346306636929512024 0.00802154000848531723 -0.0145127959549427032
-0.0273596718907356262 0.00916514173150062561 -0.0139125874266028404
0.00766182318329811096 0.00852835085242986679 -0.014246801845729351
-0.0276404730975627899 0.00834502000361680984 -0.0143430214375257492
-0.0348618514835834503 0.00814382731914520264 -0.0144486138597130775
-0.0241755023598670959 0.00690375501289963722 -0.0150994546711444855
-0.0197760015726089478 0.006940505001693964 -0.0150801669806241989
-0.0096043907105922699 0.00756691163405776024 -0.0147514035925269127
-0.0375490002334117889 0.0075629744678735733 -0.0147534701973199844
0.0145019926130771637 0.00900452025234699249 -0.0139968879520893097
-0.0342130251228809357 0.00627100793644785881 -0.0154315466061234474
-0.0232782009989023209 0.00862121954560279846 -0.0141980601474642754
-0.0280183684080839157 0.00936591159552335739 -0.013807215727865696
-0.0360077321529388428 0.00922813545912504196 -0.0138795254752039909
-0.0219253487884998322 0.00855448562651872635 -0.0142330843955278397
-0.037536129355430603 0.00642806012183427811 -0.0153491189703345299
-0.000648308545351028442 0.00898082740604877472 -0.0140093229711055756
-0.0209916140884160995 0.00789025239646434784 -0.0145817017182707787
-0.0335273928940296173 0.00686313211917877197 -0.0151207754388451576
-0.0359329879283905029 0.00916057173162698746 -0.0139149865135550499
0.012767694890499115 0.00871290918439626694 -0.014149937778711319
-0.0226173456758260727 0.00770954787731170654 -0.0146765429526567459
0.0210858583450317383 0.00938161462545394897 -0.013798973523080349
-0.0196597650647163391 0.00746086239814758301 -0.0148070631548762321
-0.0183571856468915939 0.00872227735817432404 -0.0141450203955173492
-0.0261530913412570953 0.00659705186262726784 -0.0152604253962635994
-0.0229500122368335724 0.00898343883454799652 -0.0140079529955983162
0.0165229029953479767 0.0085880206897854805 -0.0142154842615127563
-0.033108200877904892 0.00835819914937019348 -0.0143361035734415054
-0.0214214157313108444 0.00875310041010379791 -0.014128844253718853
-0.00212530419230461121 0.00877447891980409622 -0.0141176236793398857
-0.0268169529736042023 0.00674168579280376434 -0.0151845160871744156
-0.0363865792751312256 0.00685027148574590683 -0.0151275256648659706
-0.0138473324477672577 0.00796945206820964813 -0.014540133997797966
-0.0191863365471363068 0.0094241611659526825 -0.0137766441330313683
-0.0340874157845973969 0.00647430261597037315 -0.0153248496353626251
0.000704139471054077148 0.0077935890294611454 -0.0146324336528778076
-0.0321376845240592957 0.00679790973663330078 -0.0151550062000751495
-0.0162442214787006378 0.00930815469473600388 -0.0138375284150242805
-0.00112277641892433167 0.00807492714375257492 -0.014484776183962822
-0.0124067738652229309 0.00888308417052030563 -0.01406062301248312
-0.0193999707698822021 0.00826044473797082901 -0.0143874092027544975
0.0343459434807300568 0.00935291312634944916 -0.0138140376657247543
0.0227790437638759613 0.00907540693879127502 -0.0139596834778785706
-0.0286523550748825073 0.00825002044439315796 -0.0143928807228803635
0.0121659114956855774 0.00889014452695846558 -0.014056917279958725
-0.0112338345497846603 0.00936457328498363495 -0.013807917945086956
-0.0241634026169776917 0.00815118569880723953 -0.0144447525963187218
-0.0138495117425918579 0.00867742113769054413 -0.0141685623675584793
-0.00301247090101242065 0.00791371706873178482 -0.0145693859085440636
-0.00629628449678421021 0.00878220517188310623 -0.0141135677695274353
-0.0287998523563146591 0.00936868879944086075 -0.0138057582080364227
-0.0140288639813661575 0.00773729942739009857 -0.0146619770675897598
-0.0290357880294322968 0.00888277869671583176 -0.0140607831999659538
-0.0183220542967319489 0.00721775274723768234 -0.0149346562102437019
0.010227300226688385 0.00819008424878120422 -0.0144243370741605759
-0.0176498517394065857 0.00861922465264797211 -0.0141991069540381432
-0.033676881343126297 0.00744286971166729927 -0.0148165058344602585
-0.0228937417268753052 0.00888052396476268768 -0.0140619669109582901
0.0312427468597888947 0.00924695562571287155 -0.0138696478679776192
-0.0154822729527950287 0.00936154183000326157 -0.0138095086440443993
-0.00087996944785118103 0.00886460952460765839 -0.0140703199431300163
-0.0325540080666542053 0.0070212031714618206 -0.0150378132238984108
-0.00779994949698448181 0.00942391715943813324 -0.0137767717242240906
-0.0131980311125516891 0.00753134489059448242 -0.0147700700908899307
-0.0109658502042293549 0.00818613730370998383 -0.0144264092668890953
-0.0245383642613887787 0.00743330921977758408 -0.0148215238004922867
0.0161531418561935425 0.00933618471026420593 -0.0138228172436356544
-0.0239748507738113403 0.0091105196624994278 -0.0139412553980946541
-0.0105710327625274658 0.00729859620332717896 -0.0148922260850667953
-0.0182641558349132538 0.00936937145888805389 -0.0138053996488451958
-0.00590942054986953735 0.00822783354669809341 -0.0144045241177082062
-0.00182012468576431274 0.0081757865846157074 -0.0144318416714668274
-0.0202783253043889999 0.00867184437811374664 -0.0141714895144104958
-0.0273953638970851898 0.00736078247427940369 -0.0148595888167619705
0.0232191197574138641 0.0091332513839006424 -0.0139293251559138298
-0.0223250966519117355 0.00900573842227458954 -0.0139962490648031235
-0.0361943654716014862 0.00673821987584233284 -0.0151863349601626396
-0.000493891537189483643 0.00860387273132801056 -0.0142071647569537163
0.000249665230512619019 0.00913106184452772141 -0.0139304734766483307
0.00091459229588508606 0.00777207501232624054 -0.0146437250077724457
-0.0214374139904975891 0.00678929174318909645 -0.0151595296338200569
0.0015031471848487854 0.00935035757720470428 -0.0138153787702322006
0.0175053104758262634 0.00916837342083454132 -0.0139108914881944656
-0.00155502557754516602 0.0088549293577671051 -0.0140753993764519691
0.0221094377338886261 0.00898854061961174011 -0.0140052745118737221
-0.0136372353881597519 0.0085867512971162796 -0.0142161501571536064
-0.00867614708840847015 0.0085488809272646904 -0.01423602644354105
-0.0309302378445863724 0.0087098386138677597 -0.0141515489667654037
-0.0246866531670093536 0.0089765060693025589 -0.0140115907415747643
-0.0129425767809152603 0.00886694993823766708 -0.0140690896660089493
0.00283212587237358093 0.00785308703780174255 -0.0146012073382735252
-0.00421540066599845886 0.00913111865520477295 -0.013930443674325943
-0.031194634735584259 0.00766114471480250359 -0.0147019466385245323
-0.0214560199528932571 0.0076959594152867794 -0.0146836740896105766
0.00303763151168823242 0.00923975929617881775 -0.0138734253123402596
-0.027632029727101326 0.00724767567589879036 -0.0149189522489905357
-0.0146801918745040894 0.0083914315328001976 -0.0143186617642641068
-0.00526322424411773682 0.00760206812992691994 -0.0147329512983560562
0.0167233571410179138 0.00856816209852695465 -0.0142259066924452782
-0.00207036733627319336 0.00818122364580631256 -0.0144289880990982056
0.0022525787353515625 0.00805600453168153763 -0.0144947078078985214
-0.0229883864521980286 0.00770843401551246643 -0.0146771268919110298
-0.0305214226245880127 0.0089320475235581398 -0.0140349250286817551
-0.0111185908317565918 0.00749820750206708908 -0.0147874625399708748
-0.033778700977563858 0.00691864965483546257 -0.0150916371494531631
-0.0264631994068622589 0.00801632087677717209 -0.0145155349746346474
-0.0374158881604671478 0.00628352072089910507 -0.0154249789193272591
0.00718087330460548401 0.00940264761447906494 -0.0137879354879260063
-0.0324245356023311615 0.00621483661234378815 -0.0154610276222229004
-0.0121808983385562897 0.00928847305476665497 -0.0138478586450219154
0.00630326941609382629 0.00875249598175287247 -0.0141291609033942223
-0.0341123118996620178 0.00790404248982667923 -0.0145744634792208672
-0.032996542751789093 0.00883044023066759109 -0.0140882525593042374
0.0241083484143018723 -0.000535088300239294767 -0.0166456196457147598
0.0337567180395126343 -0.000894003664143383503 -0.0165988188236951828
0.0351299196481704712 -0.00055647239787504077 -0.0165921598672866821
0.0282290782779455185 -0.00100562477018684149 -0.0166256297379732132
0.0375974364578723907 0.000824593938887119293 -0.016580190509557724
0.0329564660787582397 -2.8039619792252779e-05 -0.0166027005761861801
0.0318433605134487152 -0.000951887923292815685 -0.0166081003844738007
0.0366368070244789124 -0.00138173298910260201 -0.0165848508477210999
0.0367304980754852295 -0.0015898500569164753 -0.0165843963623046875
0.0330191254615783691 -0.00102608778979629278 -0.0166023969650268555
0.0190723612904548645 0.000158270413521677256 -0.0166700445115566254
0.0182043872773647308 5.12343831360340118e-07 -0.0166742540895938873
0.0376634672284126282 -0.000184389820788055658 -0.0165798701345920563
0.0370732955634593964 0.000335090968292206526 -0.0165827330201864243
0.0243048984557390213 0.000501568778418004513 -0.0166446641087532043
0.0319356471300125122 -0.000261186913121491671 -0.016607651486992836
0.022196553647518158 0.000295677222311496735 -0.0166548900306224823
0.0358140133321285248 -0.000950733257923275232 -0.0165888424962759018
0.0338781625032424927 -0.000271614291705191135 -0.0165982302278280258
0.030181029811501503 0.000660656020045280457 -0.0166161637753248215
0.03695717453956604 -0.000849397620186209679 -0.0165832974016666412
0.0354740209877490997 -0.00107113877311348915 -0.016590489074587822
0.0259852707386016846 -0.000206923490623012185 -0.0166365131735801697
0.0302204452455043793 -0.000283746630884706974 -0.0166159719228744507
0.036970924586057663 0.000444706529378890991 -0.0165832303464412689
0.0349862053990364075 0.00121570308692753315 -0.0165928564965724945
0.0226896777749061584 -0.000213600229471921921 -0.016652500256896019
0.0222040582448244095 0.000136991409817710519 -0.0166548546403646469
0.0369005724787712097 -0.0015183294890448451 -0.0165835712105035782
0.03440064936876297 -0.00162863754667341709 -0.0165956951677799225
0.0340174436569213867 0.000310551375150680542 -0.0165975559502840042
0.0364520587027072906 6.34155003353953362e-06 -0.0165857467800378799
0.0292946919798851013 0.000362441933248192072 -0.0166204627603292465
0.0286662876605987549 -4.0156068280339241e-05 -0.0166235100477933884
0.0213329754769802094 0.000213350620470009744 -0.016659080982208252
0.0314940251410007477 -0.000782936869654804468 -0.0166097953915596008
0.0265683569014072418 -0.00101771217305213213 -0.0166336856782436371
0.0345390737056732178 0.00402188161388039589 -0.0160314738750457764
0.0297392159700393677 0.00340461009182035923 -0.016112038865685463
0.0280931293964385986 0.00190065777860581875 -0.0164581816643476486
0.0310579091310501099 0.00331170880235731602 -0.0161546003073453903
0.032801017165184021 0.00364370737224817276 -0.0160987656563520432
0.0352976247668266296 0.0047932756133377552 -0.0158526524901390076
0.0334176868200302124 0.00451274449005723 -0.015893762931227684
0.0376821160316467285 0.00467646727338433266 -0.0159170031547546387
0.0317859798669815063 0.00279954774305224419 -0.0162916947156190872
0.0348374731838703156 0.00283572589978575706 -0.0163282826542854309
0.0348482541739940643 0.00376448896713554859 -0.0160995256155729294
0.0231799334287643433 0.00152233033441007137 -0.0164781622588634491
0.0331270806491374969 0.00262406887486577034 -0.0163549464195966721
0.0302477031946182251 0.00208089360967278481 -0.0164458863437175751
0.0323529951274394989 0.00210529076866805553 -0.0164712704718112946
0.0338033288717269897 0.00409256154671311378 -0.0160030797123908997
0.0235017333179712296 0.00192332500591874123 -0.0163841228932142258
0.0344086512923240662 0.00257442425936460495 -0.0163862947374582291
0.0292475223541259766 0.00219133729115128517 -0.0164037514477968216
0.0210222247987985611 0.00174655555747449398 -0.0163907185196876526
0.028489820659160614 0.00213184161111712456 -0.0164071153849363327
0.0291408374905586243 0.00140971038490533829 -0.016594812273979187
0.0235336199402809143 0.00242496677674353123 -0.016260957345366478
0.0333485454320907593 0.00198951479978859425 -0.0165146514773368835
0.0279033947736024857 0.00350921717472374439 -0.0160588771104812622
