ply
format ascii 1.0
element vertex 741
property float x
property float y
property float z
end_header
0.0688609033823013306 0.000823959242552518845 0.224442467093467712
0.0394646599888801575 0.060738641768693924 0.243484556674957275
0.0350863002240657806 0.0696624964475631714 0.226049333810806274
0.0687151774764060974 0.00112097233068197966 0.146666839718818665
0.038227573037147522 0.0632600337266921997 0.220089763402938843
0.0349756702780723572 0.0698879808187484741 0.341016411781311035
0.0441143959760665894 0.0512616634368896484 0.143258377909660339
0.0595086775720119476 0.0198854245245456696 0.106546461582183838
0.0393421202898025513 0.0609883964061737061 0.305511623620986938
0.0632144883275032043 0.0123323379084467888 0.149865522980690002
0.0690464526414871216 0.000445769401267170906 0.214490264654159546
0.0157746374607086182 0.109023042023181915 0.278438031673431396
0.0607636086642742157 0.0173276569694280624 0.10837140679359436
0.0342706926167011261 0.0713248476386070251 0.292878299951553345
0.0402592755854129791 0.0591190718114376068 0.325559437274932861
0.0143296346068382263 0.111968211829662323 0.354307591915130615
0.0603066682815551758 0.018258979544043541 0.195538982748985291
0.0675144940614700317 0.0035681768786162138 0.10976138710975647
0.0224198736250400543 0.0954788848757743835 0.331121265888214111
0.057775299996137619 0.023418353870511055 0.0610356628894805908
0.0591929852962493896 0.020528862252831459 0.0950233042240142822
0.0450191497802734375 0.0494176149368286133 0.313627719879150391
0.0680282488465309143 0.00252104643732309341 0.205949708819389343
0.0650446787476539612 0.008602093905210495 0.205996677279472351
0.0375584028661251068 0.0646239221096038818 0.177518248558044434
0.0277511253952980042 0.0846128612756729126 0.267239093780517578
0.0262077264487743378 0.087758578360080719 0.2872505784034729
0.0164470337331295013 0.107652582228183746 0.278116464614868164
0.0282680690288543701 0.0835592448711395264 0.347452074289321899
0.043149121105670929 0.053229060024023056 0.170455425977706909
0.0666227713227272034 0.00538565963506698608 0.0752125680446624756
0.0376916266977787018 0.0643523931503295898 0.331853151321411133
0.0491872020065784454 0.0409223958849906921 0.326484948396682739
0.0439962595701217651 0.0515024438500404358 0.282206088304519653
0.063747793436050415 0.0112453680485486984 0.300250053405761719
0.0665158480405807495 0.00560358026996254921 0.217996597290039062
0.0480743721127510071 0.043190542608499527 0.338977247476577759
0.0568371899425983429 0.0253303814679384232 0.351580768823623657
0.0689735487103462219 0.000594366516452282667 0.165902480483055115
0.0493790581822395325 0.0405313596129417419 0.146672442555427551
0.0259763449430465698 0.0882301777601242065 0.265841573476791382
0.0520937070250511169 0.0349984318017959595 0.178173869848251343
0.0513221137225627899 0.0365710742771625519 0.15423816442489624
0.0267694033682346344 0.086613781750202179 0.29330289363861084
0.0285186953842639923 0.0830484256148338318 0.278227090835571289
0.0628445073962211609 0.0130864279344677925 0.276944249868392944
0.0562530234456062317 0.026521017774939537 0.251767367124557495
0.0639159083366394043 0.0109027139842510223 0.343563854694366455
0.0580690205097198486 0.0228197015821933746 0.142330527305603027
0.0477580167353153229 0.043835323303937912 0.254881560802459717
0.0454017668962478638 0.0486377738416194916 0.211890920996665955
0.0561944618821144104 0.0266403760761022568 0.255447864532470703
0.034636177122592926 0.070579923689365387 0.358076274394989014
0.0674160867929458618 0.00376874837093055248 0.175482809543609619
0.0619879774749279022 0.0148321762681007385 0.241993442177772522
0.0447722896933555603 0.0499207563698291779 0.216677621006965637
0.0360250324010848999 0.0677491948008537292 0.184381380677223206
0.0643587633967399597 0.0100001096725463867 0.14737914502620697
0.0525680184364318848 0.0340317040681838989 0.277102351188659668
0.0544342361390590668 0.0302280224859714508 0.195026025176048279
0.050989784300327301 0.037248414009809494 0.333023279905319214
0.0635402947664260864 0.011668291874229908 0.169915691018104553
0.0289933234453201294 0.0820810496807098389 0.333054631948471069
0.0272925347089767456 0.0855475515127182007 0.319157838821411133
0.0667890310287475586 0.00504678534343838692 0.111998125910758972
0.0429929867386817932 0.0535472854971885681 0.247843533754348755
0.0497824586927890778 0.0397091582417488098 0.320512652397155762
0.0271374024450778961 0.085863746702671051 0.252080172300338745
0.0145838521420955658 0.111450076103210449 0.310370594263076782
0.0150786302983760834 0.110441625118255615 0.289556503295898438
0.0656844228506088257 0.00729817664250731468 0.0826846063137054443
0.046926300972700119 0.0455305092036724091 0.140331953763961792
0.00597558170557022095 0.128995239734649658 0.336649060249328613
0.0466003194451332092 0.0461949147284030914 0.183395013213157654
0.0404182150959968567 0.0587951205670833588 0.212125971913337708
0.0532546602189540863 0.0326322056353092194 0.132763221859931946
0.0281996876001358032 0.0836986228823661804 0.305149316787719727
0.0434608235955238342 0.0525937527418136597 0.183202251791954041
0.0524975508451461792 0.0341753214597702026 0.111346885561943054
0.0309876464307308197 0.0780162662267684937 0.322370648384094238
0.0423534326255321503 0.0548508130013942719 0.203777804970741272
0.0459457039833068848 0.0475291386246681213 0.351954251527786255
0.0294544510543346405 0.0811411961913108826 0.219015643000602722
0.049499906599521637 0.0402850508689880371 0.188889577984809875
0.0479258522391319275 0.0434932447969913483 0.163181304931640625
0.0217000693082809448 0.0969459712505340576 0.345236927270889282
0.038302496075630188 0.0631073340773582458 0.286176621913909912
0.054387751966714859 0.0303227640688419342 0.273635953664779663
0.0520602911710739136 0.0350665375590324402 0.102008521556854248
0.0337429232895374298 0.0724005401134490967 0.251568973064422607
0.0443863049149513245 0.0507074594497680664 0.339605808258056641
0.0361277200281620026 0.067539900541305542 0.332475185394287109
0.0396529585123062134 0.0603548474609851837 0.273635745048522949
0.0647505819797515869 0.00920151546597480774 0.300563842058181763
0.0630560293793678284 0.0126553075388073921 0.106068134307861328
0.0429342389106750488 0.0536670312285423279 0.281580567359924316
0.0176561959087848663 0.105188094079494476 0.307443022727966309
0.051029987633228302 0.0371664762496948242 0.324534028768539429
0.0495461225509643555 0.0401908531785011292 0.251345932483673096
0.0512022636830806732 0.036815345287322998 0.267447173595428467
0.0187719650566577911 0.10291396826505661 0.287734180688858032
0.0221010409295558929 0.0961287245154380798 0.352670192718505859
0.0344241522252559662 0.0710120722651481628 0.1910523921251297
0.0489374361932277679 0.0414314642548561096 0.316134065389633179
0.059805799275636673 0.0192798413336277008 0.192124739289283752
0.0681672096252441406 0.00223782029934227467 0.204228609800338745
0.0480863004922866821 0.0431662276387214661 0.12256196141242981
0.061698518693447113 0.015422147698700428 0.243688136339187622
0.0343536846339702606 0.0711556971073150635 0.322739303112030029
0.0608407296240329742 0.0171704702079296112 0.20141233503818512
0.0661029592156410217 0.00644513126462697983 0.318874508142471313
0.0645494386553764343 0.00961147714406251907 0.249572068452835083
0.0478850528597831726 0.0435764044523239136 0.34941592812538147
0.0364570915699005127 0.0668685808777809143 0.191224455833435059
0.0536590367555618286 0.0318080149590969086 0.248490676283836365
0.0412899255752563477 0.0570184290409088135 0.247248947620391846
0.00903092697262763977 0.122767902910709381 0.357015728950500488
0.0359561406075954437 0.0678896158933639526 0.190323010087013245
0.0685175433754920959 0.00152378028724342585 0.27514338493347168
0.0474955439567565918 0.0443702936172485352 0.321119368076324463
0.0608748830854892731 0.0171008594334125519 0.27721703052520752
0.038761727511882782 0.0621713325381278992 0.315194427967071533
0.0552787743508815765 0.0285067055374383926 0.194051280617713928
0.0494899004697799683 0.0403054393827915192 0.222350642085075378
0.0290728211402893066 0.0819190219044685364 0.29878959059715271
0.0109348297119140625 0.118887417018413544 0.308801859617233276
0.0399418994784355164 0.059765934944152832 0.282612025737762451
0.0607880912721157074 0.0172777585685253143 0.159948885440826416
0.0621755383908748627 0.0144498962908983231 0.114025726914405823
0.0251146592199802399 0.0899864435195922852 0.348368644714355469
0.0276715867221355438 0.0847749784588813782 0.247945904731750488
0.0255461931228637695 0.0891069024801254272 0.300585389137268066
0.0644514858722686768 0.00981112383306026459 0.317592829465866089
0.0399705022573471069 0.0597076416015625 0.193773552775382996
0.0604243874549865723 0.0180190466344356537 0.0800848007202148438
0.0487100183963775635 0.0418949835002422333 0.267413288354873657
0.00966314971446990967 0.121479324996471405 0.312618404626846313
0.0461154580116271973 0.0471831411123275757 0.228980928659439087
0.0283476449549198151 0.0833970531821250916 0.222715973854064941
0.0561093874275684357 0.0268137715756893158 0.235836297273635864
0.0355533137917518616 0.0687106400728225708 0.337219417095184326
0.00954726710915565491 0.12171550840139389 0.318933606147766113
0.0573830418288707733 0.0242178421467542648 0.249598264694213867
0.0486367791891098022 0.0420442521572113037 0.107508480548858643
0.0471697114408016205 0.0450343973934650421 0.13984997570514679
0.0165229141712188721 0.107497930526733398 0.34381517767906189
0.0416734218597412109 0.0562367960810661316 0.269920289516448975
0.06413288414478302 0.0104604782536625862 0.139729753136634827
0.0635908320546150208 0.011565282940864563 0.176525428891181946
0.0597222782671451569 0.0194500703364610672 0.135250285267829895
0.0654645711183547974 0.00774627085775136948 0.231127560138702393
0.0480150207877159119 0.0433115102350711823 0.192366212606430054
0.0289009846746921539 0.0822692587971687317 0.260528147220611572
0.0422322899103164673 0.0550977177917957306 0.213587298989295959
0.052335888147354126 0.0345048308372497559 0.116539090871810913
0.0253875218331813812 0.0894303023815155029 0.260100305080413818
0.0522112660109996796 0.0347588248550891876 0.200802594423294067
0.0470783635973930359 0.0452205836772918701 0.141717121005058289
0.0679413080215454102 0.00269824429415166378 0.147374987602233887
0.0477598384022712708 0.0438316129148006439 0.170568689703941345
0.0394456349313259125 0.0607774108648300171 0.197342202067375183
0.0673809051513671875 0.00384045625105500221 0.198584601283073425
0.0492923259735107422 0.0407081358134746552 0.164244711399078369
0.0328657254576683044 0.0741884186863899231 0.267172038555145264
0.0387177765369415283 0.0622609145939350128 0.29156869649887085
0.0208619982004165649 0.0986541137099266052 0.302274078130722046
0.0632939785718917847 0.0121703203767538071 0.173196554183959961
0.0618841126561164856 0.0150438733398914337 0.275779604911804199
0.0631748735904693604 0.0124130770564079285 0.298258423805236816
0.0539597868919372559 0.0311950370669364929 0.0954372584819793701
0.0484945029020309448 0.0423342324793338776 0.166582569479942322
0.058966469019651413 0.0209905430674552917 0.338591098785400391
0.0667872950434684753 0.00505033228546380997 0.205343678593635559
0.049093589186668396 0.0411131903529167175 0.35377994179725647
0.0540798604488372803 0.0309503078460693359 0.322664916515350342
0.0480897985398769379 0.04315909743309021 0.138699054718017578
0.00882066041231155396 0.12319646030664444 0.344439774751663208
0.0619260296225547791 0.0149584366008639336 0.355000853538513184
0.0368647724390029907 0.0660376623272895813 0.312331795692443848
0.0208322927355766296 0.0987146571278572083 0.280554443597793579
0.0462154075503349304 0.0469794273376464844 0.169562622904777527
0.0526488944888114929 0.0338668636977672577 0.121977552771568298
0.0380113907158374786 0.063700653612613678 0.175519362092018127
0.0325591079890727997 0.0748133584856987 0.265290051698684692
0.0448756366968154907 0.0497101172804832458 0.28772309422492981
0.0284761004149913788 0.0831352397799491882 0.315288305282592773
0.0507749989628791809 0.0376861840486526489 0.19565252959728241
0.0491984635591506958 0.0408994480967521667 0.25830233097076416
0.0370458737015724182 0.065668545663356781 0.288365066051483154
0.0378405749797821045 0.0640488043427467346 0.359296649694442749
0.0199685953557491302 0.100475020706653595 0.28813248872756958
0.05966968834400177 0.0195572581142187119 0.262465149164199829
0.0409855283796787262 0.0576388388872146606 0.336484819650650024
0.0497788861393928528 0.0397164411842823029 0.175928160548210144
0.0660014823079109192 0.00665196077898144722 0.169226393103599548
0.0558105148375034332 0.0274229254573583603 0.354655832052230835
0.00930690765380859375 0.122205406427383423 0.323276311159133911
0.0325349122285842896 0.0748626738786697388 0.292910546064376831
0.0290288962423801422 0.0820085406303405762 0.264569073915481567
0.058148995041847229 0.0226566977798938751 0.180805802345275879
0.00774721801280975342 0.125384315848350525 0.329940855503082275
0.0360583178699016571 0.0676813572645187378 0.222720488905906677
0.0317265801131725311 0.0765101984143257141 0.261610358953475952
0.0601830258965492249 0.0185109861195087433 0.239505887031555176
0.027919575572013855 0.0842695385217666626 0.241234183311462402
0.0369564071297645569 0.0658508986234664917 0.298519104719161987
0.0643081516027450562 0.010103258304297924 0.243301153182983398
0.0656540542840957642 0.00736006908118724823 0.229178339242935181
0.00955731049180030823 0.121695041656494141 0.320806056261062622
0.0265652500092983246 0.0870298892259597778 0.29834410548210144
0.0545451343059539795 0.0300019942224025726 0.18690510094165802
0.0450532063841819763 0.0493482016026973724 0.318793147802352905
0.069153517484664917 0.000227557640755549073 0.237170189619064331
0.0439934395253658295 0.0515081919729709625 0.299586474895477295
0.0414133146405220032 0.0567669346928596497 0.273551374673843384
0.0651537403464317322 0.00837979745119810104 0.0476283431053161621
0.0539354421198368073 0.0312446523457765579 0.22730545699596405
0.0436028316617012024 0.0523043237626552582 0.137535378336906433
0.0476811826229095459 0.0439919270575046539 0.293685674667358398
0.0426058843731880188 0.0543362684547901154 0.306177616119384766
0.0599142201244831085 0.0190588589757680893 0.13596738874912262
0.0582578033208847046 0.0224349219352006912 0.325427412986755371
0.029942728579044342 0.0801459923386573792 0.326378524303436279
0.0582611672580242157 0.0224280674010515213 0.112627223134040833
0.0659192204475402832 0.00681961840018630028 0.244870498776435852
0.0580741651356220245 0.0228092111647129059 0.239584982395172119
0.0355381779372692108 0.0687414929270744324 0.316089212894439697
0.0341181680560112 0.0716357231140136719 0.300086140632629395
0.0616619884967803955 0.0154966041445732117 0.312644660472869873
0.062949448823928833 0.0128725301474332809 0.0330657362937927246
0.0681083053350448608 0.00235788640566170216 0.301579207181930542
0.0533205866813659668 0.0324978344142436981 0.286523640155792236
0.0519791394472122192 0.0352319367229938507 0.254944115877151489
0.0134965851902961731 0.113666117191314697 0.3142203688621521
0.0277890674769878387 0.0845355316996574402 0.227527633309364319
0.0575799643993377686 0.023816477507352829 0.0647403597831726074
0.0448716208338737488 0.0497183091938495636 0.287094444036483765
0.023063264787197113 0.0941675454378128052 0.32299572229385376
0.0586562864482402802 0.0216227471828460693 0.243939757347106934
0.0437126010656356812 0.0520805865526199341 0.332319021224975586
0.0372673869132995605 0.0652170628309249878 0.174633830785751343
0.052367672324180603 0.0344400368630886078 0.343011736869812012
0.0407379046082496643 0.0581435449421405792 0.355160236358642578
0.0511893853545188904 0.0368415974080562592 0.164210081100463867
0.0524118691682815552 0.0343499667942523956 0.307961702346801758
0.0115404054522514343 0.117653146386146545 0.323648363351821899
0.0524453073740005493 0.0342818126082420349 0.34300529956817627
0.0364453345537185669 0.0668925493955612183 0.190731987357139587
0.0452088788151741028 0.0490309111773967743 0.324453264474868774
0.0503915250301361084 0.0384677797555923462 0.162698045372962952
0.0685352757573127747 0.00148764648474752903 0.261759728193283081
0.0418467223644256592 0.0558835826814174652 0.264532268047332764
0.0439255125820636749 0.0516466386616230011 0.34465363621711731
0.0376147963106632233 0.0645089820027351379 0.170090675354003906
0.0585277900099754333 0.0218846481293439865 0.186372995376586914
0.0578485243022441864 0.0232691057026386261 0.102153092622756958
0.0640513747930526733 0.0106266150251030922 0.26716575026512146
0.0488090813159942627 0.041693076491355896 0.251601219177246094
0.0500775948166847229 0.0391076207160949707 0.121785342693328857
0.0368672758340835571 0.0660325586795806885 0.197579860687255859
0.0426062867045402527 0.0543354526162147522 0.341557562351226807
0.036288190633058548 0.0672128349542617798 0.281259626150131226
0.0614906810224056244 0.0158457532525062561 0.148236021399497986
0.0328555852174758911 0.0742090865969657898 0.313798338174819946
0.0491687357425689697 0.0409600324928760529 0.353600859642028809
0.0573807433247566223 0.0242225248366594315 0.103714525699615479
0.011785503476858139 0.1171535924077034 0.333693027496337891
0.0541478954255580902 0.0308116357773542404 0.234310120344161987
0.0512719862163066864 0.0366732403635978699 0.210988059639930725
0.0618231110274791718 0.0151682076975703239 0.125304698944091797
0.0581240877509117126 0.0227074623107910156 0.0905605554580688477
0.00348921865224838257 0.134062886238098145 0.349284052848815918
0.0294942110776901245 0.0810601562261581421 0.233022511005401611
0.0305976085364818573 0.0788112357258796692 0.314185529947280884
0.0551354065537452698 0.0287989191710948944 0.270560115575790405
0.0535032190382480621 0.0321255996823310852 0.0904476642608642578
0.0577004514634609222 0.0235709082335233688 0.21951332688331604
0.0686645582318305969 0.00122413435019552708 0.307803124189376831
0.051676824688911438 0.0358481146395206451 0.142635121941566467
0.0631226897239685059 0.0125194452702999115 0.281200021505355835
0.0609518885612487793 0.0169439110904932022 0.110099539160728455
0.0389695018529891968 0.0617478564381599426 0.285316824913024902
0.0678908154368400574 0.00280116964131593704 0.326047688722610474
0.0536511167883872986 0.031824156641960144 0.207282006740570068
0.0469339229166507721 0.0455149747431278229 0.125682950019836426
0.0389457866549491882 0.0617961883544921875 0.22092399001121521
0.0582424253225326538 0.0224662646651268005 0.240249574184417725
0.0490750223398208618 0.0411510393023490906 0.353567570447921753
0.0646988004446029663 0.00930705387145280838 0.309131503105163574
0.0630677714943885803 0.0126313678920269012 0.267518877983093262
0.0539714992046356201 0.0311711616814136505 0.143980428576469421
0.0576413683593273163 0.023691326379776001 0.260328382253646851
0.0426687896251678467 0.0542080551385879517 0.235069915652275085
0.0562741756439208984 0.0264779087156057358 0.113687917590141296
0.0373282507061958313 0.0650930106639862061 0.241460815072059631
0.0396404191851615906 0.0603804029524326324 0.161598339676856995
0.0430716797709465027 0.0533868968486785889 0.14133375883102417
0.00989717245101928711 0.121002338826656342 0.314017534255981445
0.0453240945935249329 0.0487960800528526306 0.238422393798828125
0.0296116173267364502 0.0808208584785461426 0.253942906856536865
0.0630609467625617981 0.012645285576581955 0.129594802856445312
0.0566259026527404785 0.0257610231637954712 0.228052482008934021
0.063035815954208374 0.0126964999362826347 0.216249778866767883
0.044780731201171875 0.0499035529792308807 0.339785754680633545
0.0625222474336624146 0.0137432431802153587 0.121175855398178101
0.031629607081413269 0.0767078399658203125 0.239668160676956177
0.0671331360936164856 0.00434545194730162621 0.100209057331085205
0.0545032955706119537 0.0300872698426246643 0.278392136096954346
0.0639157667756080627 0.0109030092135071754 0.23466847836971283
0.0598056018352508545 0.0192802399396896362 0.242249816656112671
0.0501611456274986267 0.0389373339712619781 0.274978786706924438
0.0600470006465911865 0.0187882240861654282 0.0786287188529968262
0.0410096198320388794 0.0575897395610809326 0.214412957429885864
0.0615972541272640228 0.015628540888428688 0.0783551037311553955
0.0378922075033187866 0.0639435648918151855 0.172198981046676636
0.0653041824698448181 0.00807317253202199936 0.125772267580032349
0.0449711903929710388 0.0495153665542602539 0.253001779317855835
0.0343256928026676178 0.0712127536535263062 0.350247085094451904
0.0620323494076728821 0.0147417401894927025 0.302349388599395752
0.0614006854593753815 0.0160291828215122223 0.25790819525718689
0.0538481250405311584 0.0314226150512695312 0.15008758008480072
0.0512394756078720093 0.0367395021021366119 0.253150880336761475
0.0400857552886009216 0.0594727396965026855 0.353696137666702271
0.0506157949566841125 0.038010675460100174 0.299643754959106445
0.0186103843152523041 0.10324329137802124 0.355786114931106567
0.0473935566842556 0.044578157365322113 0.122859597206115723
0.0610299520194530487 0.0167848020792007446 0.107963830232620239
0.0231804102659225464 0.0939287766814231873 0.30874517560005188
0.0308161191642284393 0.0783658698201179504 0.212357103824615479
0.0656874328851699829 0.00729203596711158752 0.277957558631896973
0.0234389826655387878 0.0934017673134803772 0.311178654432296753
0.0415538176894187927 0.0564805679023265839 0.276671767234802246
0.019995473325252533 0.100420244038105011 0.35441511869430542
0.0498405285179615021 0.0395908020436763763 0.318742305040359497
0.0244177468121051788 0.0914068743586540222 0.314800500869750977
0.0241417475044727325 0.0919694080948829651 0.281953185796737671
0.0383269414305686951 0.0630574971437454224 0.26668277382850647
0.0292903296649456024 0.0814757049083709717 0.289595544338226318
0.0686606541275978088 0.00123209855519235134 0.16218191385269165
0.0519344769418239594 0.035322967916727066 0.245233982801437378
0.0188197195529937744 0.102816633880138397 0.289595752954483032
0.0326353907585144043 0.0746578797698020935 0.288941293954849243
0.0551136098802089691 0.0288433395326137543 0.159872114658355713
0.0435775630176067352 0.0523558221757411957 0.225427106022834778
0.0261331386864185333 0.0879106074571609497 0.318421751260757446
0.0515497177839279175 0.036107182502746582 0.256536573171615601
0.0644249469041824341 0.00986521225422620773 0.070339590311050415
0.0682998597621917725 0.00196746503934264183 0.0325752496719360352
0.0653398856520652771 0.00800041109323501587 0.324317187070846558
0.0576120465993881226 0.0237510912120342255 0.267195403575897217
0.0421444922685623169 0.0552766658365726471 0.27363210916519165
0.0608604401350021362 0.0171302948147058487 0.228326335549354553
0.0247120708227157593 0.0908069908618927002 0.320720136165618896
0.068504728376865387 0.00154989666771143675 0.350112259387969971
0.0435494482517242432 0.0524131283164024353 0.240402519702911377
0.0327422395348548889 0.0744401067495346069 0.319326668977737427
0.0530127808451652527 0.0331252031028270721 0.262299716472625732
0.0627471953630447388 0.0132847614586353302 0.251544356346130371
0.0305746272206306458 0.0788580775260925293 0.269460976123809814
0.0550350695848464966 0.0290034208446741104 0.175783470273017883
0.0664423704147338867 0.00575334252789616585 0.108311563730239868
0.0556648857891559601 0.0277197472751140594 0.258402347564697266
0.0670634284615516663 0.0044875158928334713 0.245547086000442505
0.0636065453290939331 0.0115332594141364098 0.303854674100875854
0.0291356556117534637 0.0817909464240074158 0.356910496950149536
0.0342515818774700165 0.0713637992739677429 0.309475094079971313
0.0161497518420219421 0.10825849324464798 0.286655575037002563
0.0541449226438999176 0.0308176949620246887 0.255277723073959351
0.0677271634340286255 0.00313472072593867779 0.202350109815597534
0.0685173347592353821 0.00152421218808740377 0.0133967101573944092
0.0529265105724334717 0.033301033079624176 0.353162318468093872
0.0566475540399551392 0.0257168971002101898 0.359045505523681641
0.0605756193399429321 0.0177108105272054672 0.299712151288986206
0.0682503432035446167 0.00206838874146342278 0.253750771284103394
0.048213861882686615 0.0429062284529209137 0.320915430784225464
0.0277616418898105621 0.0845914334058761597 0.239455536007881165
0.0396249294281005859 0.0604119822382926941 0.18532252311706543
0.0689950957894325256 0.000550447497516870499 0.1938609778881073
0.0620179399847984314 0.0147711066529154778 0.233529761433601379
0.0387701205909252167 0.0621542297303676605 0.187628462910652161
0.0248404368758201599 0.090545356273651123 0.28115546703338623
0.034162960946559906 0.0715444236993789673 0.341052621603012085
0.0337383449077606201 0.0724098682403564453 0.223271563649177551
0.0338460057973861694 0.0721904337406158447 0.23476332426071167
0.0431342050433158875 0.0532594583928585052 0.18729807436466217
0.0113521553575992584 0.118036828935146332 0.341242462396621704
0.0618590041995048523 0.0150950457900762558 0.209662437438964844
0.0632477030158042908 0.0122646354138851166 0.30963212251663208
0.0657808110117912292 0.00710172345861792564 0.310690611600875854
0.0638456493616104126 0.0110459160059690475 0.113045781850814819
0.0361594893038272858 0.067475147545337677 0.23175598680973053
0.0564559809863567352 0.0261073559522628784 0.258582532405853271
0.0566546022891998291 0.0257025305181741714 0.165059134364128113
0.0481439903378486633 0.0430486425757408142 0.198285281658172607
0.0474248528480529785 0.0445143729448318481 0.123545214533805847
0.0192045792937278748 0.102032221853733063 0.326718598604202271
0.0666420906782150269 0.00534627586603164673 0.350211292505264282
0.0195821486413478851 0.101262666285037994 0.344911903142929077
0.0670696049928665161 0.00447493558749556541 0.0697084367275238037
0.00701575353741645813 0.126875177025794983 0.354428589344024658
0.0604785308241844177 0.0179086923599243164 0.063947826623916626
0.0427869036793708801 0.0539673194289207458 0.325309634208679199
0.0791452229022979736 0.00484750233590602875 0.281429886817932129
0.288284957408905029 0.107458792626857758 0.111870795488357544
0.290060520172119141 0.108329944312572479 0.0796859413385391235
0.274454206228256226 0.100672945380210876 0.130455911159515381
0.210546374320983887 0.0693175122141838074 0.0450562238693237305
0.0801475271582603455 0.00533926859498023987 0.23595467209815979
0.222091794013977051 0.0749821066856384277 0.129124641418457031
0.149545580148696899 0.0393883883953094482 0.23180072009563446
0.130603879690170288 0.0300949271768331528 0.0865590646862983704
0.168169766664505005 0.0485260672867298126 0.19094356894493103
0.163393259048461914 0.0461825504899024963 0.240540236234664917
0.108599759638309479 0.0192989334464073181 0.289180219173431396
0.1096201092004776 0.0197995547205209732 0.241205766797065735
0.296410650014877319 0.111445553600788116 0.00238472223281860352
0.219470500946044922 0.0736960098147392273 0.130888462066650391
0.140273809432983398 0.034839332103729248 0.143039196729660034
0.0813295468688011169 0.00591920875012874603 0.253888577222824097
0.167258262634277344 0.0480788573622703552 0.184076666831970215
0.080623142421245575 0.00557262171059846878 0.00697954557836055756
0.0920367985963821411 0.0111725609749555588 0.227074667811393738
0.138856977224349976 0.0341441817581653595 0.121894814074039459
0.0789425671100616455 0.00474807433784008026 0.114952027797698975
0.0704274773597717285 0.000570271280594170094 0.340344130992889404
0.207914620637893677 0.0680262893438339233 0.0512670427560806274
0.207242786884307861 0.0676966607570648193 0.0685138106346130371
0.170256316661834717 0.0495498031377792358 0.231834769248962402
0.239774376153945923 0.0836578011512756348 0.100507095456123352
0.166649490594863892 0.047780163586139679 0.0833344981074333191
0.104970246553421021 0.0175181664526462555 0.195729345083236694
0.136988073587417603 0.033227238804101944 0.116223223507404327
0.245131522417068481 0.0862862169742584229 0.105220064520835876
0.25052759051322937 0.0889337137341499329 0.0241873860359191895
0.156332224607467651 0.0427181534469127655 0.195681005716323853
0.182102799415588379 0.0553620979189872742 0.0122520923614501953
0.156875848770141602 0.0429848730564117432 0.0115038454532623291
0.0727593302726745605 0.00171435938682407141 0.126601427793502808
0.118116006255149841 0.023967936635017395 0.214913666248321533
0.154212355613708496 0.0416780710220336914 0.122179612517356873
0.0881322100758552551 0.00925683509558439255 0.0561680272221565247
0.155345261096954346 0.0422339141368865967 0.144501850008964539
0.230172604322433472 0.0789468362927436829 0.00732246041297912598
0.276538163423538208 0.101695410907268524 0.0744909942150115967
0.189585030078887939 0.0590331479907035828 0.0685562193393707275
0.101286411285400391 0.0157107487320899963 0.262756973505020142
0.0994580090045928955 0.0148136690258979797 0.25163424015045166
0.171528846025466919 0.0501741506159305573 0.081416003406047821
0.106137409806251526 0.0180908162146806717 0.0175425037741661072
0.230884760618209839 0.0792962536215782166 0.0937994867563247681
0.18867868185043335 0.0585884600877761841 0.0904788225889205933
0.0813854038715362549 0.00594661571085453033 0.00656314659863710403
0.275727778673171997 0.101297810673713684 0.0825974792242050171
0.2828197181224823 0.10477735847234726 0.108237326145172119
0.178584396839141846 0.0536358505487442017 0.0452416017651557922
0.123467519879341125 0.0265935752540826797 0.207906067371368408
0.234697729349136353 0.0811670199036598206 0.0643343180418014526
0.234171450138092041 0.0809088125824928284 0.0151767134666442871
0.126782938838005066 0.0282202381640672684 0.0585060343146324158
0.16628071665763855 0.0475992374122142792 0.199683696031570435
0.206711173057556152 0.06743583083152771 0.174006178975105286
0.274856895208358765 0.100870512425899506 0.000592753291130065918
0.224355220794677734 0.0760926306247711182 0.150361314415931702
0.174599498510360718 0.0516807213425636292 0.0620921850204467773
0.161791890859603882 0.0453968606889247894 0.169462889432907104
0.244609683752059937 0.0860301703214645386 0.0999026894569396973
0.0899561047554016113 0.0101517010480165482 0.307423263788223267
0.261646389961242676 0.0943889766931533813 0.0477880388498306274
0.349636167287826538 0.137559860944747925 0.0144630372524261475
0.207004725933074951 0.0675798580050468445 0.0921696871519088745
0.217116564512252808 0.0725410804152488708 0.100083544850349426
0.0810921564698219299 0.00580273708328604698 0.26034623384475708
0.177403628826141357 0.0530565306544303894 0.174634993076324463
0.164238438010215759 0.0465972200036048889 0.0685617253184318542
0.228048741817474365 0.0779047980904579163 0.166238442063331604
0.226177632808685303 0.0769867599010467529 0.0505930632352828979
0.0895346403121948242 0.009944915771484375 0.185045391321182251
0.10257817804813385 0.016344534233212471 0.280344992876052856
0.203253120183944702 0.0657391995191574097 0.182040303945541382
0.224978029727935791 0.0763981938362121582 0.024196818470954895
0.223726779222488403 0.0757842883467674255 0.0142818838357925415
0.142616301774978638 0.035988636314868927 0.136341333389282227
0.153399765491485596 0.0412793867290019989 0.226040676236152649
0.106056638062000275 0.0180511884391307831 0.310016214847564697
0.0910904034972190857 0.0107082277536392212 0.268063068389892578
0.234608203172683716 0.0811230987310409546 0.132325366139411926
0.0873620361089706421 0.00887896120548248291 0.000143913552165031433
0.20216032862663269 0.0652030333876609802 0.193963721394538879
0.0697673261165618896 0.000246376526774838567 0.028148191049695015
0.10516975075006485 0.0176160503178834915 0.285025298595428467
0.173010274767875671 0.0509009920060634613 0.0407965555787086487
0.0973977074027061462 0.0138028142973780632 0.182267844676971436
0.369427919387817383 0.147270381450653076 0.0250507891178131104
0.172649860382080078 0.0507241636514663696 0.218082934617996216
0.126695141196250916 0.0281771589070558548 0.0536146387457847595
0.345579415559768677 0.135569483041763306 0.00573000311851501465
0.156786128878593445 0.0429408587515354156 0.0929543524980545044
0.0926239117980003357 0.0114606218412518501 0.0557712763547897339
0.105955295264720917 0.0180014669895172119 0.0277941562235355377
0.121298037469387054 0.0255291536450386047 0.054397929459810257
0.125527411699295044 0.0276042316108942032 0.239109307527542114
0.224604547023773193 0.0762149468064308167 0.109815403819084167
0.089322015643119812 0.00984059553593397141 0.197670191526412964
0.204155713319778442 0.0661820396780967712 0.200631946325302124
0.233559697866439819 0.080608658492565155 0.103101328015327454
0.116075105965137482 0.0229666009545326233 0.203566014766693115
0.281848043203353882 0.104300625622272491 0.0196405947208404541
0.305480748414993286 0.115895651280879974 0.011173248291015625
0.302220344543457031 0.114295989274978638 0.0242873430252075195
0.199664503335952759 0.0639784932136535645 0.0366638153791427612
0.211106926202774048 0.0695925503969192505 0.173775210976600647
0.168364927172660828 0.0486218221485614777 0.055632665753364563
0.15369066596031189 0.0414221137762069702 0.11581864207983017
0.103168532252311707 0.016634184867143631 0.0660015866160392761
0.126026809215545654 0.0278492532670497894 0.265891373157501221
0.13917309045791626 0.0342992804944515228 0.10969320684671402
0.18167249858379364 0.055150981992483139 0.090372234582901001
0.124971136450767517 0.027331305667757988 0.283944755792617798
0.259779065847396851 0.093472801148891449 0.0116515159606933594
0.183664947748184204 0.0561285503208637238 0.0443033128976821899
0.374941885471343994 0.1499757319688797 0.017264246940612793
0.308941870927810669 0.117593802511692047 0.0609106719493865967
0.0783636569976806641 0.00446404051035642624 0.291242092847824097
0.100198477506637573 0.0151769677177071571 0.263561487197875977
0.120005466043949127 0.0248949732631444931 0.284826070070266724
0.0740962326526641846 0.00237029138952493668 0.300068259239196777
0.0879483222961425781 0.00916661135852336884 0.297868192195892334
0.291821897029876709 0.109194137156009674 0.053066253662109375
0.162208229303359985 0.0456011295318603516 0.184986710548400879
0.222006708383560181 0.0749403685331344604 0.149728730320930481
0.314338803291320801 0.120241723954677582 0.0527693331241607666
0.072540774941444397 0.00160712993238121271 0.0421200171113014221
0.312401354312896729 0.119291156530380249 0.0118445456027984619
0.188444852828979492 0.0584737323224544525 0.225556790828704834
0.177705824375152588 0.0532047934830188751 0.160173356533050537
0.196847349405288696 0.0625962913036346436 0.175154939293861389
0.0776667594909667969 0.00412211799994111061 0.245626986026763916
0.222408413887023926 0.0751374512910842896 0.0303460657596588135
0.241759836673736572 0.0846319422125816345 0.0472509562969207764
0.290039211511611938 0.108319498598575592 0.0568674802780151367
0.140844345092773438 0.0351192578673362732 0.187128722667694092
0.156437993049621582 0.0427700430154800415 0.174140900373458862
0.193955689668655396 0.0611775442957878113 0.029284060001373291
0.112899705767631531 0.0214086398482322693 0.0254310667514801025
0.101569846272468567 0.0158498138189315796 0.00968120619654655457
0.13818851113319397 0.033816218376159668 0.276621341705322266
0.214998126029968262 0.0715017020702362061 0.141538694500923157
0.176259204745292664 0.0524950325489044189 0.225642383098602295
0.220401853322982788 0.0741529613733291626 0.155000403523445129
0.205139279365539551 0.0666646063327789307 0.192890048027038574
0.215141922235488892 0.0715722516179084778 0.0105571895837783813
0.203520774841308594 0.0658705085515975952 0.139198973774909973
0.161859750747680664 0.0454301498830318451 0.0533924922347068787
0.189633965492248535 0.0590571612119674683 0.157401174306869507
0.0954080596566200256 0.0128266215324401855 0.0102978534996509552
0.263747990131378174 0.0954201072454452515 0.135181993246078491
0.146381691098213196 0.0378360748291015625 0.223302170634269714
0.154618918895721436 0.0418775416910648346 0.247198045253753662
0.0790997594594955444 0.00482519809156656265 0.312882184982299805
0.167827695608139038 0.048358231782913208 0.248909652233123779
0.157768696546554565 0.0434229336678981781 0.099262923002243042
0.20102652907371521 0.0646467581391334534 0.101055294275283813
0.201002687215805054 0.064635053277015686 0.109584316611289978
0.195675760507583618 0.0620214678347110748 0.169855177402496338
0.144775509834289551 0.0370480231940746307 0.110208123922348022
0.100323900580406189 0.0152385067194700241 0.136876046657562256
0.201644837856292725 0.064950108528137207 0.0753109604120254517
0.113617293536663055 0.0217607095837593079 0.235617101192474365
0.150595664978027344 0.039903596043586731 0.0819821655750274658
0.206492960453033447 0.0673287734389305115 0.119117483496665955
0.268455654382705688 0.0977298542857170105 0.0819712728261947632
0.140607833862304688 0.0350032150745391846 0.171897381544113159
0.158660665154457092 0.0438605695962905884 0.0702563151717185974
0.364976853132247925 0.145086541771888733 0.0113232433795928955
0.204704940319061279 0.0664515122771263123 0.0059016495943069458
0.335177719593048096 0.130466029047966003 0.00902643799781799316
0.0961400046944618225 0.0131857385858893394 0.263149827718734741
0.085530698299407959 0.00798044167459011078 0.0437985435128211975
0.0725600793957710266 0.00161660159938037395 0.300793856382369995
0.0884390696883201599 0.00940739177167415619 0.0130576547235250473
0.140344768762588501 0.0348741449415683746 0.222541958093643188
0.163935735821723938 0.0464487038552761078 0.0076678842306137085
0.120093598961830139 0.024938216432929039 0.29554295539855957
0.208288758993148804 0.0682098492980003357 0.123344793915748596
0.108920708298683167 0.0194564014673233032 0.186963737010955811
0.193126440048217773 0.0607706867158412933 0.106317341327667236
0.0766261592507362366 0.00361156300641596317 0.289041131734848022
0.11953522264957428 0.0246642529964447021 0.221113070845603943
0.214599817991256714 0.071306280791759491 0.0300841629505157471
0.0840281620621681213 0.00724324490875005722 0.293985545635223389
0.11049632728099823 0.0202294569462537766 0.0738196820020675659
0.0722537413239479065 0.00146629917435348034 0.20495171844959259
0.137461572885513306 0.0334595553576946259 0.0404720529913902283
0.165923088788986206 0.0474237687885761261 0.07826995849609375
0.100012555718421936 0.0150857474654912949 0.267683058977127075
0.110924206674098969 0.0204393882304430008 0.0951621681451797485
0.1114073246717453 0.0206764210015535355 0.0884521082043647766
0.296188324689865112 0.111336469650268555 0.0902221798896789551
0.185569941997528076 0.0570631995797157288 0.224021449685096741
0.223006367683410645 0.0754308328032493591 0.041841551661491394
0.0889420956373214722 0.00965419318526983261 0.0298820249736309052
0.0702187418937683105 0.000467857025796547532 0.0828987583518028259
0.26397097110748291 0.095529504120349884 0.0856804251670837402
0.199778556823730469 0.0640344470739364624 0.130860373377799988
0.0932553187012672424 0.0117704104632139206 0.068067893385887146
0.248435556888580322 0.0879072844982147217 0.0288238078355789185
0.108891934156417847 0.0194422826170921326 0.134864836931228638
0.202705293893814087 0.0654704123735427856 0.0567219257354736328
0.0962787866592407227 0.0132538331672549248 0.00688894465565681458
0.320620507001876831 0.12332376092672348 0.0289223194122314453
0.0713604316115379333 0.0010280099231749773 0.123478859663009644
0.108790695667266846 0.0193926114588975906 0.0138492174446582794
0.293899953365325928 0.110213711857795715 0.0361424088478088379
0.141541212797164917 0.0354611650109291077 0.115772105753421783
0.222637712955474854 0.0752499550580978394 0.0650099664926528931
0.178020671010017395 0.0533592700958251953 0.0768951773643493652
0.105996772646903992 0.0180218145251274109 0.245735466480255127
0.312994807958602905 0.119582310318946838 0.0105375945568084717
0.288695693016052246 0.10766032338142395 0.108160942792892456
0.116427697241306305 0.0231395941227674484 0.0917651951313018799
0.250829875469207764 0.0890820249915122986 0.0296412855386734009
0.141778230667114258 0.0355774573981761932 0.00139842182397842407
0.222161769866943359 0.0750164464116096497 0.11381801962852478
0.125599607825279236 0.0276396553963422775 0.089185670018196106
0.220382183790206909 0.0741433054208755493 0.0180664360523223877
0.324475198984146118 0.125215008854866028 1.77025794982910156e-05
0.301861196756362915 0.114119775593280792 0.0592365264892578125
0.246167123317718506 0.0867943018674850464 0.09254436194896698
0.130504295229911804 0.0300460644066333771 0.0349337607622146606
0.0748005211353302002 0.00271584000438451767 0.278477221727371216
0.154351711273193359 0.0417464450001716614 0.0121053159236907959
0.0841107368469238281 0.00728375837206840515 0.162733912467956543
0.193902730941772461 0.0611515678465366364 0.107463434338569641
0.114249125123023987 0.022070709615945816 0.225002795457839966
0.0908265113830566406 0.0105787515640258789 0.329743623733520508
0.156939387321472168 0.0430160500109195709 0.130922675132751465
0.0767287388443946838 0.00366189051419496536 0.265785753726959229
0.118904933333396912 0.0243550147861242294 0.24459780752658844
0.249526441097259521 0.0884425118565559387 0.0312031209468841553
0.179133027791976929 0.0539050288498401642 0.151407361030578613
0.115608826279640198 0.0227378271520137787 0.187653377652168274
0.159073352813720703 0.0440630502998828888 0.242016404867172241
0.123717814683914185 0.0267163794487714767 0.0819773077964782715
0.0737949162721633911 0.00222245347686111927 0.135303691029548645
0.163840115070343018 0.04640178382396698 0.0840375721454620361
0.22703474760055542 0.0774072930216789246 0.0104391574859619141
0.140298902988433838 0.0348516479134559631 0.131587013602256775
0.239665508270263672 0.0836043879389762878 0.0245251059532165527
0.140389159321784973 0.0348959304392337799 0.232229501008987427
0.0846289917826652527 0.00753803132101893425 0.188951194286346436
0.170693546533584595 0.0497643239796161652 0.0491274222731590271
0.205189943313598633 0.0666894689202308655 0.0823920071125030518
0.128912627696990967 0.029265139251947403 0.253698855638504028
0.203442603349685669 0.0658321604132652283 0.135170578956604004
0.245244473218917847 0.0863416194915771484 0.1275816410779953
0.110979177057743073 0.0204663574695587158 0.299609601497650146
0.0729513540863990784 0.00180857419036328793 0.0453686639666557312
0.182187855243682861 0.0554038360714912415 0.195733726024627686
0.206088840961456299 0.0671304985880851746 0.0607935488224029541
0.139052122831344604 0.0342399366199970245 0.235179737210273743
0.151113823056221008 0.0401578247547149658 0.0926486551761627197
0.137656599283218384 0.0335552357137203217 0.188916727900505066
0.368325889110565186 0.146729692816734314 0.0128923952579498291
0.19405829906463623 0.061227891594171524 0.0574208945035934448
0.0874618515372276306 0.008927932009100914 0.0501346401870250702
0.212021768093109131 0.0700413957238197327 0.109005674719810486
0.224697619676589966 0.0762606188654899597 0.159124657511711121
0.242809146642684937 0.0851467698812484741 0.0479904264211654663
0.126688629388809204 0.0281739644706249237 0.173264533281326294
0.150652527809143066 0.0399314910173416138 0.0696139335632324219
0.145425528287887573 0.0373669452965259552 0.0859362483024597168
0.196355074644088745 0.0623547658324241638 0.190590664744377136
0.113968789577484131 0.0219331681728363037 0.0964632481336593628
0.311514198780059814 0.118855878710746765 0.00201460719108581543
0.147544175386428833 0.0384064316749572754 0.0362812280654907227
0.184868544340133667 0.0567190796136856079 0.0938834697008132935
0.17377057671546936 0.0512740276753902435 0.173897624015808105
0.149697273969650269 0.0394628159701824188 0.096787281334400177
0.295197039842605591 0.110850103199481964 0.0189432799816131592
0.0872929990291595459 0.00884508807212114334 0.245075181126594543
0.089749947190284729 0.0100505538284778595 0.294780075550079346
0.273996561765670776 0.10044841468334198 0.0268225520849227905
0.252545356750488281 0.0899236872792243958 0.0880265384912490845
0.123635075986385345 0.0266757868230342865 0.297999978065490723
0.0841067954897880554 0.00728182494640350342 0.0131039414554834366
0.273830056190490723 0.10036671906709671 0.0551474094390869141
0.216990232467651367 0.0724790990352630615 0.118080392479896545
0.105528831481933594 0.0177922304719686508 0.186254933476448059
0.214925050735473633 0.0714658573269844055 0.172795042395591736
0.10440942645072937 0.0172430109232664108 0.188031360507011414
0.216821610927581787 0.0723963752388954163 0.0372661799192428589
0.239338338375091553 0.0834438726305961609 0.0570735186338424683
0.126051247119903564 0.0278612449765205383 0.177426144480705261
0.240404099225997925 0.0839667618274688721 0.0311884582042694092
0.226721316576004028 0.0772535130381584167 0.0922930389642715454
0.24013829231262207 0.0838363617658615112 0.13730427622795105
0.187846392393112183 0.0581801086664199829 0.143829137086868286
0.217023104429244995 0.0724952369928359985 0.067155793309211731
0.124819770455360413 0.0272570401430130005 0.0354393869638442993
0.194334059953689575 0.0613631866872310638 0.219904899597167969
0.316513568162918091 0.121308743953704834 0.0816649794578552246
0.344341486692428589 0.134962096810340881 0.0202000439167022705
0.095814727246761322 0.0130261480808258057 0.284450262784957886
0.11748485267162323 0.0236582700163125992 0.098436310887336731
0.178160339593887329 0.0534277930855751038 0.0746797323226928711
0.113582834601402283 0.0217438042163848877 0.164463579654693604
0.0833172723650932312 0.00689445575699210167 0.157541751861572266
0.230201840400695801 0.0789611861109733582 0.158796235918998718
0.253851741552352905 0.0905646532773971558 0.141737580299377441
0.225724697113037109 0.0767645388841629028 0.0461061000823974609
0.229602962732315063 0.0786673575639724731 0.175735816359519958
0.102647602558135986 0.0163785982877016068 0.0265053734183311462
0.148056268692016602 0.0386576801538467407 0.0736609697341918945
0.0708513855934143066 0.000778255285695195198 0.184345453977584839
0.0990138575434684753 0.014595753513276577 0.0756333768367767334
0.0738513469696044922 0.00225014076568186283 0.00546181574463844299
0.205382794141769409 0.0667840912938117981 0.134429603815078735
0.128060638904571533 0.0288471225649118423 0.0729611963033676147
0.286094099283218384 0.106383882462978363 0.0367576479911804199
0.197309583425521851 0.0628230869770050049 0.184689611196517944
0.156288444995880127 0.0426966771483421326 0.225151389837265015
0.197944283485412598 0.0631344988942146301 0.0315745919942855835
0.270351111888885498 0.0986598208546638489 0.0237126946449279785
0.166693195700645447 0.0478016100823879242 0.0883294641971588135
0.14054146409034729 0.034970652312040329 0.160600185394287109
0.195712625980377197 0.0620395652949810028 0.194123893976211548
0.240578293800354004 0.0840522348880767822 0.102445602416992188
0.351726382970809937 0.138585388660430908 0.0147457420825958252
0.121306300163269043 0.0255332086235284805 0.182512074708938599
0.268592268228530884 0.0977968722581863403 0.0660575926303863525
0.143542274832725525 0.0364429578185081482 0.125534266233444214
0.10520268976688385 0.0176322124898433685 0.265254706144332886
0.255771905183792114 0.0915067568421363831 0.0257160365581512451
0.192796945571899414 0.0606090277433395386 0.0592808276414871216
0.104474365711212158 0.0172748677432537079 0.0044596157968044281
0.075633026659488678 0.00312429550103843212 0.219033405184745789
0.135981172323226929 0.0327332168817520142 0.143165260553359985
0.125337526202201843 0.0275110676884651184 0.227183699607849121
0.207229733467102051 0.0676902532577514648 0.0470618158578872681
0.10388338565826416 0.0169849153608083725 0.296143263578414917
0.0865348055958747864 0.0084730926901102066 0.257558077573776245
