ply
format ascii 1.0
element vertex 770
property float x
property float y
property float z
end_header
2.4845883846282959 0.210931822657585144 0.139607936143875122
2.48231291770935059 0.183633849024772644 0.0445509403944015503
2.48503613471984863 0.19277547299861908 0.10921652615070343
2.48633480072021484 0.168530553579330444 0.0803744792938232422
2.483856201171875 0.166888773441314697 0.0354515649378299713
2.48178887367248535 0.193861797451972961 0.0571184903383255005
2.48062229156494141 0.244624823331832886 0.143503889441490173
2.47936272621154785 0.235969826579093933 0.104354232549667358
2.47934746742248535 0.225958719849586487 0.0832134783267974854
2.48072147369384766 0.22392718493938446 0.101979464292526245
2.4811558723449707 0.250396728515625 0.164480984210968018
2.47920560836791992 0.252634376287460327 0.136499136686325073
2.48116922378540039 0.259565442800521851 0.183835536241531372
2.48192882537841797 0.203893065452575684 0.080391712486743927
2.47811436653137207 0.274992913007736206 0.164878204464912415
2.49487185478210449 0.126393899321556091 0.1353902667760849
2.49274230003356934 0.120895996689796448 0.0882666558027267456
2.49050760269165039 0.129482775926589966 0.0687640979886054993
2.49129557609558105 0.124669916927814484 0.0719149112701416016
2.49092626571655273 0.150821596384048462 0.120296604931354523
2.49009513854980469 0.168757259845733643 0.1438092440366745
2.49056553840637207 0.16750490665435791 0.149067938327789307
2.48427295684814453 0.238013163208961487 0.190832272171974182
2.48457551002502441 0.227709025144577026 0.174394696950912476
2.48663878440856934 0.219106242060661316 0.190992966294288635
2.48763704299926758 0.169728457927703857 0.10467943549156189
2.4892737865447998 0.203256756067276001 0.202040165662765503
2.48731684684753418 0.172554433345794678 0.10521649569272995
2.48689365386962891 0.209724903106689453 0.175687208771705627
2.48778724670410156 0.210090607404708862 0.191409856081008911
2.49376416206359863 0.130454733967781067 0.125315681099891663
2.49080801010131836 0.184261098504066467 0.188095062971115112
2.49235749244689941 0.151530459523200989 0.145737797021865845
2.49366450309753418 0.124626308679580688 0.111488796770572662
2.52491331100463867 0.117800600826740265 0.0862345024943351746
2.54268479347229004 0.118519671261310577 0.0958450585603713989
2.49673819541931152 0.120768941938877106 0.0684346854686737061
2.50915956497192383 0.118564024567604065 0.0772042199969291687
2.49275469779968262 0.127032771706581116 0.0550542958080768585
2.52532482147216797 0.127350702881813049 0.0585298910737037659
2.51363086700439453 0.139726534485816956 0.0390380620956420898
2.54528474807739258 0.13830845057964325 0.0435436554253101349
2.51003098487854004 0.155574962496757507 0.0241997204720973969
2.54370689392089844 0.148185029625892639 0.0318537987768650055
2.50417089462280273 0.172374412417411804 0.0140640698373317719
2.53318357467651367 0.165355950593948364 0.0181071236729621887
2.5020601749420166 0.193329155445098877 0.0068299206905066967
2.54019546508789062 0.190017238259315491 0.00694976933300495148
2.52170276641845703 0.203323125839233398 0.00453317724168300629
2.50284290313720703 0.195096805691719055 0.00645430898293852806
2.5091698169708252 0.212401270866394043 0.00430358760058879852
2.49776172637939453 0.21723686158657074 0.00483518466353416443
2.47699570655822754 0.229549452662467957 0.00727370474487543106
2.53795433044433594 0.229255214333534241 0.00374305993318557739
2.47745513916015625 0.253083914518356323 0.0143648423254489899
2.49266219139099121 0.238071396946907043 0.00790426880121231079
2.48945188522338867 0.26793244481086731 0.0212434493005275726
2.52831768989562988 0.268609285354614258 0.0172760225832462311
2.50758218765258789 0.254674941301345825 0.0122767556458711624
2.48879408836364746 0.27856743335723877 0.0294259581714868546
2.50507855415344238 0.276418566703796387 0.0254776682704687119
2.52277946472167969 0.296546280384063721 0.0430015251040458679
2.53328895568847656 0.293504059314727783 0.0380174554884433746
2.47124671936035156 0.303204238414764404 0.0657988712191581726
2.51651668548583984 0.303810477256774902 0.0556544624269008636
2.49420881271362305 0.311315655708312988 0.081875436007976532
2.5062260627746582 0.30922970175743103 0.0704286694526672363
2.51030898094177246 0.314938664436340332 0.0936141461133956909
2.49377083778381348 0.31326410174369812 0.0948609858751296997
2.52277469635009766 0.314015299081802368 0.0797178521752357483
2.53142452239990234 0.317739695310592651 0.102668717503547668
2.49274373054504395 0.313327163457870483 0.11337839812040329
2.4887840747833252 0.31148257851600647 0.124038398265838623
2.53173017501831055 0.316269427537918091 0.11921624094247818
2.47733116149902344 0.3035755455493927 0.145802602171897888
2.51657843589782715 0.312219232320785522 0.130588605999946594
2.51471686363220215 0.301575452089309692 0.155095368623733521
2.49255681037902832 0.303364753723144531 0.14893735945224762
2.48790836334228516 0.287703782320022583 0.171151578426361084
2.50905418395996094 0.288243889808654785 0.172141358256340027
2.52456498146057129 0.292188525199890137 0.168885558843612671
2.50330638885498047 0.293502271175384521 0.165623664855957031
2.48586010932922363 0.275318771600723267 0.182852715253829956
2.52697944641113281 0.274444162845611572 0.185023516416549683
2.49718117713928223 0.280134916305541992 0.179518371820449829
2.48389267921447754 0.24924507737159729 0.198325201869010925
2.50871944427490234 0.261182248592376709 0.192709594964981079
2.5105586051940918 0.265900522470474243 0.190115392208099365
2.49600458145141602 0.233340844511985779 0.202870860695838928
2.54174637794494629 0.257261455059051514 0.194461837410926819
2.48917675018310547 0.227149680256843567 0.20392492413520813
2.53876137733459473 0.233820334076881409 0.201484635472297668
2.52323579788208008 0.221455588936805725 0.203298509120941162
2.49903512001037598 0.213417395949363708 0.204767182469367981
2.5271306037902832 0.195742443203926086 0.201258942484855652
2.53797078132629395 0.205883041024208069 0.201968461275100708
2.50724172592163086 0.179678887128829956 0.197899028658866882
2.51295137405395508 0.187449857592582703 0.200140014290809631
2.50501489639282227 0.159318551421165466 0.187943801283836365
2.53920507431030273 0.169588655233383179 0.190464690327644348
2.5094914436340332 0.151805073022842407 0.181883692741394043
2.53036141395568848 0.1576651930809021 0.183764532208442688
2.51527237892150879 0.134826824069023132 0.163206934928894043
2.54978442192077637 0.150606870651245117 0.175860464572906494
2.54706764221191406 0.128131434321403503 0.145892679691314697
2.53623080253601074 0.134888529777526855 0.159809142351150513
2.49634122848510742 0.119411416351795197 0.139151230454444885
2.53662681579589844 0.12542445957660675 0.142280861735343933
2.50121641159057617 0.114376574754714966 0.111666403710842133
2.54572153091430664 0.120823755860328674 0.124945066869258881
2.52933168411254883 0.116756178438663483 0.106261909008026123
2.47064328193664551 0.267810612916946411 0.0248076673597097397
2.47134685516357422 0.283985942602157593 0.0703400075435638428
2.47091913223266602 0.300489813089370728 0.097614586353302002
2.47231912612915039 0.268979936838150024 0.0553076863288879395
2.46992325782775879 0.29673650860786438 0.0731070637702941895
2.4912254810333252 0.186964407563209534 0.200719267129898071
2.49409651756286621 0.157776325941085815 0.187887504696846008
2.47722935676574707 0.222222357988357544 0.0399561114609241486
2.47595119476318359 0.290393024682998657 0.160795599222183228
2.47682857513427734 0.237125813961029053 0.0643376857042312622
2.47548723220825195 0.256410688161849976 0.0821259692311286926
2.47680830955505371 0.276184678077697754 0.145500630140304565
2.47761082649230957 0.261402487754821777 0.128092661499977112
2.47919631004333496 0.247544631361961365 0.125722616910934448
2.47335028648376465 0.298556268215179443 0.134284839034080505
2.47682380676269531 0.229346126317977905 0.0480290614068508148
2.47659468650817871 0.223288744688034058 0.0315546505153179169
2.47304654121398926 0.283934950828552246 0.0986897647380828857
2.47346210479736328 0.242900043725967407 0.0200256034731864929
2.47405600547790527 0.252750962972640991 0.0505240485072135925
2.47300982475280762 0.260345965623855591 0.048855949193239212
2.47720503807067871 0.212348476052284241 0.0189434736967086792
2.49335837364196777 0.165070340037345886 0.190748035907745361
2.48450922966003418 0.176518574357032776 0.066478341817855835
2.48227262496948242 0.23620276153087616 0.153561964631080627
2.48419404029846191 0.183019205927848816 0.0747643038630485535
2.48572278022766113 0.216462239623069763 0.170138090848922729
2.48522090911865234 0.190037205815315247 0.106599599123001099
2.48184800148010254 0.238590672612190247 0.151434347033500671
2.4848780632019043 0.197447821497917175 0.116321161389350891
2.48406243324279785 0.178533568978309631 0.0632029175758361816
2.48381757736206055 0.184785634279251099 0.0721426084637641907
2.48304033279418945 0.183887749910354614 0.0572593063116073608
2.48039126396179199 0.231836706399917603 0.112952709197998047
2.48123335838317871 0.212421968579292297 0.0865441560745239258
2.47904324531555176 0.208317384123802185 0.0413114205002784729
2.47955465316772461 0.199132084846496582 0.0307080876082181931
2.47884416580200195 0.223539918661117554 0.0697414577007293701
2.48332953453063965 0.17785605788230896 0.049518875777721405
2.47946643829345703 0.235891759395599365 0.105930894613265991
2.48005199432373047 0.208917200565338135 0.0594504624605178833
2.49475264549255371 0.144430845975875854 0.171029731631278992
2.49394893646240234 0.136718899011611938 0.141479194164276123
2.49248957633972168 0.158805772662162781 0.163131296634674072
2.49288392066955566 0.119156785309314728 0.0870051458477973938
2.4931185245513916 0.158607199788093567 0.173247069120407104
2.48533272743225098 0.153053387999534607 0.0312996655702590942
2.4868466854095459 0.192167609930038452 0.13826364278793335
2.48535919189453125 0.175228804349899292 0.0780174285173416138
2.48711752891540527 0.171072870492935181 0.0987822860479354858
2.48937439918518066 0.159952461719512939 0.113367021083831787
2.48683333396911621 0.218999534845352173 0.19402727484703064
2.48566818237304688 0.168101519346237183 0.0683179870247840881
2.48856687545776367 0.146448656916618347 0.0716688930988311768
2.4874565601348877 0.141077667474746704 0.0418745502829551697
2.48811030387878418 0.202368736267089844 0.18070395290851593
2.48975205421447754 0.18500874936580658 0.171970486640930176
2.48982501029968262 0.165597543120384216 0.132690638303756714
2.49213266372680664 0.167107701301574707 0.174478322267532349
2.48824858665466309 0.211057916283607483 0.201148867607116699
2.49055838584899902 0.165681734681129456 0.145144820213317871
2.40448784828186035 0.30034986138343811 0.104462325572967529
2.40616822242736816 0.277077674865722656 0.0771205946803092957
2.40606570243835449 0.272440135478973389 0.0664357692003250122
2.40909385681152344 0.239190727472305298 0.0348796173930168152
2.40442776679992676 0.296421617269515991 0.0957327783107757568
2.41825509071350098 0.179442107677459717 0.0227010026574134827
2.41252565383911133 0.221874251961708069 0.0406467616558074951
2.41608667373657227 0.222371280193328857 0.0842877104878425598
2.41456103324890137 0.223309740424156189 0.0679384618997573853
2.41720843315124512 0.19294409453868866 0.0377053394913673401
2.41280317306518555 0.218680799007415771 0.0374586731195449829
2.41300678253173828 0.221132874488830566 0.0448947884142398834
2.41577482223510742 0.216557890176773071 0.068698398768901825
2.41053509712219238 0.247734904289245605 0.0695561617612838745
2.41090297698974609 0.256354749202728271 0.091536790132522583
2.41014289855957031 0.243604004383087158 0.0564373806118965149
2.40846610069274902 0.2701987624168396 0.0905982628464698792
2.41084027290344238 0.22326168417930603 0.0233002901077270508
2.40968060493469238 0.270856380462646484 0.106476843357086182
2.409942626953125 0.291515529155731201 0.151744663715362549
2.42096138000488281 0.162987932562828064 0.0215437877923250198
2.42316579818725586 0.191012576222419739 0.105080738663673401
2.42278456687927246 0.201707616448402405 0.122324690222740173
2.42749977111816406 0.137823402881622314 0.0484929978847503662
2.42404699325561523 0.186857506632804871 0.10715523362159729
2.42334127426147461 0.17855408787727356 0.0817740857601165771
2.42212581634521484 0.214339807629585266 0.140203028917312622
2.4286491870880127 0.134975790977478027 0.0564445257186889648
2.42596340179443359 0.1520652174949646 0.0591434389352798462
2.43009448051452637 0.124885141849517822 0.0531691759824752808
2.42286849021911621 0.2218189537525177 0.164343655109405518
2.41682100296020508 0.252472639083862305 0.154461890459060669
2.42170333862304688 0.244489312171936035 0.196625098586082458
2.41980719566345215 0.239797189831733704 0.164360761642456055
2.41546010971069336 0.264369934797286987 0.162436693906784058
2.41567611694335938 0.250331908464431763 0.136394351720809937
2.41828608512878418 0.195967137813568115 0.0567719489336013794
2.41736817359924316 0.214009135961532593 0.0825751796364784241
2.41716122627258301 0.245694026350975037 0.144711554050445557
2.42195725440979004 0.244102880358695984 0.198878347873687744
2.41772055625915527 0.215876936912536621 0.0906033962965011597
2.42127013206481934 0.221903204917907715 0.145382285118103027
2.43742918968200684 0.111559130251407623 0.113794542849063873
2.43778228759765625 0.130819424986839294 0.157295882701873779
2.43428587913513184 0.163006395101547241 0.181079238653182983
2.43618130683898926 0.142841249704360962 0.162648484110832214
2.43494582176208496 0.152367293834686279 0.167286455631256104
2.43160390853881836 0.135461136698722839 0.0928047671914100647
2.43149995803833008 0.139849275350570679 0.100508838891983032
2.43259549140930176 0.174037829041481018 0.18334197998046875
2.43107295036315918 0.134278073906898499 0.0840352177619934082
2.43568968772888184 0.122518084943294525 0.115318045020103455
2.43080568313598633 0.14593060314655304 0.104596123099327087
2.43025469779968262 0.171542540192604065 0.150233566761016846
2.42945766448974609 0.171650514006614685 0.140909880399703979
2.42885661125183105 0.149024873971939087 0.0875764861702919006
2.43107485771179199 0.163249492645263672 0.143139660358428955
2.42989015579223633 0.161334201693534851 0.125052988529205322
2.4253687858581543 0.217110723257064819 0.184669286012649536
2.42938494682312012 0.168577790260314941 0.133775442838668823
2.45614981651306152 0.107774689793586731 0.102081082761287689
2.48150372505187988 0.11142025887966156 0.102689728140830994
2.44924616813659668 0.113239564001560211 0.0732594281435012817
2.47237777709960938 0.115070313215255737 0.0758834332227706909
2.45117759704589844 0.12015186995267868 0.0590487569570541382
2.49012088775634766 0.12335021048784256 0.0615229643881320953
2.42841172218322754 0.132708176970481873 0.0398733653128147125
2.45442843437194824 0.129691794514656067 0.0454559549689292908
2.43422150611877441 0.123507596552371979 0.05077337846159935
2.48065376281738281 0.153217673301696777 0.0248094592243432999
2.43515610694885254 0.144287765026092529 0.0301256757229566574
2.48169827461242676 0.145374640822410583 0.0317042320966720581
2.46299362182617188 0.166831925511360168 0.0165785346180200577
2.44670677185058594 0.155923619866371155 0.0222997367382049561
2.43584394454956055 0.184195727109909058 0.011180550791323185
2.43996405601501465 0.170843064785003662 0.0150906182825565338
2.42680764198303223 0.199040427803993225 0.00971660483628511429
2.4601442813873291 0.191391199827194214 0.00870442762970924377
2.47483158111572266 0.203907608985900879 0.00632338551804423332
2.41760683059692383 0.212097525596618652 0.010461907833814621
2.45066952705383301 0.226983636617660522 0.00924175605177879333
2.47156429290771484 0.212799206376075745 0.0060907299630343914
2.43356657028198242 0.241859883069992065 0.0154996868222951889
2.45958876609802246 0.237024977803230286 0.0108400704339146614
2.43177533149719238 0.258495479822158813 0.0238882973790168762
2.46719169616699219 0.249178394675254822 0.0138626415282487869
2.45273470878601074 0.278153687715530396 0.0348062627017498016
2.42856717109680176 0.26545676589012146 0.0291131008416414261
2.40889763832092285 0.281200766563415527 0.0491570830345153809
2.44606423377990723 0.284752428531646729 0.0436728224158287048
2.43566560745239258 0.295374453067779541 0.062585875391960144
2.44871306419372559 0.295007675886154175 0.0575497858226299286
2.42694807052612305 0.301044702529907227 0.0809661373496055603
2.44825100898742676 0.3032054603099823 0.0759068876504898071
2.40753436088562012 0.302111506462097168 0.108296416699886322
2.45726561546325684 0.307699888944625854 0.0869997814297676086
2.44216728210449219 0.307070314884185791 0.101132690906524658
2.41959953308105469 0.30157625675201416 0.13042837381362915
2.46549463272094727 0.30947798490524292 0.121946327388286591
2.41040372848510742 0.297542303800582886 0.140401273965835571
2.4293370246887207 0.301825284957885742 0.134760260581970215
2.42143535614013672 0.293288528919219971 0.154359132051467896
2.47244477272033691 0.301514923572540283 0.148860543966293335
2.41986632347106934 0.274524480104446411 0.179653912782669067
2.46957564353942871 0.295812457799911499 0.159144103527069092
2.46958017349243164 0.294678419828414917 0.160634398460388184
2.42315816879272461 0.265898078680038452 0.187477171421051025
2.46921610832214355 0.276077002286911011 0.181429862976074219
2.47582292556762695 0.254720091819763184 0.196028202772140503
2.47404932975769043 0.262052297592163086 0.191737622022628784
2.42684721946716309 0.234277874231338501 0.204499870538711548
2.47775602340698242 0.249047279357910156 0.198218703269958496
2.44398093223571777 0.211283832788467407 0.208103805780410767
2.45029330253601074 0.221314907073974609 0.206808373332023621
2.4840233325958252 0.214992016553878784 0.205400466918945312
2.46995973587036133 0.208622679114341736 0.206545218825340271
2.45817828178405762 0.190038010478019714 0.205831468105316162
2.46668744087219238 0.202940329909324646 0.206429600715637207
2.45390224456787109 0.176490113139152527 0.202897608280181885
2.48688960075378418 0.180526435375213623 0.200117185711860657
2.44701027870178223 0.14892616868019104 0.190562382340431213
2.47205042839050293 0.169767946004867554 0.198062777519226074
2.47570991516113281 0.140845879912376404 0.17837841808795929
2.46709990501403809 0.149138599634170532 0.18687044084072113
2.46279597282409668 0.126376926898956299 0.164509221911430359
2.48190140724182129 0.13634134829044342 0.171860143542289734
2.46832370758056641 0.118406668305397034 0.148875311017036438
2.4657292366027832 0.123246721923351288 0.158892586827278137
2.45232558250427246 0.111420676112174988 0.137736156582832336
2.48735237121582031 0.118138879537582397 0.139374390244483948
2.45882773399353027 0.10850302129983902 0.117666490375995636
2.40775322914123535 0.279969662427902222 0.10198800265789032
2.40478658676147461 0.290847599506378174 0.0886594131588935852
2.40764808654785156 0.280464351177215576 0.101738743484020233
2.40524601936340332 0.274520397186279297 0.0608659312129020691
2.41276383399963379 0.237776577472686768 0.07592792809009552
2.415374755859375 0.245723098516464233 0.123383894562721252
2.41582226753234863 0.205907061696052551 0.0475453436374664307
2.41232013702392578 0.241193696856498718 0.0775824412703514099
2.41447782516479492 0.223482072353363037 0.0672940760850906372
2.40980768203735352 0.288481980562210083 0.143940925598144531
2.41623091697692871 0.265425950288772583 0.173813730478286743
2.41541481018066406 0.239748656749725342 0.111682415008544922
2.41611790657043457 0.234629064798355103 0.109655782580375671
2.41034412384033203 0.223871827125549316 0.0186057537794113159
2.40942025184631348 0.283453494310379028 0.129048064351081848
2.41067600250244141 0.265384078025817871 0.107232131063938141
2.41135907173156738 0.22899898886680603 0.041210465133190155
2.41137146949768066 0.227067440748214722 0.0374189130961894989
2.43674302101135254 0.153776377439498901 0.191672384738922119
2.41724133491516113 0.194849342107772827 0.041983582079410553
2.41964864730834961 0.178492888808250427 0.0374485291540622711
2.41708159446716309 0.214170902967453003 0.0794740542769432068
2.42276453971862793 0.154861807823181152 0.0265557859092950821
2.41762900352478027 0.195276156067848206 0.0474951416254043579
2.42129802703857422 0.18974776566028595 0.0801412612199783325
2.42231249809265137 0.18436393141746521 0.0813087224960327148
2.42437314987182617 0.146653681993484497 0.0290753468871116638
2.42305636405944824 0.166280552744865417 0.0533332079648971558
2.42565274238586426 0.211591064929962158 0.176813393831253052
2.42177343368530273 0.23921048641204834 0.186699151992797852
2.4208979606628418 0.215265572071075439 0.127388998866081238
2.42128896713256836 0.221824631094932556 0.145445048809051514
2.42307305335998535 0.199266701936721802 0.120800189673900604
2.4241034984588623 0.188234522938728333 0.110638551414012909
2.42586398124694824 0.185825884342193604 0.12680189311504364
2.42258381843566895 0.188446745276451111 0.0928812921047210693
2.42361092567443848 0.23376782238483429 0.197595328092575073
2.43979740142822266 0.108474873006343842 0.135853812098503113
2.43720006942749023 0.140051975846290588 0.169154912233352661
2.43724274635314941 0.142220631241798401 0.174086421728134155
2.43522024154663086 0.130577117204666138 0.126134425401687622
2.43595671653747559 0.125495195388793945 0.124586880207061768
2.43514132499694824 0.139913693070411682 0.144230201840400696
2.43354439735412598 0.145154654979705811 0.13580244779586792
2.43248867988586426 0.15441623330116272 0.142050579190254211
2.43189287185668945 0.164970993995666504 0.156440883874893188
2.43289637565612793 0.166060835123062134 0.170677617192268372
2.43031573295593262 0.174378871917724609 0.156749635934829712
2.43320727348327637 0.1665324866771698 0.175357699394226074
2.42786431312561035 0.168696284294128418 0.115817829966545105
2.42641782760620117 0.170073822140693665 0.101308614015579224
2.42992854118347168 0.159654021263122559 0.122085630893707275
2.42901945114135742 0.184450030326843262 0.161768972873687744
2.43184041976928711 0.128279343247413635 0.0809893906116485596
2.42986011505126953 0.150518402457237244 0.102636583149433136
2.42976880073547363 0.144630745053291321 0.0895377397537231445
2.42887663841247559 0.191811010241508484 0.175070703029632568
2.42963600158691406 0.163058340549468994 0.125528544187545776
2.42779397964477539 0.18904191255569458 0.156463474035263062
2.3460233211517334 0.222547650337219238 0.0336003005504608154
2.34389519691467285 0.240634366869926453 0.0487902723252773285
2.34737396240234375 0.209761768579483032 0.0213668346405029297
2.34057164192199707 0.266197532415390015 0.0671983212232589722
2.34143328666687012 0.268999040126800537 0.081116601824760437
2.35566210746765137 0.184089779853820801 0.0509541332721710205
2.35056734085083008 0.198065683245658875 0.0291890539228916168
2.35012149810791016 0.247977092862129211 0.123806491494178772
2.35335946083068848 0.192335590720176697 0.0449410378932952881
2.35223698616027832 0.218709811568260193 0.0863263607025146484
2.34862589836120605 0.205351382493972778 0.0247802939265966415
2.35523509979248047 0.189697206020355225 0.0579214468598365784
2.35261297225952148 0.189233571290969849 0.0315438210964202881
2.34776401519775391 0.259268015623092651 0.123298846185207367
2.34884452819824219 0.26375851035118103 0.14269217848777771
2.34434819221496582 0.273663341999053955 0.118669085204601288
2.34535956382751465 0.27246817946434021 0.126121073961257935
2.34771490097045898 0.260414242744445801 0.125093027949333191
2.34873700141906738 0.225268304347991943 0.0653425976634025574
2.37063360214233398 0.114388041198253632 0.0581491738557815552
2.3601834774017334 0.154468759894371033 0.0361327454447746277
2.36258816719055176 0.184831291437149048 0.1196756511926651
2.36328411102294922 0.213115900754928589 0.182506963610649109
2.36206698417663574 0.192581728100776672 0.129978984594345093
2.36320090293884277 0.149378478527069092 0.0553430281579494476
2.3627781867980957 0.14769706130027771 0.0479069799184799194
2.36094379425048828 0.163974851369857788 0.0623632445931434631
2.36131668090820312 0.164034217596054077 0.0661012604832649231
2.36484313011169434 0.184942662715911865 0.14179307222366333
2.36462712287902832 0.194995597004890442 0.159625768661499023
2.35703659057617188 0.237608030438423157 0.170395821332931519
2.35753464698791504 0.233018845319747925 0.166136950254440308
2.35858321189880371 0.216784477233886719 0.144134342670440674
2.3607940673828125 0.200044170022010803 0.13241344690322876
2.35655903816223145 0.240228772163391113 0.170953854918479919
2.35666418075561523 0.185396671295166016 0.0632751286029815674
2.35988092422485352 0.223087549209594727 0.169229418039321899
2.3583533763885498 0.216361656785011292 0.141063123941421509
2.35928463935852051 0.186281681060791016 0.090475909411907196
2.35751652717590332 0.195306956768035889 0.0911957323551177979
2.38121604919433594 0.107987232506275177 0.148216292262077332
2.38046789169311523 0.113506853580474854 0.151893660426139832
2.37851905822753906 0.113249644637107849 0.132459133863449097
2.3773505687713623 0.121674641966819763 0.137814164161682129
2.37876319885253906 0.120407193899154663 0.149019882082939148
2.37515974044799805 0.149487733840942383 0.171679913997650146
2.37352633476257324 0.154120981693267822 0.165003865957260132
2.37289929389953613 0.11893889307975769 0.0891706496477127075
2.37515735626220703 0.150169938802719116 0.173008829355239868
2.37275052070617676 0.148328810930252075 0.14599001407623291
2.37166643142700195 0.169335857033729553 0.177106350660324097
2.37019228935241699 0.148130074143409729 0.120754286646842957
2.36771249771118164 0.167065709829330444 0.134214967489242554
2.37018251419067383 0.139751285314559937 0.104049935936927795
2.36780834197998047 0.187646403908729553 0.175946563482284546
2.37254071235656738 0.161444306373596191 0.169951245188713074
2.37178301811218262 0.143486738204956055 0.126996666193008423
2.3705451488494873 0.13731616735458374 0.102743662893772125
2.38585662841796875 0.0979173853993415833 0.090228348970413208
2.42882585525512695 0.104510925710201263 0.0934696793556213379
2.37743330001831055 0.101402364671230316 0.0767482444643974304
2.4199366569519043 0.106141194701194763 0.0816522985696792603
2.38080120086669922 0.110769256949424744 0.0600702427327632904
2.41241025924682617 0.110402174293994904 0.0681796669960021973
2.4006807804107666 0.12484818696975708 0.0449998825788497925
2.3950340747833252 0.114474482834339142 0.0568969026207923889
2.39213657379150391 0.136394605040550232 0.0338818952441215515
2.42605257034301758 0.13755914568901062 0.0352978259325027466
2.36885237693786621 0.125054121017456055 0.0415042228996753693
2.41760778427124023 0.15982721745967865 0.0198582150042057037
2.39761686325073242 0.148102268576622009 0.0261700581759214401
2.3747859001159668 0.164855435490608215 0.0189737025648355484
2.40701436996459961 0.169509932398796082 0.0164206903427839279
2.38594365119934082 0.185589134693145752 0.0138112222775816917
2.38774871826171875 0.179913729429244995 0.0144424485042691231
2.36632990837097168 0.190375015139579773 0.0149065433070063591
2.35373210906982422 0.198682084679603577 0.0162812843918800354
2.35153508186340332 0.209289103746414185 0.0177648477256298065
2.38780951499938965 0.207763642072677612 0.0133346300572156906
2.35184121131896973 0.232111662626266479 0.0244865622371435165
2.34771990776062012 0.228972077369689941 0.0240621045231819153
2.37730264663696289 0.218982428312301636 0.0161995459347963333
2.36382150650024414 0.221118032932281494 0.0186544656753540039
2.3485710620880127 0.247461751103401184 0.0335015393793582916
2.39451861381530762 0.248434722423553467 0.0244913846254348755
2.38543534278869629 0.267501264810562134 0.040315922349691391
2.36103320121765137 0.259934544563293457 0.0403191111981868744
2.39690089225769043 0.2540302574634552 0.0271950848400592804
2.36330366134643555 0.277086019515991211 0.0588118508458137512
2.39194583892822266 0.268741965293884277 0.0397273078560829163
2.35968613624572754 0.265184164047241211 0.0452844947576522827
2.35635495185852051 0.281147301197052002 0.0686802193522453308
2.38591194152832031 0.284631162881851196 0.0621106661856174469
2.39607357978820801 0.296573489904403687 0.0841811597347259521
2.39105463027954102 0.294086724519729614 0.0803945884108543396
2.39839506149291992 0.295085638761520386 0.078756675124168396
2.37316584587097168 0.29470023512840271 0.0979822203516960144
2.39623212814331055 0.297564834356307983 0.088301531970500946
2.39736533164978027 0.30009809136390686 0.105329357087612152
2.38671112060546875 0.298128604888916016 0.11611919105052948
2.34634518623352051 0.287597745656967163 0.139478728175163269
2.38685774803161621 0.297782331705093384 0.119785793125629425
2.34983706474304199 0.284398257732391357 0.150563076138496399
2.38266086578369141 0.293183833360671997 0.140434801578521729
2.38344836235046387 0.284069240093231201 0.162018358707427979
2.39075303077697754 0.285614490509033203 0.161130562424659729
2.35447382926940918 0.269376546144485474 0.177804067730903625
2.37958216667175293 0.274527549743652344 0.175155505537986755
2.39446640014648438 0.254809558391571045 0.194738298654556274
2.39371633529663086 0.256698101758956909 0.193287134170532227
2.41378998756408691 0.263042598962783813 0.189483359456062317
2.38165187835693359 0.240802213549613953 0.202593713998794556
2.41836237907409668 0.259987622499465942 0.19199119508266449
2.37869119644165039 0.220335900783538818 0.210465654730796814
2.39141607284545898 0.228751838207244873 0.207634910941123962
2.37059736251831055 0.198863863945007324 0.214529871940612793
2.39622378349304199 0.218999236822128296 0.210174500942230225
2.41202688217163086 0.201239585876464844 0.211179584264755249
2.40702080726623535 0.178678616881370544 0.209630265831947327
2.42188096046447754 0.185178622603416443 0.208938285708427429
2.38855075836181641 0.161376819014549255 0.207348883152008057
2.40964722633361816 0.16997915506362915 0.206982597708702087
2.38288116455078125 0.142451852560043335 0.199477240443229675
2.43228745460510254 0.161357685923576355 0.199804767966270447
2.38975048065185547 0.135215386748313904 0.193467289209365845
2.40215921401977539 0.130061328411102295 0.185868114233016968
2.42108845710754395 0.136462777853012085 0.186725735664367676
2.38712310791015625 0.114196263253688812 0.172618389129638672
2.41756439208984375 0.123493559658527374 0.174564063549041748
2.41682529449462891 0.109072349965572357 0.151870131492614746
2.39086723327636719 0.10975077748298645 0.165213629603385925
2.3945777416229248 0.101175069808959961 0.143788725137710571
2.4319002628326416 0.112263336777687073 0.151144534349441528
2.39463186264038086 0.0967670902609825134 0.119176775217056274
2.39496874809265137 0.0973796546459197998 0.125584587454795837
2.41360878944396973 0.10246693342924118 0.134136304259300232
2.40702700614929199 0.0988416597247123718 0.11438770592212677
2.33925318717956543 0.284277975559234619 0.0902388840913772583
2.34009909629821777 0.271319836378097534 0.0727650746703147888
2.34060049057006836 0.257751494646072388 0.050734199583530426
2.34502792358398438 0.281022369861602783 0.139858871698379517
2.34746670722961426 0.248956739902496338 0.0999713987112045288
2.34439897537231445 0.255498409271240234 0.0831518247723579407
2.34327530860900879 0.272597730159759521 0.106139004230499268
2.34606575965881348 0.243454009294509888 0.0754589885473251343
2.3493196964263916 0.25542062520980835 0.130778029561042786
2.35415530204772949 0.223267987370491028 0.113992124795913696
2.34759712219238281 0.259841203689575195 0.122814647853374481
2.35490846633911133 0.235079050064086914 0.144719570875167847
2.34987235069274902 0.266039937734603882 0.157195731997489929
2.35202670097351074 0.259619235992431641 0.165386408567428589
2.35554170608520508 0.222363069653511047 0.125659510493278503
2.35300993919372559 0.229824870824813843 0.115869045257568359
2.34772133827209473 0.258167117834091187 0.120700173079967499
2.34586715698242188 0.228182435035705566 0.043256070464849472
2.35144877433776855 0.189518630504608154 0.0208029542118310928
2.34521341323852539 0.233893647789955139 0.0482276827096939087
2.35895562171936035 0.241157189011573792 0.196067512035369873
2.36070775985717773 0.208348721265792847 0.148040011525154114
2.36479449272155762 0.216426938772201538 0.203737825155258179
2.36144089698791504 0.189807936549186707 0.11840125173330307
2.36274862289428711 0.183163627982139587 0.117927655577659607
2.36445355415344238 0.190228655934333801 0.148489668965339661
2.36244463920593262 0.179030030965805054 0.106781959533691406
2.36447858810424805 0.164339497685432434 0.0974076315760612488
2.36357021331787109 0.173533499240875244 0.106812998652458191
2.35981059074401855 0.173512816429138184 0.0702673643827438354
2.35912871360778809 0.180196836590766907 0.0768983066082000732
2.35709047317504883 0.209147602319717407 0.114499576389789581
2.35981869697570801 0.170977413654327393 0.065319061279296875
2.36329984664916992 0.149338528513908386 0.0562256649136543274
2.35764837265014648 0.203519910573959351 0.108760900795459747
2.36082553863525391 0.179451733827590942 0.0918963178992271423
2.35442090034484863 0.194722622632980347 0.0599797070026397705
2.35699939727783203 0.228376179933547974 0.151732474565505981
2.37217855453491211 0.182576403021812439 0.208328336477279663
2.37197327613830566 0.180254802107810974 0.201734095811843872
2.37466049194335938 0.159833595156669617 0.187340199947357178
2.3782196044921875 0.144848838448524475 0.192196041345596313
2.37424588203430176 0.127892032265663147 0.119995370507240295
2.37937831878662109 0.103826813399791718 0.122121542692184448
2.38026595115661621 0.106648936867713928 0.136336520314216614
2.37252378463745117 0.156084686517715454 0.159162580966949463
2.37377643585205078 0.148144438862800598 0.155585482716560364
2.3731529712677002 0.153429090976715088 0.160009294748306274
2.36919951438903809 0.12966504693031311 0.0745101273059844971
2.36822676658630371 0.16682666540145874 0.138733834028244019
2.36794233322143555 0.193151563405990601 0.188160300254821777
2.3727114200592041 0.139120772480964661 0.127355068922042847
2.37197089195251465 0.133717775344848633 0.109453752636909485
2.37219333648681641 0.125104144215583801 0.0945387184619903564
2.36822843551635742 0.203387871384620667 0.211229696869850159
2.36798882484436035 0.201467961072921753 0.20509868860244751
2.36949419975280762 0.151471793651580811 0.120601825416088104
2.32746744155883789 0.0834173262119293213 0.107960119843482971
2.32357358932495117 0.0835376083850860596 0.101413555443286896
2.37172818183898926 0.0926809608936309814 0.106726206839084625
2.35681414604187012 0.0971454530954360962 0.0783638358116149902
2.37360072135925293 0.0954243466258049011 0.0925468429923057556
2.32003498077392578 0.0975693762302398682 0.0668810978531837463
2.35222434997558594 0.100919626653194427 0.0694535300135612488
2.32805299758911133 0.11797969788312912 0.0450931787490844727
2.36211967468261719 0.109407693147659302 0.0587339773774147034
2.34614038467407227 0.133867084980010986 0.0338695384562015533
2.35019993782043457 0.129215776920318604 0.0370123796164989471
2.31668782234191895 0.147423535585403442 0.0271464213728904724
2.31792235374450684 0.135231062769889832 0.0325659215450286865
2.33697748184204102 0.163550511002540588 0.0209318865090608597
2.35246467590332031 0.159958496689796448 0.0213754996657371521
2.33350944519042969 0.177047297358512878 0.0188305564224720001
2.35391068458557129 0.165886610746383667 0.0193251799792051315
2.34822821617126465 0.18463703989982605 0.0168431680649518967
2.31690120697021484 0.190956711769104004 0.0205141380429267883
2.30362987518310547 0.209371194243431091 0.0256042666733264923
2.34122991561889648 0.202418923377990723 0.0182815026491880417
2.29091787338256836 0.21991083025932312 0.031756814569234848
2.30658364295959473 0.213602736592292786 0.0262287408113479614
2.29586505889892578 0.242926210165023804 0.0445098206400871277
2.2810981273651123 0.228671744465827942 0.0380459614098072052
2.33268165588378906 0.227324455976486206 0.0262944512069225311
2.28441262245178223 0.24976038932800293 0.0543244294822216034
2.33027124404907227 0.242209330201148987 0.0346249006688594818
2.3225409984588623 0.267351776361465454 0.060598369687795639
2.31355690956115723 0.261835038661956787 0.0574193559587001801
2.33674001693725586 0.272470474243164062 0.0623979680240154266
2.31998610496520996 0.271815955638885498 0.069289088249206543
2.31871652603149414 0.281397759914398193 0.0922394618391990662
2.31647205352783203 0.275092095136642456 0.0766784772276878357
2.31685256958007812 0.283345907926559448 0.104104749858379364
2.28872346878051758 0.275275945663452148 0.0972267389297485352
2.3297264575958252 0.287148207426071167 0.115705177187919617
2.32689690589904785 0.286479294300079346 0.115117728710174561
2.33655691146850586 0.288394927978515625 0.12054772675037384
2.32393932342529297 0.285732388496398926 0.121105879545211792
2.33508086204528809 0.286547034978866577 0.13523709774017334
2.29745745658874512 0.274254649877548218 0.15343610942363739
2.34335017204284668 0.286852717399597168 0.139606505632400513
2.31825685501098633 0.27292141318321228 0.164375156164169312
2.31859922409057617 0.273839712142944336 0.162672340869903564
2.33070731163024902 0.262300640344619751 0.18275730311870575
2.34071063995361328 0.273843318223953247 0.169500932097434998
2.29701113700866699 0.246512472629547119 0.195056796073913574
2.33665680885314941 0.250771373510360718 0.194472506642341614
2.32711219787597656 0.227893799543380737 0.209350615739822388
2.30804300308227539 0.232192754745483398 0.206469118595123291
2.33242034912109375 0.238659009337425232 0.203066825866699219
2.3096468448638916 0.220892965793609619 0.212599679827690125
2.35546875 0.222697421908378601 0.21055959165096283
2.3356330394744873 0.20207194983959198 0.217267543077468872
2.36131548881530762 0.216536164283752441 0.212548360228538513
2.32469868659973145 0.19569261372089386 0.219244688749313354
2.3543398380279541 0.183225452899932861 0.216492578387260437
2.32159519195556641 0.165246158838272095 0.219297260046005249
2.33140182495117188 0.149860113859176636 0.213898167014122009
2.35343170166015625 0.163002863526344299 0.213656887412071228
2.33684325218200684 0.139367654919624329 0.208236768841743469
2.37154006958007812 0.146006286144256592 0.203925043344497681
2.33920574188232422 0.12657029926776886 0.200044885277748108
2.37660098075866699 0.137324124574661255 0.197780385613441467
2.35361289978027344 0.111271791160106659 0.181648731231689453
2.3625032901763916 0.120193928480148315 0.18840847909450531
2.38151288032531738 0.123969927430152893 0.185875684022903442
2.32831740379333496 0.0935690850019454956 0.166732892394065857
2.36930274963378906 0.108713611960411072 0.172545671463012695
2.34503841400146484 0.0913682952523231506 0.150835543870925903
2.32650375366210938 0.0842171311378479004 0.142200276255607605
2.3592228889465332 0.0956815853714942932 0.152568340301513672
2.32590222358703613 0.0821531787514686584 0.1278420090675354
2.38120770454406738 0.0959677547216415405 0.135160565376281738
2.2782595157623291 0.237625300884246826 0.0496259406208992004
2.31224298477172852 0.0981183499097824097 0.0705453306436538696
2.28381180763244629 0.22206956148147583 0.0668992102146148682
2.2802433967590332 0.238016888499259949 0.0671869665384292603
2.28236269950866699 0.209229215979576111 0.0300396662205457687
2.27803945541381836 0.247435286641120911 0.0665412545204162598
2.28347373008728027 0.245544746518135071 0.108971834182739258
2.28523373603820801 0.243929877877235413 0.120793618261814117
2.28291654586791992 0.231351360678672791 0.0770799592137336731
2.28603839874267578 0.213500156998634338 0.0693613439798355103
2.28424191474914551 0.235274016857147217 0.0958193764090538025
2.28634309768676758 0.227684333920478821 0.099094785749912262
2.30219268798828125 0.126533687114715576 0.0397758632898330688
2.29977512359619141 0.169504985213279724 0.101548239588737488
2.29662561416625977 0.220736771821975708 0.172930628061294556
2.29599952697753906 0.202376410365104675 0.132480010390281677
2.29877829551696777 0.178855642676353455 0.111000105738639832
2.3004755973815918 0.137802183628082275 0.0467947050929069519
2.29668998718261719 0.216583296656608582 0.165523946285247803
2.29723596572875977 0.171255394816398621 0.0833810046315193176
2.30010199546813965 0.166936933994293213 0.0994014665484428406
2.29910612106323242 0.160243064165115356 0.0781495645642280579
2.2898106575012207 0.254247546195983887 0.179328277707099915
2.28741025924682617 0.246818810701370239 0.144768938422203064
2.29130220413208008 0.200349867343902588 0.0887939035892486572
2.28693675994873047 0.259410321712493896 0.164860203862190247
2.29492378234863281 0.227527007460594177 0.171509489417076111
2.28672599792480469 0.244711771607398987 0.134935870766639709
2.2899317741394043 0.213691607117652893 0.102720431983470917
2.29344034194946289 0.24380086362361908 0.190091609954833984
2.29114794731140137 0.230903416872024536 0.145975321531295776
2.32336807250976562 0.0908418893814086914 0.150889858603477478
2.3166203498840332 0.146018162369728088 0.199332565069198608
2.31675100326538086 0.140745550394058228 0.190346643328666687
2.31718301773071289 0.130977034568786621 0.175308436155319214
2.3183286190032959 0.142236977815628052 0.206570297479629517
2.31279778480529785 0.117598846554756165 0.112538769841194153
2.30673861503601074 0.161264076828956604 0.144779503345489502
2.31037044525146484 0.159985706210136414 0.173108622431755066
2.3106226921081543 0.117726594209671021 0.0943528115749359131
2.314361572265625 0.110680319368839264 0.112545214593410492
2.30862140655517578 0.154770299792289734 0.148304030299186707
2.31215906143188477 0.122187599539756775 0.115909762680530548
2.3079380989074707 0.128565341234207153 0.0923487991094589233
2.3136904239654541 0.109306469559669495 0.104228831827640533
2.31616353988647461 0.128911644220352173 0.162715628743171692
2.31569886207580566 0.106752462685108185 0.116359859704971313
2.31319379806518555 0.13541799783706665 0.150005489587783813
2.32179379463195801 0.0887724757194519043 0.133587807416915894
2.31077027320861816 0.167359128594398499 0.190612480044364929
2.31523680686950684 0.114621371030807495 0.127507537603378296
2.30775618553161621 0.187765181064605713 0.204134747385978699
2.30761337280273438 0.180059611797332764 0.188172712922096252
2.304656982421875 0.197647422552108765 0.196786731481552124
2.30520820617675781 0.142236292362213135 0.0953874737024307251
2.30111980438232422 0.168316304683685303 0.110666058957576752
2.30352449417114258 0.143622741103172302 0.0837741196155548096
2.30203843116760254 0.204814940690994263 0.188318774104118347
2.30393743515014648 0.161883801221847534 0.122229814529418945
2.30064678192138672 0.187377706170082092 0.143147483468055725
2.28196358680725098 0.272149652242660522 0.147104337811470032
2.27580738067626953 0.263443142175674438 0.0782699510455131531
2.2762901782989502 0.259566694498062134 0.0749400779604911804
2.28089022636413574 0.258276253938674927 0.111449778079986572
2.27901840209960938 0.260312408208847046 0.0994870439171791077
2.2881171703338623 0.208537429571151733 0.077477872371673584
2.28423929214477539 0.242770612239837646 0.110148996114730835
2.28128576278686523 0.243225321173667908 0.0859898403286933899
2.29154777526855469 0.167127698659896851 0.0272790007293224335
2.29283738136291504 0.240231126546859741 0.178146541118621826
2.29038643836975098 0.190391510725021362 0.0619694776833057404
2.29222536087036133 0.240778625011444092 0.174008041620254517
2.29143238067626953 0.177342712879180908 0.0458554700016975403
2.29149794578552246 0.190301686525344849 0.0712186694145202637
2.29218506813049316 0.192961230874061584 0.082130730152130127
2.29024147987365723 0.199540853500366211 0.0782573595643043518
2.29175043106079102 0.248144775629043579 0.184086039662361145
2.28959560394287109 0.254064023494720459 0.177157461643218994
2.28190517425537109 0.216658547520637512 0.0403846055269241333
2.28616666793823242 0.194275900721549988 0.0336478091776371002
2.27909994125366211 0.254827320575714111 0.0896781757473945618
2.29427242279052734 0.177751198410987854 0.0707030445337295532
2.30038881301879883 0.162325486540794373 0.0930043384432792664
2.29295921325683594 0.170290753245353699 0.0452935844659805298
2.2991020679473877 0.180447369813919067 0.116790801286697388
2.2996673583984375 0.166037619113922119 0.0939979329705238342
2.29620194435119629 0.18976767361164093 0.11005672812461853
2.29642200469970703 0.196603745222091675 0.125007867813110352
2.29433393478393555 0.183827042579650879 0.0828561484813690186
2.29320907592773438 0.163322776556015015 0.0340717844665050507
2.30475020408630371 0.173445016145706177 0.151247590780258179
2.30359530448913574 0.183812111616134644 0.16130654513835907
2.30132102966308594 0.207822397351264954 0.187997862696647644
2.30575370788574219 0.176213636994361877 0.165051698684692383
2.30234360694885254 0.170645818114280701 0.125496983528137207
2.30370688438415527 0.173026815056800842 0.141608089208602905
2.30354571342468262 0.183648183941841125 0.160573899745941162
2.30314445495605469 0.189389556646347046 0.168163925409317017
2.3016660213470459 0.206637844443321228 0.188652843236923218
2.31208062171936035 0.102993331849575043 0.0785011500120162964
2.31114292144775391 0.133830651640892029 0.129586905241012573
2.30826020240783691 0.144678503274917603 0.125924915075302124
2.31442046165466309 0.0972202569246292114 0.0872781723737716675
2.31035876274108887 0.1246165931224823 0.105303287506103516
2.30982565879821777 0.161141246557235718 0.170703127980232239
2.3063046932220459 0.155048564076423645 0.129205584526062012
2.3128056526184082 0.111802220344543457 0.101509623229503632
2.3117067813873291 0.124285787343978882 0.11609339714050293
2.3142096996307373 0.129341214895248413 0.146980166435241699
2.31373262405395508 0.150425985455513 0.183300480246543884
2.31507110595703125 0.126281559467315674 0.148425161838531494
2.31373500823974609 0.136534780263900757 0.156729340553283691
2.31510567665100098 0.143634676933288574 0.181934669613838196
2.31309342384338379 0.148417741060256958 0.174038201570510864
2.31762456893920898 0.14199480414390564 0.20014035701751709
2.31951665878295898 0.125809699296951294 0.185193285346031189
2.31538701057434082 0.158053815364837646 0.211921513080596924
2.32289004325866699 0.104645892977714539 0.173265576362609863
2.23120689392089844 0.151617124676704407 0.0399427972733974457
2.25289392471313477 0.0835533067584037781 0.0839776843786239624
2.24055647850036621 0.127342432737350464 0.0682105422019958496
2.25494742393493652 0.0847423747181892395 0.102128960192203522
2.21813654899597168 0.216330647468566895 0.0567961186170578003
2.23889923095703125 0.143798917531967163 0.0854608789086341858
2.23337817192077637 0.185976624488830566 0.119760453701019287
2.24162912368774414 0.125159844756126404 0.0725571587681770325
2.22183108329772949 0.222228139638900757 0.0963345170021057129
2.22443628311157227 0.209651663899421692 0.0935665741562843323
2.24953556060791016 0.114963293075561523 0.115381844341754913
2.25769186019897461 0.0798322856426239014 0.114483729004859924
2.23163676261901855 0.187086135149002075 0.108248226344585419
2.24498105049133301 0.128674745559692383 0.105068281292915344
2.24756884574890137 0.119071021676063538 0.10760776698589325
2.22727036476135254 0.21587805449962616 0.127015501260757446
2.23248982429504395 0.176477044820785522 0.0954530388116836548
2.22483277320861816 0.192819267511367798 0.0658231526613235474
2.23224020004272461 0.180007517337799072 0.0999788045883178711
2.22540426254272461 0.195356264710426331 0.074913904070854187
2.25296401977539062 0.0948555320501327515 0.1052241250872612
