ply
format ascii 1.0
element vertex 965
property float x
property float y
property float z
end_header
1.28469359874725342 1.38542187213897705 0.15572163462638855
2.56307363510131836 0.42209327220916748 0.152711227536201477
2.19153451919555664 0.7020682692527771 0.154267042875289917
2.90501594543457031 0.164421290159225464 0.140192613005638123
2.92620468139648438 0.148454442620277405 0.132719606161117554
1.7277989387512207 1.05151808261871338 0.0993269085884094238
1.31837224960327148 1.36004316806793213 0.183296218514442444
0.843717575073242188 1.71772110462188721 0.146313518285751343
2.89477348327636719 0.172139599919319153 0.153027266263961792
1.35340976715087891 1.333640456199646 0.195702493190765381
2.92987537384033203 0.145688384771347046 0.0606161206960678101
1.64688241481781006 1.11249303817749023 0.191672995686531067
1.74431407451629639 1.03907299041748047 0.134183630347251892
1.61968386173248291 1.1329885721206665 0.119056344032287598
1.36693143844604492 1.32345128059387207 0.113460324704647064
2.73181962966918945 0.29493415355682373 0.0678657591342926025
1.26635277271270752 1.39924275875091553 0.146912947297096252
0.628985166549682617 1.87953364849090576 0.192012250423431396
2.21735072135925293 0.682614326477050781 0.184106379747390747
2.34283256530761719 0.588056981563568115 0.154538258910179138
1.35840034484863281 1.32987987995147705 0.130049780011177063
1.13154482841491699 1.50082778930664062 0.149101674556732178
2.7280876636505127 0.297746360301971436 0.127168208360671997
2.08843398094177246 0.779760003089904785 0.132112950086593628
1.03526687622070312 1.57337844371795654 0.146509528160095215
2.65794849395751953 0.350599974393844604 0.121428169310092926
2.93314957618713379 0.143221199512481689 0.130045115947723389
2.09362673759460449 0.775847017765045166 0.131361469626426697
2.25993633270263672 0.650523781776428223 0.170000180602073669
2.54385852813720703 0.436572998762130737 0.133773297071456909
1.8948434591293335 0.92564094066619873 0.146018043160438538
3.06106138229370117 0.0468327142298221588 0.0868102088570594788
2.48432087898254395 0.481437832117080688 0.173343256115913391
1.76451420783996582 1.02385115623474121 0.138274967670440674
2.91949224472045898 0.153512746095657349 0.134084165096282959
1.26842319965362549 1.3976825475692749 0.181790024042129517
2.37857365608215332 0.561124026775360107 0.148702114820480347
2.94606232643127441 0.133490622043609619 0.0824755355715751648
1.56865274906158447 1.17144322395324707 0.187325090169906616
2.79983639717102051 0.243679851293563843 0.120054751634597778
2.7316286563873291 0.295078009366989136 0.167181998491287231
2.1598200798034668 0.72596663236618042 0.0654971897602081299
1.30010461807250977 1.37380886077880859 0.177200555801391602
2.1703495979309082 0.718032121658325195 0.191721826791763306
2.05243444442749023 0.806887686252593994 0.105076290667057037
3.01919651031494141 0.0783801376819610596 0.0688403993844985962
1.72295773029327393 1.05516612529754639 0.104776151478290558
2.33754944801330566 0.592038094997406006 0.168545395135879517
1.6649855375289917 1.09885132312774658 0.16242179274559021
1.9388427734375 0.89248502254486084 0.146660834550857544
2.96948671340942383 0.115839064121246338 0.0812060460448265076
2.57775568962097168 0.411029696464538574 0.061622127890586853
1.62533366680145264 1.1287311315536499 0.177622437477111816
2.0919339656829834 0.777122616767883301 0.0740301012992858887
2.03958773612976074 0.816568315029144287 0.0859216675162315369
0.431383132934570312 2.02843737602233887 0.176177814602851868
2.10752248764038086 0.765375792980194092 0.074472576379776001
3.01774883270263672 0.079470999538898468 0.139488637447357178
1.04758882522583008 1.56409323215484619 0.185664504766464233
2.11171436309814453 0.762217044830322266 0.170198932290077209
1.68552899360656738 1.08337068557739258 0.110358119010925293
1.93097829818725586 0.898411393165588379 0.0939088240265846252
2.53380417823791504 0.444149434566497803 0.166165739297866821
2.43586230278015137 0.517954051494598389 0.15400734543800354
2.99698162078857422 0.0951202809810638428 0.173596128821372986
2.98196554183959961 0.106435686349868774 0.113777138292789459
1.61168336868286133 1.13901746273040771 0.136173099279403687
2.15418195724487305 0.730215311050415039 0.0971588268876075745
2.39993858337402344 0.545024514198303223 0.0854657664895057678
2.63058948516845703 0.371216475963592529 0.166558325290679932
2.64859414100646973 0.357649028301239014 0.18079511821269989
2.90346598625183105 0.165589332580566406 0.0542845726013183594
2.54458284378051758 0.436027169227600098 0.0491036474704742432
2.12110328674316406 0.755141913890838623 0.0827824994921684265
3.11367630958557129 0.00718443188816308975 0.176130324602127075
2.15914297103881836 0.726476907730102539 0.192457288503646851
2.05507183074951172 0.804900288581848145 0.199346587061882019
2.06897902488708496 0.794420421123504639 0.127376139163970947
1.60688722133636475 1.14263153076171875 0.192300349473953247
2.58783888816833496 0.40343138575553894 0.0926674604415893555
2.18223905563354492 0.709072887897491455 0.167302548885345459
0.43605804443359375 2.02491474151611328 0.182550907135009766
2.47042155265808105 0.491911709308624268 0.0984513089060783386
2.23422741889953613 0.669896781444549561 0.14045754075050354
2.35835051536560059 0.57636338472366333 0.112404361367225647
1.72920966148376465 1.05045497417449951 0.192163631319999695
2.88926267623901367 0.176292344927787781 0.137679457664489746
2.61529946327209473 0.382738322019577026 0.155245095491409302
2.4459388256072998 0.5103607177734375 0.076441347599029541
1.44389224052429199 1.2654571533203125 0.173981949687004089
2.59337091445922852 0.399262815713882446 0.19963441789150238
2.93743777275085449 0.139989718794822693 0.173598110675811768
2.13310623168945312 0.746096968650817871 0.0903239771723747253
3.04116296768188477 0.0618272162973880768 0.188107863068580627
2.47602367401123047 0.487690210342407227 0.0703137964010238647
2.68501043319702148 0.330207347869873047 0.109829992055892944
1.96189260482788086 0.875115811824798584 0.115917198359966278
2.21774196624755859 0.682319521903991699 0.16601988673210144
2.25448298454284668 0.654633164405822754 0.127785354852676392
1.93223214149475098 0.897466540336608887 0.190028220415115356
2.17904186248779297 0.711482107639312744 0.188660472631454468
3.04616999626159668 0.0580541230738162994 0.191797763109207153
2.47334814071655273 0.489706307649612427 0.118710659444332123
1.43891286849975586 1.26920926570892334 0.110238432884216309
2.45477581024169922 0.503701627254486084 0.0503759384155273438
0.461845159530639648 2.00548267364501953 0.199985161423683167
1.17403721809387207 1.46880745887756348 0.177598118782043457
2.97006440162658691 0.115403875708580017 0.080221228301525116
1.09661197662353516 1.52715158462524414 0.139082968235015869
1.28374326229095459 1.38613808155059814 0.163350850343704224
2.43396210670471191 0.519385933876037598 0.192581102252006531
1.90149557590484619 0.920628249645233154 0.0937272533774375916
2.57450962066650391 0.413475751876831055 0.0447896420955657959
1.02403020858764648 1.58184576034545898 0.146738514304161072
1.7989044189453125 0.9979361891746521 0.140107795596122742
2.84705686569213867 0.208096638321876526 0.0628537833690643311
2.95996856689453125 0.12301161140203476 0.0195616930723190308
2.63851618766784668 0.365243375301361084 0.138124659657478333
1.43648159503936768 1.2710413932800293 0.159607172012329102
2.69877815246582031 0.319832742214202881 0.0657932758331298828
1.55576038360595703 1.18115842342376709 0.148724734783172607
2.02640914916992188 0.826499104499816895 0.16544640064239502
0.373916387557983398 2.07174181938171387 0.186100631952285767
0.487312555313110352 1.98629164695739746 0.184235230088233948
2.58543539047241211 0.405242681503295898 0.0636452138423919678
2.14306998252868652 0.738588929176330566 0.11625274270772934
0.537746667861938477 1.94828677177429199 0.19642360508441925
2.4060969352722168 0.540383875370025635 0.0981287285685539246
2.12493205070495605 0.752256810665130615 0.0759358331561088562
2.05550241470336914 0.804575800895690918 0.134110227227210999
2.31628704071044922 0.608060300350189209 0.17301294207572937
2.84715867042541504 0.208019852638244629 0.138909101486206055
2.03415703773498535 0.820660650730133057 0.113766126334667206
1.54302382469177246 1.19075608253479004 0.130416005849838257
1.24459779262542725 1.41563630104064941 0.142705708742141724
2.24186062812805176 0.664144754409790039 0.1815013587474823
2.03782320022583008 0.817898035049438477 0.101580522954463959
2.90888667106628418 0.161504477262496948 0.172596395015716553
2.80148077011108398 0.242440700531005859 0.0472446829080581665
3.09717774391174316 0.0196170024573802948 0.00970733165740966797
2.65967416763305664 0.34929966926574707 0.114155545830726624
2.59640836715698242 0.396973788738250732 0.141749605536460876
2.58981847763061523 0.401939630508422852 0.148626089096069336
0.570905447006225586 1.92329990863800049 0.180085480213165283
2.34908628463745117 0.583344459533691406 0.17253422737121582
2.89437675476074219 0.172438517212867737 0.154917195439338684
2.77824616432189941 0.259949207305908203 0.153071209788322449
2.83285164833068848 0.218800976872444153 0.132373660802841187
1.3627772331237793 1.32658159732818604 0.113950625061988831
2.68962645530700684 0.326728999614715576 0.0837383493781089783
1.21046161651611328 1.44135963916778564 0.174719437956809998
1.74019742012023926 1.0421750545501709 0.171899527311325073
2.46312165260314941 0.497412532567977905 0.0970301628112792969
2.68081283569335938 0.333370596170425415 0.195598512887954712
2.9300086498260498 0.145588040351867676 0.177059158682823181
2.16021537780761719 0.725668907165527344 0.0920966863632202148
2.1400144100189209 0.740891396999359131 0.157965376973152161
1.47573995590209961 1.24145817756652832 0.112715043127536774
2.96537303924560547 0.118939042091369629 0.139877587556838989
2.4833674430847168 0.482156217098236084 0.170360997319221497
2.11417412757873535 0.760363459587097168 0.173802152276039124
2.25573277473449707 0.653691351413726807 0.161895528435707092
2.09926700592041016 0.771596848964691162 0.0940053090453147888
2.36986184120178223 0.567688941955566406 0.143077358603477478
2.27007865905761719 0.64288097620010376 0.0834951549768447876
1.31747710704803467 1.3607177734375 0.176426663994789124
2.39268636703491211 0.550489425659179688 0.112840622663497925
2.37156391143798828 0.566406428813934326 0.172174111008644104
2.86507654190063477 0.194517761468887329 0.0500640571117401123
2.44473361968994141 0.511268854141235352 0.159257069230079651
2.50136685371398926 0.468592703342437744 0.168432697653770447
2.61849069595336914 0.380333691835403442 0.0884897336363792419
2.4696352481842041 0.492504298686981201 0.156103894114494324
2.87117815017700195 0.189920037984848022 0.195365309715270996
1.20555007457733154 1.4450608491897583 0.150381729006767273
1.65873098373413086 1.10356450080871582 0.133222609758377075
1.99309122562408447 0.851605892181396484 0.0740108191967010498
1.06583571434020996 1.55034303665161133 0.162524044513702393
1.72491610050201416 1.05369043350219727 0.197186306118965149
2.60791993141174316 0.388299226760864258 0.124608695507049561
2.78309440612792969 0.256295740604400635 0.123442083597183228
2.11327099800109863 0.761044025421142578 0.0848599299788475037
2.11289453506469727 0.761327683925628662 0.137924984097480774
2.36857771873474121 0.568656623363494873 0.0642427355051040649
2.39956998825073242 0.545302212238311768 0.09112548828125
2.48341536521911621 0.482120215892791748 0.128282904624938965
2.82529664039611816 0.224494218826293945 0.166615620255470276
1.83985888957977295 0.967074811458587646 0.172296404838562012
2.64614391326904297 0.359495371580123901 0.14427417516708374
1.62324631214141846 1.13030409812927246 0.145681366324424744
0.301857948303222656 2.12604165077209473 0.196733653545379639
2.15935039520263672 0.726320564746856689 0.153435319662094116
2.80922579765319824 0.236604437232017517 0.0968992039561271667
1.82012939453125 0.981942057609558105 0.163606807589530945
0.700903892517089844 1.82533907890319824 0.177628874778747559
2.27029681205749512 0.642716467380523682 0.140958070755004883
2.24657821655273438 0.660589873790740967 0.131703317165374756
1.23782122135162354 1.42074275016784668 0.153538554906845093
3.08009910583496094 0.0324867814779281616 0.0177769213914871216
1.81615471839904785 0.984937131404876709 0.138355568051338196
2.57314968109130859 0.414500445127487183 0.131180688738822937
2.89669060707092285 0.170694977045059204 0.172672286629676819
1.0367429256439209 1.57226622104644775 0.137110710144042969
2.6176154613494873 0.38099321722984314 0.0710721313953399658
1.8961712121963501 0.924640357494354248 0.174112111330032349
0.705211639404296875 1.82209277153015137 0.175467908382415771
2.03322315216064453 0.821364402770996094 0.105016864836215973
2.69771575927734375 0.320633202791213989 0.0500675886869430542
2.40397477149963379 0.54198300838470459 0.0898950695991516113
0.996350765228271484 1.60270369052886963 0.15076795220375061
0.937120199203491211 1.64733719825744629 0.153394117951393127
3.12207412719726562 0.000856311642564833164 0.0917229428887367249
1.99888801574707031 0.847237706184387207 0.116543255746364594
2.98134851455688477 0.106900639832019806 0.173110038042068481
3.14055848121643066 0.0230215918272733688 0.112124167382717133
3.1277005672454834 0.00595874572172760963 0.0591639876365661621
3.16531014442443848 0.0558680668473243713 0.105786554515361786
3.17393875122070312 0.0673185810446739197 0.0866019949316978455
3.21517014503479004 0.122034624218940735 0.0613877251744270325
3.12450456619262695 0.00171731808222830296 0.0275462847203016281
3.12853074073791504 0.00706019019708037376 0.165731951594352722
3.13742232322692871 0.0188597869127988815 0.0569059401750564575
3.23042011260986328 0.142272010445594788 0.0113817602396011353
3.14219021797180176 0.0251868832856416702 0.0604222342371940613
3.21526622772216797 0.122162103652954102 0.053678460419178009
3.20578265190124512 0.109576955437660217 0.035523533821105957
3.25080561637878418 0.169324368238449097 0.00485315918922424316
3.16994333267211914 0.062016565352678299 0.110704019665718079
3.16121697425842285 0.0504364036023616791 0.0597207285463809967
3.17409777641296387 0.0675298869609832764 0.0819575041532516479
3.19063568115234375 0.0894761830568313599 0.0493942126631736755
3.15474748611450195 0.041851092129945755 0.151762932538986206
3.14094209671020508 0.0235307496041059494 0.0258735883980989456
3.12968921661376953 0.00859751179814338684 0.0163377523422241211
3.23943519592285156 0.154235497117042542 0.0155967026948928833
3.22260499000549316 0.131901055574417114 0.0610443055629730225
3.13229537010192871 0.0120561914518475533 0.0853794887661933899
3.19245362281799316 0.0918886587023735046 0.0340239480137825012
3.19196844100952148 0.091244816780090332 0.074735596776008606
3.19864940643310547 0.100110732018947601 0.0139669477939605713
3.14070272445678711 0.0232129339128732681 0.155822098255157471
3.15012097358703613 0.0357115752995014191 0.139920040965080261
3.19463872909545898 0.0947885438799858093 0.029793955385684967
3.13940048217773438 0.0214848369359970093 0.140388220548629761
3.12876009941101074 0.00736452825367450714 0.0110580986365675926
3.16906905174255371 0.0608564838767051697 0.100186899304389954
3.21179890632629395 0.117560848593711853 0.0461054369807243347
3.13693118095397949 0.018207889050245285 0.0657234415411949158
3.13953018188476562 0.0216570869088172913 0.15701468288898468
3.23473048210144043 0.147992134094238281 0.0412996262311935425
3.18578720092773438 0.0830421373248100281 0.00723555684089660645
3.15605330467224121 0.0435838736593723297 0.100890174508094788
3.14252471923828125 0.0256310608237981796 0.0308830700814723969
3.22568130493164062 0.135983437299728394 0.00615932047367095947
3.18140387535095215 0.0772253870964050293 0.088865719735622406
3.2027885913848877 0.105603650212287903 0.0840424820780754089
3.17037773132324219 0.0625932514667510986 0.0838061720132827759
3.12711310386657715 0.00517898891121149063 0.0393280088901519775
3.2029268741607666 0.105787351727485657 0.0525765642523765564
3.13529181480407715 0.0160325635224580765 0.052282087504863739
3.21286249160766602 0.118972375988960266 0.0674788430333137512
3.15343594551086426 0.0401104949414730072 0.0361307375133037567
3.13382601737976074 0.0140872113406658173 0.10387352854013443
3.13770818710327148 0.019239034503698349 0.150108277797698975
3.20665860176086426 0.110739566385746002 0.0262826681137084961
3.18090081214904785 0.076557643711566925 0.090352080762386322
3.13431715965270996 0.0147390998899936676 0.135301113128662109
3.15648746490478516 0.0441599413752555847 0.0241206325590610504
3.1588594913482666 0.0473077781498432159 0.00425932183861732483
3.17349958419799805 0.0667360648512840271 0.0231537222862243652
3.1494903564453125 0.0348745174705982208 0.0371099710464477539
3.12363767623901367 0.000567030336242169142 0.148314580321311951
3.12602734565734863 0.00373831228353083134 0.086749933660030365
3.16281867027282715 0.0525617785751819611 0.00564520061016082764
3.15504193305969238 0.0422418303787708282 0.121467575430870056
3.1273186206817627 0.00545164430513978004 0.155164822936058044
3.15299820899963379 0.0395297259092330933 0.0345337763428688049
3.12967181205749512 0.00857467949390411377 0.0788318738341331482
3.21835517883300781 0.126261442899703979 0.0431427657604217529
3.15581154823303223 0.0432630330324172974 0.0306536294519901276
3.16561579704284668 0.0562739148736000061 0.0437756963074207306
3.14327669143676758 0.0266287792474031448 0.0832625105977058411
3.13473057746887207 0.0152876218780875206 0.174687564373016357
3.12772083282470703 0.00598544394597411156 0.190436184406280518
3.19253253936767578 0.0919936224818229675 0.194688394665718079
3.25980949401855469 0.181272909045219421 0.142973646521568298
3.2207634449005127 0.129457205533981323 0.094203852117061615
3.24571967124938965 0.162575289607048035 0.0393385738134384155
3.2557213306427002 0.17584797739982605 0.0947716981172561646
3.2468416690826416 0.164064094424247742 0.0856015309691429138
3.21664714813232422 0.123994581401348114 0.182214483618736267
3.20599865913391113 0.109863527119159698 0.093212224543094635
3.19882392883300781 0.100342467427253723 0.144639790058135986
3.20495843887329102 0.108483187854290009 0.188312888145446777
3.24730968475341797 0.16468513011932373 0.187551781535148621
3.23278689384460449 0.145412817597389221 0.0956215187907218933
3.24753308296203613 0.16498170793056488 0.0592924803495407104
3.20570015907287598 0.109467498958110809 0.18828137218952179
3.22600460052490234 0.136412382125854492 0.0706432312726974487
3.24911832809448242 0.167085364460945129 0.0466320812702178955
3.20367717742919922 0.106782890856266022 0.106862686574459076
3.16929364204406738 0.0611543804407119751 0.19717387855052948
3.24918055534362793 0.167167827486991882 0.0515088438987731934
3.25397872924804688 0.173535212874412537 0.107820019125938416
3.17506122589111328 0.0688083171844482422 0.131755441427230835
3.18598103523254395 0.0832994952797889709 0.191045254468917847
3.13774013519287109 0.0192816555500030518 0.198748722672462463
3.27315306663513184 0.198980391025543213 0.1159687340259552
3.27069330215454102 0.195716232061386108 0.0915463939309120178
3.13111996650695801 0.0104963481426239014 0.193384066224098206
3.18058109283447266 0.0761334896087646484 0.14068228006362915
3.21072840690612793 0.116140328347682953 0.0945194289088249207
3.26190805435180664 0.184057950973510742 0.160421445965766907
3.2462315559387207 0.16325455904006958 0.119712822139263153
3.21390390396118164 0.120354220271110535 0.148745089769363403
3.23231244087219238 0.144783228635787964 0.102381445467472076
3.24472594261169434 0.16125662624835968 0.0847114101052284241
3.22995805740356445 0.1416587233543396 0.075472414493560791
3.26968479156494141 0.19437803328037262 0.0522721856832504272
3.26172113418579102 0.183809861540794373 0.184305623173713684
3.22500848770141602 0.135090649127960205 0.137816041707992554
3.24979114532470703 0.167978152632713318 0.0720664560794830322
3.23377251625061035 0.146720945835113525 0.11002068966627121
3.25816917419433594 0.179096147418022156 0.160731181502342224
3.19130086898803711 0.0903588905930519104 0.187120065093040466
3.26688241958618164 0.190659001469612122 0.136252284049987793
3.17916059494018555 0.0742484331130981445 0.143372282385826111
3.1699516773223877 0.062027662992477417 0.168443575501441956
3.17569231986999512 0.0696457624435424805 0.150637626647949219
3.20497322082519531 0.108502894639968872 0.0969123393297195435
3.25156092643737793 0.170326888561248779 0.0320073068141937256
3.15821647644042969 0.0464545190334320068 0.174469143152236938
3.21918296813964844 0.127359926700592041 0.190821275115013123
3.27267718315124512 0.198349103331565857 0.167098730802536011
3.25880599021911621 0.179941236972808838 0.110702291131019592
3.15359210968017578 0.0403178483247756958 0.18809923529624939
3.22307276725769043 0.132521778345108032 0.163652122020721436
3.26160669326782227 0.183657854795455933 0.109322838485240936
3.2476198673248291 0.16509672999382019 0.166822701692581177
3.27308130264282227 0.198885336518287659 0.153643831610679626
3.24267888069152832 0.158539950847625732 0.159788891673088074
3.22600460052490234 0.136412575840950012 0.0920903906226158142
3.16194009780883789 0.0513960123062133789 0.196223676204681396
3.20314288139343262 0.106073901057243347 0.136746913194656372
3.20282077789306641 0.105646468698978424 0.183418527245521545
3.26165390014648438 0.18372046947479248 0.167115330696105957
3.25154662132263184 0.170307666063308716 0.144008412957191467
3.16909885406494141 0.0608961284160614014 0.162414804100990295
3.27256464958190918 0.198199734091758728 0.0688828527927398682
3.24981975555419922 0.168016195297241211 0.137447953224182129
3.2155153751373291 0.122492767870426178 0.123877227306365967
3.25499510765075684 0.174884051084518433 0.150821611285209656
3.26734304428100586 0.191270232200622559 0.120494529604911804
1.80173778533935547 1.20356893539428711 0
0.790845155715942383 2.01219534873962402 0
2.77847409248352051 0.543174147605895996 0
1.07649612426757812 1.67548704147338867 0
2.01578402519226074 1.1371300220489502 0
0.340565085411071777 2.3108673095703125 0
0.878562986850738525 1.8780219554901123 0
1.19089007377624512 1.66159045696258545 0
2.0046844482421875 1.12168371677398682 0
0.0776190534234046936 2.37888503074645996 0
1.03878295421600342 1.79176878929138184 0
0.435680508613586426 2.10307502746582031 0
2.74934911727905273 0.555359423160552979 0
2.15131258964538574 0.960854768753051758 0
0.427908062934875488 2.17736220359802246 0
0.837273061275482178 1.99294519424438477 0
0.152368634939193726 2.32584261894226074 0
0.614697515964508057 2.10991477966308594 0
0.676590919494628906 2.08730864524841309 0
1.50659060478210449 1.51598274707794189 0
1.97082316875457764 1.18089008331298828 0
1.24270975589752197 1.66181540489196777 0
1.45729303359985352 1.4512181282043457 0
1.35431182384490967 1.63713240623474121 0
2.7702021598815918 0.558649897575378418 0
0.299060523509979248 2.42277312278747559 0
2.0167078971862793 1.05955278873443604 0
1.96824312210083008 1.09419167041778564 0
0.382969290018081665 2.34607291221618652 0
0.446261823177337646 2.08018684387207031 0
2.90630745887756348 0.452558189630508423 0
0.0261616110801696777 2.37843632698059082 0
1.27274739742279053 1.63283228874206543 0
0.25046345591545105 2.45717334747314453 0
0.242497667670249939 2.39408755302429199 0
0.489283293485641479 2.16906094551086426 0
0.105120345950126648 2.46313905715942383 0
1.35141372680664062 1.61773800849914551 0
2.35528850555419922 0.88504868745803833 0
2.45857667922973633 0.777823150157928467 0
1.23220109939575195 1.65317332744598389 0
2.04710721969604492 1.05000948905944824 0
1.73019254207611084 1.282417893409729 0
0.33988499641418457 2.24638605117797852 0
1.29568684101104736 1.5088963508605957 0
1.5509185791015625 1.33613860607147217 0
2.6993873119354248 0.578809261322021484 0
2.15662932395935059 0.981548786163330078 0
0.456084728240966797 2.25902342796325684 0
0.698393166065216064 1.91852772235870361 0
0.653624594211578369 2.02798557281494141 0
0.312093883752822876 2.24826502799987793 0
2.00684595108032227 1.07702839374542236 0
0.233889251947402954 2.47505521774291992 0
1.3121030330657959 1.49066340923309326 0
1.95655131340026855 1.07312536239624023 0
0.117068752646446228 2.39037990570068359 0
0.103627033531665802 2.35043978691101074 0
0.0445232093334197998 2.36594271659851074 0
0.608960270881652832 2.00325584411621094 0
0.886000871658325195 1.8899846076965332 0
0.630289196968078613 2.04769039154052734 0
0.395917177200317383 2.14922261238098145 0
0.477266788482666016 2.24883317947387695 0
1.92492365837097168 1.08977639675140381 0
0.916749119758605957 1.89663207530975342 0
0.761340737342834473 2.06053400039672852 0
0.539065837860107422 2.25078940391540527 0
0.328623324632644653 2.34532737731933594 0
3.15083575248718262 0.288334757089614868 0
1.8625258207321167 1.24417734146118164 0
0.45613899827003479 2.2182304859161377 0
1.06625473499298096 1.8535919189453125 0
0.451728224754333496 2.1439061164855957 0
1.43055272102355957 1.41516339778900146 0
2.64831113815307617 0.642581582069396973 0
0.723320841789245605 1.95776700973510742 0
0.457758247852325439 2.19084072113037109 0
0.735594630241394043 2.04963779449462891 0
0.167246967554092407 2.49708914756774902 0
1.03566956520080566 1.78604006767272949 0
1.22538995742797852 1.73305106163024902 0
1.08234870433807373 1.69496726989746094 0
0.487923622131347656 2.03635811805725098 0
1.1334308385848999 1.64674937725067139 0
0.54458463191986084 2.23470640182495117 0
0.999251961708068848 1.81376492977142334 0
0.515920519828796387 2.18886399269104004 0
0.503104746341705322 2.24024748802185059 0
0.897114098072052002 1.77344179153442383 0
0.969858646392822266 1.9041982889175415 0
0.288958162069320679 2.2024540901184082 0
0.595906615257263184 2.20117330551147461 0
0.432249128818511963 2.12626886367797852 0
0.781236350536346436 2.00588583946228027 0
1.46734952926635742 1.46737217903137207 0
0.194478943943977356 2.39313840866088867 0
1.50881719589233398 1.45378530025482178 0
1.10336577892303467 1.67869758605957031 0
1.20025050640106201 1.7069326639175415 0
0.674351096153259277 2.07676911354064941 0
1.08255958557128906 1.69166207313537598 0
1.4708549976348877 1.41446292400360107 0
0.992786407470703125 1.89774394035339355 0
1.34766292572021484 1.60631990432739258 0
1.52021896839141846 1.37491083145141602 0
0.447693526744842529 2.12138915061950684 0
0.771090507507324219 2.02876973152160645 0
3.03966903686523438 0.375919431447982788 0
2.16364526748657227 0.945180714130401611 0
0.0854031667113304138 2.42307853698730469 0
0.984418332576751709 1.86011660099029541 0
1.879646897315979 1.20824003219604492 0
0.368012040853500366 2.28172039985656738 0
0.305053949356079102 2.18712234497070312 0
1.23534941673278809 1.6510697603225708 0
0.742071092128753662 1.89703333377838135 0
1.04099190235137939 1.6917116641998291 0
0.145041480660438538 2.52557826042175293 0
0.743938028812408447 1.9965510368347168 0
1.3504185676574707 1.58992290496826172 0
0.300476312637329102 2.16627120971679688 0
0.735927939414978027 1.97367894649505615 0
2.03906655311584473 1.08204460144042969 0
2.22885465621948242 0.889866352081298828 0
1.92149710655212402 1.13419616222381592 0
2.37718582153320312 0.790942847728729248 0
1.5109856128692627 1.43801140785217285 0
1.18971407413482666 1.75985836982727051 0
2.63234901428222656 0.654905557632446289 0
1.07528126239776611 1.85196614265441895 0
1.62216973304748535 1.43418753147125244 0
2.33067536354064941 0.851538121700286865 0
1.58183848857879639 1.47155117988586426 0
1.16956222057342529 1.6840132474899292 0
1.3569035530090332 1.46526551246643066 0
0.543204188346862793 2.08317780494689941 0
1.52357852458953857 1.37019157409667969 0
0.594664931297302246 2.05874300003051758 0
1.25776791572570801 1.67527544498443604 0
0.355780035257339478 2.21890020370483398 0
2.21075677871704102 0.967659294605255127 0
1.14889287948608398 1.6298140287399292 0
1.45374894142150879 1.49273955821990967 0
0.127793774008750916 2.37340259552001953 0
1.40596210956573486 1.49947142601013184 0
2.25562667846679688 0.921152889728546143 0
1.40882587432861328 1.56163513660430908 0
1.18189668655395508 1.76656448841094971 0
0.734245121479034424 2.01607179641723633 0
0.230609863996505737 2.39064860343933105 0
0.380454421043395996 2.29929447174072266 0
0.324962019920349121 2.22236776351928711 0
0.80465930700302124 1.90277791023254395 0
0.456990748643875122 2.28180646896362305 0
0.840606033802032471 1.84911394119262695 0
0.51059567928314209 2.03415846824645996 0
0.0907900780439376831 2.39169836044311523 0
0.874268949031829834 1.88517451286315918 0
0.455499351024627686 2.14164352416992188 0
2.06500148773193359 1.02210605144500732 0
2.03208160400390625 1.03003609180450439 0
0.145204782485961914 2.53138208389282227 0
1.5738292932510376 1.37347412109375 0
1.39296925067901611 1.56201756000518799 0
1.81294536590576172 1.26711487770080566 0
1.66718089580535889 1.29193031787872314 0
0.126163601875305176 2.38050341606140137 0
1.26026523113250732 1.54974174499511719 0
2.01929259300231934 1.07712256908416748 0
1.01986587047576904 1.79490649700164795 0
1.71448886394500732 1.36646342277526855 0
1.02119886875152588 1.72297763824462891 0
1.37928521633148193 1.55907523632049561 0
2.13900065422058105 0.97670900821685791 0
1.65886926651000977 1.40521812438964844 0
2.26673007011413574 0.953730583190917969 0
1.11487710475921631 1.81030511856079102 0
1.27699756622314453 1.55464720726013184 0
2.11430931091308594 0.967134177684783936 0
0.184706613421440125 2.39178156852722168 0
1.34275269508361816 1.56849396228790283 0
1.41590607166290283 1.57276666164398193 0
0.804403901100158691 1.91544127464294434 0
1.39588081836700439 1.48114180564880371 0
0.961427271366119385 1.8136059045791626 0
1.52924501895904541 1.48942434787750244 0
2.12277483940124512 0.985862314701080322 0
1.11077940464019775 1.81442022323608398 0
0.939467728137969971 1.74007916450500488 0
0.990625083446502686 1.79858279228210449 0
2.84148788452148438 0.50820314884185791 0
1.39650273323059082 1.57435166835784912 0
2.1216435432434082 1.05445516109466553 0
1.54756367206573486 1.47055649757385254 0
0.574962913990020752 2.17029523849487305 0
1.27382826805114746 1.62828743457794189 0
0.536857485771179199 2.04572463035583496 0
2.5084998607635498 0.713281154632568359 0
0.95741117000579834 1.75861179828643799 0
0.388762950897216797 2.33846616744995117 0
0.683873414993286133 2.00767111778259277 0
1.39229834079742432 1.59103965759277344 0
2.05090475082397461 1.01088082790374756 0
0.472976833581924438 2.1819007396697998 0
0.160430863499641418 2.27184081077575684 0
1.30356049537658691 1.53920173645019531 0
1.41133308410644531 1.58504259586334229 0
1.04504823684692383 1.82302200794219971 0
0.48768267035484314 2.26902675628662109 0
1.21734154224395752 1.62774491310119629 0
0.56821286678314209 2.03119683265686035 0
1.57378470897674561 1.35188651084899902 0
1.91395318508148193 1.09986245632171631 0
2.1830592155456543 0.940915882587432861 0
0.306260406970977783 2.20268774032592773 0
0.953299820423126221 1.82274580001831055 0
1.63768851757049561 1.33419537544250488 0
0.148538053035736084 2.47172141075134277 0
0.540512442588806152 2.09009432792663574 0
0.485614150762557983 2.19971537590026855 0
1.02167832851409912 1.70009756088256836 0
2.05646634101867676 1.09325170516967773 0
1.11321175098419189 1.79846704006195068 0
1.85245680809020996 1.20323491096496582 0
0.656868219375610352 2.05585694313049316 0
1.26272416114807129 1.60169517993927002 0
1.78959202766418457 1.17614662647247314 0
1.55689799785614014 1.45984303951263428 0
1.20789492130279541 1.68918383121490479 0
0.63305962085723877 2.15907073020935059 0
0.108841747045516968 2.43483448028564453 0
0.725735127925872803 2.11773395538330078 0
0.657506287097930908 2.03605794906616211 0
1.18792450428009033 1.74854326248168945 0
0.453360289335250854 2.272735595703125 0
1.18033051490783691 1.71523916721343994 0
0.835415780544281006 2.01891112327575684 0
0.433960258960723877 2.19649744033813477 0
0.877439796924591064 1.92350196838378906 0
2.57971453666687012 0.721012651920318604 0
1.9991602897644043 1.05793309211730957 0
1.48623931407928467 1.38646554946899414 0
1.37605059146881104 1.4787362813949585 0
2.17196273803710938 0.962509393692016602 0
0.536492407321929932 2.0995941162109375 0
1.31374740600585938 1.57827889919281006 0
3.07560253143310547 0.338040947914123535 0
0.90105593204498291 1.97081089019775391 0
2.31279826164245605 0.914554774761199951 0
0.51524585485458374 2.05626058578491211 0
0.470247745513916016 2.09455966949462891 0
2.77789115905761719 0.563516139984130859 0
0.114595457911491394 2.32608389854431152 0
0.36882174015045166 2.11244654655456543 0
0.400478929281234741 2.29442238807678223 0
2.89316296577453613 0.479118674993515015 0
2.16643905639648438 0.96211695671081543 0
0.226449728012084961 2.35581421852111816 0
1.64069092273712158 1.34926497936248779 0
2.05029082298278809 1.01391887664794922 0
1.42871677875518799 1.41664934158325195 0
0.25461888313293457 2.30394101142883301 0
0.917196750640869141 1.78361225128173828 0
0.171420037746429443 2.3232729434967041 0
0.777848422527313232 2.00787472724914551 0
0.463502287864685059 2.09955525398254395 0
1.23782587051391602 1.66023361682891846 0
0.049936637282371521 2.40906405448913574 0
1.85706937313079834 1.24528193473815918 0
0.629479706287384033 2.03416657447814941 0
0.848978757858276367 2.01818585395812988 0
2.01475071907043457 1.04702258110046387 0
2.47981047630310059 0.746559858322143555 0
1.87487697601318359 1.13854193687438965 0
1.14059090614318848 1.6154705286026001 0
2.03338241577148438 1.08785068988800049 0
0.0488415062427520752 2.41225957870483398 0
0.221860110759735107 2.2767949104309082 0
1.04171502590179443 1.72395741939544678 0
1.63534104824066162 1.28954780101776123 0
0.744726836681365967 1.99343395233154297 0
1.18197357654571533 1.66102015972137451 0
2.88051652908325195 0.484842389822006226 0
1.13379001617431641 1.73635125160217285 0
1.31418132781982422 1.62495136260986328 0
0.0787440985441207886 2.3650510311126709 0
0.610049426555633545 2.08165860176086426 0
1.08073306083679199 1.78606963157653809 0
0.501674234867095947 2.27039766311645508 0
0.760931134223937988 2.01753354072570801 0
1.09498023986816406 1.68976044654846191 0
1.99032413959503174 1.12574422359466553 0
0.22746768593788147 2.35000109672546387 0
1.45207118988037109 1.49731504917144775 0
1.37967360019683838 1.60377907752990723 0
1.47226941585540771 1.42782235145568848 0
1.64705491065979004 1.32919895648956299 0
0.68141406774520874 1.99534368515014648 0
0.23015652596950531 2.40410447120666504 0
0.924200296401977539 1.94624757766723633 0
0.626991510391235352 1.96715998649597168 0
1.92274296283721924 1.14948821067810059 0
0.990794897079467773 1.7182232141494751 0
1.41500163078308105 1.50712227821350098 0
2.40263915061950684 0.852962195873260498 0
0.207282885909080505 2.23061800003051758 0
0.285240411758422852 2.34880375862121582 0
0.618773579597473145 2.07994604110717773 0
0.136062353849411011 2.32504940032958984 0
1.38535654544830322 1.46303367614746094 0
1.55136454105377197 1.38885557651519775 0
0.411336421966552734 2.22551560401916504 0
1.21982967853546143 1.6545875072479248 0
1.10366284847259521 1.74249374866485596 0
1.9279325008392334 1.13328373432159424 0
2.46179866790771484 0.787991881370544434 0
1.9125821590423584 1.11353158950805664 0
0.786384701728820801 2.06359338760375977 0
1.0427396297454834 1.77187347412109375 0
2.2879328727722168 0.858333945274353027 0
1.92182528972625732 1.10826420783996582 0
0.21362324059009552 2.40575575828552246 0
0.825777292251586914 1.86877000331878662 0
0.357430815696716309 2.16769981384277344 0
0.201982021331787109 2.47104668617248535 0
0.80605316162109375 2.00142502784729004 0
0.155387207865715027 2.53279709815979004 0
0.113277152180671692 2.31513667106628418 0
0.100646153092384338 2.31793999671936035 0
1.99838101863861084 1.14416658878326416 0
1.03283023834228516 1.82270157337188721 0
0.245178133249282837 2.29647278785705566 0
2.75315284729003906 0.565502524375915527 0
1.68020999431610107 1.34408664703369141 0
1.01392745971679688 1.88773965835571289 0
1.72107803821563721 1.30508029460906982 0
0.844070255756378174 2.01065945625305176 0
0.752412199974060059 1.94062697887420654 0
1.20861804485321045 1.56455278396606445 0
2.19463515281677246 1.01125705242156982 0
0.204349488019943237 2.30655336380004883 0
2.64303874969482422 0.647366881370544434 0
2.22501659393310547 0.958418190479278564 0
2.00039052963256836 1.07535254955291748 0
1.48367786407470703 1.53342413902282715 0
1.67046058177947998 1.40290570259094238 0
0.457100331783294678 2.24265694618225098 0
0.475697696208953857 2.05521845817565918 0
0.793732643127441406 1.88219177722930908 0
1.54059755802154541 1.37680590152740479 0
0.48026624321937561 2.09208416938781738 0
0.773679018020629883 1.97464334964752197 0
1.6830909252166748 1.37298834323883057 0
2.16379809379577637 0.978080868721008301 0
2.07200980186462402 1.08176374435424805 0
1.10459637641906738 1.83035540580749512 0
1.44505548477172852 1.43285274505615234 0
0.459599673748016357 2.12221717834472656 0
1.1952204704284668 1.6139141321182251 0
0.26250147819519043 2.22613811492919922 0
0.694888710975646973 1.9778217077255249 0
2.06974482536315918 1.10632956027984619 0
0.520557284355163574 2.10294985771179199 0
1.06018900871276855 1.78106045722961426 0
0.619249999523162842 1.94894289970397949 0
0.072037234902381897 2.34525823593139648 0
0.301807314157485962 2.38495349884033203 0
1.6111222505569458 1.30221760272979736 0
1.40893304347991943 1.50145149230957031 0
0.608653783798217773 2.02556037902832031 0
1.58540248870849609 1.43981301784515381 0
1.38666701316833496 1.46865272521972656 0
0.526749551296234131 2.17889237403869629 0
0.682474493980407715 2.11574506759643555 0
2.40343499183654785 0.773375928401947021 0
1.28618299961090088 1.50956594944000244 0
2.20223116874694824 0.970258831977844238 0
1.65021312236785889 1.32931995391845703 0
1.79127311706542969 1.17967772483825684 0
1.11375701427459717 1.69375336170196533 0
0.61617511510848999 1.99507832527160645 0
0.563994705677032471 2.20721888542175293 0
0.676505982875823975 2.06462264060974121 0
1.03704440593719482 1.73905634880065918 0
0.69926154613494873 2.06175446510314941 0
0.992134690284729004 1.91800105571746826 0
0.759368300437927246 2.05348730087280273 0
0.874606966972351074 1.81149411201477051 0
1.0422813892364502 1.76974308490753174 0
0.459859460592269897 2.23823761940002441 0
0.421886682510375977 2.32769489288330078 0
0.381659448146820068 2.26396393775939941 0
1.72523272037506104 1.32568085193634033 0
0.788179695606231689 1.90194714069366455 0
1.29470157623291016 1.68787610530853271 0
0.335260063409805298 2.31485533714294434 0
2.28402137756347656 0.925468862056732178 0
1.16958236694335938 1.78501021862030029 0
1.780342698097229 1.31176769733428955 0
0.309861242771148682 2.33534574508666992 0
1.89068961143493652 1.23768758773803711 0
0.0822115913033485413 2.38402056694030762 0
0.280920982360839844 2.39767837524414062 0
0.116133227944374084 2.28656411170959473 0
2.26070427894592285 0.88775104284286499 0
0.268962085247039795 2.26574087142944336 0
0.912074089050292969 1.78484022617340088 0
1.28595972061157227 1.62450015544891357 0
2.17442893981933594 0.934778392314910889 0
1.23164141178131104 1.58052825927734375 0
1.70320355892181396 1.33858764171600342 0
1.82993817329406738 1.26546144485473633 0
1.67624962329864502 1.30685257911682129 0
2.21106958389282227 0.930111348628997803 0
1.92808175086975098 1.16983294486999512 0
1.3713381290435791 1.60154449939727783 0
0.578496813774108887 1.98121833801269531 0
2.12896919250488281 0.991524279117584229 0
0.739304184913635254 2.01960206031799316 0
0.829856634140014648 2.03890824317932129 0
0.958769261837005615 1.92652022838592529 0
1.67744946479797363 1.33640611171722412 0
1.66406035423278809 1.32444679737091064 0
1.79031455516815186 1.26002621650695801 0
1.97884929180145264 1.11102235317230225 0
3.1799473762512207 0.263778865337371826 0
0.973080813884735107 1.92093992233276367 0
1.71221339702606201 1.33241558074951172 0
1.97573912143707275 1.1558692455291748 0
0.534956812858581543 2.24679398536682129 0
0.270624786615371704 2.4292137622833252 0
0.181807160377502441 2.37668299674987793 0
1.87581145763397217 1.18769156932830811 0
2.2350914478302002 0.900627613067626953 0
2.44846987724304199 0.786836206912994385 0
2.49981951713562012 0.732305526733398438 0
0.721835672855377197 2.1117556095123291 0
1.12287366390228271 1.68384015560150146 0
0.604519367218017578 1.96709311008453369 0
1.78139340877532959 1.28321313858032227 0
1.45809817314147949 1.39570021629333496 0
1.07825994491577148 1.6696542501449585 0
1.663665771484375 1.34677529335021973 0
0.672008991241455078 1.93146824836730957 0
0.328203171491622925 2.39007019996643066 0
1.86266899108886719 1.14242923259735107 0
0.11627553403377533 2.30908393859863281 0
2.73544096946716309 0.560752630233764648 0
1.12813401222229004 1.75412547588348389 0
0.0720276162028312683 2.39730119705200195 0
1.37342214584350586 1.539284348487854 0
1.76867485046386719 1.19593667984008789 0
0.736424386501312256 1.98470115661621094 0
0.620144426822662354 2.11043071746826172 0
1.33124113082885742 1.54865372180938721 0
2.30183982849121094 0.859525442123413086 0
0.191336184740066528 2.26977920532226562 0
0.491796314716339111 2.03436374664306641 0
0.284336745738983154 2.34509778022766113 0
0.761231064796447754 2.03740739822387695 0
1.06934952735900879 1.69728457927703857 0
3.22541069984436035 0.232044652104377747 0
0.575731217861175537 2.1784813404083252 0
0.2987632155418396 2.25209832191467285 0
0.845384418964385986 1.83625030517578125 0
0.460436880588531494 2.25415682792663574 0
2.32742643356323242 0.877613723278045654 0
1.21047139167785645 1.58951914310455322 0
0.421116918325424194 2.34844636917114258 0
1.39484238624572754 1.55106854438781738 0
0.885332942008972168 1.97866082191467285 0
2.03565597534179688 1.12426412105560303 0
1.11396217346191406 1.7800295352935791 0
0.634019136428833008 2.00102424621582031 0
1.3275139331817627 1.65777230262756348 0
0.112694725394248962 2.3161163330078125 0
0.183523207902908325 2.40877604484558105 0
0.522998631000518799 2.08820605278015137 0
1.94978868961334229 1.07200205326080322 0
1.64529192447662354 1.37946426868438721 0
0.742049992084503174 1.90923035144805908 0
0.900776207447052002 1.82492506504058838 0
0.463915199041366577 2.22506880760192871 0
2.15818214416503906 0.965332269668579102 0
2.69505429267883301 0.6315804123878479 0
0.282329678535461426 2.32691264152526855 0
0.863804340362548828 1.95606863498687744 0
2.64672613143920898 0.668047308921813965 0
2.24578499794006348 0.959070324897766113 0
0.286041975021362305 2.21388936042785645 0
0.38209003210067749 2.36404180526733398 0
1.79408633708953857 1.18545138835906982 0
0.235124588012695312 2.28122377395629883 0
0.989794611930847168 1.79471981525421143 0
2.16088724136352539 0.960468530654907227 0
1.81412756443023682 1.27252018451690674 0
1.68540585041046143 1.28568410873413086 0
1.32058751583099365 1.56056976318359375 0
1.10094058513641357 1.70842492580413818 0
1.30655324459075928 1.60310554504394531 0
0.219279780983924866 2.21053218841552734 0
0.94311976432800293 1.94277656078338623 0
1.79358625411987305 1.28340828418731689 0
1.80995833873748779 1.17652463912963867 0
0.770104289054870605 1.90882563591003418 0
2.16466283798217773 0.9987068772315979 0
0.135992541909217834 2.28266191482543945 0
0.769408226013183594 1.88163280487060547 0
0.639991343021392822 2.0944828987121582 0
2.76824450492858887 0.559124648571014404 0
0.726278007030487061 1.97485625743865967 0
0.781929969787597656 1.93043720722198486 0
0.626686632633209229 1.97041535377502441 0
2.65374851226806641 0.64225393533706665 0
0.357751935720443726 2.1467437744140625 0
0.191389769315719604 2.2304995059967041 0
1.88339090347290039 1.16775894165039062 0
0.581647813320159912 2.03980278968811035 0
1.22489964962005615 1.5951390266418457 0
1.07690286636352539 1.79194164276123047 0
1.25774931907653809 1.58456623554229736 0
0.778088629245758057 1.93824994564056396 0
1.06631028652191162 1.81044673919677734 0
0.691197991371154785 2.11098694801330566 0
1.67636489868164062 1.37754559516906738 0
1.67887163162231445 1.33381855487823486 0
0.854562342166900635 1.79318630695343018 0
1.81630730628967285 1.1754002571105957 0
0.869294464588165283 1.87146580219268799 0
0.303862184286117554 2.34261488914489746 0
0.714131653308868408 1.91576850414276123 0
0.627547562122344971 2.01384735107421875 0
1.69883549213409424 1.37327086925506592 0
2.69087648391723633 0.616344451904296875 0
1.98864412307739258 1.07933974266052246 0
0.0812121927738189697 2.44097542762756348 0
0.220074132084846497 2.42176294326782227 0
0.415646255016326904 2.18133258819580078 0
0.574931144714355469 2.01151800155639648 0
1.79016363620758057 1.23529672622680664 0
0.952116131782531738 1.76258587837219238 0
0.431005209684371948 2.30573105812072754 0
0.12932884693145752 2.2928929328918457 0
0.823743581771850586 2.03063368797302246 0
0.296280533075332642 2.2546226978302002 0
2.05056190490722656 1.01267993450164795 0
1.1991584300994873 1.66655528545379639 0
0.505220293998718262 2.25435423851013184 0
1.06347286701202393 1.83479189872741699 0
0.994513988494873047 1.79597973823547363 0
0.472760170698165894 2.14794349670410156 0
1.23591470718383789 1.63424062728881836 0
0.195857986807823181 2.23063468933105469 0
1.48378074169158936 1.49399149417877197 0
0.450579375028610229 2.12822961807250977 0
0.455838710069656372 2.09128665924072266 0
1.67040371894836426 1.29694008827209473 0
0.948935151100158691 1.75866556167602539 0
0.466639280319213867 2.19146323204040527 0
1.52244937419891357 1.4996192455291748 0
2.21751070022583008 0.911448180675506592 0
2.30181145668029785 0.901604294776916504 0
1.65882360935211182 1.28864812850952148 0
2.48022961616516113 0.76009833812713623 0
0.931251883506774902 1.94081640243530273 0
0.54892277717590332 2.04741668701171875 0
2.52693390846252441 0.711992383003234863 0
2.02617692947387695 1.02446675300598145 0
1.9511030912399292 1.15641546249389648 0
2.37372803688049316 0.844442486763000488 0
0.701035439968109131 1.92238378524780273 0
1.56254756450653076 1.39881837368011475 0
0.960209131240844727 1.87750434875488281 0
0.157876923680305481 2.46257710456848145 0
1.29187905788421631 1.58204877376556396 0
1.83059608936309814 1.20125126838684082 0
0.188264608383178711 2.47560238838195801 0
0.322611182928085327 2.39236164093017578 0
0.86072772741317749 1.86409199237823486 0
0.508026242256164551 2.17141175270080566 0
0.96877056360244751 1.92086780071258545 0
0.440071731805801392 2.26874518394470215 0
0.965079784393310547 1.9302293062210083 0
0.833692252635955811 1.89463675022125244 0
2.23534226417541504 0.909931182861328125 0
0.608973026275634766 2.12592959403991699 0
0.0563009530305862427 2.4270014762878418 0
0.938746452331542969 1.82534623146057129 0
0.110800102353096008 2.40491604804992676 0
0.430498272180557251 2.29862451553344727 0
0.836760222911834717 1.88386654853820801 0
0.297224342823028564 2.31722283363342285 0
0.479111909866333008 2.14316582679748535 0
1.45861649513244629 1.41768157482147217 0
1.67959010601043701 1.39573228359222412 0
0.427959084510803223 2.14844155311584473 0
0.751362204551696777 1.91321742534637451 0
1.72523677349090576 1.34879755973815918 0
2.15655636787414551 0.957085847854614258 0
0.18353956937789917 2.2584383487701416 0
2.07524728775024414 0.998201608657836914 0
1.17980623245239258 1.67394506931304932 0
1.67110192775726318 1.31871616840362549 0
1.21296358108520508 1.67448961734771729 0
2.61443758010864258 0.668616831302642822 0
1.22414624691009521 1.7265312671661377 0
0.433819741010665894 2.18368768692016602 0
1.82992565631866455 1.16594457626342773 0
1.4390946626663208 1.52177727222442627 0
1.59665358066558838 1.45759248733520508 0
1.6214601993560791 1.29607713222503662 0
