ply
format ascii 1.0
element vertex 701
property float x
property float y
property float z
end_header
0.0509999990463256836 0.00772016076371073723 0.00894694775342941284
0.0509999990463256836 0.0100336391478776932 0.00722070643678307533
0.0509999990463256836 0.0109282517805695534 0.00648352038115262985
0.0509999990463256836 0.0110024809837341309 0.00685595348477363586
0.0509999990463256836 0.00381144881248474121 0.0111013287678360939
0.0509999990463256836 0.0113835874944925308 0.00700504984706640244
0.0509999990463256836 0.0117712328210473061 0.00530155003070831299
0.0509999990463256836 0.00612008385360240936 0.0105004580691456795
0.0509999990463256836 0.000465576333226636052 0.00923148449510335922
0.0509999990463256836 0.0115367062389850616 0.00569340772926807404
0.0509999990463256836 0.00349148781970143318 0.0108763435855507851
0.0509999990463256836 0.00921315141022205353 0.00803332589566707611
0.0509999990463256836 0.00999874994158744812 0.00682555092498660088
0.0509999990463256836 0.00838604755699634552 0.00905331037938594818
0.0509999990463256836 0.0104180686175823212 0.0081296069547533989
0.0509999990463256836 -0.00336983520537614822 0.010492558591067791
0.0509999990463256836 -0.00477172667160630226 0.0111133567988872528
0.0509999990463256836 0.00204105908051133156 0.00886982027441263199
0.0509999990463256836 0.00762886926531791687 0.00772540317848324776
0.0509999990463256836 0.00676613533869385719 0.0098087899386882782
0.0509999990463256836 0.000848047900944948196 0.0110645173117518425
0.0509999990463256836 0.00586326047778129578 0.00744989374652504921
0.0509999990463256836 0.0104526346549391747 0.00732061918824911118
0.0509999990463256836 0.00284820678643882275 0.00931400153785943985
0.0509999990463256836 -0.00268447631970047951 0.0106783388182520866
0.0509999990463256836 0.00477728992700576782 0.0103064924478530884
0.0509999990463256836 0.00464412989094853401 0.0080648297443985939
0.0509999990463256836 -0.000701726879924535751 0.0111987516283988953
0.0509999990463256836 0.000647653825581073761 0.00843976158648729324
0.0509999990463256836 0.00563409458845853806 0.00654502678662538528
0.0509999990463256836 0.0081763099879026413 0.00250458624213933945
0.0509999990463256836 0.0142622720450162888 -0.00014048372395336628
0.0509999990463256836 0.0158393289893865585 -0.000666105421259999275
0.0509999990463256836 0.00970103032886981964 0.00467631127685308456
0.0509999990463256836 0.00766636151820421219 0.00559796672314405441
0.0509999990463256836 0.0132018411532044411 0.00176969682797789574
0.0509999990463256836 0.0102085135877132416 0.00145706883631646633
0.0509999990463256836 0.00618741288781166077 0.00671155471354722977
0.0509999990463256836 0.00636165309697389603 0.0050344076007604599
0.0509999990463256836 0.00600747950375080109 0.00541302608326077461
0.0509999990463256836 0.00657169381156563759 0.00584479141980409622
0.0509999990463256836 0.000604570377618074417 0.00832796655595302582
0.0509999990463256836 0.0103722736239433289 0.0015365977305918932
0.0509999990463256836 0.0141007332131266594 0.00207477575168013573
0.0509999990463256836 0.0024534731637686491 0.00752707105129957199
0.0509999990463256836 0.0143644716590642929 0.00438470207154750824
0.0509999990463256836 0.00955127272754907608 0.00504248356446623802
0.0509999990463256836 0.00853093154728412628 0.00362826185300946236
0.0509999990463256836 0.0119011122733354568 0.00125795335043221712
0.0509999990463256836 0.0140461418777704239 0.00380544643849134445
0.0509999990463256836 0.00485080946236848831 0.00507984822615981102
0.0509999990463256836 0.0140487030148506165 -0.000811173813417553902
0.0509999990463256836 0.00561156589537858963 0.00634934660047292709
0.0509999990463256836 0.0092373313382267952 0.00253315945155918598
0.0509999990463256836 0.00797332450747489929 0.00513119343668222427
0.0509999990463256836 -0.00108674447983503342 0.00906435959041118622
0.0509999990463256836 0.00557917309924960136 0.00614852923899888992
0.0509999990463256836 0.00830991379916667938 0.00407187733799219131
0.0509999990463256836 -0.0029002288356423378 0.0100510753691196442
0.0509999990463256836 0.0116619840264320374 0.000301335676340386271
0.0509999990463256836 0.00931651424616575241 0.00524237332865595818
0.0509999990463256836 0.0130200833082199097 0.00130008487030863762
0.0509999990463256836 0.00893457606434822083 0.00218328880146145821
0.0509999990463256836 0.00773927289992570877 0.00456889905035495758
0.0509999990463256836 0.0159784629940986633 -0.00177098880521953106
0.0509999990463256836 0.00781390350311994553 0.00481841200962662697
0.0509999990463256836 0.0122932512313127518 0.00481748068705201149
0.0509999990463256836 0.00775286043062806129 0.00339432223699986935
0.0509999990463256836 0.0133811328560113907 -0.000518297776579856873
0.0509999990463256836 0.00943503249436616898 0.00394309079274535179
0.0509999990463256836 0.00148353027179837227 0.00866722408682107925
0.0509999990463256836 0.0144816245883703232 0.000184513628482818604
0.0509999990463256836 0.00364477303810417652 0.00594168528914451599
0.0509999990463256836 -0.00166514806915074587 0.008768424391746521
0.0509999990463256836 -0.00344114378094673157 0.00974377710372209549
0.0509999990463256836 0.00767383631318807602 0.00516152055934071541
0.0509999990463256836 0.00510297250002622604 0.00733380671590566635
0.0509999990463256836 -0.000563416164368391037 0.00933165941387414932
0.0509999990463256836 0.0130367502570152283 0.00413060933351516724
0.0509999990463256836 0.00640939408913254738 0.00618451135233044624
0.0509999990463256836 0.0035719769075512886 0.00751806190237402916
0.0509999990463256836 0.013751753605902195 0.00357113545760512352
0.0509999990463256836 0.00523167476058006287 0.00519344117492437363
0.0509999990463256836 0.00394046306610107422 0.00533056911081075668
0.0509999990463256836 0.0118097439408302307 0.00465917075052857399
0.0509999990463256836 0.0154772317036986351 0.000152732711285352707
0.0509999990463256836 0.0114415111020207405 0.00476288655772805214
0.0509999990463256836 0.0156612135469913483 -0.00203918968327343464
0.0509999990463256836 -0.00488761626183986664 0.0107655264437198639
0.0509999990463256836 0.00718864146620035172 0.00350015796720981598
0.0509999990463256836 0.0104601196944713593 0.00124587619211524725
0.0509999990463256836 0.00174151943065226078 0.00676389317959547043
0.0509999990463256836 0.00262496713548898697 0.00757186440750956535
0.0509999990463256836 0.0110521260648965836 0.00302104512229561806
0.0509999990463256836 0.000559502048417925835 0.00762000726535916328
0.0509999990463256836 0.00479038432240486145 0.007341733667999506
0.0509999990463256836 0.00542106339707970619 0.00689599569886922836
0.0509999990463256836 0.0139801446348428726 0.00340009527280926704
0.0509999990463256836 -5.17298467457294464e-05 0.00828568916767835617
0.0509999990463256836 0.0161240175366401672 -0.00142174086067825556
0.0509999990463256836 -0.0011106785386800766 0.00940240360796451569
0.0509999990463256836 0.0100605282932519913 0.00439891871064901352
0.0509999990463256836 0.00306664290837943554 0.00648107798770070076
0.0509999990463256836 0.0106543553993105888 0.00290971621870994568
0.0509999990463256836 0.0115148201584815979 0.00462833745405077934
0.0509999990463256836 0.00268942257389426231 0.00787742435932159424
0.0509999990463256836 0.00953690987080335617 0.00376635976135730743
0.0509999990463256836 0.00328369298949837685 0.00602478999644517899
0.0509999990463256836 0.00260088080540299416 0.00812403950840234756
0.0509999990463256836 0.0117760114371776581 0.000838439795188605785
0.0509999990463256836 0.0125753693282604218 0.00455086398869752884
0.0509999990463256836 0.0111670084297657013 0.00224371324293315411
0.0509999990463256836 0.00578210363164544106 0.00582523271441459656
0.0509999990463256836 0.00667755305767059326 0.00496024638414382935
0.0509999990463256836 0.00787082873284816742 0.00317348050884902477
0.0509999990463256836 -0.0027964618057012558 0.0102175408974289894
0.0509999990463256836 0.0101349549368023872 0.0016755022807046771
0.0509999990463256836 0.0105315651744604111 0.00301284925080835819
0.0509999990463256836 0.014073672704398632 0.00191119103692471981
0.0509999990463256836 0.00924042053520679474 0.00353899039328098297
0.0509999990463256836 0.00152081763371825218 0.00824112631380558014
0.0509999990463256836 0.0103491665795445442 0.00199857680127024651
0.0509999990463256836 0.0140838529914617538 0.00337370205670595169
0.0509999990463256836 0.0121197020635008812 0.000714841415174305439
0.0509999990463256836 0.0166659988462924957 -0.00368480198085308075
0.0509999990463256836 -0.0146803446114063263 -0.00170366093516349792
0.0509999990463256836 -0.0162500049918889999 -0.00555743696168065071
0.0509999990463256836 -0.0155906090512871742 -0.00476102624088525772
0.0509999990463256836 -0.0144372647628188133 -0.000783540424890816212
0.0509999990463256836 -0.0155172552913427353 -0.00336430664174258709
0.0509999990463256836 -0.0145531827583909035 -5.31913246959447861e-05
0.0509999990463256836 -0.0119467154145240784 0.00592301273718476295
0.0509999990463256836 -0.0158381611108779907 -0.00335377478040754795
0.0509999990463256836 -0.0152181480079889297 -0.00318660237826406956
0.0509999990463256836 -0.0137490835040807724 0.00175682117696851492
0.0509999990463256836 -0.0155357448384165764 -0.00349471718072891235
0.0509999990463256836 -0.0154197225347161293 -0.00209380267187952995
0.0509999990463256836 -0.0158631820231676102 -0.00226288591511547565
0.0509999990463256836 -0.0158919133245944977 -0.00407156720757484436
0.0509999990463256836 -0.0151104545220732689 -0.00354792759753763676
0.0509999990463256836 -0.011845138855278492 0.00490643782541155815
0.0509999990463256836 -0.0154486997053027153 -0.00119244074448943138
0.0509999990463256836 -0.0153414523229002953 -0.00170810543932020664
0.0509999990463256836 -0.0127991698682308197 0.00283146952278912067
0.0509999990463256836 -0.0153964981436729431 -0.00433571310713887215
0.0509999990463256836 -0.0144219910725951195 -0.000228875782340764999
0.0509999990463256836 -0.0146951470524072647 -0.00113573973067104816
0.0509999990463256836 -0.0162209030240774155 -0.00446921959519386292
0.0509999990463256836 -0.015750715509057045 -0.00930827576667070389
0.0509999990463256836 0.00398908182978630066 -0.00653159525245428085
0.0509999990463256836 0.0139110349118709564 -0.00470801955088973045
0.0509999990463256836 0.00371287437155842781 -0.0124025540426373482
0.0509999990463256836 0.00933781452476978302 -0.0148207265883684158
0.0509999990463256836 0.00562116503715515137 -0.00898593105375766754
0.0509999990463256836 0.00666015967726707458 -0.00648048985749483109
0.0509999990463256836 0.00198838487267494202 -0.00556581001728773117
0.0509999990463256836 0.0112666748464107513 -0.00484857242554426193
0.0509999990463256836 -0.00203145341947674751 -0.00974935945123434067
0.0509999990463256836 0.00724842771887779236 -0.0074830939993262291
0.0509999990463256836 0.0142262894660234451 -0.00641687307506799698
0.0509999990463256836 -0.00767907919362187386 -0.00757888751104474068
0.0509999990463256836 0.00910334009677171707 -0.0115714669227600098
0.0509999990463256836 0.0106799053028225899 -0.00871829502284526825
0.0509999990463256836 0.0130214672535657883 -0.00680059194564819336
0.0509999990463256836 -0.00843902118504047394 -0.00854614842683076859
0.0509999990463256836 -0.00174747500568628311 -0.00593886803835630417
0.0509999990463256836 -0.000530264340341091156 -0.0104979798197746277
0.0509999990463256836 -0.0108840130269527435 -0.00755674578249454498
0.0509999990463256836 0.00218483898788690567 -0.00970253907144069672
0.0509999990463256836 0.0129612358286976814 -0.00967851653695106506
0.0509999990463256836 0.00854150392115116119 -0.0131265046074986458
0.0509999990463256836 -0.0140983462333679199 -0.00728360097855329514
0.0509999990463256836 0.00553291803225874901 -0.0134372357279062271
0.0509999990463256836 0.00777245871722698212 -0.00899798888713121414
0.0509999990463256836 -0.00965313613414764404 -0.00899972673505544662
0.0509999990463256836 -0.00510974694043397903 -0.00940682180225849152
0.0509999990463256836 0.0118482969701290131 -0.00877099670469760895
0.0509999990463256836 0.00450802966952323914 -0.0132547495886683464
0.0509999990463256836 0.00110597489401698112 -0.0101539641618728638
0.0509999990463256836 -0.0113319410011172295 -0.00729098962619900703
0.0509999990463256836 0.000956168863922357559 -0.0110937962308526039
0.0509999990463256836 0.0116450628265738487 -0.0081371581181883812
0.0509999990463256836 0.00496405130252242088 -0.0126222260296344757
0.0509999990463256836 0.00518806558102369308 -0.0101925339549779892
0.0509999990463256836 0.0132121583446860313 -0.00876658875495195389
0.0509999990463256836 -0.000398108735680580139 -0.011380411684513092
0.0509999990463256836 0.00932130031287670135 -0.00626230193302035332
0.0509999990463256836 6.94943591952323914e-05 -0.00956726353615522385
0.0509999990463256836 0.00280164182186126709 -0.00958817824721336365
0.0509999990463256836 -0.00322459638118743896 -0.00794418435543775558
0.0509999990463256836 -0.0123005928471684456 -0.00827442482113838196
0.0509999990463256836 0.0130103966221213341 -0.00833136588335037231
0.0509999990463256836 0.0137573424726724625 -0.00793786719441413879
0.0509999990463256836 0.00941079948097467422 -0.00592863932251930237
0.0509999990463256836 0.0106679182499647141 -0.0129947923123836517
0.0509999990463256836 0.00872946437448263168 -0.00476497039198875427
0.0509999990463256836 0.00647117104381322861 -0.0113116148859262466
0.0509999990463256836 -0.00216957926750183105 -0.00615050923079252243
0.0509999990463256836 0.0106547623872756958 -0.0115218907594680786
0.0509999990463256836 -0.0118218893185257912 -0.00730217434465885162
0.0509999990463256836 0.0157862957566976547 -0.00433845352381467819
0.0509999990463256836 0.00798362679779529572 -0.00882040336728096008
0.0509999990463256836 0.00935094896703958511 -0.0162221472710371017
0.0509999990463256836 0.00190777797251939774 -0.0136989103630185127
0.0509999990463256836 -0.0117219071835279465 -0.00806294381618499756
0.0509999990463256836 -0.00275790505111217499 -0.00800652801990509033
0.0509999990463256836 0.000838341191411018372 -0.0103518003597855568
0.0509999990463256836 0.0104144522920250893 -0.0121868215501308441
0.0509999990463256836 -0.000992805697023868561 -0.00810275506228208542
0.0509999990463256836 -0.00232855533249676228 -0.0110823791474103928
0.0509999990463256836 0.00427962653338909149 -0.00941883586347103119
0.0509999990463256836 0.00584562867879867554 -0.0140346391126513481
0.0509999990463256836 0.0147228706628084183 -0.00594581011682748795
0.0509999990463256836 0.00934917666018009186 -0.00745976297184824944
0.0509999990463256836 -0.00750099821016192436 -0.00781609397381544113
0.0509999990463256836 0.00934268627315759659 -0.00808886904269456863
0.0509999990463256836 0.0038053952157497406 -0.0108432136476039886
0.0509999990463256836 0.00531621184200048447 -0.0112385153770446777
0.0509999990463256836 -0.0006435345858335495 -0.00529572600498795509
0.0509999990463256836 0.0043026236817240715 -0.0103078112006187439
0.0509999990463256836 0.00681246444582939148 -0.00553147727623581886
0.0509999990463256836 0.00246636243537068367 -0.0134863592684268951
0.0509999990463256836 0.0116451764479279518 -0.0104456339031457901
0.0509999990463256836 0.0135159548372030258 -0.00809880625456571579
0.0509999990463256836 0.0124089885503053665 -0.00574126280844211578
0.0509999990463256836 0.0013530622236430645 -0.0126067372038960457
0.0509999990463256836 -0.00573366368189454079 -0.0112259211018681526
0.0509999990463256836 -0.00163239100947976112 -0.0111938305199146271
0.0509999990463256836 0.00854746066033840179 -0.0143794836476445198
0.0509999990463256836 0.00754750426858663559 -0.0162227433174848557
0.0509999990463256836 -0.0143731636926531792 -0.00708099640905857086
0.0509999990463256836 0.0129075488075613976 -0.00852870196104049683
0.0509999990463256836 0.0104319071397185326 -0.00828707125037908554
0.0509999990463256836 0.0062577398493885994 -0.0123856710270047188
0.0509999990463256836 0.00957953743636608124 -0.0145353982225060463
0.0509999990463256836 -0.00462316721677780151 -0.0104575362056493759
0.0509999990463256836 0.00534950150176882744 -0.0134755475446581841
0.0509999990463256836 0.0136826671659946442 -0.00686933333054184914
0.0509999990463256836 0.00317890755832195282 -0.00854954402893781662
0.0509999990463256836 0.00465123727917671204 -0.00795949064195156097
0.0509999990463256836 0.00447226502001285553 -0.0118339359760284424
0.0509999990463256836 0.00215506041422486305 -0.0131462439894676208
0.0509999990463256836 0.00163598544895648956 -0.0105119217187166214
0.0509999990463256836 0.0107658496126532555 -0.0122346291318535805
0.0509999990463256836 0.00878037512302398682 -0.0122052868828177452
0.0509999990463256836 0.00610681856051087379 -0.0143524045124650002
0.0509999990463256836 -0.00650339294224977493 -0.00686238612979650497
0.0509999990463256836 -0.0114925922825932503 -0.00766201596707105637
0.0509999990463256836 0.011517183855175972 -0.0139438174664974213
0.0509999990463256836 -0.011750783771276474 -0.00683867884799838066
0.0509999990463256836 0.0127795562148094177 -0.0112374071031808853
0.0509999990463256836 0.00992079917341470718 -0.00908694975078105927
0.0509999990463256836 -0.00983929820358753204 -0.00791797041893005371
0.0509999990463256836 -0.00637930817902088165 -0.0103575568646192551
0.0509999990463256836 0.000449309125542640686 -0.00913833454251289368
0.0509999990463256836 0.0145346764475107193 -0.00351662468165159225
0.0509999990463256836 0.011991109699010849 -0.00454310700297355652
0.0509999990463256836 0.0100971171632409096 -0.0106818908825516701
0.0509999990463256836 0.00548988953232765198 -0.00604734662920236588
0.0509999990463256836 0.0110002253204584122 -0.013981805182993412
0.0509999990463256836 0.00963165983557701111 -0.00737728504464030266
0.0509999990463256836 0.0101870289072394371 -0.0123090604320168495
0.0509999990463256836 -0.00197359081357717514 -0.00724161416292190552
0.0509999990463256836 -0.013164048083126545 -0.00727418297901749611
0.0509999990463256836 0.00441267713904380798 -0.00726244039833545685
0.0509999990463256836 0.00383175024762749672 -0.0115971900522708893
0.0509999990463256836 -0.00383124314248561859 -0.00572593649849295616
0.0509999990463256836 -0.000881816260516643524 -0.00834528356790542603
0.0509999990463256836 0.00704963970929384232 -0.00521361455321311951
0.0509999990463256836 0.00411544227972626686 -0.0117971347644925117
0.0509999990463256836 0.0102588701993227005 -0.0072248019278049469
0.0509999990463256836 0.012667117640376091 -0.00657172966748476028
0.0509999990463256836 0.0115733621641993523 -0.00918600521981716156
0.0509999990463256836 6.39259815216064453e-06 -0.0120948916301131248
0.0509999990463256836 -4.5192427933216095e-05 -0.0107390331104397774
0.0509999990463256836 -0.00499415956437587738 -0.00683524087071418762
0.0509999990463256836 0.0108884070068597794 -0.0149153713136911392
0.0509999990463256836 0.00391010381281375885 -0.00834713689982891083
0.0509999990463256836 0.00985138583928346634 -0.0139745436608791351
0.0509999990463256836 -0.00828270148485898972 -0.00963055435568094254
0.0509999990463256836 0.0109136346727609634 -0.00831093825399875641
0.0509999990463256836 0.000743847573176026344 -0.0131517313420772552
0.0509999990463256836 0.0141011364758014679 -0.0074899657629430294
0.0509999990463256836 -0.00928307324647903442 -0.00660010380670428276
0.0509999990463256836 -0.00985408667474985123 -0.00922046788036823273
0.0509999990463256836 0.00923717021942138672 -0.0148323895409703255
0.0509999990463256836 6.42053782939910889e-06 -0.00813345145434141159
0.0509999990463256836 0.0083675682544708252 -0.0117920394986867905
0.0509999990463256836 0.00521844252943992615 -0.0148624936118721962
0.0509999990463256836 -0.0032584131695330143 -0.0082883927971124649
0.0509999990463256836 0.00902205333113670349 -0.00839221850037574768
0.0509999990463256836 -0.00713385175913572311 -0.00939611624926328659
0.0509999990463256836 0.0111164618283510208 -0.01125363539904356
0.0509999990463256836 0.0047477157786488533 -0.00825530104339122772
0.0509999990463256836 0.00122699234634637833 -0.005796005018055439
0.0509999990463256836 -0.00510353362187743187 -0.00797892548143863678
0.0509999990463256836 0.0154935438185930252 -0.00524964649230241776
0.0509999990463256836 -0.00110552320256829262 -0.00976828671991825104
0.0509999990463256836 -0.0102305216714739799 -0.00689450837671756744
0.0509999990463256836 0.00804858189076185226 -0.0104656312614679337
0.0509999990463256836 0.00945628900080919266 -0.0162104461342096329
0.0509999990463256836 -0.0080547872930765152 -0.00688403705134987831
0.0509999990463256836 0.0133682768791913986 -0.00532757584005594254
0.0509999990463256836 0.0120720351114869118 -0.0101953698322176933
0.0509999990463256836 0.00946883950382471085 -0.0148883899673819542
0.0509999990463256836 0.00428282003849744797 -0.0103662684559822083
0.0509999990463256836 -0.00226065143942832947 -0.00972810760140419006
0.0509999990463256836 -0.006612362340092659 -0.00691070407629013062
0.0509999990463256836 -0.00355666503310203552 -0.00780648458749055862
0.0509999990463256836 0.0152053069323301315 -0.00326250214129686356
0.0509999990463256836 0.0147946868091821671 -0.00674769654870033264
0.0509999990463256836 0.000783448107540607452 -0.0107588497921824455
0.0509999990463256836 0.0105509143322706223 -0.0119354138150811195
0.0509999990463256836 -0.00346143380738794804 -0.0117671992629766464
0.0509999990463256836 0.00419763289391994476 -0.0116830198094248772
0.0509999990463256836 -0.00189247913658618927 -0.00544099276885390282
0.0509999990463256836 -0.00953938066959381104 -0.00802765693515539169
0.0509999990463256836 0.00586804095655679703 -0.00794389378279447556
0.0509999990463256836 0.00484200287610292435 -0.010839998722076416
0.0509999990463256836 -0.00827274378389120102 -0.00951406639069318771
0.0509999990463256836 0.00998302549123764038 -0.0163282379508018494
0.0509999990463256836 -0.00187315139919519424 -0.00882302410900592804
0.0509999990463256836 0.00245934724807739258 -0.00649125128984451294
0.0509999990463256836 0.00498305261135101318 -0.00913212262094020844
0.0509999990463256836 -0.00464211497455835342 -0.00636187475174665451
0.0509999990463256836 0.0112394886091351509 -0.00477399397641420364
0.0509999990463256836 0.00326506118290126324 -0.0135811278596520424
0.0509999990463256836 0.00317528843879699707 -0.0135842598974704742
0.0509999990463256836 0.0084958178922533989 -0.0137020284309983253
0.0509999990463256836 0.00429379846900701523 -0.00859740562736988068
0.0509999990463256836 0.00366458948701620102 -0.00609493115916848183
0.0509999990463256836 0.00351769197732210159 -0.00556024722754955292
0.0509999990463256836 0.0109387440606951714 -0.00411274842917919159
0.0509999990463256836 0.0120667992159724236 -0.00538807827979326248
0.0509999990463256836 0.0062989918515086174 -0.00492489896714687347
0.0509999990463256836 0.00678164884448051453 -0.0112197380512952805
0.0509999990463256836 0.00398585572838783264 -0.0145332887768745422
0.0509999990463256836 0.00273589417338371277 -0.00611548684537410736
0.0509999990463256836 0.0142719093710184097 -0.00513734482228755951
0.0509999990463256836 -0.00243753520771861076 -0.0122566027566790581
0.0509999990463256836 0.0112059265375137329 -0.00847868714481592178
0.0509999990463256836 0.00608454085886478424 -0.00460584694519639015
0.0509999990463256836 0.0102483760565519333 -0.0099383573979139328
0.0509999990463256836 -0.00736508565023541451 -0.00953476317226886749
0.0509999990463256836 0.00182550470344722271 -0.0121357329189777374
0.0509999990463256836 0.00723678246140480042 -0.00849251355975866318
0.0509999990463256836 0.0125129800289869308 -0.00782490149140357971
0.0509999990463256836 0.00211768783628940582 -0.00867045111954212189
0.0509999990463256836 0.00757681019604206085 -0.00770621094852685928
0.0509999990463256836 -0.000411830376833677292 -0.0104505289345979691
0.0509999990463256836 0.00667415326461195946 -0.0143989399075508118
0.0509999990463256836 0.00458757951855659485 -0.00939099490642547607
0.0509999990463256836 0.00919192284345626831 -0.00783508829772472382
0.0509999990463256836 -0.00675390753895044327 -0.00681864190846681595
0.0509999990463256836 0.0107741188257932663 -0.0136034879833459854
0.0509999990463256836 0.00431453436613082886 -0.00924103520810604095
0.0509999990463256836 -0.000790685415267944336 -0.011846538633108139
0.0509999990463256836 0.00587510969489812851 -0.0122641408815979958
0.0509999990463256836 -0.0114122331142425537 -0.00889597740024328232
0.0509999990463256836 0.00351189635694026947 -0.00855359062552452087
0.0509999990463256836 0.0112864580005407333 -0.0125007303431630135
0.0509999990463256836 0.00347965513356029987 -0.0128232697024941444
0.0509999990463256836 -0.0124051440507173538 -0.00757979927584528923
0.0509999990463256836 0.0107655441388487816 -0.0093942694365978241
0.0509999990463256836 0.00677835196256637573 -0.00687598017975687981
0.0509999990463256836 0.00865544378757476807 -0.00652700569480657578
0.0509999990463256836 0.00950601045042276382 -0.0126119041815400124
0.0509999990463256836 0.0129465134814381599 -0.008058181032538414
0.0509999990463256836 0.0116845583543181419 -0.00948269665241241455
0.0509999990463256836 0.0093642333522439003 -0.00900084897875785828
0.0509999990463256836 0.00680650211870670319 -0.0130057381466031075
0.0509999990463256836 -0.00598389888182282448 -0.00795794650912284851
0.0509999990463256836 0.0106234829872846603 -0.0110813053324818611
0.0509999990463256836 0.0114641999825835228 -0.011243022046983242
0.0509999990463256836 0.000388809479773044586 -0.00644051237031817436
0.0509999990463256836 0.013217010535299778 -0.0101148057729005814
0.0509999990463256836 -0.00748710893094539642 -0.00959122832864522934
0.0509999990463256836 -0.00637289509177207947 -0.00656101154163479805
0.0509999990463256836 0.00229701492935419083 -0.010302162729203701
0.0509999990463256836 0.00836285203695297241 -0.00651650223881006241
0.0509999990463256836 0.00954335182905197144 -0.0131722055375576019
0.0509999990463256836 0.00670490134507417679 -0.0108551867306232452
0.0509999990463256836 5.93409640714526176e-05 -0.0126158138737082481
0.0509999990463256836 0.000654229719657450914 -0.013604726642370224
0.0509999990463256836 0.006620774045586586 -0.0120842019096016884
0.0509999990463256836 0.0106234699487686157 -0.0142056606709957123
0.0509999990463256836 -0.00858660601079463959 -0.00801320187747478485
0.0509999990463256836 0.0108961695805191994 -0.0122735211625695229
0.0509999990463256836 -0.0100786685943603516 -0.00653295405209064484
0.0509999990463256836 0.0143180862069129944 -0.00538069382309913635
0.0509999990463256836 0.0066402750089764595 -0.010606677271425724
0.0509999990463256836 -0.00988674629479646683 -0.0081312134861946106
0.0509999990463256836 0.00326579250395298004 -0.0134408855810761452
0.0509999990463256836 0.00194469280540943146 -0.0063609052449464798
0.0509999990463256836 -0.000401337631046772003 -0.00768571998924016953
0.0509999990463256836 -0.00640148203819990158 -0.00952081382274627686
0.0509999990463256836 0.0105053642764687538 -0.0117778554558753967
0.0509999990463256836 -0.00160032929852604866 -0.0103570641949772835
0.0509999990463256836 -0.00414183316752314568 -0.0101119549944996834
0.0509999990463256836 0.0137147000059485435 -0.00591289438307285309
0.0509999990463256836 -0.00663509545847773552 -0.00972346309572458267
0.0509999990463256836 0.00841998960822820663 -0.006911443080753088
0.0509999990463256836 0.0002989964559674263 -0.00933629181236028671
0.0509999990463256836 -0.00494981510564684868 -0.0106812175363302231
0.0509999990463256836 0.0115912351757287979 -0.00579458242282271385
0.0509999990463256836 -0.000161423813551664352 -0.0107519235461950302
0.0509999990463256836 0.00189015921205282211 -0.00888057705014944077
0.0509999990463256836 -0.00321617443114519119 -0.00827149208635091782
0.0509999990463256836 -0.00516218133270740509 -0.00833959784358739853
0.0509999990463256836 0.00868906732648611069 -0.00867374055087566376
0.0509999990463256836 0.0113739725202322006 -0.0142951654270291328
0.0509999990463256836 -0.0126818744465708733 -0.00717354472726583481
0.0509999990463256836 0.00824179593473672867 -0.0115002784878015518
0.0509999990463256836 0.0109240580350160599 -0.0136756328865885735
0.0509999990463256836 0.00726097915321588516 -0.0059488518163561821
0.0509999990463256836 0.0111820045858621597 -0.0112407738342881203
0.0509999990463256836 0.00801878795027732849 -0.0141761135309934616
0.0509999990463256836 0.0069299992173910141 -0.0102133844047784805
0.0509999990463256836 -0.0111874723806977272 -0.00743235833942890167
0.0509999990463256836 -0.00768249016255140305 -0.0103973895311355591
0.0509999990463256836 0.0132739171385765076 -0.00585873983800411224
0.0509999990463256836 0.00894935987889766693 -0.0112359561026096344
0.0509999990463256836 0.0113595370203256607 -0.00367623963393270969
0.0509999990463256836 -0.00354997254908084869 -0.00632984424009919167
0.0509999990463256836 0.00589456595480442047 -0.0130467172712087631
0.0509999990463256836 0.00762933306396007538 -0.00767119787633419037
0.0509999990463256836 0.00237146904692053795 -0.0136564085260033607
0.0509999990463256836 -0.000461711082607507706 -0.0098239462822675705
0.0509999990463256836 0.00721774529665708542 -0.00901806727051734924
0.0509999990463256836 0.0138128669932484627 -0.00416058208793401718
0.0509999990463256836 -0.000458105932921171188 -0.010622113011777401
0.0509999990463256836 0.00489382585510611534 -0.0147878415882587433
0.0509999990463256836 0.00942287780344486237 -0.0133256679400801659
0.0509999990463256836 -0.00886369310319423676 -0.00917277950793504715
0.0509999990463256836 0.0132272578775882721 -0.00345192616805434227
0.0509999990463256836 -0.00779762817546725273 -0.00905128940939903259
0.0509999990463256836 -0.000183265889063477516 -0.0126206837594509125
0.0509999990463256836 0.00940024852752685547 -0.00672455970197916031
0.0509999990463256836 -0.0116266906261444092 -0.00883548613637685776
0.0509999990463256836 0.00781410373747348785 -0.0142664117738604546
0.0509999990463256836 0.00668838433921337128 -0.0148667227476835251
0.0509999990463256836 0.0114865368232131004 -0.0134442299604415894
0.0509999990463256836 0.00972498487681150436 -0.0127742839977145195
0.0509999990463256836 0.0147539116442203522 -0.00647965632379055023
0.0509999990463256836 0.0148057704791426659 -0.00538298115134239197
0.0509999990463256836 -0.0102173630148172379 -0.00719052087515592575
0.0509999990463256836 0.00280867144465446472 -0.0112993698567152023
0.0509999990463256836 0.0112118106335401535 -0.0148356929421424866
0.0509999990463256836 -0.00312601239420473576 -0.010631246492266655
0.0509999990463256836 0.00593754742294549942 -0.0103310542181134224
0.0509999990463256836 0.0123148811981081963 -0.00937363691627979279
0.0509999990463256836 -0.0117234503850340843 -0.00813109520822763443
0.0509999990463256836 -0.00494021689519286156 -0.009258282370865345
0.0509999990463256836 0.0105020049959421158 -0.00689770560711622238
0.0509999990463256836 0.0149686429649591446 -0.0045184488408267498
0.0509999990463256836 0.00522827915847301483 -0.0106889232993125916
0.0509999990463256836 0.00136130768805742264 -0.00640695216134190559
0.0509999990463256836 0.00103683210909366608 -0.00972918421030044556
0.0509999990463256836 -0.00437823217362165451 -0.00884705875068902969
0.0509999990463256836 -0.00197784556075930595 -0.00911169685423374176
0.0509999990463256836 0.0118261128664016724 -0.00759962946176528931
0.0509999990463256836 -0.00106276955921202898 -0.0121354972943663597
0.0509999990463256836 0.00334431882947683334 -0.0106029892340302467
0.0509999990463256836 -0.0146440640091896057 -0.0117825102061033249
0.0509999990463256836 -0.00860580615699291229 -0.0148985888808965683
0.0509999990463256836 -0.0081463940441608429 -0.0163731873035430908
0.0509999990463256836 -0.014146018773317337 -0.00945170130580663681
0.0509999990463256836 -0.0153075316920876503 -0.0082952696830034256
0.0509999990463256836 -0.00521067529916763306 -0.018593810498714447
0.0509999990463256836 -0.00774587970227003098 -0.0153381805866956711
0.0509999990463256836 -0.0135039407759904861 -0.0117476619780063629
0.0509999990463256836 -0.0147849339991807938 -0.0094353286549448967
0.0509999990463256836 -0.0141072263941168785 -0.0108821317553520203
0.0509999990463256836 -0.010990167036652565 -0.0124078718945384026
0.0509999990463256836 -0.00650470424443483353 -0.017112385481595993
0.0509999990463256836 -0.0108434557914733887 -0.0153636820614337921
0.0509999990463256836 -0.0120010022073984146 -0.0127348117530345917
0.0509999990463256836 -0.0137992799282073975 -0.0117619512602686882
0.0509999990463256836 -0.00597648881375789642 -0.0183230340480804443
0.0509999990463256836 -0.0134572125971317291 -0.0125064365565776825
0.0509999990463256836 -0.0127296335995197296 -0.0136875808238983154
0.0509999990463256836 -0.00939417816698551178 -0.0140616204589605331
0.0509999990463256836 -0.00336229056119918823 -0.0194860789924860001
0.0509999990463256836 -0.0099793504923582077 -0.0149772297590970993
0.0509999990463256836 -0.014891541562974453 -0.00863612070679664612
0.0509999990463256836 -0.0124596487730741501 -0.0128065003082156181
0.0509999990463256836 -0.0144297247752547264 -0.0100919408723711967
0.0509999990463256836 -0.0112147973850369453 -0.0140896961092948914
0.0509999990463256836 -0.0124373612925410271 -0.0143850706517696381
0.0509999990463256836 -0.00982046499848365784 -0.0154959596693515778
0.0509999990463256836 -0.0100124860182404518 -0.0133032426238059998
0.0509999990463256836 -0.0132319359108805656 -0.0122671118006110191
0.0509999990463256836 -0.00941251218318939209 -0.0159679464995861053
0.0509999990463256836 -0.0144688952714204788 -0.0112642403692007065
0.0509999990463256836 -0.0130720175802707672 -0.0123635847121477127
0.0509999990463256836 -0.0121012609452009201 -0.0131550068035721779
0.0509999990463256836 -0.00578961800783872604 -0.0177200678735971451
0.0509999990463256836 -0.009263649582862854 -0.0149586368352174759
0.0509999990463256836 -0.00875903479754924774 -0.0167150124907493591
0.0509999990463256836 -0.013042486272752285 -0.0107005005702376366
0.0509999990463256836 -0.00395315606147050858 -0.0190657079219818115
0.0509999990463256836 -0.0125565994530916214 -0.011126471683382988
0.0509999990463256836 -0.0109785059466958046 -0.0147453667595982552
0.0509999990463256836 -0.00825647078454494476 -0.0161905623972415924
0.0509999990463256836 -0.0156845301389694214 -0.00898245722055435181
0.0509999990463256836 -0.0157395731657743454 -0.00868350453674793243
0.0509999990463256836 -0.0150918904691934586 -0.0102688157930970192
0.0509999990463256836 -0.0117211490869522095 -0.0157791730016469955
0.0509999990463256836 -0.0128046311438083649 -0.0145724713802337646
0.0509999990463256836 -0.00848576799035072327 -0.0181561801582574844
0.0509999990463256836 -0.0104006724432110786 -0.0167653616517782211
0.0509999990463256836 -0.00891164969652891159 -0.0175718534737825394
0.0509999990463256836 -0.0109310708940029144 -0.016051802784204483
0.0509999990463256836 -0.00697079906240105629 -0.0187578126788139343
0.0509999990463256836 -0.0110287638381123543 -0.0155271925032138824
0.0509999990463256836 -0.00720949936658143997 -0.0178480278700590134
0.0509999990463256836 -0.00695490464568138123 -0.0183853581547737122
0.0509999990463256836 -0.00833548791706562042 -0.0169799886643886566
0.0509999990463256836 -0.00508106499910354614 -0.0196425523608922958
0.0509999990463256836 -0.00578936515375971794 -0.0186942238360643387
0.0509999990463256836 -0.00865940283983945847 -0.0168221313506364822
0.0509999990463256836 -0.00455245841294527054 -0.0198168139904737473
0.0509999990463256836 -0.0078921634703874588 -0.0174181312322616577
0.0509999990463256836 -0.0107183922082185745 -0.0112791126593947411
0.0509999990463256836 -0.00816859491169452667 -0.0131608014926314354
0.0509999990463256836 0.00115126930177211761 -0.0189838409423828125
0.0509999990463256836 -0.00519105652347207069 -0.0175763033330440521
0.0509999990463256836 -0.00566140236333012581 -0.016962764784693718
0.0509999990463256836 -0.0116255348548293114 -0.0111245820298790932
0.0509999990463256836 -0.00753757543861865997 -0.0143121825531125069
0.0509999990463256836 -0.00585357006639242172 -0.0154645796865224838
0.0509999990463256836 -0.0011147158220410347 -0.0192503239959478378
0.0509999990463256836 -0.00640623876824975014 -0.016384245827794075
0.0509999990463256836 -0.00291314022615551949 -0.0182940475642681122
0.0509999990463256836 -0.00217188708484172821 -0.0178704708814620972
0.0509999990463256836 -0.000779947265982627869 -0.0179126318544149399
0.0509999990463256836 -0.00499210506677627563 -0.0150940278545022011
0.0509999990463256836 -0.00146107189357280731 -0.0172598250210285187
0.0509999990463256836 -0.00181715493090450764 -0.0200637821108102798
0.0509999990463256836 -0.0035065067932009697 -0.0165714435279369354
0.0509999990463256836 -0.0056056254543364048 -0.0172793623059988022
0.0509999990463256836 0.000336365774273872375 -0.0185645557940006256
0.0509999990463256836 -0.00166394375264644623 -0.0174384936690330505
0.0509999990463256836 -0.00934503786265850067 -0.0128311775624752045
0.0509999990463256836 -0.00611895788460969925 -0.0164545830339193344
0.0509999990463256836 -0.0109007395803928375 -0.0111548695713281631
0.0509999990463256836 -0.00623017130419611931 -0.0158616099506616592
0.0509999990463256836 -0.00332825817167758942 -0.0164619162678718567
0.0509999990463256836 -0.00227225665003061295 -0.0174403544515371323
0.0509999990463256836 -0.0117143206298351288 -0.0114044621586799622
0.0509999990463256836 -0.00365515891462564468 -0.0168240796774625778
0.0509999990463256836 -0.0133643066510558128 -0.00952130928635597229
0.0509999990463256836 -0.00213161809369921684 -0.0186542011797428131
0.0509999990463256836 -0.00740835396572947502 -0.0153644103556871414
0.0509999990463256836 0.000675112009048461914 -0.0190940480679273605
0.0509999990463256836 -0.00728545710444450378 -0.0146031575277447701
0.0509999990463256836 -0.00446237809956073761 -0.0174031220376491547
0.0509999990463256836 -0.0148282265290617943 -0.00860782898962497711
0.0509999990463256836 -0.000370567664504051208 -0.0184964705258607864
0.0509999990463256836 0.000813295133411884308 -0.019339459016919136
0.0509999990463256836 0.00126015022397041321 -0.0196625776588916779
0.0509999990463256836 -0.0106849372386932373 -0.011066025123000145
0.0509999990463256836 -0.00554854050278663635 -0.015371750108897686
0.0509999990463256836 -0.00260449107736349106 -0.0164265502244234085
0.0509999990463256836 -3.81479039788246155e-05 -0.0199386812746524811
0.0509999990463256836 -0.00373211875557899475 -0.0158419981598854065
0.0509999990463256836 -0.00434394832700490952 -0.0169172342866659164
0.0509999990463256836 -0.000299387611448764801 -0.0181393511593341827
0.0509999990463256836 -0.00618130387738347054 -0.0153762325644493103
0.0509999990463256836 -0.00762552116066217422 -0.0133860297501087189
0.0509999990463256836 -0.00942364893853664398 -0.0126369809731841087
0.0509999990463256836 -0.00124535616487264633 -0.0174887962639331818
0.0509999990463256836 -0.0041396203450858593 -0.0170287899672985077
0.0509999990463256836 -0.00482036219909787178 -0.0163212716579437256
0.0509999990463256836 -0.00735437916591763496 -0.0150199970230460167
0.0509999990463256836 -0.000476119108498096466 -0.0203595142811536789
0.0509999990463256836 -0.00662165507674217224 -0.0191781260073184967
0.0509999990463256836 -0.000321534811519086361 -0.0206190478056669235
0.0509999990463256836 0.01218422781676054 -0.0152227599173784256
0.0509999990463256836 0.0150544494390487671 -0.00960772112011909485
0.0509999990463256836 0.012913823127746582 -0.0138313593342900276
0.0509999990463256836 0.0134793436154723167 -0.0117450375109910965
0.0509999990463256836 0.0127823753282427788 -0.0141124380752444267
0.0509999990463256836 0.0147565705701708794 -0.0107438080012798309
0.0509999990463256836 0.0128667103126645088 -0.0135019142180681229
0.0509999990463256836 0.0145239913836121559 -0.0108444932848215103
0.0509999990463256836 0.0147919049486517906 -0.00974543485790491104
0.0509999990463256836 0.0121539728716015816 -0.0144846681505441666
0.0509999990463256836 0.0142837045714259148 -0.0105627896264195442
0.0509999990463256836 0.0104224719107151031 -0.0169105231761932373
0.0509999990463256836 0.0161704104393720627 -0.00748567888513207436
0.0509999990463256836 0.015234069898724556 -0.010456371121108532
0.0509999990463256836 0.013883296400308609 -0.00974038243293762207
0.0509999990463256836 0.012912689708173275 -0.0123623516410589218
0.0509999990463256836 0.015849526971578598 -0.00567111466079950333
0.0509999990463256836 0.0116114243865013123 -0.0144225200638175011
0.0509999990463256836 0.0127968285232782364 -0.0123470937833189964
0.0509999990463256836 0.016078997403383255 -0.00610219873487949371
0.0509999990463256836 0.0140616754069924355 -0.00899452995508909225
0.0509999990463256836 0.0116708064451813698 -0.0139821628108620644
0.0509999990463256836 0.0164072476327419281 -0.00520384311676025391
0.0509999990463256836 0.0146454283967614174 -0.00943700969219207764
0.0509999990463256836 0.0151569973677396774 -0.00805645063519477844
0.0509999990463256836 0.0155198760330677032 -0.00626291986554861069
0.0509999990463256836 0.0165155995637178421 -0.00334942108020186424
0.0509999990463256836 0.0150891765952110291 -0.00765368156135082245
0.0509999990463256836 0.00160147249698638916 -0.0141549184918403625
0.0509999990463256836 -0.0106422631070017815 -0.0100320233032107353
0.0509999990463256836 0.00718157738447189331 -0.0177160520106554031
0.0509999990463256836 0.00525075662881135941 -0.017755778506398201
0.0509999990463256836 -0.00422742636874318123 -0.0150624150410294533
0.0509999990463256836 -0.00156913977116346359 -0.0154937393963336945
0.0509999990463256836 -0.00377881713211536407 -0.0142047563567757607
0.0509999990463256836 -0.0110426917672157288 -0.00997265614569187164
0.0509999990463256836 0.000883113592863082886 -0.0151562187820672989
0.0509999990463256836 0.00102321058511734009 -0.0156871676445007324
0.0509999990463256836 -0.00851580966264009476 -0.011964297853410244
0.0509999990463256836 -0.0014635920524597168 -0.0133587280288338661
0.0509999990463256836 0.00698762573301792145 -0.018103601410984993
0.0509999990463256836 -0.00177356379572302103 -0.0169668514281511307
0.0509999990463256836 -0.00209993496537208557 -0.0162892136722803116
0.0509999990463256836 0.00397282466292381287 -0.0165275447070598602
0.0509999990463256836 0.00334987696260213852 -0.0180646795779466629
0.0509999990463256836 -0.00520693976432085037 -0.0120109543204307556
0.0509999990463256836 -0.00523854047060012817 -0.0137013401836156845
0.0509999990463256836 -0.00513842888176441193 -0.0140344863757491112
0.0509999990463256836 0.00166055746376514435 -0.016890253871679306
0.0509999990463256836 -0.00419719284400343895 -0.0144454902037978172
0.0509999990463256836 -0.00308372918516397476 -0.014550364576280117
0.0509999990463256836 -0.00917812716215848923 -0.0109159890562295914
0.0509999990463256836 0.00657958071678876877 -0.0164776202291250229
0.0509999990463256836 -0.00220078788697719574 -0.0132954875007271767
0.0509999990463256836 -0.0120868757367134094 -0.00975077971816062927
0.0509999990463256836 0.00415343232452869415 -0.0150184221565723419
0.0509999990463256836 -0.00462285988032817841 -0.0131298862397670746
0.0509999990463256836 -0.0121446838602423668 -0.00969152618199586868
0.0509999990463256836 0.00611274316906929016 -0.0182377919554710388
0.0509999990463256836 0.00051097571849822998 -0.0144323883578181267
0.0509999990463256836 0.00294494535773992538 -0.0159042440354824066
0.0509999990463256836 -0.000600375351496040821 -0.0177067182958126068
0.0509999990463256836 0.00550383608788251877 -0.0182317569851875305
0.0509999990463256836 -0.00574259227141737938 -0.0138532230630517006
0.0509999990463256836 -0.00197705533355474472 -0.014387618750333786
0.0509999990463256836 -0.00977986492216587067 -0.0112361330538988113
0.0509999990463256836 0.00521190464496612549 -0.0180145371705293655
0.0509999990463256836 -0.00830290839076042175 -0.0116504691541194916
0.0509999990463256836 0.00343582197092473507 -0.019842902198433876
0.0509999990463256836 -0.0078815016895532608 -0.0113885188475251198
0.0509999990463256836 -0.00754760624840855598 -0.0113585973158478737
0.0509999990463256836 -0.00360734015703201294 -0.0139061659574508667
0.0509999990463256836 -0.00289629376493394375 -0.0161690004169940948
0.0509999990463256836 0.00390416942536830902 -0.0173766892403364182
0.0509999990463256836 -0.00325965508818626404 -0.0121933603659272194
0.0509999990463256836 0.00065580662339925766 -0.0146639319136738777
0.0509999990463256836 -0.00513533642515540123 -0.0136242853477597237
0.0509999990463256836 0.00670571811497211456 -0.0186054017394781113
0.0509999990463256836 0.00403062580153346062 -0.0199300721287727356
0.0509999990463256836 -0.0145491752773523331 -0.00814691651612520218
0.0509999990463256836 0.00334824714809656143 -0.0158509835600852966
0.0509999990463256836 0.00733793340623378754 -0.0175903365015983582
0.0509999990463256836 0.00403990224003791809 -0.0169161222875118256
0.0509999990463256836 -0.00564620457589626312 -0.0137031078338623047
0.0509999990463256836 -0.00235259067267179489 -0.0142658436670899391
0.0509999990463256836 -0.00100192194804549217 -0.0163580328226089478
0.0509999990463256836 0.000617440789937973022 -0.0143783790990710258
0.0509999990463256836 -0.00187917216680943966 -0.0168455149978399277
0.0509999990463256836 0.00771325826644897461 -0.0166701413691043854
0.0509999990463256836 -0.00597357889637351036 -0.0128115247935056686
0.0509999990463256836 -0.0102646313607692719 -0.0112691782414913177
0.0509999990463256836 -0.00135639216750860214 -0.0154955927282571793
0.0509999990463256836 0.00266672950237989426 -0.0171590689569711685
0.0509999990463256836 -0.00384931033477187157 -0.0135891642421483994
0.0509999990463256836 0.00886579044163227081 -0.0174232795834541321
0.0509999990463256836 0.00299652386456727982 -0.0147941987961530685
0.0509999990463256836 0.00122382864356040955 -0.0144574735313653946
0.0509999990463256836 -0.00240517128258943558 -0.0130372326821088791
0.0509999990463256836 0.00356407370418310165 -0.0176280122250318527
0.0509999990463256836 0.0054102037101984024 -0.0189404189586639404
0.0509999990463256836 0.000998626463115215302 -0.0173333510756492615
0.0509999990463256836 0.00588255375623703003 -0.0157768186181783676
0.0509999990463256836 -0.00373152573592960835 -0.0154676605015993118
0.0509999990463256836 0.00652835611253976822 -0.0183823108673095703
0.0509999990463256836 -0.00918964575976133347 -0.011415477842092514
0.0509999990463256836 -0.00514421798288822174 -0.0133940763771533966
0.0509999990463256836 0.00820349343121051788 -0.0174413397908210754
0.0509999990463256836 0.00287085073068737984 -0.0200609732419252396
0.0509999990463256836 0.00336344260722398758 -0.0165283046662807465
0.0509999990463256836 -2.89685849566012621e-05 -0.0181451123207807541
0.0509999990463256836 0.0051873624324798584 -0.0168272815644741058
0.0509999990463256836 -0.0071632973849773407 -0.0118622994050383568
0.0509999990463256836 0.00237062200903892517 -0.0158647429198026657
0.0509999990463256836 -0.00402229372411966324 -0.0150701683014631271
0.0509999990463256836 0.00468332646414637566 -0.0193691235035657883
0.0509999990463256836 0.00210767192766070366 -0.018299497663974762
0.0509999990463256836 0.00302556762471795082 -0.0185790043324232101
0.0509999990463256836 -0.00734364381060004234 -0.0127174509689211845
0.0509999990463256836 0.00354469195008277893 -0.0185601934790611267
0.0509999990463256836 -0.005278055090457201 -0.0145718492567539215
0.0509999990463256836 0.00761989317834377289 -0.0166105311363935471
0.0509999990463256836 -0.00677969399839639664 -0.010951971635222435
0.0509999990463256836 0.0026873638853430748 -0.0194401759654283524
