ply
format ascii 1.0
element vertex 745
property float x
property float y
property float z
end_header
0.26370123028755188 0.0636391639709472656 0.0950655341148376465
0.0223798155784606934 0.161917105317115784 0.0383247435092926025
0.525550723075866699 0.0359049662947654724 0.111077882349491119
0.445553898811340332 0.133095130324363708 0.0549651160836219788
0.45580485463142395 0.0582320466637611389 0.0981873348355293274
0.025457918643951416 0.182607352733612061 0.026379220187664032
0.196557939052581787 0.184032052755355835 0.0255566686391830444
0.299629777669906616 0.01961505226790905 0.120482869446277618
0.562857627868652344 0.00980198197066783905 0.126148447394371033
0.174982964992523193 0.130375266075134277 0.0565354302525520325
0.122197329998016357 0.179577961564064026 0.0281282439827919006
0.0888194739818572998 0.0655854865908622742 0.0939418226480484009
0.444017231464385986 0.0898018404841423035 0.0799605101346969604
0.135582387447357178 0.00821805559098720551 0.127062931656837463
0.942744553089141846 0.0291743427515029907 0.114963814616203308
0.371612727642059326 0.0816364288330078125 0.0846748054027557373
0.0286581516265869141 0.147491365671157837 0.0466534420847892761
0.719011306762695312 0.0526016354560852051 0.101438060402870178
0.630369067192077637 0.0168420411646366119 0.122083865106105804
0.488767176866531372 0.0669287815690040588 0.0931662768125534058
0.492956489324569702 0.0617404654622077942 0.0961617529392242432
0.130372226238250732 0.11753854900598526 0.0639467090368270874
0.456605195999145508 0.0405592918395996094 0.108390703797340393
0.0394606590270996094 0.139482364058494568 0.05127745121717453
0.0525646209716796875 0.183109268546104431 0.0260894447565078735
0.0897327661514282227 0.203261867165565491 0.0144543349742889404
0.519945025444030762 0.00875224731862545013 0.126754507422447205
0.465992331504821777 0.0253782924264669418 0.117155462503433228
0.726539134979248047 0.0392743684351444244 0.109132558107376099
0.531311154365539551 0.0296762213110923767 0.114674046635627747
0.670072674751281738 0.0567202046513557434 0.0990602001547813416
0.17693716287612915 0.102697543799877167 0.0725151747465133667
0.173711001873016357 0.187526032328605652 0.023539423942565918
0.000991642475128173828 0.138558536767959595 0.0518108159303665161
0.579082667827606201 0.0221275649964809418 0.119032271206378937
0.6652679443359375 0.0666128993034362793 0.0933486521244049072
0.590064525604248047 0.0142652187496423721 0.123571597039699554
0.254523247480392456 0.0499646961688995361 0.102960497140884399
0.422069787979125977 0.11557847261428833 0.0650783628225326538
0.339385867118835449 0.127961918711662292 0.0579287707805633545
0.780581772327423096 0.0468562394380569458 0.104755163192749023
0.361087620258331299 0.0826214253902435303 0.0841061249375343323
0.288728237152099609 0.156666561961174011 0.0413561388850212097
1.02781152725219727 0.0149314943701028824 0.123186923563480377
0.349873155355453491 0.0713020041584968567 0.0906413942575454712
0.0935443341732025146 0.0785160809755325317 0.0864763408899307251
0.500775516033172607 0.0758005157113075256 0.0880441814661026001
0.439018428325653076 0.0096699027344584465 0.126224711537361145
0.189052164554595947 0.176897883415222168 0.0296755805611610413
0.0183197855949401855 0.163902193307876587 0.0371786504983901978
0.355601191520690918 0.0432892702519893646 0.106814555823802948
0.567353963851928711 0.0487227402627468109 0.103677541017532349
0.416257262229919434 0.109718523919582367 0.0684616044163703918
0.525456368923187256 0.0340319797396659851 0.112159252166748047
0.0209293961524963379 0.133948281407356262 0.0544725432991981506
0.213249146938323975 0.125078156590461731 0.0595937222242355347
0.609317302703857422 0.0204162187874317169 0.120020315051078796
0.911830723285675049 0.00492049753665924072 0.128966778516769409
0.0874888300895690918 0.160841941833496094 0.0389454886317253113
0.0594000816345214844 0.114846900105476379 0.0655007362365722656
0.494725883007049561 0.0744480416178703308 0.0888250246644020081
0.496386349201202393 0.0855585783720016479 0.0824103504419326782
0.254012703895568848 0.171165585517883301 0.0329851284623146057
0.00354146957397460938 0.186370804905891418 0.0242063924670219421
0.471591413021087646 0.0143017657101154327 0.123550496995449066
0.106845557689666748 0.169725343585014343 0.0338166579604148865
0.242531761527061462 0.0339343659579753876 0.112215608358383179
0.752105474472045898 0.0588681548833847046 0.0978200808167457581
0.101379036903381348 0.182951852679252625 0.0261803269386291504
0.330167889595031738 0.0174099467694759369 0.121755987405776978
0.412530422210693359 0.1074543297290802 0.0697688311338424683
0.378868341445922852 0.124300926923751831 0.0600424483418464661
0.460895657539367676 0.0124282920733094215 0.124632149934768677
0.0446317791938781738 0.0940294861793518066 0.0775196775794029236
0.271040767431259155 0.0753422453999519348 0.0883087590336799622
0.268225222826004028 0.024658864364027977 0.117570824921131134
0.848682641983032227 0.042164236307144165 0.10746408998966217
0.342036306858062744 0.155496180057525635 0.0420318618416786194
0.759979903697967529 0.0534114651381969452 0.100970499217510223
0.085967719554901123 0.0953810513019561768 0.0767393484711647034
0.474065601825714111 0.0151590649038553238 0.123055532574653625
0.288460254669189453 0.0248799081891775131 0.117443203926086426
0.160428881645202637 0.156503856182098389 0.0414500758051872253
0.410343676805496216 0.103157758712768555 0.0722494646906852722
0.0316561982035636902 0.0250406656414270401 0.117350392043590546
0.0899951457977294922 0.062180541455745697 0.0959076732397079468
0.255597591400146484 0.160829514265060425 0.0389526635408401489
0.591931939125061035 0.0545982122421264648 0.100285336375236511
0.537847995758056641 0.0291520357131958008 0.114976689219474792
0.0682954788208007812 0.207129985094070435 0.0122210755944252014
0.0539420247077941895 0.0923701748251914978 0.0784776806831359863
0.559400558471679688 0.0637111812829971313 0.0950239598751068115
0.298384666442871094 0.106825590133666992 0.070131838321685791
0.129627108573913574 0.149761319160461426 0.0453428924083709717
0.609287858009338379 0.032890859991312027 0.112818077206611633
0.906645894050598145 0.0349981486797332764 0.111601434648036957
0.0823460221290588379 0.176916688680648804 0.0296647250652313232
0.977499127388000488 0.00916355475783348083 0.126517042517662048
0.315867125988006592 0.118106834590435028 0.0636186152696609497
0.184609830379486084 0.167929172515869141 0.0348536670207977295
0.328268915414810181 0.0414821915328502655 0.107857868075370789
0.821769058704376221 0.0299685541540384293 0.114505276083946228
0.313867837190628052 0.00303127034567296505 0.13005751371383667
0.344414830207824707 0.0889481455087661743 0.0804533883929252625
0.842177391052246094 0.0139169273898005486 0.123772680759429932
0.0738354921340942383 0.212489902973175049 0.00912652164697647095
0.0112108588218688965 0.180303663015365601 0.0277092531323432922
0.0888308584690093994 0.094462469220161438 0.0772696882486343384
0.437505424022674561 0.0481838472187519073 0.103988662362098694
0.100327849388122559 0.181621193885803223 0.0269485786557197571
0.735568344593048096 0.0132995517924427986 0.124129123985767365
0.440953820943832397 0.0970021635293960571 0.0758033990859985352
0.152136117219924927 0.0585710741579532623 0.0979916006326675415
0.613999903202056885 0.0430176444351673126 0.106971375644207001
0.230209991335868835 0.000387497479096055031 0.131583899259567261
0.0720060169696807861 0.0456472411751747131 0.105453178286552429
0.100930750370025635 0.207124620676040649 0.0122241675853729248
0.690490901470184326 0.0525824055075645447 0.101449161767959595
0.750931620597839355 0.0141679085791110992 0.123627781867980957
0.424655139446258545 0.0333675295114517212 0.112542875111103058
0.430636703968048096 0.00253893155604600906 0.130341768264770508
0.707893908023834229 0.00450063496828079224 0.129209175705909729
0.0289088189601898193 0.0761072412133216858 0.0878670886158943176
0.309944361448287964 0.0682577863335609436 0.0923989713191986084
0.866814911365509033 0.0230380948632955551 0.118506573140621185
0.881676018238067627 0.00518001196905970573 0.128816947340965271
0.0933008193969726562 0.190519809722900391 0.0218109637498855591
0.0685995742678642273 0.0169991608709096909 0.121993154287338257
0.738319158554077148 0.0576545484364032745 0.0985207557678222656
0.0511567592620849609 0.148368969559669495 0.0461467579007148743
0.170486092567443848 0.169911608099937439 0.033709108829498291
0.609245777130126953 0.0411413349211215973 0.108054667711257935
0.509581029415130615 0.0944779366254806519 0.0772607624530792236
0.0292941927909851074 0.195072844624519348 0.0191822648048400879
0.897849321365356445 0.0328024029731750488 0.112869150936603546
0.0643434524536132812 0.124229878187179565 0.0600834712386131287
0.671608388423919678 0.0490267984569072723 0.103501990437507629
0.745982885360717773 0.0728311911225318909 0.0897585153579711914
0.111015886068344116 0.0106153003871440887 0.125678882002830505
0.0912659168243408203 0.14616730809211731 0.0474178940057754517
0.810048818588256836 0.059142768383026123 0.097661532461643219
0.515079140663146973 0.0429695062339305878 0.106999173760414124
0.858287334442138672 0.0178019795566797256 0.121529646217823029
0.122979342937469482 0.120929315686225891 0.0619890466332435608
0.118810206651687622 0.0744092687964439392 0.0888474136590957642
0.659967780113220215 0.0765322595834732056 0.0876217037439346313
0.390310287475585938 0.114092923700809479 0.0659360438585281372
0.604614019393920898 0.0538991615176200867 0.100688926875591278
0.190912038087844849 0.0190692637115716934 0.120797976851463318
0.355739116668701172 0.0476210378110408783 0.104313604533672333
0.118286401033401489 0.0366789326071739197 0.110631033778190613
0.40955701470375061 0.0289539676159620285 0.115091040730476379
0.706756412982940674 0.00155343208461999893 0.130910754203796387
1.01087713241577148 0.00908787548542022705 0.12656073272228241
0.285686194896697998 0.0607562772929668427 0.0967299714684486389
0.69854438304901123 0.0426566712558269501 0.107179783284664154
0.463483870029449463 0.0852192491292953491 0.0826062709093093872
0.206967711448669434 0.110132001340389252 0.0682228878140449524
0.554306268692016602 0.0692274719476699829 0.091839127242565155
0.317567765712738037 0.034187614917755127 0.112069398164749146
0.18411119282245636 0.000306476926198229194 0.131630674004554749
0.00201147794723510742 0.207447320222854614 0.0120378583669662476
0.438790977001190186 0.0784277468919754028 0.0865273475646972656
0.0638880729675292969 0.205371901392936707 0.0132360979914665222
0.0840581655502319336 0.170777961611747742 0.0332089215517044067
0.0243134796619415283 0.0552330091595649719 0.0999188274145126343
0.451585143804550171 0.0363264866173267365 0.110834516584873199
0.265952438116073608 0.00261806859634816647 0.130296081304550171
0.413596838712692261 0.0922635048627853394 0.0785392671823501587
0.350314199924468994 0.10408010333776474 0.0717169493436813354
0.324398428201675415 0.0431443341076374054 0.106898233294487
0.382124364376068115 0.121356934309005737 0.0617421641945838928
0.116606250405311584 0.0395246446132659912 0.108988061547279358
0.848286628723144531 0.0189478863030672073 0.120868057012557983
0.669454216957092285 0.0601410828530788422 0.0970851555466651917
0.365044355392456055 0.0130167892202734947 0.124292381107807159
0.363363087177276611 0.0788887143135070801 0.0862612053751945496
0.00920179486274719238 0.0795445889234542847 0.085882529616355896
0.108441904187202454 0.0245664622634649277 0.117624171078205109
0.236229211091995239 0.0100185694172978401 0.126023396849632263
0.617946207523345947 0.0016119395149871707 0.130876973271369934
0.600480914115905762 0.0276086069643497467 0.115867786109447479
0.313877463340759277 0.139312803745269775 0.0513753369450569153
0.162299424409866333 0.044164702296257019 0.106309123337268829
0.333988308906555176 0.0509673096239566803 0.102381631731987
0.135431826114654541 0.0907648578286170959 0.0794045031070709229
0.119295477867126465 0.168776169419288635 0.034364655613899231
0.79410707950592041 0.029420122504234314 0.114821910858154297
0.18609386682510376 0.10741114616394043 0.0697937756776809692
0.159456461668014526 0.0781722217798233032 0.0866748690605163574
0.917867124080657959 0.0272836294025182724 0.116055414080619812
0.828678727149963379 0.0277163702994585037 0.115805566310882568
0.299383699893951416 0.0735361352562904358 0.0893515199422836304
0.190087974071502686 0.147410660982131958 0.0467000380158424377
0.770720720291137695 0.00558944512158632278 0.128580555319786072
0.581762790679931641 0.079792119562625885 0.085739627480506897
0.120237648487091064 0.115162692964076996 0.0653184130787849426
0.6623077392578125 0.0167142022401094437 0.122157678008079529
0.533799827098846436 0.0387259572744369507 0.109449185431003571
0.266551613807678223 0.039837181568145752 0.10880761593580246
0.635087013244628906 0.0870574042201042175 0.0815450102090835571
0.144741296768188477 0.0339542292058467865 0.112204141914844513
0.341078191995620728 0.018360702320933342 0.121207065880298615
0.763024806976318359 0.0351974032819271088 0.111486397683620453
0.678672313690185547 0.0459355860948562622 0.105286702513694763
0.673582017421722412 0.0784345418214797974 0.0865234285593032837
0.339364290237426758 0.0677622705698013306 0.0926850587129592896
0.582964181900024414 0.0537889860570430756 0.100752539932727814
0.449313849210739136 0.0938860028982162476 0.0776025205850601196
0.166289150714874268 0.185633361339569092 0.0246321558952331543
0.657319426536560059 0.0905265212059020996 0.079542115330696106
0.12810593843460083 0.195051774382591248 0.0191944316029548645
0.859802961349487305 0.0208277106285095215 0.119782738387584686
0.0142745822668075562 0.046633206307888031 0.104883931577205658
0.428678691387176514 0.0298293605446815491 0.114585638046264648
0.724894165992736816 0.0145680438727140427 0.12339676171541214
0.0791528224945068359 0.135293304920196533 0.0536959990859031677
0.337959349155426025 0.138030126690864563 0.0521158948540687561
0.0343451201915740967 0.0615856386721134186 0.0962511450052261353
0.556845784187316895 0.0727141425013542175 0.0898260921239852905
0.193999797105789185 0.0576512478291988373 0.0985226631164550781
0.945694506168365479 0.0317313596606254578 0.113487511873245239
0.538356125354766846 0.0843120962381362915 0.0831300169229507446
0.258933275938034058 0.064652763307094574 0.0944803357124328613
0.0334863662719726562 0.139787197113037109 0.0511014536023139954
0.123546749353408813 0.0441954322159290314 0.106291383504867554
0.734578132629394531 0.00432021263986825943 0.129313349723815918
0.301538318395614624 0.0823047086596488953 0.0842889845371246338
0.762650847434997559 0.0410924330353736877 0.108082897961139679
0.332023382186889648 0.143246427178382874 0.0491042658686637878
0.531724095344543457 0.0711405277252197266 0.0907346159219741821
0.0514858365058898926 0.178369149565696716 0.0288261473178863525
0.0867156535387039185 0.0094630001112818718 0.126344159245491028
0.439253181219100952 0.0277995355427265167 0.115757554769515991
0.394619405269622803 0.00830995757132768631 0.127009868621826172
0.109741091728210449 0.200439155101776123 0.0160840228199958801
0.586434483528137207 0.0955779626965522766 0.0766256600618362427
0.00865593552589416504 0.102297678589820862 0.0727460309863090515
0.483254551887512207 0.121829107403755188 0.0614695549011230469
0.440626680850982666 0.0362627990543842316 0.110871285200119019
0.467517495155334473 0.107203476130962372 0.0699136704206466675
0.50937497615814209 0.0548990853130817413 0.100111618638038635
0.853900730609893799 0.0204758103936910629 0.119985908269882202
0.114803731441497803 0.107734702527523041 0.0696069598197937012
0.486491680145263672 0.0770416930317878723 0.0873275846242904663
0.498104214668273926 0.0275553707033395767 0.11589851975440979
0.966094613075256348 0.00636485451832413673 0.128132879734039307
0.0433082282543182373 0.0443099699914455414 0.106225252151489258
0.139287799596786499 0.0766847953200340271 0.0875336378812789917
0.152499288320541382 0.0912047103047370911 0.0791505575180053711
0.22243499755859375 0.16856779158115387 0.03448496013879776
0.0262793153524398804 0.0327756553888320923 0.112884588539600372
0.773426532745361328 0.0411529354751110077 0.108047962188720703
0.399934649467468262 0.131540700793266296 0.0558625683188438416
0.319483667612075806 0.010697539895772934 0.125631392002105713
0.800797879695892334 0.0147569263353943825 0.123287707567214966
0.579872608184814453 0.0662721842527389526 0.0935453623533248901
0.250467032194137573 0.0103568555787205696 0.125828087329864502
0.29930567741394043 0.0164188556373119354 0.122328191995620728
0.634594082832336426 0.0426423698663711548 0.107188045978546143
0.116214066743850708 0.0265410803258419037 0.116484127938747406
0.619046628475189209 0.0593894906342029572 0.0975190848112106323
0.212691426277160645 0.00951455160975456238 0.126314401626586914
0.150840863585472107 0.00749270198866724968 0.127481713891029358
0.0509973764419555664 0.0800397545099258423 0.0855966508388519287
0.0898232460021972656 0.147941410541534424 0.0463936105370521545
0.536268889904022217 0.0714529305696487427 0.0905542522668838501
0.181733131408691406 0.177723616361618042 0.0291988402605056763
0.0780473947525024414 0.00956780742853879929 0.126283645629882812
0.326123178005218506 0.0777735263109207153 0.086905062198638916
0.0231820642948150635 0.0639415979385375977 0.0948909223079681396
0.00104629993438720703 0.0931906402111053467 0.0780039876699447632
0.0891969949007034302 0.00652023544535040855 0.12804315984249115
0.316082894802093506 0.128368347883224487 0.0576941296458244324
0.566135883331298828 0.00086202187230810523 0.131309941411018372
0.671329140663146973 0.0363367088139057159 0.110828615725040436
0.0784127414226531982 0.0579446069896221161 0.0983532890677452087
0.263111352920532227 0.0251433774828910828 0.117291092872619629
0.198731958866119385 0.163661390542984009 0.0373176783323287964
0.177968263626098633 0.17739105224609375 0.0293908491730690002
0.718417465686798096 0.0192142874002456665 0.120714254677295685
0.208553671836853027 0.118162065744400024 0.0635867267847061157
0.240593135356903076 0.0843329876661300659 0.083117946982383728
0.156055271625518799 0.078259691596031189 0.0866243690252304077
0.721059739589691162 0.0761063843965530396 0.0878675878047943115
0.089949488639831543 0.184154137969017029 0.025486186146736145
0.36356469988822937 0.0491196252405643463 0.103448398411273956
0.417842656373977661 0.0781382620334625244 0.0866944789886474609
0.0620508790016174316 0.173092305660247803 0.0318727344274520874
0.524307608604431152 0.0925237759947776794 0.078388996422290802
0.335746109485626221 0.147102624177932739 0.0468778833746910095
0.280770063400268555 0.0542172715067863464 0.100505270063877106
0.187630772590637207 0.0102235563099384308 0.125905051827430725
0.427407026290893555 0.0210243947803974152 0.11966918408870697
0.591665923595428467 0.0117604807019233704 0.125017702579498291
0.301634788513183594 0.145480513572692871 0.0478144064545631409
0.451669424772262573 0.0484760329127311707 0.103819973766803741
0.152208507061004639 0.0726989656686782837 0.0898348540067672729
0.0200051069259643555 0.196066036820411682 0.0186088383197784424
0.85487067699432373 0.00252936501055955887 0.130347296595573425
0.458806455135345459 0.0650044530630111694 0.0942772924900054932
0.599733889102935791 0.0672119185328483582 0.093002811074256897
0.140585601329803467 0.150456070899963379 0.0449417680501937866
0.0484155416488647461 0.123601764440536499 0.0604461133480072021
0.797827422618865967 0.019249647855758667 0.120693832635879517
0.589786171913146973 0.0258278287947177887 0.116895921528339386
0.126959845423698425 0.0328636839985847473 0.112833768129348755
0.218186736106872559 0.135283946990966797 0.0537014082074165344
0.0100712180137634277 0.12707895040512085 0.0584385544061660767
0.0681560784578323364 0.0386054627597332001 0.109518751502037048
0.108417272567749023 0.0323129072785377502 0.113151758909225464
0.521875858306884766 0.0210141278803348541 0.119675114750862122
0.121362835168838501 0.0975915566086769104 0.0754631161689758301
0.999796807765960693 0.0109733464196324348 0.125472158193588257
1.04335701465606689 0.000558331259526312351 0.131485268473625183
0.0765872597694396973 0.19460354745388031 0.0194532126188278198
0.201737195253372192 0.0728925168514251709 0.0897231101989746094
0.406652063131332397 0.0954842641949653625 0.0766797587275505066
0.0636970996856689453 0.0408785156905651093 0.108206406235694885
0.572989821434020996 0.0484394356608390808 0.103841103613376617
0.161857008934020996 0.186280250549316406 0.0242586731910705566
0.524220764636993408 0.0105468109250068665 0.125718414783477783
0.432117670774459839 0.0656744018197059631 0.0938904881477355957
0.281693220138549805 0.143524810671806335 0.048943541944026947
0.0792591795325279236 0.0031253378838300705 0.130003213882446289
0.486399829387664795 0.116061799228191376 0.0647993087768554688
0.146202772855758667 0.0878575742244720459 0.0810830295085906982
0.361938834190368652 0.0935685932636260986 0.0777857750654220581
0.427442759275436401 0.0864591971039772034 0.0818903818726539612
0.0502963066101074219 0.0621583499014377594 0.0959204882383346558
0.588552117347717285 0.0889036431908607483 0.0804790854454040527
0.0203706622123718262 0.173233881592750549 0.0317909941077232361
0.234378889203071594 0.0494850166141986847 0.103237435221672058
0.374724119901657104 0.0413790084421634674 0.107917442917823792
1.02756905555725098 0.00148507801350206137 0.130950212478637695
0.461017310619354248 0.0604382529854774475 0.0969135835766792297
0.504153251647949219 0.0282522626221179962 0.115496173501014709
0.506745994091033936 0.0113420216366648674 0.125259310007095337
0.0614420175552368164 0.184135839343070984 0.0254967436194419861
0.101665645837783813 0.0553079992532730103 0.0998755395412445068
0.286490201950073242 0.0160904601216316223 0.122517794370651245
0.645756244659423828 0.0476382561028003693 0.104303665459156036
0.0285657644271850586 0.113263122737407684 0.0664151310920715332
0.151969015598297119 0.196374624967575073 0.0184306800365447998
0.496511846780776978 0.098073132336139679 0.0751850754022598267
0.385725617408752441 0.0141750043258070946 0.123623684048652649
1.02198445796966553 0.00432982062920928001 0.129307806491851807
0.0367145538330078125 0.166756689548492432 0.0355306044220924377
0.685849666595458984 0.00455221207812428474 0.129179403185844421
0.532302379608154297 0.0648163259029388428 0.0943859070539474487
0.359503388404846191 0.0317366793751716614 0.113484442234039307
0.694090127944946289 0.0452374108135700226 0.105689793825149536
0.156179696321487427 0.0507012978196144104 0.102535218000411987
0.736786723136901855 0.0738286003470420837 0.0891826599836349487
0.490092962980270386 0.0928254202008247375 0.0782148391008377075
0.760147929191589355 0.0278478246182203293 0.115729674696922302
0.273240149021148682 0.0796049237251281738 0.0858476981520652771
0.458605319261550903 0.0268699154257774353 0.116294272243976593
0.399882137775421143 0.0413325801491737366 0.107944250106811523
0.756282567977905273 0.0343508012592792511 0.111975178122520447
0.551556050777435303 0.0503368154168128967 0.102745652198791504
0.57443392276763916 0.0978729724884033203 0.0753006413578987122
0.827787816524505615 0.0557532124221324921 0.0996184945106506348
0.0790812373161315918 0.0592279545962810516 0.0976123511791229248
0.69032740592956543 0.00540903909131884575 0.128684714436531067
0.215734660625457764 0.132712766528129578 0.0551858693361282349
0.0527948737144470215 0.155038237571716309 0.0422962531447410583
0.0115799903869628906 0.0582103915512561798 0.0981998443603515625
0.453808307647705078 0.0498362891376018524 0.103034630417823792
0.138206720352172852 0.170700445771217346 0.0332536771893501282
0.205820798873901367 0.0207907315343618393 0.11980409175157547
0.509393095970153809 0.110466696321964264 0.0680296421051025391
0.883554697036743164 0.0213801115751266479 0.119463808834552765
0.120190024375915527 0.200003787875175476 0.0163353905081748962
0.599759101867675781 0.0949773266911506653 0.0769724398851394653
0.470031142234802246 0.111472673714160919 0.0674488469958305359
0.297983050346374512 0.126893803477287292 0.0585454553365707397
0.500010073184967041 0.00450023962184786797 0.129209414124488831
0.20119437575340271 0.0814099162817001343 0.0848055854439735413
0.268549442291259766 0.108293227851390839 0.0692844986915588379
0.254861116409301758 0.109170287847518921 0.0687781274318695068
0.206604734063148499 0.0412368737161159515 0.107999503612518311
0.105540156364440918 0.127205312252044678 0.0583655983209609985
0.17914600670337677 0.0166637059301137924 0.122186832129955292
0.873204529285430908 0.0391381941735744476 0.109211176633834839
0.573825180530548096 0.0662482976913452148 0.0935591459274291992
0.930242061614990234 0.0116226505488157272 0.125097289681434631
0.34631800651550293 0.146593436598777771 0.047171860933303833
0.0892528891563415527 0.0647856071591377258 0.0944036394357681274
0.284699082374572754 0.0425718314945697784 0.107228763401508331
0.327636182308197021 0.120791763067245483 0.0620684698224067688
0.656168699264526367 0.0513868480920791626 0.102139413356781006
0.120457947254180908 0.0685243085026741028 0.0922451019287109375
0.0638068914413452148 0.147865414619445801 0.046437487006187439
0.0951486453413963318 0.00695810094475746155 0.127790361642837524
0.593799293041229248 0.000481032388051971793 0.131529897451400757
0.353790014982223511 0.0220735706388950348 0.119063444435596466
0.128001213073730469 0.157585680484771729 0.0408254861831665039
0.279350399971008301 0.169836148619651794 0.0337526798248291016
0.0590916275978088379 0.174665272235870361 0.030964583158493042
0.870902836322784424 0.0251430775970220566 0.117291264235973358
0.497080445289611816 0.12085539847612381 0.0620317235589027405
0.431152254343032837 0.057003997266292572 0.0988963544368743896
0.439356744289398193 0.10274101048707962 0.0724900737404823303
0.647920846939086914 0.0666689574718475342 0.0933162868022918701
0.154250979423522949 0.0255923662334680557 0.117031864821910858
0.496025651693344116 0.0929505154490470886 0.0781426131725311279
0.100017160177230835 0.0620827227830886841 0.0959641486406326294
0.181782960891723633 0.108202710747718811 0.0693367570638656616
0.506785392761230469 0.0405394174158573151 0.108402177691459656
0.145938634872436523 0.183578267693519592 0.0258186683058738708
0.209402889013290405 0.0767302215099334717 0.0875074118375778198
0.295073986053466797 0.11521245539188385 0.0652896836400032043
0.124689042568206787 0.11682351678609848 0.0643595382571220398
0.184075161814689636 0.0210870802402496338 0.119632996618747711
0.131837472319602966 0.0479976758360862732 0.104096151888370514
0.241897463798522949 0.17587926983833313 0.0302636772394180298
0.0919247269630432129 0.193213388323783875 0.0202558189630508423
0.015041351318359375 0.159533053636550903 0.0397011786699295044
0.562135219573974609 0.00759511720389127731 0.12742258608341217
0.44734954833984375 0.133079558610916138 0.0549741014838218689
0.526774168014526367 0.0483268797397613525 0.103906087577342987
0.0759850144386291504 0.117261774837970734 0.0641065090894699097
0.0837578177452087402 0.165665611624717712 0.0361605435609817505
0.0187904834747314453 0.142502635717391968 0.0495336949825286865
0.810284972190856934 0.0269262827932834625 0.11626172810792923
0.705220222473144531 0.0796662196516990662 0.0858123153448104858
0.307891130447387695 0.0530701391398906708 0.101167567074298859
0.200546801090240479 0.107039749622344971 0.0700081959366798401
0.342366784811019897 0.0734219029545783997 0.0894174724817276001
0.0679635480046272278 0.0238677505403757095 0.118027575314044952
0.143658727407455444 0.0667350366711616516 0.0932781323790550232
0.438446640968322754 0.113439932465553284 0.0663130506873130798
0.0927454233169555664 0.117944657802581787 0.0637122467160224915
0.449123501777648926 0.101318150758743286 0.0733115673065185547
0.340776950120925903 0.0780843570828437805 0.0867256000638008118
0.491608321666717529 0.0469930395483970642 0.104676179587841034
0.299667477607727051 0.137435108423233032 0.05245942622423172
0.21388089656829834 0.0647587701678276062 0.0944191291928291321
0.0368463397026062012 0.137376725673675537 0.0524931401014328003
0.376623928546905518 0.144352525472640991 0.0484656542539596558
0.0329983234405517578 0.21616111695766449 0.0070069432258605957
0.518163442611694336 0.0908447951078414917 0.0793583542108535767
0.927869081497192383 0.0264431890100240707 0.116540640592575073
0.504392385482788086 0.0464746579527854919 0.104975469410419464
0.264599084854125977 0.0261203385889530182 0.116727039217948914
0.220909774303436279 0.143212825059890747 0.0491236597299575806
0.304244637489318848 0.156367585062980652 0.0415287613868713379
0.00626712851226329803 0.00431312434375286102 0.129317447543144226
0.699887335300445557 0.0610270537436008453 0.0965736359357833862
0.487089276313781738 0.0478251278400421143 0.104195773601531982
0.301005303859710693 0.0106023307889699936 0.125686362385749817
0.120613187551498413 0.0280927680432796478 0.115588262677192688
0.335769712924957275 0.143470451235771179 0.0489749163389205933
0.0950601622462272644 0.000449188257334753871 0.131548285484313965
0.329854339361190796 0.0564566627144813538 0.09921235591173172
0.673121392726898193 0.0239421017467975616 0.117984645068645477
0.073897242546081543 0.211707368493080139 0.00957831740379333496
0.0206624865531921387 0.0283426083624362946 0.115444011986255646
0.60161125659942627 0.0913461670279502869 0.0790688842535018921
0.498376816511154175 0.0909845530986785889 0.0792776644229888916
0.427077651023864746 0.0795656889677047729 0.0858703553676605225
0.906139373779296875 0.0201333258301019669 0.120183646678924561
0.180529505014419556 0.04962896928191185 0.10315433144569397
0.573781132698059082 0.00511581311002373695 0.12885400652885437
0.481141358613967896 0.0873445272445678711 0.0813792422413825989
0.256348967552185059 0.117557317018508911 0.0639358758926391602
0.351720601320266724 0.0890166237950325012 0.0804138481616973877
0.173733651638031006 0.0984746813774108887 0.0749532431364059448
0.545879781246185303 0.0696297138929367065 0.0916068926453590393
0.943313777446746826 0.0321642272174358368 0.11323760449886322
0.642714619636535645 0.00598461274057626724 0.12835240364074707
0.0624131560325622559 0.113901041448116302 0.0660468265414237976
0.448254048824310303 0.102881439030170441 0.0724089965224266052
0.00799901783466339111 0.0417058281600475311 0.107728749513626099
0.360324978828430176 0.106776289641857147 0.070160306990146637
0.340853124856948853 0.0864127650856971741 0.08191719651222229
0.22581183910369873 0.0822024941444396973 0.0843479931354522705
0.597452700138092041 0.0179438833147287369 0.121447719633579254
0.0846341252326965332 0.089422471821308136 0.0801795423030853271
0.0485956370830535889 0.0670195445418357849 0.0931138694286346436
0.268023937940597534 0.0241406168788671494 0.117870032787322998
0.916144430637359619 0.00868885871022939682 0.126791104674339294
0.481105327606201172 0.123321816325187683 0.0606077387928962708
0.210965514183044434 0.172978579998016357 0.0319383889436721802
0.24363023042678833 0.108064308762550354 0.0694166719913482666
0.307562768459320068 0.0788654312491416931 0.0862746462225914001
0.63840329647064209 0.0389452055096626282 0.109322600066661835
0.314284622669219971 0.139751628041267395 0.0511219874024391174
0.272594034671783447 0.0736411288380622864 0.0892909020185470581
0.786574244499206543 0.0389841869473457336 0.109300091862678528
0.0308701656758785248 0.00658989138901233673 0.128002956509590149
0.312459707260131836 0.0881706327199935913 0.0809022858738899231
0.238902941346168518 0.0192919857800006866 0.120669394731521606
0.0710856914520263672 0.058178141713142395 0.0982184559106826782
0.819212913513183594 0.000773424806538969278 0.131361082196235657
0.896194159984588623 0.0324333831667900085 0.113082200288772583
0.299682557582855225 0.0575771071016788483 0.0985654667019844055
0.090497434139251709 0.0812981054186820984 0.0848701447248458862
0.224712491035461426 0.132122024893760681 0.0555269345641136169
0.30817866325378418 0.156869009137153625 0.0412392616271972656
0.426817625761032104 0.0109377661719918251 0.125492706894874573
0.206131279468536377 0.0680551156401634216 0.092515990138053894
0.796460390090942383 0.00819929316639900208 0.127073764801025391
0.300441086292266846 0.0973661616444587708 0.0755932480096817017
0.268949717283248901 0.00342748360708355904 0.129828765988349915
0.306880384683609009 0.00951704569160938263 0.126312956213951111
0.212238490581512451 0.156458780169487 0.0414761081337928772
0.691290318965911865 0.0627425611019134521 0.0955831855535507202
0.231164917349815369 0.0269051920622587204 0.116273902356624603
0.0874010920524597168 0.0757421255111694336 0.0880778878927230835
0.147186070680618286 0.0966248884797096252 0.0760212242603302002
0.734870076179504395 0.0702269449830055237 0.0912620797753334045
0.0452399253845214844 0.0887064114212989807 0.0805929526686668396
0.979506313800811768 0.00496947579085826874 0.128938496112823486
0.157900229096412659 0.048205297440290451 0.103976279497146606
0.502524137496948242 0.0680243968963623047 0.0925337225198745728
0.240363717079162598 0.118511423468589783 0.0633850172162055969
0.228847026824951172 0.180113270878791809 0.0278191789984703064
0.633386731147766113 0.042950216680765152 0.107010304927825928
0.067869037389755249 0.0579823479056358337 0.0983314961194992065
0.290073096752166748 0.0257821548730134964 0.116922289133071899
0.696000218391418457 0.0541822165250778198 0.100525505840778351
0.173107504844665527 0.11065925657749176 0.0679184719920158386
0.740868210792541504 0.054844241589307785 0.100143283605575562
0.942006349563598633 0.000811574747785925865 0.13133905827999115
0.0813839435577392578 0.0828460454940795898 0.0839764401316642761
0.647093594074249268 0.0742129907011985779 0.0889607369899749756
0.192472338676452637 0.12601083517074585 0.0590552389621734619
0.29040980339050293 0.159007430076599121 0.0400046408176422119
0.319768190383911133 0.136608272790908813 0.0529367998242378235
0.398264765739440918 0.0276855621486902237 0.115823358297348022
0.158822804689407349 0.0880564227700233459 0.080968223512172699
0.923331618309020996 0.0119958026334643364 0.124881848692893982
0.275463700294494629 0.0404439494013786316 0.108457297086715698
0.462404906749725342 0.101957708597183228 0.0729423165321350098
0.554130434989929199 0.0797369033098220825 0.0857715010643005371
0.22072988748550415 0.0541626922786235809 0.100536778569221497
0.120190024375915527 0.198824822902679443 0.0170160606503486633
0.840648770332336426 0.0511895269155502319 0.102253340184688568
0.52499079704284668 0.0345023497939109802 0.11188768595457077
0.0126361846923828125 0.218155607581138611 0.00585542619228363037
0.194404125213623047 0.143713712692260742 0.0488344728946685791
0.0267699956893920898 0.183548539876937866 0.0258358269929885864
0.798795580863952637 0.0335142239928245544 0.112458176910877228
0.460181236267089844 0.0286040455102920532 0.115293070673942566
0.322586864233016968 0.0502536706626415253 0.102793656289577484
0.313020169734954834 0.141432508826255798 0.050151526927947998
0.678751647472381592 0.065677449107170105 0.0938887298107147217
0.105209469795227051 0.202338084578514099 0.0149876773357391357
0.387348979711532593 0.0130205666646361351 0.124290198087692261
0.335840225219726562 0.119182392954826355 0.0629976391792297363
0.359108209609985352 0.133778169751167297 0.0545707643032073975
0.026073455810546875 0.110248871147632599 0.0681554079055786133
0.363588571548461914 0.0649768561124801636 0.0942932218313217163
0.503243327140808105 0.0743039846420288086 0.0889081954956054688
0.293567836284637451 0.0368732139468193054 0.110518865287303925
0.028106689453125 0.057101026177406311 0.0988403335213661194
0.0977433621883392334 0.0953000932931900024 0.0767860859632492065
0.393774420022964478 0.00725863967090845108 0.127616852521896362
0.738973021507263184 0.00950933434069156647 0.126317411661148071
0.642873764038085938 0.0599872171878814697 0.0971739888191223145
0.470829427242279053 0.117334529757499695 0.0640645027160644531
0.290622562170028687 0.0403178893029689789 0.108530081808567047
0.443510562181472778 0.0965913683176040649 0.0760405734181404114
0.201350301504135132 0.0372735001146793365 0.110287755727767944
0.291625678539276123 0.100085258483886719 0.0740233734250068665
0.829963624477386475 0.0385734811425209045 0.109537214040756226
0.0678404867649078369 0.00569885270670056343 0.128517389297485352
0.0434665009379386902 0.0190153364092111588 0.120829112827777863
0.0812867060303688049 0.0255999155342578888 0.117027506232261658
0.221332907676696777 0.0902090221643447876 0.0797254219651222229
0.592126011848449707 0.047185603529214859 0.104565002024173737
0.669003605842590332 0.0867477506399154663 0.0817237868905067444
0.624965310096740723 0.0347603484988212585 0.111738726496696472
0.744846701622009277 0.0437566675245761871 0.106544703245162964
0.527580142021179199 0.099907606840133667 0.0741259381175041199
0.371221959590911865 0.036700122058391571 0.110618799924850464
0.0641687214374542236 0.0494700446724891663 0.10324607789516449
0.161713272333145142 0.0493723787367343903 0.103302463889122009
0.314993798732757568 0.0838767886161804199 0.0833813399076461792
0.112709641456604004 0.0494444184005260468 0.10326087474822998
0.291139841079711914 0.118887148797512054 0.0631681010127067566
0.357613623142242432 0.0658785402774810791 0.0937726348638534546
0.657738924026489258 0.0546677447855472565 0.100245192646980286
0.25828927755355835 0.0785266309976577759 0.0864702537655830383
0.262284159660339355 0.137095555663108826 0.0526554659008979797
0.072464480996131897 0.0408718064427375793 0.108210280537605286
0.342700958251953125 0.0486193299293518066 0.103737242519855499
0.531533181667327881 0.00199758238159120083 0.130654320120811462
0.0894135832786560059 0.154337197542190552 0.0427010059356689453
0.780092418193817139 0.0362716168165206909 0.11086619645357132
0.040167689323425293 0.0574438013136386871 0.0986424311995506287
0.380433887243270874 0.0154624218121170998 0.122880391776561737
0.514417886734008789 0.102100156247615814 0.0728600770235061646
0.125968575477600098 0.14390195906162262 0.0487257912755012512
0.268125653266906738 0.0646295249462127686 0.0944937467575073242
0.553643941879272461 0.0693182870745658875 0.0917866975069046021
0.546173572540283203 0.0791989043354988098 0.0860821157693862915
0.307463228702545166 0.148272335529327393 0.0462025552988052368
0.0551089048385620117 0.138801738619804382 0.0516704097390174866
0.090619206428527832 0.193833038210868835 0.0198980644345283508
0.119744718074798584 0.160630807280540466 0.039067387580871582
0.045321047306060791 0.152228653430938721 0.0439183712005615234
0.124484032392501831 0.0230385605245828629 0.118506304919719696
0.404676526784896851 0.063623964786529541 0.0950743108987808228
0.0133599638938903809 0.107187211513519287 0.0699230581521987915
0.283916383981704712 0.0527871064841747284 0.101330973207950592
0.409169852733612061 0.117280006408691406 0.0640959814190864563
0.273146212100982666 0.0988029539585113525 0.0747637152671813965
0.190374702215194702 0.0252760201692581177 0.117214508354663849
0.174682438373565674 0.125738635659217834 0.0592123866081237793
0.488925814628601074 0.0490963123738765717 0.103461854159832001
0.76175379753112793 0.040477655827999115 0.108437836170196533
0.454398661851882935 0.0848269239068031311 0.0828327834606170654
0.14800339937210083 0.162671610713005066 0.0378891229629516602
0.873893201351165771 0.0245501101016998291 0.117633610963821411
0.166204273700714111 0.153886571526527405 0.0429611653089523315
0.576933622360229492 0.0227721109986305237 0.118660137057304382
0.532181739807128906 0.0309045650064945221 0.113964870572090149
0.651475012302398682 0.0807996615767478943 0.0851579159498214722
0.340346068143844604 0.0135081978514790535 0.1240086629986763
0.193028092384338379 0.116918943822383881 0.0643044412136077881
0.252262204885482788 0.0896359309554100037 0.0800562947988510132
0.382423758506774902 0.0397430248558521271 0.108861982822418213
0.456411898136138916 0.119358457624912262 0.0628959834575653076
0.285759717226028442 0.0921824648976325989 0.0785860568284988403
0.46100461483001709 0.0223772898316383362 0.118888095021247864
0.260407030582427979 0.162411242723464966 0.0380394458770751953
0.609588921070098877 0.0686208829283714294 0.0921893417835235596
0.800580322742462158 0.0165871083736419678 0.122231051325798035
0.984295368194580078 0.0104329120367765427 0.125784173607826233
0.172285780310630798 0.0491519197821617126 0.103429749608039856
0.276537239551544189 0.0286273658275604248 0.115279607474803925
0.584762811660766602 0.0392806902527809143 0.109128907322883606
0.524695277214050293 0.0582104101777076721 0.0981998294591903687
0.832803726196289062 0.0456879362463951111 0.105429679155349731
0.583115577697753906 0.0433996319770812988 0.106750838458538055
0.0754966139793395996 0.205479711294174194 0.0131738632917404175
0.549600124359130859 0.0216546934098005295 0.119305282831192017
0.806751072406768799 0.0298606306314468384 0.114567577838897705
0.172610104084014893 0.183661147952079773 0.0257708132266998291
0.0835427641868591309 0.158904612064361572 0.040064007043838501
0.151228070259094238 0.000710538763087242842 0.131397396326065063
0.40817183256149292 0.126889884471893311 0.0585477203130722046
0.02814483642578125 0.129165798425674438 0.0572337135672569275
0.718986749649047852 0.0325955450534820557 0.112988576292991638
0.00248873233795166016 0.180890575051307678 0.0273704007267951965
0.580432236194610596 0.101155780255794525 0.0734053105115890503
0.405914247035980225 0.0582958012819290161 0.0981505289673805237
0.142504453659057617 0.116528622806072235 0.0645297914743423462
0.300647437572479248 0.111376561224460602 0.0675043314695358276
0.0795879960060119629 0.110579736530780792 0.0679643824696540833
0.201662003993988037 0.0727743878960609436 0.0897913128137588501
0.241020411252975464 0.0526378676295280457 0.101417139172554016
1.06820404529571533 0.00322980363853275776 0.129942893981933594
0.361092746257781982 0.00778882298618555069 0.127310752868652344
0.306401312351226807 0.149070754647254944 0.0457415804266929626
0.295151054859161377 0.0552946217358112335 0.0998832583427429199
0.682021975517272949 0.0447021722793579102 0.105998814105987549
0.35427778959274292 0.0770719796419143677 0.0873100981116294861
0.177599251270294189 0.130443543195724487 0.0564960092306137085
0.204461753368377686 0.132985174655914307 0.0550286024808883667
0.0239935517311096191 0.198800727725028992 0.0170299634337425232
0.0703352093696594238 0.0691400840878486633 0.0918895751237869263
0.443951904773712158 0.0102774035185575485 0.125873968005180359
0.500013411045074463 0.00275309733115136623 0.13021811842918396
0.0799897909164428711 0.168879583477973938 0.0343049466609954834
0.479304701089859009 0.00428100535646080971 0.129335984587669373
0.209849357604980469 0.175492748618125916 0.0304868370294570923
0.0992703884840011597 0.0309291072189807892 0.1139506995677948
0.214748978614807129 0.17974853515625 0.0280297547578811646
0.711945950984954834 0.0331833362579345703 0.112649217247962952
0.106681287288665771 0.204272165894508362 0.0138710290193557739
0.53736799955368042 0.0932696685194969177 0.0779583603143692017
0.529848039150238037 0.0572063475847244263 0.098779529333114624
0.287722527980804443 0.0160313788801431656 0.122551903128623962
0.410413444042205811 0.132369831204414368 0.0553838685154914856
0.587735176086425781 0.0321712717413902283 0.1132335364818573
0.0865308493375778198 0.0342855937778949738 0.1120128333568573
0.304160207509994507 0.0667656734585762024 0.093260444700717926
0.639273405075073242 0.0750890821218490601 0.0884549170732498169
0.0733501911163330078 0.208673611283302307 0.0113298594951629639
0.305933177471160889 0.157972365617752075 0.0406022369861602783
0.0568170547485351562 0.164467334747314453 0.0368523597717285156
0.0914856046438217163 0.00946951471269130707 0.126340404152870178
0.454018145799636841 0.088522002100944519 0.0806994214653968811
0.595379292964935303 0.0130340056493878365 0.124282434582710266
0.168623358011245728 0.058547336608171463 0.0980053097009658813
0.407512098550796509 0.01436566561460495 0.123513601720333099
0.271314084529876709 0.0786125734448432922 0.0864206328988075256
0.0634461343288421631 0.065026603639125824 0.094264492392539978
0.0268543437123298645 0.0217577703297138214 0.119245767593383789
0.396715223789215088 0.092127673327922821 0.0786176919937133789
0.81493067741394043 0.0354701206088066101 0.111328944563865662
0.243856370449066162 0.129111900925636292 0.0572648346424102783
0.0341109037399291992 0.123729079961776733 0.0603726059198379517
0.468080103397369385 0.0382616147398948669 0.109717272222042084
0.387509524822235107 0.00869112834334373474 0.126789793372154236
0.900049686431884766 0.0361421816051006317 0.110940925776958466
0.708106040954589844 0.0350275933742523193 0.111584432423114777
0.170199751853942871 0.160214796662330627 0.0393075644969940186
0.575500011444091797 0.0185645166784524918 0.121089398860931396
0.066628873348236084 0.145364508032798767 0.0478813871741294861
0.199216067790985107 0.0103074917569756508 0.125856593251228333
0.835753917694091797 0.0538702309131622314 0.100705631077289581
0.245004713535308838 0.165394946932792664 0.0363168120384216309
0.109422683715820312 0.114647291600704193 0.0656159818172454834
0.159871160984039307 0.117246612906455994 0.0641152635216712952
0.361810147762298584 0.029086042195558548 0.115014791488647461
0.276663601398468018 0.0428773239254951477 0.10705239325761795
0.102773338556289673 0.081934802234172821 0.0845025479793548584
0.290078461170196533 0.122812040150165558 0.0609020590782165527
0.620742738246917725 0.0462273471057415009 0.105118252336978912
0.627910494804382324 0.0776924341917037964 0.0869518816471099854
0.313054323196411133 0.155298784375190735 0.0421458259224891663
0.480987578630447388 0.0532243289053440094 0.101078540086746216
0.738424181938171387 0.0633215755224227905 0.0952488929033279419
0.660901784896850586 0.0601313747465610504 0.0970907583832740784
0.319500327110290527 0.133313640952110291 0.0548389554023742676
0.44069179892539978 0.0726365149021148682 0.0898709148168563843
0.751679599285125732 0.0460935235023498535 0.105195522308349609
0.101313114166259766 0.114049695432186127 0.065961003303527832
0.381916821002960205 0.11064600944519043 0.0679261237382888794
0.0950253009796142578 0.063305981457233429 0.0952579006552696228
0.128841638565063477 0.141479328274726868 0.0501244962215423584
0.697989404201507568 0.0578423477709293365 0.0984123349189758301
0.165609091520309448 0.0206264816224575043 0.119898922741413116
0.20735931396484375 0.0730410963296890259 0.0896373242139816284
0.263970851898193359 0.100715816020965576 0.0736593157052993774
0.357289671897888184 0.0476396828889846802 0.104302838444709778
0.147380679845809937 0.00643959967419505119 0.128089725971221924
0.335302591323852539 0.129850804805755615 0.0568382218480110168
0.84224402904510498 0.0487390719354152679 0.103668108582496643
0.528104066848754883 0.00972397439181804657 0.12619347870349884
0.118371665477752686 0.150500461459159851 0.0449161380529403687
0.0576724708080291748 0.100051656365394592 0.0740427747368812561
0.129548415541648865 0.0079484330490231514 0.127218589186668396
0.0790700986981391907 0.0225495472550392151 0.118788637220859528
0.683890402317047119 0.0162524450570344925 0.122424274682998657
0.391921728849411011 0.0543503612279891968 0.10042843222618103
0.442770868539810181 0.0115553354844450951 0.125136151909828186
0.579055905342102051 0.0958693921566009521 0.0764574036002159119
0.409144699573516846 0.108937188982963562 0.0689127072691917419
0.659251213073730469 0.0313423909246921539 0.113712087273597717
