ply
format ascii 1.0
element vertex 951
property float x
property float y
property float z
end_header
1.08559870719909668 1 0.0679168850183486938
1.06087100505828857 1 0.0544784665107727051
1.15104365348815918 1 0.139240577816963196
1.68533790111541748 1 0.0326562784612178802
0.391926884651184082 1 0.0562336146831512451
1.03640830516815186 1 0.1094074547290802
1.60964155197143555 1 0.134231358766555786
0.773135781288146973 1 0.0608461499214172363
1.58170676231384277 1 0.201413244009017944
1.62968766689300537 1 0.0276304334402084351
0.967650830745697021 1 0.128023162484169006
1.28250646591186523 1 0.113390684127807617
1.65483808517456055 1 0.218909531831741333
1.69185757637023926 1 0.0595504827797412872
1.00228404998779297 1 0.154541701078414917
1.59023606777191162 1 0.061903245747089386
0.885675907135009766 1 0.0608257949352264404
0.892014622688293457 1 0.0928885936737060547
1.34561514854431152 1 0.0155031606554985046
0.99278867244720459 1 0.154562562704086304
1.75150382518768311 1 0.309015631675720215
0.35489499568939209 1 0.0523072481155395508
1.37526750564575195 1 0.206512778997421265
0.82570338249206543 1 0.0798062533140182495
1.14303576946258545 1 0.0739566832780838013
0.320985555648803711 1 0.0570718050003051758
1.23682618141174316 1 0.226956725120544434
1.44476592540740967 1 0.131394252181053162
1.68130099773406982 1 0.0972052440047264099
0.555408596992492676 1 0.00737139582633972168
1.57857263088226318 1 0.0919183194637298584
0.897331953048706055 1 0.15761624276638031
1.14369487762451172 1 0.0823402255773544312
1.26656234264373779 1 0.0550162345170974731
1.82320475578308105 1 0.315841108560562134
0.408679723739624023 1 0.03825339674949646
1.28081154823303223 1 0.10575026273727417
1.61520755290985107 1 0.190448597073554993
1.1253809928894043 1 0.0630095601081848145
0.280394792556762695 1 0.00167027115821838379
1.03053498268127441 1 0.0787985175848007202
1.34558534622192383 1 0.144448220729827881
0.239083290100097656 1 0.0013790130615234375
1.54883861541748047 1 0.13269437849521637
0.929774582386016846 1 0.0631504952907562256
1.4825206995010376 1 0.174644380807876587
0.831090569496154785 1 0.0565009713172912598
0.534857511520385742 1 0.00135138630867004395
1.20945954322814941 1 0.159711301326751709
0.843681812286376953 1 0.0548819750547409058
1.2938687801361084 1 0.0922524183988571167
1.05259203910827637 1 0.0992906093597412109
1.88351058959960938 1 0.237235039472579956
0.470308423042297363 1 0.080636143684387207
1.76420652866363525 1 0.138940587639808655
1.61441349983215332 1 0.0221124477684497833
1.75200057029724121 1 0.178579509258270264
1.29313492774963379 1 0.138422027230262756
0.565992593765258789 1 0.0491616427898406982
1.56724047660827637 1 0.105537384748458862
0.86013638973236084 1 0.123047441244125366
1.86879920959472656 1 0.267032533884048462
1.08528542518615723 1 0.0532208085060119629
1.19609737396240234 1 0.0791161805391311646
1.84672582149505615 1 0.184405222535133362
1.8592451810836792 1 0.132088541984558105
1.15311980247497559 1 0.0187375694513320923
1.29065537452697754 1 0.212863326072692871
0.67681431770324707 1 0.09664878249168396
1.16389036178588867 1 0.134306043386459351
0.877451896667480469 1 0.128050267696380615
0.258199214935302734 1 0.0145196020603179932
1.16687881946563721 1 0.213450193405151367
1.26013779640197754 1 0.0187590047717094421
1.0592195987701416 1 0.117974758148193359
1.79462945461273193 1 0.114450059831142426
0.571661472320556641 1 0.0295314788818359375
1.58019709587097168 1 0.154852807521820068
1.05651605129241943 1 0.105187058448791504
1.56938076019287109 1 0.127363190054893494
1.55855929851531982 1 0.0324308611452579498
0.379909038543701172 1 0.0188689231872558594
1.72572541236877441 1 0.290979653596878052
1.01951003074645996 1 0.182794347405433655
1.16929054260253906 1 0.0800778716802597046
1.50906205177307129 1 0.12777400016784668
0.650391459465026855 1 0.021651148796081543
1.7912677526473999 1 0.215177163481712341
0.962993264198303223 1 0.0789959430694580078
1.72045612335205078 1 0.253159701824188232
0.803635001182556152 1 0.0019934922456741333
0.594078183174133301 1 0.0459286719560623169
1.85914850234985352 1 0.10199350118637085
0.326037764549255371 1 0.0377247929573059082
1.26694703102111816 1 0.0704120919108390808
1.83110487461090088 1 0.120746709406375885
1.04733717441558838 1 0.0551442652940750122
1.5820925235748291 1 0.289818257093429565
1.83533549308776855 1 0.136970356106758118
0.412166953086853027 1 0.0673373639583587646
1.76240253448486328 1 0.2471446692943573
0.816605567932128906 1 0.0876076221466064453
1.0821911096572876 1 0.00437438488006591797
1.42106890678405762 1 0.0921567678451538086
1.20617806911468506 1 0.256567001342773438
0.331204205751419067 1 0.23615795373916626
0.769938051700592041 1 0.235776796936988831
0.629739344120025635 1 0.28693041205406189
0.569052457809448242 1 0.310471624135971069
0.342951655387878418 1 0.256912767887115479
1.41347765922546387 1 0.298766851425170898
0.599815487861633301 1 0.328379184007644653
0.534860193729400635 1 0.207298159599304199
0.610802888870239258 1 0.160420998930931091
0.33875042200088501 1 0.134763225913047791
1.15283679962158203 1 0.311446070671081543
0.569986522197723389 1 0.192101463675498962
0.244289711117744446 1 0.20064564049243927
0.581224799156188965 1 0.329311281442642212
0.571083247661590576 1 0.123906627297401428
0.125041812658309937 1 0.0674096941947937012
0.491629123687744141 1 0.196217551827430725
0.66192549467086792 1 0.271983087062835693
0.081691741943359375 1 0.0417301952838897705
0.124083124101161957 1 0.258910119533538818
0.0453357324004173279 1 0.304381906986236572
1.04704415798187256 1 0.229329228401184082
0.134192854166030884 1 0.094778209924697876
0.384468048810958862 1 0.276953727006912231
1.32022690773010254 1 0.306685477495193481
0.407839417457580566 1 0.135919973254203796
1.01693558692932129 1 0.19088175892829895
0.789660155773162842 1 0.195061326026916504
1.21694493293762207 1 0.340392649173736572
0.607192337512969971 1 0.286303848028182983
0.482980966567993164 1 0.263348400592803955
0.415239542722702026 1 0.210572674870491028
0.505617022514343262 1 0.117245152592658997
0.739283144474029541 1 0.295565754175186157
0.217290088534355164 1 0.184716969728469849
0.0497725047171115875 1 0.28371015191078186
0.721349537372589111 1 0.136532321572303772
0.0129963904619216919 1 0.265622138977050781
0.161658197641372681 1 0.0896822512149810791
0.729058265686035156 1 0.26491081714630127
1.04984664916992188 1 0.311348080635070801
1.10049307346343994 1 0.20389990508556366
0.0640276595950126648 1 0.0863214731216430664
1.06754803657531738 1 0.307681888341903687
0.676073551177978516 1 0.178785011172294617
0.714877605438232422 1 0.19423067569732666
0.201101794838905334 1 0.298194229602813721
0.387436509132385254 1 0.121770322322845459
1.00799143314361572 1 0.207938402891159058
0.874434888362884521 1 0.324361473321914673
0.546195626258850098 1 0.272888123989105225
0.00714487582445144653 1 0.265230566263198853
0.443649232387542725 1 0.138483971357345581
0.256816685199737549 1 0.104646086692810059
0.243276342749595642 1 0.119900315999984741
0.534791171550750732 1 0.242987886071205139
0.14192219078540802 1 0.140757322311401367
0.157456755638122559 1 0.0313702523708343506
0.401429474353790283 1 0.264845132827758789
0.19142720103263855 1 0.145657867193222046
0.180737778544425964 1 0.0614173710346221924
1.36636137962341309 1 0.319746404886245728
0.0597425885498523712 1 0.330216467380523682
0.910959362983703613 1 0.293062776327133179
0.904246926307678223 1 0.268022835254669189
1.69106006622314453 1 0.321227401494979858
0.811973750591278076 1 0.341312378644943237
0.470861822366714478 1 0.133606836199760437
0.526115953922271729 1 0.311808764934539795
0.319495648145675659 1 0.1016082763671875
0.170081347227096558 1 0.229109689593315125
0.246059074997901917 1 0.258787810802459717
1.17758047580718994 1 0.255564242601394653
0.933955907821655273 1 0.27140083909034729
0.457702517509460449 1 0.264078497886657715
0.966125190258026123 1 0.192868947982788086
0.834587156772613525 1 0.315195947885513306
0.634323477745056152 1 0.158433377742767334
0.141924694180488586 1 0.186064526438713074
0.169803842902183533 1 0.241371333599090576
0.504354894161224365 1 0.262486457824707031
1.15867853164672852 1 0.279101163148880005
0.00624328106641769409 1 0.265306442975997925
0.795229494571685791 1 0.311771810054779053
1.1902843713760376 1 0.329550236463546753
0.147888422012329102 1 0.061710655689239502
0.196032494306564331 1 0.0959676206111907959
0.372403264045715332 1 0.324456900358200073
0.341448366641998291 1 0.107682555913925171
0.308838874101638794 1 0.155844792723655701
0.33501732349395752 1 0.32794150710105896
0.286623746156692505 1 0.108046546578407288
0.121567279100418091 1 0.114736273884773254
0.918773472309112549 1 0.228399708867073059
0.984534740447998047 1 0.291418731212615967
0.533831119537353516 1 0.287630528211593628
0.642690718173980713 1 0.341751307249069214
1.24935221672058105 1 0.342405050992965698
0.432387202978134155 1 0.27071419358253479
0.0634285807609558105 1 0.141063854098320007
1.81196117401123047 1 0.346065729856491089
0.244982168078422546 1 0.0511362552642822266
1.50681078433990479 1 0.347202926874160767
0.287036746740341187 1 0.0901484489440917969
0.0459398292005062103 1 0.196378692984580994
0.598795890808105469 1 0.349919557571411133
0.54097515344619751 1 0.230087235569953918
0.382205188274383545 1 0.154680609703063965
0.640537917613983154 1 0.325362622737884521
0.934794723987579346 1 0.212234258651733398
1.2099149227142334 1 0.331185787916183472
0.480555683374404907 1 0.164356902241706848
0.884446859359741211 1 0.217935845255851746
0.507755577564239502 1 0.119595050811767578
1.28999173641204834 1 0.311345994472503662
1.80122733116149902 1 0.342062205076217651
1.04712450504302979 1 0.209484979510307312
0.267736256122589111 1 0.339449614286422729
0.872988522052764893 1 0.339900225400924683
1.22081780433654785 1 0.348287075757980347
0.387198686599731445 1 0.255816340446472168
0.0238732006400823593 1 0.202258095145225525
0.665212869644165039 1 0.348474949598312378
0.341063499450683594 1 0.0937956869602203369
0.974973499774932861 1 0.239609807729721069
1.0354762077331543 1 0.290194183588027954
0.570956289768218994 1 0.230508029460906982
0.94143599271774292 1 0.242568314075469971
0.417877912521362305 1 0.215366572141647339
1.45020377635955811 1 0.282903671264648438
1.60664951801300049 1 0.301635026931762695
0.177901715040206909 1 0.305054962635040283
0.417217433452606201 1 0.29018893837928772
0.112301945686340332 1 0.22931988537311554
0.949710190296173096 1 0.203264951705932617
1.26447677612304688 1 0.311663895845413208
1.09970951080322266 1 0.34861445426940918
0.0133058596402406693 1 0.270470708608627319
1.45564711093902588 1 0.326325774192810059
0.350971251726150513 1 0.267753481864929199
1.36760532855987549 1 0.332103520631790161
0.75338214635848999 1 0.221461251378059387
0.642971992492675781 1 0.340881615877151489
0.993294835090637207 1 0.209371522068977356
0.016326388344168663 1 0.271389961242675781
0.208379000425338745 1 0.0420396029949188232
0.526274025440216064 1 0.172964021563529968
0.304390668869018555 1 0.186443835496902466
0.802758872509002686 1 0.26712760329246521
0.700593292713165283 1 0.279758602380752563
1.7892986536026001 1 0.339229881763458252
1.15440773963928223 1 0.298549532890319824
0.0201803427189588547 1 0.0192210376262664795
0.293654829263687134 1 0.218217551708221436
0.893021106719970703 1 0.339262336492538452
0.353170245885848999 1 0.257047474384307861
0.453014731407165527 1 0.289831250905990601
0.196877643465995789 1 0.323532670736312866
1.50405275821685791 1 0.288793504238128662
0.186508521437644958 1 0.201748445630073547
0.214216157793998718 1 0.326123237609863281
0.979981482028961182 1 0.195238605141639709
1.4082038402557373 1 0.261143267154693604
0.727649390697479248 1 0.227773368358612061
1.41865313053131104 1 0.313047617673873901
0.136102050542831421 1 0.0270546376705169678
0.52897799015045166 1 0.179638102650642395
0.61115795373916626 1 0.144727498292922974
1.13087141513824463 1 0.288107842206954956
0.448469251394271851 1 0.219164937734603882
1.02576994895935059 1 0.311785697937011719
0.218208685517311096 1 0.331117480993270874
1.56728172302246094 1 0.304898917675018311
0.130233630537986755 1 0.13010019063949585
0.486340105533599854 1 0.204832583665847778
0.216946721076965332 1 0.234356045722961426
0.493086725473403931 1 0.122005149722099304
0.666317164897918701 1 0.284902006387710571
0.086315251886844635 1 0.126879423856735229
0.397263199090957642 1 0.232429817318916321
0.187317535281181335 1 0.202746748924255371
1.66657471656799316 1 0.323321431875228882
0.59758150577545166 1 0.169777378439903259
0.103265151381492615 1 0.238589107990264893
0.0980329662561416626 1 0.177730455994606018
0.55471956729888916 1 0.338133335113525391
0.782035112380981445 1 0.172369018197059631
0.391644030809402466 1 0.29227977991104126
1.19639909267425537 1 0.341129153966903687
0.368093311786651611 1 0.188644140958786011
0.269232213497161865 1 0.226193428039550781
1.0029151439666748 1 0.225795507431030273
1.21492564678192139 1 0.317286849021911621
1.35862123966217041 1 0.280278146266937256
1.67464339733123779 1 0.324020981788635254
0.302417337894439697 1 0.210208967328071594
1.38799440860748291 1 0.32379835844039917
0.89484018087387085 1 0.343759536743164062
1.52271509170532227 1 0.293579608201980591
0.230660513043403625 1 0.2381783127784729
0.102822445333003998 1 0.234008282423019409
0.262308061122894287 1 0.325600534677505493
0.645237565040588379 1 0.195844054222106934
0.163868933916091919 1 0.207164257764816284
0.211194232106208801 1 0.224175378680229187
0.497969150543212891 1 0.120209947228431702
1.16537582874298096 1 0.314068913459777832
1.62168037891387939 1 0.307408899068832397
0.538125753402709961 1 0.117388740181922913
1.23522388935089111 1 0.308004200458526611
0.31698569655418396 1 0.25176885724067688
0.301064550876617432 1 0.0614022612571716309
0.0771408751606941223 1 0.21200205385684967
0.358383059501647949 1 0.206325054168701172
0.189735814929008484 1 0.338639736175537109
0.534300446510314941 1 0.294083893299102783
0.348983824253082275 1 0.179099112749099731
1.42264151573181152 1 0.335580229759216309
0.237122073769569397 1 0.0931351780891418457
1.13021492958068848 1 0.305477350950241089
0.196072220802307129 1 0.328427970409393311
0.685033738613128662 1 0.206586569547653198
0.441495120525360107 1 0.0851827859878540039
0.357452332973480225 1 0.343657702207565308
1.06926345825195312 1 0.326143741607666016
1.02099764347076416 1 0.210396319627761841
1.30015945434570312 1 0.305821895599365234
1.07572174072265625 1 0.266187220811843872
1.34001243114471436 1 0.248377948999404907
1.01316046714782715 1 0.30107957124710083
0.349499911069869995 1 0.344946056604385376
1.31719708442687988 1 0.3323478102684021
0.570522785186767578 1 0.311153113842010498
0.545018494129180908 1 0.166510134935379028
0.416009992361068726 1 0.128856569528579712
0.115585006773471832 1 0.186765626072883606
0.0522425174713134766 1 0.254364877939224243
0.501383662223815918 1 0.261281013488769531
0.699729263782501221 1 0.206895962357521057
0.18810918927192688 1 0.14458000659942627
0.563230931758880615 1 0.156618133187294006
1.37163984775543213 1 0.298391044139862061
0.300636470317840576 1 0.343122601509094238
0.143772423267364502 1 0.0465333163738250732
0.958647549152374268 1 0.281579941511154175
0.201688647270202637 1 0.234713256359100342
0.615714728832244873 1 0.302224785089492798
0.0874213501811027527 1 0.19003729522228241
0.254162460565567017 1 0.26015317440032959
0.99770432710647583 1 0.331354081630706787
0.316850185394287109 1 0.241394519805908203
0.369855821132659912 1 0.231631100177764893
0.652461826801300049 1 0.318323075771331787
0.128561019897460938 1 0.242220461368560791
0.63554084300994873 1 0.151133760809898376
1.16193819046020508 1 0.249388307332992554
0.710954904556274414 1 0.318787723779678345
0.910023987293243408 1 0.176773577928543091
0.319750458002090454 1 0.175451233983039856
0.594501793384552002 1 0.143095046281814575
0.91653674840927124 1 0.234900295734405518
0.275620490312576294 1 0.0539068281650543213
0.30814400315284729 1 0.29499208927154541
1.32674598693847656 1 0.316450566053390503
0.468864142894744873 1 0.197423368692398071
0.823119819164276123 1 0.267142355442047119
0.0146477483212947845 1 0.23016531765460968
0.0563335008919239044 1 0.165954872965812683
0.524955391883850098 1 0.320347994565963745
0.770756661891937256 1 0.34345322847366333
0.7074127197265625 1 0.295418232679367065
0.763029277324676514 1 0.300915330648422241
0.283351659774780273 1 0.153478190302848816
0.929942786693572998 1 0.295743942260742188
0.320302367210388184 1 0.178072303533554077
1.23118305206298828 1 0.227355539798736572
0.378616750240325928 1 0.325265794992446899
0.518943548202514648 1 0.347508162260055542
0.881435096263885498 1 0.238872766494750977
1.16962730884552002 1 0.225991517305374146
0.0335339382290840149 1 0.227905005216598511
0.653436541557312012 1 0.194909259676933289
0.22087407112121582 1 0.160442233085632324
0.524384975433349609 1 0.164022624492645264
1.06917238235473633 1 0.281702309846878052
0.518116414546966553 1 0.27789384126663208
0.0694319531321525574 1 0.272623151540756226
0.865143060684204102 1 0.165593281388282776
1.11511421203613281 1 0.306105047464370728
0.21905970573425293 1 0.277732670307159424
1.29238522052764893 1 0.316865980625152588
0.116284742951393127 1 0.181936874985694885
1.19632256031036377 1 0.26917576789855957
1.07291126251220703 1 0.337210416793823242
0.436335057020187378 1 0.27528458833694458
0.714923501014709473 1 0.286829829216003418
0.936192691326141357 1 0.247925907373428345
0.0877661556005477905 1 0.0870661437511444092
1.07138216495513916 1 0.349048227071762085
0.0251371264457702637 1 0.322631090879440308
0.0788500756025314331 1 0.191303282976150513
0.985685884952545166 1 0.246397912502288818
1.4096144437789917 1 0.333730727434158325
0.022024352103471756 1 0.313404560089111328
0.0641325265169143677 1 0.176858276128768921
0.233289003372192383 1 0.121754750609397888
0.752912282943725586 1 0.280828386545181274
0.325006991624832153 1 0.141606584191322327
0.969661056995391846 1 0.313542157411575317
0.984800100326538086 1 0.346075087785720825
1.52795803546905518 1 0.304077267646789551
0.529064059257507324 1 0.349198222160339355
0.372935861349105835 1 0.148513674736022949
0.500009655952453613 1 0.330754131078720093
0.519208133220672607 1 0.140869900584220886
0.312424004077911377 1 0.345856308937072754
0.0466199368238449097 1 0.113699942827224731
0.885983049869537354 1 0.224774420261383057
0.584958195686340332 1 0.212069511413574219
0.180547118186950684 1 0.244770213961601257
1.48898017406463623 1 0.288440495729446411
0.415931731462478638 1 0.232808634638786316
0.691603600978851318 1 0.147412315011024475
1.4214249849319458 1 0.267299175262451172
0.165922299027442932 1 0.269389748573303223
0.659477412700653076 1 0.142796725034713745
0.43417850136756897 1 0.134284466505050659
0.0904680937528610229 1 0.192281156778335571
0.597336888313293457 1 0.183468297123908997
0.40002933144569397 1 0.28252941370010376
1.00792980194091797 1 0.247808992862701416
1.25788784027099609 1 0.267756253480911255
0.488655120134353638 1 0.313515275716781616
0.177631750702857971 1 0.181516349315643311
1.28722310066223145 1 0.306315064430236816
0.486251533031463623 1 0.225379437208175659
0.00439563579857349396 1 0.325165659189224243
0.233105137944221497 1 0.231159031391143799
0.19351622462272644 1 0.270887225866317749
1.21562635898590088 1 0.342304885387420654
0.569256842136383057 1 0.218418210744857788
0.871489346027374268 1 0.338518053293228149
0.616629838943481445 1 0.332225561141967773
0.0498074963688850403 1 0.0436857938766479492
0.184644788503646851 1 0.0474684238433837891
0.842318952083587646 1 0.297413110733032227
1.36832594871520996 1 0.286266148090362549
0.193719938397407532 1 0.304459214210510254
0.444397151470184326 1 0.0830712318420410156
1.36300432682037354 1 0.291340142488479614
1.56031715869903564 1 0.305362701416015625
0.0970304533839225769 1 0.120907679200172424
0.0846747606992721558 1 0.332470178604125977
0.437904894351959229 1 0.157533511519432068
0.0619356743991374969 1 0.112812265753746033
1.53235650062561035 1 0.296376019716262817
1.04922795295715332 1 0.341647952795028687
1.29722678661346436 1 0.31019127368927002
0.598412752151489258 1 0.193676576018333435
0.0997467264533042908 1 0.283857882022857666
1.65564823150634766 1 0.336795330047607422
0.0561709441244602203 1 0.0547609627246856689
1.1545027494430542 1 0.238548725843429565
0.120599932968616486 1 0.158989846706390381
0.600776374340057373 1 0.316340386867523193
1.59019804000854492 1 0.349667787551879883
0.672975361347198486 1 0.185717970132827759
0.358911573886871338 1 0.31409105658531189
0.429460227489471436 1 0.309836208820343018
0.809835672378540039 1 0.201422691345214844
0.0149122504517436028 1 0.0250839889049530029
1.41803991794586182 1 0.297389775514602661
0.317974597215652466 1 0.137718066573143005
0.126391023397445679 1 0.105127379298210144
0.285324335098266602 1 0.189525619149208069
0.731290519237518311 1 0.321431100368499756
0.236101344227790833 1 0.185324594378471375
1.27316498756408691 1 0.274225711822509766
0.825173437595367432 1 0.264921009540557861
1.45324480533599854 1 0.348208963871002197
0.582072913646697998 1 0.160619080066680908
0.542906582355499268 1 0.22336268424987793
0.434757113456726074 1 0.139091193675994873
1.40927040576934814 1 0.307802200317382812
0.768189072608947754 1 0.283740371465682983
0.22020895779132843 1 0.134938418865203857
0.476153790950775146 1 0.225978285074234009
0.301489979028701782 1 0.197186678647994995
0.061410810798406601 1 0.333987146615982056
0.712307572364807129 1 0.327322602272033691
0.426793813705444336 1 0.0871751010417938232
0.856268048286437988 1 0.283187776803970337
1.45913028717041016 1 0.290998339653015137
0.631943643093109131 1 0.284329831600189209
0.830875098705291748 1 0.206147238612174988
0.534827947616577148 1 0.215852364897727966
0.825269460678100586 1 0.163343921303749084
0.53168189525604248 1 0.193131357431411743
1.10741746425628662 1 0.289207935333251953
0.383585661649703979 1 0.180213883519172668
0.837017297744750977 1 0.343503177165985107
0.109625190496444702 1 0.339556366205215454
1.08182096481323242 1 0.262628853321075439
0.154662042856216431 1 0.13853900134563446
1.21707606315612793 1 0.247382119297981262
0.147207587957382202 1 0.204433649778366089
0.556268632411956787 1 0.233135968446731567
0.292054742574691772 1 0.195204839110374451
0.606232285499572754 1 0.193989232182502747
1.12948441505432129 1 0.272919952869415283
0.761423766613006592 1 0.149643510580062866
0.737774968147277832 1 0.165279626846313477
0.495561212301254272 1 0.116790518164634705
1.11972379684448242 1 0.301141321659088135
0.235640093684196472 1 0.195150226354598999
1.43381762504577637 1 0.342380732297897339
0.247857168316841125 1 0.284245312213897705
0.513004541397094727 1 0.330691605806350708
0.284824639558792114 1 0.1228351891040802
0.697042644023895264 1 0.301687300205230713
0.0331142842769622803 1 0.272436916828155518
0.280625611543655396 1 0.156434342265129089
0.50065314769744873 1 0.241573125123977661
0.247646331787109375 1 0.249650478363037109
0.0207574740052223206 1 0.182373359799385071
0.0972569137811660767 1 0.171631276607513428
1.09418463706970215 1 0.307310312986373901
0.323070019483566284 1 0.212924420833587646
0.416591048240661621 1 0.217593401670455933
0.831615030765533447 1 0.220390841364860535
0.187057778239250183 1 0.275927275419235229
0.350919753313064575 1 0.193005234003067017
0.508622050285339355 1 0.227159678936004639
0.0781331509351730347 1 0.187699690461158752
0.217526674270629883 1 0.270044207572937012
0.121655657887458801 1 0.0431330502033233643
0.575437486171722412 1 0.134190678596496582
0.020193200558423996 1 0.344110071659088135
0.269056171178817749 1 0.243230730295181274
0.352399647235870361 1 0.160825833678245544
0.922743499279022217 1 0.208636492490768433
0.911942958831787109 1 0.339584469795227051
0.792433738708496094 1 0.348482340574264526
0.429505765438079834 1 0.21371033787727356
0.144962415099143982 1 0.0271241366863250732
1.16100835800170898 1 0.258618474006652832
0.779540777206420898 1 0.28104698657989502
0.453563988208770752 1 0.346286594867706299
0.911903977394104004 1 0.250454425811767578
0.406736820936203003 1 0.262547463178634644
0.0137731814756989479 1 0.00345727801322937012
1.34809756278991699 1 0.324697971343994141
1.14870631694793701 1 0.214027166366577148
1.47285354137420654 1 0.325048714876174927
0.416908770799636841 1 0.326931655406951904
0.747535228729248047 1 0.285278141498565674
0.602618813514709473 1 0.179246425628662109
0.249064788222312927 1 0.336856573820114136
0.0148534877225756645 1 0.280235260725021362
0.631543636322021484 1 0.250639736652374268
0.872728407382965088 1 0.244204312562942505
1.5102313756942749 1 0.286497294902801514
0.818582355976104736 1 0.242228850722312927
1.18425953388214111 1 0.242384105920791626
1.57948040962219238 1 0.300954729318618774
0.283507049083709717 1 0.0826289355754852295
1.27197158336639404 1 0.248942106962203979
0.352332741022109985 1 0.158702582120895386
0.445927649736404419 1 0.185633212327957153
0.146357879042625427 1 0.1686115562915802
0.717346251010894775 1 0.300260037183761597
0.348947644233703613 1 0.0831921398639678955
1.09101223945617676 1 0.201453685760498047
0.732069015502929688 1 0.247391670942306519
0.517292559146881104 1 0.123971477150917053
1.35265958309173584 1 0.256228774785995483
0.531497001647949219 1 0.118449151515960693
1.06753301620483398 1 0.346857666969299316
1.67106044292449951 1 0.32910040020942688
0.780916512012481689 1 0.286541640758514404
0.511011123657226562 1 0.23398435115814209
0.572478413581848145 1 0.256143838167190552
0.61671149730682373 1 0.297247022390365601
0.754562795162200928 1 0.251742124557495117
1.43159031867980957 1 0.295898377895355225
0.526646018028259277 1 0.270693153142929077
1.11810386180877686 1 0.302446126937866211
1.27851784229278564 1 0.299967050552368164
0.00480801286175847054 1 0.101339429616928101
0.205480098724365234 1 0.0926849544048309326
1.01563775539398193 1 0.293370217084884644
1.01876521110534668 1 0.291765302419662476
0.349626123905181885 1 0.189473271369934082
0.425797432661056519 1 0.225316822528839111
0.981028854846954346 1 0.301676511764526367
0.65878760814666748 1 0.198500603437423706
0.549989521503448486 1 0.144018709659576416
0.0107257692143321037 1 0.124560534954071045
0.123607978224754333 1 0.336761802434921265
0.25883522629737854 1 0.107191205024719238
0.514291107654571533 1 0.28215363621711731
1.08985483646392822 1 0.208731174468994141
0.8053322434425354 1 0.155267462134361267
0.387553960084915161 1 0.0916028320789337158
0.921315670013427734 1 0.314973026514053345
0.195649996399879456 1 0.341903150081634521
0.597890675067901611 1 0.134028539061546326
0.0600646063685417175 1 0.137411832809448242
0.657915890216827393 1 0.317218422889709473
0.751420140266418457 1 0.16605609655380249
0.551969051361083984 1 0.349226534366607666
0.44731605052947998 1 0.339132785797119141
0.421436727046966553 1 0.200608000159263611
0.256535530090332031 1 0.0639240443706512451
0.456941336393356323 1 0.141411826014518738
0.850689709186553955 1 0.295416533946990967
0.0914017632603645325 1 0.31657835841178894
0.897950291633605957 1 0.338830411434173584
0.599932074546813965 1 0.326615691184997559
0.364457547664642334 1 0.320123434066772461
1.19627761840820312 1 0.304055899381637573
1.45394432544708252 1 0.347851932048797607
0.326279431581497192 1 0.142174854874610901
0.561128139495849609 1 0.150197729468345642
1.11590409278869629 1 0.317199915647506714
0.205903798341751099 1 0.279447555541992188
1.12727761268615723 1 0.259117633104324341
1.23505580425262451 1 0.269969940185546875
0.0645567253232002258 1 0.322336971759796143
0.164015144109725952 1 0.0492748618125915527
0.144052103161811829 1 0.288422077894210815
0.770701229572296143 1 0.183632194995880127
0.600176513195037842 1 0.300729185342788696
0.056856151670217514 1 0.114510208368301392
1.60980582237243652 1 0.302881240844726562
0.718639194965362549 1 0.205213040113449097
0.00166001659817993641 1 0.187019467353820801
0.789599061012268066 1 0.163991197943687439
0.90784066915512085 1 0.277599066495895386
0.218698680400848389 1 0.248480081558227539
0.128119722008705139 1 0.322774499654769897
1.52929675579071045 1 0.318320184946060181
0.990348637104034424 1 0.287569373846054077
0.349157661199569702 1 0.250246316194534302
0.893849968910217285 1 0.226334124803543091
0.174664139747619629 1 0.18361993134021759
0.551025986671447754 1 0.283529520034790039
0.307339489459991455 1 0.0962310135364532471
0.433254063129425049 1 0.0876561999320983887
1.41144478321075439 1 0.3192635178565979
0.972550511360168457 1 0.258741825819015503
0.222089827060699463 1 0.167853519320487976
0.452411115169525146 1 0.258146136999130249
0.149644047021865845 1 0.268388360738754272
0.33235013484954834 1 0.273329615592956543
1.07702791690826416 1 0.320762157440185547
0.473235607147216797 1 0.153625234961509705
0.00274129770696163177 1 0.128388985991477966
0.00750639522448182106 1 0.087604820728302002
0.655416190624237061 1 0.165443509817123413
0.184296220541000366 1 0.0958479046821594238
0.0832328423857688904 1 0.0911230146884918213
0.576273441314697266 1 0.174503445625305176
0.873916029930114746 1 0.301453649997711182
1.37205421924591064 1 0.341450631618499756
0.785301625728607178 1 0.192285045981407166
0.42179986834526062 1 0.093499600887298584
1.44156181812286377 1 0.298587292432785034
0.244257479906082153 1 0.170914515852928162
1.09912079437890498e-14 0.862133622169494629 0.282821953296661377
1.09912079437890498e-14 0.642434835433959961 0.205452263355255127
1.09912079437890498e-14 0.911397993564605713 0.284906983375549316
1.09912079437890498e-14 0.390845239162445068 0.0852199941873550415
1.09912079437890498e-14 0.934929192066192627 0.237866833806037903
1.09912079437890498e-14 0.989897370338439941 0.0721719339489936829
1.09912079437890498e-14 0.365439236164093018 0.0551273822784423828
1.09912079437890498e-14 0.710888028144836426 0.118566632270812988
1.09912079437890498e-14 0.828000485897064209 0.0580986253917217255
1.09912079437890498e-14 0.953902542591094971 0.318695574998855591
1.09912079437890498e-14 0.895440101623535156 0.063060760498046875
1.09912079437890498e-14 0.954800128936767578 0.0655609294772148132
1.09912079437890498e-14 0.97639012336730957 0.106593243777751923
1.09912079437890498e-14 0.8913612961769104 0.0351208671927452087
1.09912079437890498e-14 0.967737317085266113 0.168003767728805542
1.09912079437890498e-14 0.496701061725616455 0.149768397212028503
1.09912079437890498e-14 0.685650110244750977 0.0681534111499786377
1.09912079437890498e-14 0.349024713039398193 0.0372731685638427734
1.09912079437890498e-14 0.73116457462310791 0.00360747426748275757
1.09912079437890498e-14 0.789304673671722412 0.0984737575054168701
1.09912079437890498e-14 0.737589657306671143 0.0252240002155303955
1.09912079437890498e-14 0.202973783016204834 0.0692900419235229492
1.09912079437890498e-14 0.854399263858795166 0.140995800495147705
1.09912079437890498e-14 0.608378291130065918 0.206669524312019348
1.09912079437890498e-14 0.952483773231506348 0.074263550341129303
1.09912079437890498e-14 0.560966670513153076 0.101565241813659668
1.09912079437890498e-14 0.657358050346374512 0.0926575362682342529
1.09912079437890498e-14 0.532370328903198242 0.0855174064636230469
1.09912079437890498e-14 0.160852670669555664 0.036332249641418457
1.09912079437890498e-14 0.922258257865905762 0.169327437877655029
1.09912079437890498e-14 0.701646924018859863 0.220587044954299927
1.09912079437890498e-14 0.628370106220245361 0.047058984637260437
1.09912079437890498e-14 0.796045899391174316 0.0345301330089569092
1.09912079437890498e-14 0.77769845724105835 0.063589140772819519
1.09912079437890498e-14 0.57730865478515625 0.063045889139175415
1.09912079437890498e-14 0.667981982231140137 0.157584071159362793
1.09912079437890498e-14 0.932236075401306152 0.201751008629798889
1.09912079437890498e-14 0.85534590482711792 0.219424933195114136
1.09912079437890498e-14 0.241203427314758301 0.045287013053894043
1.09912079437890498e-14 0.937618851661682129 0.264100044965744019
1.09912079437890498e-14 0.73311227560043335 0.0265063494443893433
1.09912079437890498e-14 0.709947466850280762 0.0264358446002006531
1.09912079437890498e-14 0.981246709823608398 0.270729601383209229
1.09912079437890498e-14 0.844344019889831543 0.0574599876999855042
1.09912079437890498e-14 0.951478481292724609 0.172375231981277466
1.09912079437890498e-14 0.592783749103546143 0.141795769333839417
1.09912079437890498e-14 0.402809321880340576 0.0377875566482543945
1.09912079437890498e-14 0.917866766452789307 0.261550784111022949
1.09912079437890498e-14 0.108377277851104736 0.0064315497875213623
1.09912079437890498e-14 0.700442314147949219 0.192719578742980957
1.09912079437890498e-14 0.711759805679321289 0.0183645486831665039
1.09912079437890498e-14 0.886175215244293213 0.182969063520431519
1.09912079437890498e-14 0.702827215194702148 0.0798014625906944275
1.09912079437890498e-14 0.978281915187835693 0.0655502527952194214
1.09912079437890498e-14 0.522687733173370361 0.0494400262832641602
1.09912079437890498e-14 0.53854215145111084 0.0337130725383758545
1.09912079437890498e-14 0.140348315238952637 0.0221679210662841797
1.09912079437890498e-14 0.987961709499359131 0.178698375821113586
1.09912079437890498e-14 0.909946978092193604 0.0737300664186477661
1.09912079437890498e-14 0.681769728660583496 0.212412774562835693
1.09912079437890498e-14 0.899221062660217285 0.238988369703292847
1.09912079437890498e-14 0.738001465797424316 0.210983306169509888
1.09912079437890498e-14 0.88938671350479126 0.295001178979873657
1.09912079437890498e-14 0.985754609107971191 0.202994376420974731
1.09912079437890498e-14 0.885360360145568848 0.0479271747171878815
1.09912079437890498e-14 0.936613321304321289 0.147087559103965759
1.09912079437890498e-14 0.908742845058441162 0.12361849844455719
1.09912079437890498e-14 0.555417418479919434 0.0466914325952529907
1.09912079437890498e-14 0.433398663997650146 0.0861876010894775391
1.09912079437890498e-14 0.754079103469848633 0.128964856266975403
1.09912079437890498e-14 0.439630389213562012 0.102260872721672058
1.09912079437890498e-14 0.92486804723739624 0.0477235168218612671
1.09912079437890498e-14 0.665642619132995605 0.177168324589729309
1.09912079437890498e-14 0.87814939022064209 0.193330258131027222
1.09912079437890498e-14 0.647534728050231934 0.105138979852199554
1.09912079437890498e-14 0.497264683246612549 0.128534168004989624
1.09912079437890498e-14 0.515619158744812012 0.144711926579475403
1.09912079437890498e-14 0.947265207767486572 0.0253950059413909912
1.09912079437890498e-14 0.533869326114654541 0.0800714641809463501
1.09912079437890498e-14 0.642361581325531006 0.209077745676040649
1.09912079437890498e-14 0.807252645492553711 0.12270171195268631
1.09912079437890498e-14 0.769777894020080566 0.185037732124328613
1.09912079437890498e-14 0.466309010982513428 0.116567373275756836
1.09912079437890498e-14 0.870438456535339355 0.138700529932975769
1.09912079437890498e-14 0.20382457971572876 0.0348421931266784668
1.09912079437890498e-14 0.835755109786987305 0.250257253646850586
1.09912079437890498e-14 0.456296384334564209 0.103477329015731812
1.09912079437890498e-14 0.991182267665863037 0.3383636474609375
1.09912079437890498e-14 0.916501641273498535 0.272172659635543823
1.09912079437890498e-14 0.597620368003845215 0.196241125464439392
1.09912079437890498e-14 0.394379019737243652 0.0620131939649581909
1.09912079437890498e-14 0.560220479965209961 0.10398419201374054
1.09912079437890498e-14 0.663187563419342041 0.140587761998176575
1.09912079437890498e-14 0.829543590545654297 0.277825027704238892
1.09912079437890498e-14 0.663686037063598633 0.187248945236206055
1.09912079437890498e-14 0.86836707592010498 0.0237703807651996613
1.09912079437890498e-14 0.637570738792419434 0.138830125331878662
1.09912079437890498e-14 0.703395605087280273 0.208868637681007385
1.09912079437890498e-14 0.289040803909301758 0.046584010124206543
1.09912079437890498e-14 0.949510753154754639 0.313859909772872925
1.09912079437890498e-14 0.983244121074676514 0.0816031992435455322
1.09912079437890498e-14 0.896273910999298096 0.0521046146750450134
1.09912079437890498e-14 0.643409490585327148 0.18987525999546051
1.09912079437890498e-14 0.837525725364685059 0.232259199023246765
1.09912079437890498e-14 0.854368805885314941 0.0791211575269699097
1.09912079437890498e-14 0.842111289501190186 0.0425972677767276764
1.09912079437890498e-14 0.712473630905151367 0.122459590435028076
1.09912079437890498e-14 0.384910881519317627 0.085931628942489624
1.09912079437890498e-14 0.538817167282104492 0.017971232533454895
1.09912079437890498e-14 0.760683238506317139 0.166863307356834412
1.09912079437890498e-14 0.611509561538696289 0.0684165358543395996
1.09912079437890498e-14 0.604899764060974121 0.0650600343942642212
1.09912079437890498e-14 0.813498258590698242 0.162856727838516235
1.09912079437890498e-14 0.921427607536315918 0.0346912071108818054
1.09912079437890498e-14 0.623318672180175781 0.0523197203874588013
1.09912079437890498e-14 0.555132627487182617 0.0653658062219619751
1.09912079437890498e-14 0.121045589447021484 0.0355574190616607666
1.09912079437890498e-14 0.644848644733428955 0.0219001993536949158
1.09912079437890498e-14 0.859778761863708496 0.152940511703491211
1.09912079437890498e-14 0.562453210353851318 0.0509647578001022339
1.09912079437890498e-14 0.822314977645874023 0.141901716589927673
1.09912079437890498e-14 0.878991425037384033 0.0703866109251976013
1.09912079437890498e-14 0.581809163093566895 0.191732257604598999
1.09912079437890498e-14 0.975664973258972168 0.260615050792694092
1.09912079437890498e-14 0.838003098964691162 0.217635899782180786
1.09912079437890498e-14 0.447917819023132324 0.0186898559331893921
1.09912079437890498e-14 0.80375373363494873 0.219831466674804688
1.09912079437890498e-14 0.990529000759124756 0.0333380475640296936
1.09912079437890498e-14 0.383096933364868164 0.0519945025444030762
1.09912079437890498e-14 0.0956646203994750977 0.0308436751365661621
1.09912079437890498e-14 0.560033082962036133 0.000673472881317138672
1.09912079437890498e-14 0.822552204132080078 0.108850345015525818
1.09912079437890498e-14 0.0372186899185180664 0.00670379400253295898
1.09912079437890498e-14 0.733086347579956055 0.207824572920799255
1.09912079437890498e-14 0.403950154781341553 0.099170297384262085
1.09912079437890498e-14 0.610401272773742676 0.150259152054786682
1.09912079437890498e-14 0.562334656715393066 0.027042776346206665
1.09912079437890498e-14 0.226563692092895508 0.0245704352855682373
1.09912079437890498e-14 0.587884724140167236 0.179912656545639038
1.09912079437890498e-14 0.601623296737670898 0.00903441011905670166
1.09912079437890498e-14 0.72415691614151001 0.202557027339935303
1.09912079437890498e-14 0.985845267772674561 0.0476930998265743256
1.09912079437890498e-14 0.475564420223236084 0.0260066986083984375
1.09912079437890498e-14 0.989807963371276855 0.0370108187198638916
1.09912079437890498e-14 0.51788783073425293 0.118198096752166748
1.09912079437890498e-14 0.822824239730834961 0.0768608003854751587
1.09912079437890498e-14 0.53900986909866333 0.0656789392232894897
1.09912079437890498e-14 0.914480090141296387 0.0583363696932792664
1.09912079437890498e-14 0.790819942951202393 0.0136530250310897827
1.09912079437890498e-14 0.745781183242797852 0.0154413208365440369
1.09912079437890498e-14 0.491557419300079346 0.161749973893165588
1.09912079437890498e-14 0.921415567398071289 0.105294093489646912
1.09912079437890498e-14 0.457562923431396484 0.111523672938346863
1.09912079437890498e-14 0.911460578441619873 0.248885408043861389
1.09912079437890498e-14 0.419444024562835693 0.0635589063167572021
1.09912079437890498e-14 0.810299992561340332 0.199459433555603027
1.09912079437890498e-14 0.706658482551574707 0.142518609762191772
1.09912079437890498e-14 0.740861892700195312 0.0581933856010437012
1.09912079437890498e-14 0.739989280700683594 0.253151774406433105
1.09912079437890498e-14 0.586109519004821777 0.0549213886260986328
1.09912079437890498e-14 0.749890327453613281 0.0314129441976547241
1.09912079437890498e-14 0.947830855846405029 0.119759388267993927
1.09912079437890498e-14 0.9873238205909729 0.170826524496078491
1.09912079437890498e-14 0.259728133678436279 0.0719569027423858643
1.09912079437890498e-14 0.667503774166107178 0.0857627615332603455
1.09912079437890498e-14 0.943410336971282959 0.101247012615203857
1.09912079437890498e-14 0.138511955738067627 0.0262590944766998291
1.09912079437890498e-14 0.872836530208587646 0.00360061973333358765
1.09912079437890498e-14 0.858386993408203125 0.297721445560455322
1.09912079437890498e-14 0.267917871475219727 0.0488106310367584229
1.09912079437890498e-14 0.510540604591369629 0.108651548624038696
1.09912079437890498e-14 0.715001940727233887 0.112450316548347473
1.09912079437890498e-14 0.795816600322723389 0.0967149436473846436
1.09912079437890498e-14 0.465717136859893799 0.139223009347915649
1.09912079437890498e-14 0.613404691219329834 0.0402956008911132812
1.09912079437890498e-14 0.690325021743774414 0.169099688529968262
1.09912079437890498e-14 0.886600017547607422 0.101820588111877441
1.09912079437890498e-14 0.630751490592956543 0.00115543603897094727
1.09912079437890498e-14 0.956729590892791748 0.276339858770370483
1.09912079437890498e-14 0.549946367740631104 0.00193484127521514893
1.09912079437890498e-14 0.927877902984619141 0.141704559326171875
1.09912079437890498e-14 0.921660125255584717 0.277869671583175659
1.09912079437890498e-14 0.768436908721923828 0.12238737940788269
1.09912079437890498e-14 0.91495436429977417 0.216205865144729614
1.09912079437890498e-14 0.812259495258331299 0.0596250221133232117
1.09912079437890498e-14 0.90388786792755127 0.0901163667440414429
1.09912079437890498e-14 0.824621021747589111 0.148865163326263428
1.09912079437890498e-14 0.949315249919891357 0.032397054135799408
1.09912079437890498e-14 0.771538436412811279 0.0967542529106140137
1.09912079437890498e-14 0.475755751132965088 0.0624485909938812256
1.09912079437890498e-14 0.601589322090148926 0.0291562080383300781
1.09912079437890498e-14 0.374780893325805664 0.0444701611995697021
1.09912079437890498e-14 0.865507125854492188 0.188449889421463013
1.09912079437890498e-14 0.859629511833190918 0.0992081314325332642
1.09912079437890498e-14 0.747808694839477539 0.145612984895706177
1.09912079437890498e-14 0.312429428100585938 0.043742060661315918
1.09912079437890498e-14 0.968291878700256348 0.111729487776756287
1.09912079437890498e-14 0.779311418533325195 0.265232741832733154
1.09912079437890498e-14 0.897636175155639648 0.22737690806388855
1.09912079437890498e-14 0.470612883567810059 0.0070151984691619873
1.09912079437890498e-14 0.699336647987365723 0.108280077576637268
1.09912079437890498e-14 0.762904047966003418 0.227592676877975464
1.09912079437890498e-14 0.26308208703994751 0.0821370184421539307
1.09912079437890498e-14 0.938941299915313721 0.173302993178367615
1.09912079437890498e-14 0.496585369110107422 0.138632148504257202
1.09912079437890498e-14 0.439627766609191895 0.0868389010429382324
1.09912079437890498e-14 0.566654682159423828 0.170457899570465088
1.09912079437890498e-14 0.344111144542694092 0.116353422403335571
1.09912079437890498e-14 0.860636353492736816 0.0663685426115989685
1.09912079437890498e-14 0.886415183544158936 0.0611093565821647644
1.09912079437890498e-14 0.287757158279418945 0.0806892961263656616
1.09912079437890498e-14 0.844756543636322021 0.274898618459701538
1.09912079437890498e-14 0.932055234909057617 0.163371264934539795
1.09912079437890498e-14 0.405778706073760986 0.0500375926494598389
1.09912079437890498e-14 0.995321691036224365 0.150286242365837097
1.09912079437890498e-14 0.564893066883087158 0.181644082069396973
1.09912079437890498e-14 0.84253239631652832 0.119811750948429108
1.09912079437890498e-14 0.683626055717468262 0.172309845685958862
1.09912079437890498e-14 0.336339771747589111 0.0992109924554824829
1.09912079437890498e-14 0.260052323341369629 0.0680840909481048584
1.09912079437890498e-14 0.990931093692779541 0.130864977836608887
1.09912079437890498e-14 0.277744293212890625 0.0106430649757385254
1.09912079437890498e-14 0.671855807304382324 0.141148418188095093
1.09912079437890498e-14 0.485484778881072998 0.0287723541259765625
1.09912079437890498e-14 0.983617126941680908 0.120651103556156158
1.09912079437890498e-14 0.569060087203979492 0.0453359335660934448
1.09912079437890498e-14 0.304250538349151611 0.0445337295532226562
1.09912079437890498e-14 0.762024164199829102 0.00123719125986099243
1.09912079437890498e-14 0.531509876251220703 0.107153609395027161
1.09912079437890498e-14 0.311852157115936279 0.0173782557249069214
1.09912079437890498e-14 0.399022161960601807 0.118324264883995056
1.09912079437890498e-14 0.953663051128387451 0.0620063133537769318
1.09912079437890498e-14 0.581399440765380859 0.0355187952518463135
1.09912079437890498e-14 0.804667651653289795 0.245013713836669922
1.09912079437890498e-14 0.648196220397949219 0.157128229737281799
1.09912079437890498e-14 0.491239011287689209 0.140305191278457642
1.09912079437890498e-14 0.772065877914428711 0.142543330788612366
1.09912079437890498e-14 0.871753990650177002 0.0248921848833560944
1.09912079437890498e-14 0.672674655914306641 0.19710204005241394
1.09912079437890498e-14 0.329550206661224365 0.0569072216749191284
1.09912079437890498e-14 0.737142980098724365 0.213728785514831543
1.09912079437890498e-14 0.371325552463531494 0.043395310640335083
1.09912079437890498e-14 0.844747960567474365 0.158778920769691467
1.09912079437890498e-14 0.386654496192932129 0.0341382324695587158
1.09912079437890498e-14 0.5632781982421875 0.00213548541069030762
1.09912079437890498e-14 0.565914630889892578 0.151787891983985901
1.09912079437890498e-14 0.512924671173095703 0.14008726179599762
1.09912079437890498e-14 0.393232643604278564 0.0778194963932037354
1.09912079437890498e-14 0.815192103385925293 0.00622875988483428955
1.09912079437890498e-14 0.973881840705871582 0.0914475023746490479
1.09912079437890498e-14 0.546556591987609863 0.177366361021995544
1.09912079437890498e-14 0.622397661209106445 0.0674733966588973999
1.09912079437890498e-14 0.691993296146392822 0.0702361911535263062
1.09912079437890498e-14 0.428411245346069336 0.103603854775428772
1.09912079437890498e-14 0.777563214302062988 0.171630620956420898
1.09912079437890498e-14 0.451184749603271484 0.0846370607614517212
1.09912079437890498e-14 0.119411289691925049 0.0305160880088806152
1.09912079437890498e-14 0.996232211589813232 0.0957362949848175049
1.09912079437890498e-14 0.839960157871246338 0.173206895589828491
1.09912079437890498e-14 0.781198740005493164 0.256166994571685791
1.09912079437890498e-14 0.804705023765563965 0.24437946081161499
1.09912079437890498e-14 0.312689602375030518 0.0879629403352737427
1.09912079437890498e-14 0.832103371620178223 0.0607700236141681671
1.09912079437890498e-14 0.744088888168334961 0.256727337837219238
1.09912079437890498e-14 0.846146047115325928 0.0197597593069076538
1.09912079437890498e-14 0.590247571468353271 0.0551449954509735107
1.09912079437890498e-14 0.679862737655639648 0.0688908696174621582
1.09912079437890498e-14 0.800683438777923584 0.129194349050521851
1.09912079437890498e-14 0.582700967788696289 0.0847541838884353638
1.09912079437890498e-14 0.751400649547576904 0.246689826250076294
1.09912079437890498e-14 0.827622056007385254 0.10139058530330658
1.09912079437890498e-14 0.999003946781158447 0.118591167032718658
1.09912079437890498e-14 0.928865134716033936 0.12692280113697052
1.09912079437890498e-14 0.850387930870056152 0.0637517571449279785
1.09912079437890498e-14 0.985609173774719238 0.331358432769775391
1.09912079437890498e-14 0.19117051362991333 0.00010821223258972168
1.09912079437890498e-14 0.827840805053710938 0.102333232760429382
