ply
format ascii 1.0
element vertex 776
property float x
property float y
property float z
end_header
2.82837200164794922 0.269331514835357666 0.161736160516738892
2.82485508918762207 0.264446884393692017 0.173518821597099304
3.03115248680114746 0.550979554653167725 0.104525387287139893
2.83034515380859375 0.27207222580909729 0.185985535383224487
3.05470132827758789 0.583687067031860352 0.0465271472930908203
3.02081537246704102 0.536622047424316406 0.217456415295600891
3.03565216064453125 0.557229161262512207 0.0852265357971191406
2.94483089447021484 0.431084692478179932 0.120124280452728271
3.02643322944641113 0.544424831867218018 0.10682310163974762
2.89215517044067383 0.357921957969665527 0.230741903185844421
2.84920549392700195 0.298267841339111328 0.228127136826515198
2.77775144577026367 0.199023157358169556 0.23143354058265686
2.8823096752166748 0.344247221946716309 0.221349164843559265
3.06204080581665039 0.593881130218505859 0.108192995190620422
2.78808164596557617 0.21337127685546875 0.236962988972663879
2.80218505859375 0.232959568500518799 0.15874926745891571
3.02695560455322266 0.545150279998779297 0.127330392599105835
1.22466027736663818 1.93919074535369873 0.0721794664859771729
2.69669055938720703 0.879360675811767578 0.174304738640785217
2.56588220596313477 0.973539829254150391 0.129854246973991394
1.39321672916412354 1.8178335428237915 0.0701739042997360229
2.49011015892028809 1.02809405326843262 0.130725368857383728
3.06588983535766602 0.61354517936706543 0.185922876000404358
0.857831239700317383 2.20329952239990234 0.00726671516895294189
1.85257518291473389 1.48710548877716064 0.0442663133144378662
2.3868565559387207 1.10243439674377441 0.123229257762432098
2.91854023933410645 0.719633579254150391 0.19340185821056366
1.55328106880187988 1.70259082317352295 0.091767430305480957
2.99471735954284668 0.664787709712982178 0.107892647385597229
2.04838323593139648 1.34612798690795898 0.122590750455856323
2.1510922908782959 1.27217960357666016 0.158706605434417725
2.8741753101348877 0.75157541036605835 0.197781458497047424
2.10760211944580078 1.30349147319793701 0.126429826021194458
1.33197569847106934 1.86192584037780762 0.0505470782518386841
2.91074633598327637 0.725245058536529541 0.0737424939870834351
2.55455207824707031 0.981697261333465576 0.197200298309326172
2.93752956390380859 0.705961704254150391 0.156473875045776367
0.973069190979003906 2.120330810546875 0.0456562638282775879
1.85417938232421875 1.48595046997070312 0.0334227457642555237
1.47384977340698242 1.75977957248687744 0.00891092419624328613
1.99451601505279541 1.3849111795425415 0.0630424916744232178
2.52683568000793457 1.00165247917175293 0.0597233772277832031
1.98396623134613037 1.39250671863555908 0.0732834711670875549
2.9353797435760498 0.707509517669677734 0.0512604713439941406
0.832244396209716797 2.22172164916992188 0.031620323657989502
1.78278970718383789 1.53734946250915527 0.0705640241503715515
1.69628548622131348 1.59963071346282959 0.0433458536863327026
2.0085601806640625 1.37479948997497559 0.113342545926570892
2.38275671005249023 1.10538625717163086 0.00209760665893554688
2.62939572334289551 0.927811503410339355 0.138840585947036743
1.99821186065673828 1.38225018978118896 0.0069220811128616333
2.86088967323303223 0.761140823364257812 0.20472504198551178
3.06472325325012207 0.614385008811950684 0.106722705066204071
2.4979400634765625 1.02245664596557617 0.0138690061867237091
1.66360235214233398 1.62316179275512695 0.0588783472776412964
2.44941234588623047 1.0573955774307251 0.0199396982789039612
2.26568412780761719 1.18967580795288086 0.0633644238114356995
2.62748003005981445 0.929190635681152344 0.0356040336191654205
1.01607108116149902 2.0893702507019043 0.0209482461214065552
2.30013084411621094 1.16487503051757812 0.132563784718513489
1.48516404628753662 1.75163364410400391 0.0696104317903518677
1.77541875839233398 1.54265642166137695 0.0462725982069969177
1.03168272972106934 2.07813024520874023 0.0498258769512176514
0.913505315780639648 2.16321563720703125 0.0193720906972885132
2.11642789840698242 1.29713726043701172 0.0132658854126930237
2.56769609451293945 0.972233831882476807 0.0453901961445808411
1.86081087589263916 1.48117589950561523 0.121980555355548859
2.60918664932250977 0.942361533641815186 0.0284655801951885223
1.68603003025054932 1.60701441764831543 0.0997523665428161621
2.45334482192993164 1.05456423759460449 0.0393221154808998108
2.62616753578186035 0.930135667324066162 0.0390793867409229279
2.19475865364074707 1.24074077606201172 0.0926971808075904846
1.9515995979309082 1.4158099889755249 0.0314050465822219849
2.26315832138061523 1.19149446487426758 0.147207468748092651
1.51519095897674561 1.73001480102539062 0.0769237875938415527
3.03354072570800781 0.636835694313049316 0.141099229454994202
1.75087296962738037 1.56032884120941162 0.0374464839696884155
1.32400691509246826 1.86766314506530762 0.00870150327682495117
1.13272559642791748 2.00538158416748047 0.0182844698429107666
2.73275089263916016 0.853397965431213379 0.201209217309951782
1.42019522190093994 1.79840970039367676 0.0516773015260696411
1.85803091526031494 1.48317742347717285 0.0378814712166786194
2.16973066329956055 1.25876021385192871 0.129498615860939026
1.98385965824127197 1.39258337020874023 0.102279931306838989
2.58502483367919922 0.959757566452026367 0.0884847790002822876
2.12613415718078613 1.29014897346496582 0.0159358605742454529
0.752815961837768555 2.27890825271606445 0.0291661620140075684
2.5192570686340332 1.00710892677307129 0.0879582315683364868
2.59030914306640625 0.955953001976013184 0.0401083864271640778
1.06029820442199707 2.05752778053283691 0.0352301895618438721
1.73612093925476074 1.57095003128051758 0.000104308128356933594
2.4519646167755127 1.05555808544158936 0.0584127604961395264
2.73481249809265137 0.851913571357727051 0.135844171047210693
1.70297634601593018 1.59481334686279297 0.0572459101676940918
1.91304910182952881 1.4435654878616333 0.0595407336950302124
2.67797493934631348 0.892835378646850586 0.146428048610687256
2.66876363754272461 0.899467349052429199 0.0423046387732028961
2.60962724685668945 0.942044317722320557 0.167854607105255127
2.89503002166748047 0.736560404300689697 0.0792186930775642395
2.22242212295532227 1.22082364559173584 0.100856326520442963
3.04230618476867676 0.630524814128875732 0.00741324108093976974
2.50848102569580078 1.01486730575561523 0.0201333872973918915
1.10984563827514648 2.02185487747192383 0.021154358983039856
1.96088314056396484 1.40912604331970215 0.0417755544185638428
1.65130674839019775 1.63201439380645752 0.0872734189033508301
2.99654102325439453 0.663474798202514648 0.185879528522491455
1.4463878870010376 1.77955162525177002 0.00153276324272155762
2.66591024398803711 0.901521682739257812 0.103146873414516449
2.19051146507263184 1.24379873275756836 0.0405613034963607788
2.51929736137390137 1.00707995891571045 0.0649366527795791626
2.78019142150878906 0.819241821765899658 0.0702819153666496277
2.00215339660644531 1.37941229343414307 0.120608478784561157
3.01981902122497559 0.646715104579925537 0.0558098070323467255
1.32548642158508301 1.86659801006317139 0.0693702399730682373
2.83677148818969727 0.778505384922027588 0.127941608428955078
2.21456360816955566 1.22648167610168457 0.064995892345905304
1.58226525783538818 1.68172276020050049 0.076003342866897583
1.99793076515197754 1.38245248794555664 0.0914291143417358398
1.11480677127838135 2.01828289031982422 0.0471829324960708618
2.9761650562286377 0.678145051002502441 0.0801718458533287048
2.70756149291992188 0.871533751487731934 0.0429639443755149841
3.05460882186889648 0.621667146682739258 0.192328974604606628
2.59844183921813965 0.950097560882568359 0.0586015172302722931
2.97591710090637207 0.678323447704315186 0.0267410650849342346
2.36098766326904297 1.12105941772460938 0.0945271849632263184
1.97656619548797607 1.3978346586227417 0.0171178579330444336
1.18834555149078369 1.96533644199371338 0.00353984534740447998
2.78446745872497559 0.816163063049316406 0.131944850087165833
1.64429211616516113 1.63706481456756592 0.011653214693069458
2.7556464672088623 0.836913645267486572 0.00180189497768878937
2.45419478416442871 1.05395233631134033 0.0558262579143047333
2.78355169296264648 0.816822409629821777 0.0928214713931083679
1.19052648544311523 1.96376621723175049 0.0434283465147018433
2.71770405769348145 0.864231348037719727 0.122982725501060486
2.52006196975708008 1.00652933120727539 0.102918162941932678
2.95105075836181641 0.696226716041564941 0.223193183541297913
3.02138733863830566 0.645585894584655762 0.0853042677044868469
2.9771113395690918 0.677463769912719727 0.184940710663795471
2.84346556663513184 0.773685693740844727 0.224960789084434509
3.00664877891540527 0.65619736909866333 0.0825168564915657043
0.987371206283569336 2.11003351211547852 0.0276894122362136841
1.51123988628387451 1.73285949230194092 0.0994025766849517822
2.46211099624633789 1.04825282096862793 0.0729958564043045044
2.59261274337768555 0.954294443130493164 0.100012004375457764
1.3654855489730835 1.8377995491027832 0.0324355959892272949
2.9721992015838623 0.681000292301177979 0.222538962960243225
2.55763101577758789 0.979480504989624023 0.182994663715362549
2.01035642623901367 1.37350642681121826 0.0748757645487785339
2.39750099182128906 1.09477055072784424 0.0527815893292427063
2.68734383583068848 0.886089980602264404 0.0996848121285438538
1.14502608776092529 1.99652552604675293 0.0409757941961288452
1.91457688808441162 1.44246554374694824 0.0948269963264465332
1.85088896751403809 1.4883195161819458 0.106241017580032349
1.86517095565795898 1.47803676128387451 0.00338891148567199707
1.27898979187011719 1.90007460117340088 0.056324690580368042
1.87299454212188721 1.47240400314331055 0.0370025113224983215
3.05476856231689453 0.621552169322967529 0.000992110348306596279
1.95417320728302002 1.41395711898803711 0.0716610550880432129
2.26037120819091797 1.19350123405456543 0.00341679900884628296
2.83328819274902344 0.781013250350952148 0.00200649909675121307
0.717979669570922852 2.30398988723754883 0.0165031999349594116
2.79343080520629883 0.809709608554840088 0.212501108646392822
3.05162191390991211 0.623817622661590576 0.164411008358001709
2.72870540618896484 0.856310665607452393 0.0104328431189060211
0.974929332733154297 2.11899137496948242 0.044871896505355835
1.87476718425750732 1.47112774848937988 0.0831940323114395142
2.77567052841186523 0.822496652603149414 0.0687233805656433105
1.5570145845413208 1.69990277290344238 0.0726591199636459351
2.38622093200683594 1.10289204120635986 0.0218024849891662598
2.65848779678344727 0.906865715980529785 0.1276988685131073
1.85704898834228516 1.48388433456420898 0.00665716081857681274
2.98531866073608398 0.671554625034332275 0.0642815381288528442
1.78971254825592041 1.53236508369445801 0.024859011173248291
2.29836368560791016 1.16614723205566406 0.168840393424034119
2.9842219352722168 0.6723441481590271 0.108138278126716614
1.40138900279998779 1.81194972991943359 0.0750845968723297119
2.83771204948425293 0.777828216552734375 0.123717188835144043
2.75961613655090332 0.834055602550506592 0.130711019039154053
2.15633630752563477 1.26840400695800781 0.0961546376347541809
2.0425105094909668 1.35035610198974609 0.0122354477643966675
1.63158285617828369 1.64621520042419434 0.0516073852777481079
0.612359285354614258 2.38003396987915039 0.0101024210453033447
2.27824020385742188 1.18063580989837646 0.0937734842300415039
1.48731935024261475 1.75008177757263184 0.0606354624032974243
2.95380258560180664 0.694245576858520508 0.149689465761184692
2.10921025276184082 1.30233383178710938 0.110299110412597656
1.75179898738861084 1.5596621036529541 0.0648993551731109619
2.45087552070617676 1.05634212493896484 0.0925464630126953125
1.67618644237518311 1.61410152912139893 0.0412721186876296997
2.86164045333862305 0.760600149631500244 0.119909167289733887
3.0712440013885498 0.609690189361572266 0.245920732617378235
1.77488422393798828 1.54304122924804688 0.102445937693119049
1.54810488224029541 1.70631754398345947 0.00372324883937835693
1.10137593746185303 2.02795267105102539 0.0316864997148513794
2.16684126853942871 1.26084065437316895 0.037332586944103241
2.88596343994140625 0.743088245391845703 0.10600995272397995
2.66842293739318848 0.899712681770324707 0.151310235261917114
1.93261575698852539 1.42947793006896973 0.0693019255995750427
1.51900732517242432 1.72726714611053467 0.082905203104019165
2.79537439346313477 0.808310449123382568 0.0882935076951980591
1.9553687572479248 1.41309630870819092 0.0619614571332931519
1.79198789596557617 1.53072690963745117 0.0608158111572265625
2.12453413009643555 1.29130101203918457 0.082225315272808075
1.7006220817565918 1.59650850296020508 0.0741267502307891846
1.64511394500732422 1.63647305965423584 0.0817352235317230225
2.21589207649230957 1.2255251407623291 0.023366779088973999
3.05321979522705078 0.622667312622070312 0.0886876210570335388
2.86527872085571289 0.757980763912200928 0.0257764700800180435
1.42332851886749268 1.79615378379821777 0.0928459763526916504
1.80255281925201416 1.52312052249908447 0.010343700647354126
3.06615424156188965 0.613354682922363281 0.12257617712020874
1.73990464210510254 1.56822586059570312 0.099966391921043396
2.38949322700500488 1.10053610801696777 0.0860988795757293701
2.1984715461730957 1.238067626953125 0.0489505156874656677
1.56426799297332764 1.69468045234680176 0.0489080101251602173
2.10517406463623047 1.30523967742919922 0.0426776036620140076
2.03086233139038086 1.35874247550964355 0.146466046571731567
1.62569618225097656 1.65045344829559326 0.050023198127746582
2.58318662643432617 0.961081027984619141 0.126100629568099976
2.45620584487915039 1.05250430107116699 0.134669661521911621
2.81919693946838379 0.791158676147460938 0.129407688975334167
1.78522562980651855 1.53559565544128418 0.0904951021075248718
0.823115348815917969 2.22829437255859375 0.0183312296867370605
2.98140215873718262 0.674374401569366455 0.0753605589270591736
2.79440045356750488 0.809011638164520264 0.0881469994783401489
2.79576373100280762 0.808030068874359131 0.0937711596488952637
2.71668553352355957 0.864964723587036133 0.0758021622896194458
2.77983736991882324 0.819496750831604004 0.218830570578575134
1.2213900089263916 1.94154512882232666 0.0673974007368087769
1.2022632360458374 1.95531594753265381 0.0462291985750198364
1.37952792644500732 1.82768929004669189 0.0511906594038009644
2.29945921897888184 1.16535854339599609 0.0624970272183418274
2.72012209892272949 0.862490296363830566 0.00243433937430381775
1.46894383430480957 1.76331174373626709 0.0396842211484909058
1.41305720806121826 1.80354893207550049 0.0825580060482025146
3.01251912117004395 0.651970803737640381 0.0150056732818484306
1.35543632507324219 1.84503471851348877 0.0164033621549606323
2.77732992172241211 0.82130199670791626 0.138343214988708496
2.28106689453125 1.17860054969787598 0.147018074989318848
2.92722940444946289 0.713377594947814941 0.0275501105934381485
1.58130300045013428 1.68241560459136963 0.0304008275270462036
0.957987785339355469 2.13118910789489746 0.00519675016403198242
0.694576025009155273 2.32083988189697266 0.0192072093486785889
1.54753506183624268 1.70672774314880371 0.0983206778764724731
2.2354588508605957 1.21143746376037598 0.0315811410546302795
2.7392876148223877 0.848691582679748535 0.0660452395677566528
2.57816743850708008 0.964694738388061523 0.101360417902469635
1.24780535697937012 1.92252671718597412 0.00977002084255218506
2.52993488311767578 0.999421119689941406 0.0740503743290901184
2.56554079055786133 0.973785638809204102 0.176337137818336487
3.07149839401245117 0.609507083892822266 0.00619401130825281143
2.55555891990661621 0.9809722900390625 0.192703530192375183
1.1056663990020752 2.02486371994018555 0.0458368360996246338
2.86899495124816895 0.755305111408233643 0.0856567546725273132
2.58086347579956055 0.962753653526306152 0.058218095451593399
2.48562145233154297 1.0313258171081543 0.00944636762142181396
2.56087732315063477 0.977143168449401855 0.14447060227394104
1.98737180233001709 1.39005470275878906 0.103239499032497406
1.22212898731231689 1.94101309776306152 0.0153038948774337769
2.01995635032653809 1.36659455299377441 0.0984088778495788574
0.875145912170410156 2.19083356857299805 0.0271691381931304932
2.28779125213623047 1.17375922203063965 0.107931733131408691
2.01445150375366211 1.37055790424346924 0.044358670711517334
2.20612907409667969 1.23255419731140137 0.0105855837464332581
1.65414488315582275 1.62997102737426758 0.0613045543432235718
3.03048062324523926 0.63903886079788208 0.0492896214127540588
1.37546777725219727 1.8306124210357666 0.0846884995698928833
2.22741150856018066 1.2172313928604126 0.0578481629490852356
0.968274354934692383 2.12378287315368652 0.0135008394718170166
2.73550891876220703 0.851412177085876465 0.0221196785569190979
1.85013735294342041 1.4888606071472168 0.0706922933459281921
1.83947288990020752 1.49653887748718262 0.107000172138214111
1.64723432064056396 1.63494646549224854 0.0220040827989578247
2.2252957820892334 1.21875464916229248 0.0965691208839416504
1.0369415283203125 2.07434415817260742 0.0287914872169494629
2.4037327766418457 1.09028387069702148 0.113231509923934937
1.1522756814956665 1.99130606651306152 0.0666150897741317749
2.23465204238891602 1.21201848983764648 0.103934578597545624
1.31157147884368896 1.87661647796630859 0.0440304428339004517
2.05117177963256836 1.34412002563476562 0.00753020495176315308
1.01372551918029785 2.09105920791625977 0.0388677120208740234
1.37211704254150391 1.83302497863769531 0.0678633302450180054
2.95052814483642578 0.696603059768676758 0.196558758616447449
1.64782190322875977 1.63452339172363281 0.0521174967288970947
2.98482275009155273 0.671911537647247314 0.15636231005191803
2.33415055274963379 1.1403815746307373 0.11944473534822464
2.32192087173461914 1.14918661117553711 0.158231347799301147
1.89179039001464844 1.45887136459350586 0.0592657178640365601
2.70240879058837891 0.875243544578552246 0.159766733646392822
2.08336305618286133 1.32094311714172363 0.0185392051935195923
2.33017444610595703 1.14324438571929932 0.0350527986884117126
1.51139438152313232 1.73274827003479004 0.0285834670066833496
2.06976509094238281 1.33073329925537109 0.035601004958152771
1.89721226692199707 1.45496773719787598 0.0594802945852279663
2.46705961227416992 1.04468989372253418 0.106479257345199585
2.53936958312988281 0.992628216743469238 0.0665057897567749023
1.62836933135986328 1.6485288143157959 0.0157816112041473389
2.69563508033752441 0.880120575428009033 0.00392623618245124817
2.33622431755065918 1.13888847827911377 0.170548051595687866
2.37601971626281738 1.11023664474487305 0.0959872081875801086
2.67618632316589355 0.894123196601867676 0.176886618137359619
0.856433629989624023 2.20430588722229004 0.0183107554912567139
1.87611281871795654 1.47015881538391113 0.0123744383454322815
3.01687526702880859 0.648834466934204102 0.00708472961559891701
2.37925338745117188 1.10790848731994629 0.151902467012405396
0.871607303619384766 2.19338107109069824 0.0390035957098007202
2.36665916442871094 1.11697602272033691 0.0149419531226158142
1.86568129062652588 1.477669358253479 0.0948643237352371216
2.58663296699523926 0.958599746227264404 0.120773181319236755
2.97644329071044922 0.677944660186767578 0.0372856110334396362
2.63479113578796387 0.923926949501037598 0.207693949341773987
1.59250426292419434 1.67435085773468018 0.0857203304767608643
2.89515018463134766 0.736473917961120605 0.00729951821267604828
2.85506343841552734 0.765335559844970703 0.00953254662454128265
1.68940043449401855 1.60458779335021973 0.0334910303354263306
1.24609160423278809 1.92376053333282471 0.0208969265222549438
1.88030469417572021 1.467140793800354 0.129134625196456909
2.19945740699768066 1.23735785484313965 0.0522637814283370972
1.68869185447692871 1.60509800910949707 0.0416603982448577881
2.53035593032836914 0.99911797046661377 0.0516878589987754822
0.857397079467773438 2.20361232757568359 0.0125798583030700684
0.917391538619995117 2.16041755676269531 0.0203771591186523438
1.6000373363494873 1.66892731189727783 0.0861786454916000366
2.0245366096496582 1.3632969856262207 0.00892154872417449951
2.47886037826538086 1.0361936092376709 0.0254910625517368317
3.02916288375854492 0.639987647533416748 0.0189224071800708771
1.41539561748504639 1.8018653392791748 0.0652428269386291504
1.42682158946990967 1.79363882541656494 0.0215103179216384888
2.50481700897216797 1.01750540733337402 0.130066841840744019
1.78830671310424805 1.53337740898132324 0.0799698084592819214
2.27045679092407227 1.18623971939086914 0.024367503821849823
2.83044958114624023 0.783057034015655518 0.186962157487869263
2.19538331031799316 1.24029088020324707 0.123089976608753204
2.51897978782653809 1.0073084831237793 0.174337372183799744
2.81906986236572266 0.791250109672546387 0.0695058703422546387
2.20755743980407715 1.23152589797973633 0.0190863534808158875
2.35930728912353516 1.12226927280426025 0.167955383658409119
1.7966156005859375 1.52739524841308594 0.0911846980452537537
1.69090104103088379 1.603507399559021 0.030556216835975647
1.84694194793701172 1.49116122722625732 0.0292384624481201172
2.71720004081726074 0.864594101905822754 0.154104545712471008
2.75786066055297852 0.835319459438323975 0.19173838198184967
1.91291797161102295 1.44366002082824707 0.118150852620601654
1.62810540199279785 1.64871883392333984 0.0793881118297576904
2.57230281829833984 0.968917012214660645 0.122081838548183441
2.16064453125 1.26530218124389648 0.143333733081817627
2.25541424751281738 1.19707000255584717 0.00341000407934188843
2.21704292297363281 1.22469639778137207 0.114752911031246185
2.46340155601501465 1.04732370376586914 0.140397444367408752
1.53865218162536621 1.71312320232391357 0.0445318669080734253
1.7479698657989502 1.56241893768310547 0.00986953079700469971
2.80314397811889648 0.802716493606567383 0.0774536207318305969
1.69071364402770996 1.60364222526550293 0.0103224813938140869
2.53238701820373535 0.997655510902404785 0.161584064364433289
3.04681777954101562 0.627276599407196045 0.238941535353660583
2.75588202476501465 0.836744070053100586 0.170228779315948486
2.17129230499267578 1.25763583183288574 0.127034306526184082
0.787369251251220703 2.25403070449829102 0.0318214595317840576
2.65642952919006348 0.908347725868225098 0.0598736703395843506
3.0220036506652832 0.645142197608947754 0.139522597193717957
2.82900619506835938 0.784096121788024902 0.180049017071723938
1.77386415004730225 1.54377567768096924 0.0734893456101417542
1.9242255687713623 1.43551874160766602 0.0903835073113441467
2.99110746383666992 0.667386710643768311 0.0405847765505313873
2.88279032707214355 0.745372772216796875 0.0562794506549835205
1.53244006633758545 1.71759581565856934 0.0867170244455337524
2.90978074073791504 0.725940346717834473 0.149808049201965332
1.94853508472442627 1.41801643371582031 0.00695924460887908936
3.04259967803955078 0.630313456058502197 0.221859395503997803
0.732433080673217773 2.29358339309692383 0.0104335993528366089
2.93801140785217285 0.705614864826202393 0.105455741286277771
2.06802701950073242 1.3319847583770752 0.0751965641975402832
2.98162460327148438 0.67421424388885498 0.173677116632461548
2.97806239128112793 0.676778972148895264 0.235537350177764893
1.26455914974212646 1.91046440601348877 0.0508908778429031372
1.43241655826568604 1.78961062431335449 0.0538353323936462402
2.60411882400512695 0.946010231971740723 0.101435162127017975
1.99948501586914062 1.38133358955383301 0.146473392844200134
2.88486075401306152 0.743882179260253906 0.231640160083770752
2.57371425628662109 0.967900872230529785 0.107312336564064026
2.73798727989196777 0.849627912044525146 0.203637883067131042
2.08531427383422852 1.31953835487365723 0.0167524963617324829
0.921787738800048828 2.15725231170654297 0.041070982813835144
2.26405477523803711 1.19084906578063965 0.097846493124961853
2.45079255104064941 1.05640196800231934 0.0930269509553909302
2.08479857444763184 1.31990969181060791 0.0499597042798995972
2.86501932144165039 0.758167505264282227 0.117869824171066284
2.53800487518310547 0.993610858917236328 0.0701473802328109741
3.00454092025756836 0.657714903354644775 0.150410369038581848
2.37071657180786133 1.11405479907989502 0.165827512741088867
2.27783989906311035 1.18092405796051025 0.0607262253761291504
2.73076581954956055 0.854827046394348145 0.168294772505760193
2.47534847259521484 1.03872203826904297 0.0949191451072692871
2.39768266677856445 1.09463977813720703 0.00801621377468109131
1.50159215927124023 1.73980557918548584 0.0302178859710693359
2.33444595336914062 1.14016890525817871 0.156395465135574341
2.15377569198608398 1.2702476978302002 0.0907738208770751953
3.01099276542663574 0.653069853782653809 0.111592419445514679
1.76969897747039795 1.54677462577819824 0.0846367552876472473
2.35103678703308105 1.12822389602661133 0.173571258783340454
1.85185694694519043 1.48762249946594238 0.0801325216889381409
2.57257556915283203 0.968720793724060059 0.0232958197593688965
1.51585173606872559 1.72953903675079346 0.0135499387979507446
2.06717514991760254 1.33259809017181396 0.0184865295886993408
2.48121118545532227 1.03450107574462891 0.0421701334416866302
2.52911233901977539 1.00001335144042969 0.0783512294292449951
1.43292129039764404 1.78924727439880371 0.047881394624710083
2.4125969409942627 1.08390188217163086 0.168978795409202576
2.8631587028503418 0.759507119655609131 0.153860658407211304
0.74759364128112793 2.28266811370849609 0.0169195383787155151
2.14201092720031738 1.27871799468994141 0.00167895108461380005
2.15652823448181152 1.26826572418212891 0.12566705048084259
3.00349617004394531 0.658467233180999756 0.0747908428311347961
2.62599682807922363 0.930258512496948242 0.053620900958776474
2.78255534172058105 0.817539811134338379 0.0501018092036247253
2.9035332202911377 0.730438351631164551 0.165879547595977783
1.18684244155883789 1.96641874313354492 0.0453900992870330811
2.3942716121673584 1.09709572792053223 0.173828929662704468
2.6223151683807373 0.932909250259399414 0.109433576464653015
2.08623933792114258 1.31887245178222656 0.000608086585998535156
2.36114907264709473 1.12094318866729736 0.102799572050571442
2.52456378936767578 1.00328803062438965 0.0406947210431098938
2.34897470474243164 1.12970852851867676 0.0246007218956947327
2.82735919952392578 0.785281896591186523 0.215570062398910522
2.89041900634765625 0.739880263805389404 0.11273636668920517
2.27634024620056152 1.18200373649597168 0.024603717029094696
1.0227961540222168 2.08452844619750977 0.0209071338176727295
1.68888068199157715 1.60496187210083008 0.0442159920930862427
2.07372593879699707 1.3278815746307373 0.0904515832662582397
2.93243932723999023 0.709626495838165283 0.0826852023601531982
1.74180245399475098 1.56685948371887207 0.0702932775020599365
1.88042664527893066 1.46705305576324463 0.0384730175137519836
1.62939834594726562 1.64778792858123779 0.0974048078060150146
2.92213535308837891 0.717045187950134277 0.142408430576324463
1.9319920539855957 1.42992711067199707 0.136012822389602661
1.99647104740142822 1.38350343704223633 0.0291155725717544556
2.97394990921020508 0.679739832878112793 0.167585089802742004
2.40571975708007812 1.08885335922241211 0.115789972245693207
2.21637582778930664 1.22517681121826172 0.0232357233762741089
1.78222298622131348 1.53775763511657715 0.120960593223571777
0.864522695541381836 2.19848203659057617 0.0350116938352584839
2.50680088996887207 1.01607704162597656 0.119636103510856628
2.96371197700500488 0.68711090087890625 0.0725488588213920593
1.42734837532043457 1.79325950145721436 0.0360976904630661011
2.34753036499023438 1.13074851036071777 0.0651999190449714661
2.57634782791137695 0.966004729270935059 0.171878159046173096
1.24668419361114502 1.92333388328552246 0.00551365315914154053
1.7820049524307251 1.53791451454162598 0.0626100450754165649
2.94966506958007812 0.697224438190460205 0.0341133140027523041
1.83880531787872314 1.49701952934265137 0.0493438318371772766
2.26667070388793945 1.1889655590057373 0.0280304253101348877
2.55214381217956543 0.983431100845336914 0.168769091367721558
2.68427062034606934 0.88830268383026123 0.0175667330622673035
0.727273941040039062 2.29729795455932617 0.00698409974575042725
1.32782649993896484 1.8649132251739502 0.0795794576406478882
0.918596029281616211 2.15955018997192383 0.0410850942134857178
3.06647491455078125 0.613123893737792969 0.197416394948959351
2.07523536682128906 1.32679486274719238 0.106707111001014709
0.733921051025390625 2.29251241683959961 0.0111244022846221924
1.8251953125 1.50681841373443604 0.0560269206762313843
1.52375733852386475 1.7238471508026123 0.00934189558029174805
1.65718770027160645 1.62778019905090332 0.0125207602977752686
2.04394292831420898 1.34932494163513184 0.0956237316131591797
2.97533440589904785 0.67874300479888916 0.145378679037094116
2.72814536094665527 0.856713831424713135 0.191560253500938416
2.11645174026489258 1.29711997509002686 0.0896950215101242065
2.71406722068786621 0.866849780082702637 0.190766632556915283
2.72872710227966309 0.856294929981231689 0.0722290053963661194
2.20470094680786133 1.23358261585235596 0.158757388591766357
2.97020864486694336 0.682433545589447021 0.0124840382486581802
2.42314291000366211 1.0763089656829834 0.104761034250259399
0.974476337432861328 2.11931753158569336 0.00492218136787414551
2.69242310523986816 0.882433056831359863 0.168390199542045593
2.8399660587310791 0.776205301284790039 0.0836677104234695435
2.24085235595703125 1.20755434036254883 0.000476799905300140381
2.27898073196411133 1.18010258674621582 0.0888078659772872925
0.773914098739624023 2.2637181282043457 0.0127564221620559692
1.8895031213760376 1.46051812171936035 0.0984479859471321106
0.905455350875854492 2.16901111602783203 0.0180103033781051636
1.45806229114532471 1.77114629745483398 0.0543414503335952759
1.91198849678039551 1.44432914257049561 0.0406797602772712708
2.63586878776550293 0.923151016235351562 0.149966195225715637
1.22113299369812012 1.94173026084899902 0.0586569607257843018
2.73298072814941406 0.853232383728027344 0.151619657874107361
2.53830385208129883 0.993395566940307617 0.159275397658348083
2.07147765159606934 1.32950043678283691 0.140423238277435303
2.04543209075927734 1.34825265407562256 0.0681100934743881226
2.57376265525817871 0.967866063117980957 0.199040323495864868
0.756058454513549805 2.27657365798950195 0.025411948561668396
2.52385067939758301 1.00380158424377441 0.120303191244602203
2.14887809753417969 1.2737739086151123 0.0503374636173248291
1.88607275485992432 1.46298789978027344 0.0703192874789237976
1.84200811386108398 1.49471354484558105 0.00991650670766830444
2.46451878547668457 1.04651927947998047 0.0332343950867652893
2.15279412269592285 1.27095425128936768 0.0513754710555076599
2.56058788299560547 0.977351546287536621 0.187076449394226074
0.760586977005004883 2.27331352233886719 0.0132568180561065674
1.59506034851074219 1.67251062393188477 0.0509334951639175415
2.3574223518371582 1.12362635135650635 0.079999677836894989
2.87889480590820312 0.748177528381347656 0.0154699590057134628
2.16004467010498047 1.26573419570922852 0.133023947477340698
2.72008991241455078 0.86251366138458252 0.0487455353140830994
2.21915841102600098 1.22317349910736084 0.0759698078036308289
2.80886602401733398 0.798596680164337158 0.0513742789626121521
2.67478322982788086 0.895133376121520996 0.113731339573860168
2.97754693031311035 0.67715001106262207 0.129928678274154663
2.38469338417053223 1.10399186611175537 0.130514740943908691
0.951935052871704102 2.13554716110229492 0.0147321373224258423
2.21485543251037598 1.22627151012420654 0.0908695980906486511
2.63664340972900391 0.922593235969543457 0.168935537338256836
1.94525671005249023 1.42037677764892578 0.0181783810257911682
3.00190997123718262 0.65960925817489624 0.193268686532974243
2.03866004943847656 1.35312831401824951 0.00576370209455490112
1.03093981742858887 2.07866525650024414 0.0322574228048324585
1.79986131191253662 1.52505826950073242 0.105958729982376099
3.06062912940979004 0.617332696914672852 0.152083590626716614
2.39345455169677734 1.09768402576446533 0.132006943225860596
0.992760896682739258 2.10615301132202148 0.00039310753345489502
2.94903683662414551 0.697676658630371094 0.129567429423332214
1.53352880477905273 1.71681201457977295 0.0835015177726745605
0.949621915817260742 2.13721227645874023 0.0284359455108642578
1.42713725566864014 1.79341161251068115 0.00439955294132232666
2.95217728614807129 0.695415675640106201 0.128275752067565918
2.91264176368713379 0.723880410194396973 0.00928886141628026962
1.74700760841369629 1.56311178207397461 0.00261834263801574707
1.87462449073791504 1.47123050689697266 0.074997343122959137
2.19085144996643066 1.24355387687683105 0.051044270396232605
1.97375571727752686 1.39985811710357666 0.119653612375259399
1.0732882022857666 2.04817533493041992 0.0559782683849334717
2.92244553565979004 0.716821789741516113 0.131950289011001587
1.32963073253631592 1.86361420154571533 0.0211994051933288574
2.03974342346191406 1.35234832763671875 0.0871613845229148865
1.54969441890716553 1.70517301559448242 0.0694836080074310303
2.10164117813110352 1.30778336524963379 0.0354313775897026062
1.77795636653900146 1.54082942008972168 0.0938536077737808228
2.37145280838012695 1.1135249137878418 0.140248715877532959
2.54576444625854492 0.988024234771728516 0.191378667950630188
1.87978911399841309 1.46751201152801514 0.00116117298603057861
3.03809404373168945 0.633557498455047607 0.229256972670555115
2.15731453895568848 1.2676997184753418 0.111902184784412384
2.44561314582824707 1.06013083457946777 0.0189870782196521759
2.00347089767456055 1.3784637451171875 0.0485606342554092407
1.56353425979614258 1.69520866870880127 0.101785063743591309
3.03301048278808594 0.637217581272125244 0.149178549647331238
2.08292961120605469 1.32125520706176758 0.128001168370246887
1.14512825012207031 1.9964519739151001 0.0569012314081192017
2.68880915641784668 0.885035037994384766 0.128676742315292358
0.786824703216552734 2.25442290306091309 0.0158759355545043945
2.93012666702270508 0.711291670799255371 0.107247069478034973
2.16702556610107422 1.26070809364318848 0.0751977935433387756
1.80536329746246338 1.52109694480895996 0.126508742570877075
3.01675057411193848 0.648924350738525391 0.244359761476516724
2.26074886322021484 1.19322919845581055 0.0431787595152854919
2.50827550888061523 1.0150153636932373 0.0931789353489875793
1.37769937515258789 1.82900583744049072 0.0537096410989761353
1.58447623252868652 1.68013095855712891 0.0913751274347305298
1.70584261417388916 1.59274971485137939 0.0775370597839355469
1.9278864860534668 1.43288290500640869 0.0579450875520706177
1.6391531229019165 1.64076471328735352 0.0102902352809906006
2.81226110458374023 0.796152353286743164 0.190709128975868225
1.82377827167510986 1.50783872604370117 0.123958833515644073
2.99814724922180176 0.662318289279937744 0.104939885437488556
2.969635009765625 0.682846426963806152 0.15734785795211792
1.02040529251098633 2.08624982833862305 0.00666603446006774902
2.42000079154968262 1.07857131958007812 0.120428316295146942
2.98248124122619629 0.673597514629364014 0.168535292148590088
3.00768804550170898 0.655449151992797852 0.137891456484794617
2.89539217948913574 0.736299753189086914 0.204354748129844666
2.93419528007507324 0.708362400531768799 0.163340181112289429
2.60358119010925293 0.946397364139556885 0.170756518840789795
2.47277522087097168 1.04057478904724121 0.138266295194625854
2.05573654174804688 1.34083354473114014 0.103135965764522552
1.58010399341583252 1.68327891826629639 0.00169378519058227539
2.08420205116271973 1.32033896446228027 0.116957083344459534
1.40469527244567871 1.80956935882568359 0.0562108457088470459
2.78228640556335449 0.817733466625213623 0.153814181685447693
3.03594827651977539 0.635102391242980957 0.173422977328300476
3.04982209205627441 0.625113487243652344 0.135551691055297852
1.73134350776672363 1.57438969612121582 0.0381395071744918823
2.96562075614929199 0.685736656188964844 0.0150965182110667229
1.46407842636108398 1.76681482791900635 0.0689388364553451538
2.53254127502441406 0.997544527053833008 0.13909633457660675
0.738112449645996094 2.28949451446533203 0.0278702974319458008
2.83115887641906738 0.782546281814575195 0.0015336405485868454
1.5035858154296875 1.73837029933929443 0.0545248687267303467
2.94820737838745117 0.698273897171020508 0.0983711481094360352
1.93598425388336182 1.42705273628234863 0.113923974335193634
2.59683561325073242 0.951254069805145264 0.0115706063807010651
1.47824037075042725 1.75661838054656982 0.0967638790607452393
1.56373608112335205 1.69506347179412842 0.0142004340887069702
2.89544415473937988 0.736262321472167969 0.017797861248254776
3.04389739036560059 0.629379153251647949 0.114882618188858032
3.03218770027160645 0.637809991836547852 0.097061745822429657
2.58116769790649414 0.962534666061401367 0.0939857363700866699
1.83135581016540527 1.50238299369812012 0.00118432193994522095
2.2611083984375 1.19297051429748535 0.0751959830522537231
2.19381141662597656 1.24142289161682129 0.127655625343322754
3.03445100784301758 0.636180341243743896 0.220920577645301819
2.65780758857727051 0.907355546951293945 0.0488104820251464844
3.01163005828857422 0.652610957622528076 0.103995569050312042
3.05484914779663086 0.621494174003601074 0.00752219930291175842
1.17460477352142334 1.97522962093353271 0.0331045985221862793
1.14124536514282227 1.99924755096435547 0.0577175617218017578
2.5530858039855957 0.982752859592437744 0.183687582612037659
1.5589832067489624 1.69848537445068359 0.00313492119312286377
1.3561708927154541 1.84450578689575195 0.00976897776126861572
2.76652717590332031 0.829079747200012207 0.0245054084807634354
2.79691100120544434 0.807204008102416992 0.201679527759552002
1.74513459205627441 1.56446027755737305 0.146402239799499512
0.976731717586517334 2.11769390106201172 0.151256740093231201
2.21037459373474121 1.22949755191802979 0.1879291832447052
0.48821529746055603 2.46941494941711426 0.176863372325897217
1.1140284538269043 2.01884293556213379 0.116060078144073486
1.15872025489807129 1.98666596412658691 0.0772940516471862793
1.1820526123046875 1.96986722946166992 0.0803773254156112671
2.05213379859924316 1.34342741966247559 0.165696561336517334
2.12114381790161133 1.29374194145202637 0.196465238928794861
2.13141775131225586 1.28634464740753174 0.181996345520019531
0.990205228328704834 2.10799312591552734 0.0748833119869232178
0.891531884670257568 2.17903590202331543 0.186483532190322876
1.4908682107925415 1.74752664566040039 0.24808560311794281
1.29720592498779297 1.88695931434631348 0.231096357107162476
0.723639130592346191 2.29991507530212402 0.0772982984781265259
0.772689640522003174 2.26459980010986328 0.196974799036979675
0.922094464302062988 2.15703153610229492 0.166556462645530701
2.31215190887451172 1.15622007846832275 0.190407902002334595
1.59222781658172607 1.67454981803894043 0.249509155750274658
1.53920638561248779 1.71272420883178711 0.19102342426776886
0.740639626979827881 2.28767490386962891 0.108188793063163757
0.869609475135803223 2.19481945037841797 0.247513324022293091
0.557866334915161133 2.41926789283752441 0.014178544282913208
1.10119295120239258 2.02808427810668945 0.0691117942333221436
0.54147261381149292 2.43107104301452637 0.0113406330347061157
0.642408490180969238 2.35839939117431641 0.242601886391639709
1.44162726402282715 1.78297901153564453 0.155600503087043762
1.14364171028137207 1.99752211570739746 0.198575720191001892
1.28289282321929932 1.89726448059082031 0.187186986207962036
2.38044977188110352 1.10704708099365234 0.237119689583778381
2.01072859764099121 1.37323832511901855 0.156382292509078979
1.53764510154724121 1.71384823322296143 0.129429131746292114
0.965618610382080078 2.12569499015808105 0.0938965082168579102
1.84962940216064453 1.48922634124755859 0.24817812442779541
0.780901074409484863 2.25868773460388184 0.208914980292320251
0.54883044958114624 2.42577338218688965 0.195912986993789673
1.88315367698669434 1.46508955955505371 0.137899905443191528
1.04471802711486816 2.06874513626098633 0.145283401012420654
0.816200971603393555 2.23327255249023438 0.130591988563537598
0.684817671775817871 2.3278656005859375 0.0578491389751434326
0.884823441505432129 2.18386578559875488 0.237747535109519958
0.577134847640991211 2.4053950309753418 0.0674445778131484985
1.07784950733184814 2.0448911190032959 0.146861791610717773
1.84874248504638672 1.48986482620239258 0.162181884050369263
1.39926517009735107 1.81347882747650146 0.209384143352508545
0.822340011596679688 2.22885251045227051 0.230502456426620483
0.622679650783538818 2.3726036548614502 0.108291655778884888
1.22654032707214355 1.93783688545227051 0.135691434144973755
1.77720785140991211 1.54136824607849121 0.210624158382415771
0.534521877765655518 2.43607544898986816 0.0691599994897842407
0.481795132160186768 2.47403740882873535 0.0183530449867248535
0.914741992950439453 2.16232514381408691 0.164213508367538452
0.498384684324264526 2.46209335327148438 0.0386377274990081787
1.17456769943237305 1.97525608539581299 0.174091488122940063
1.42520427703857422 1.79480326175689697 0.129536598920822144
2.28779888153076172 1.17375373840332031 0.230518877506256104
1.09554672241210938 2.0321495532989502 0.184381812810897827
0.682799041271209717 2.32931900024414062 0.189325436949729919
1.54715621471405029 1.7070004940032959 0.122612670063972473
0.60321497917175293 2.38661789894104004 0.106755450367927551
2.09326362609863281 1.31381487846374512 0.203697815537452698
0.80407261848449707 2.2420046329498291 0.179974824190139771
2.50837469100952148 1.01494371891021729 0.233266487717628479
0.530358552932739258 2.43907284736633301 0.219227463006973267
0.776646018028259277 2.26175117492675781 0.238642483949661255
1.30268025398254395 1.883017897605896 0.132165133953094482
0.575325489044189453 2.40669751167297363 0.114782184362411499
1.66915762424468994 1.61916208267211914 0.237828925251960754
0.551853597164154053 2.42359685897827148 0.0331396162509918213
1.56849837303161621 1.69163453578948975 0.246247142553329468
0.856162071228027344 2.20450139045715332 0.113127827644348145
1.49727988243103027 1.74291038513183594 0.240941315889358521
0.502732574939727783 2.45896291732788086 0.107471257448196411
0.941432297229766846 2.14310860633850098 0.232107654213905334
2.31229925155639648 1.15611386299133301 0.24036581814289093
2.33313512802124023 1.1411125659942627 0.206799417734146118
1.77325236797332764 1.54421615600585938 0.164227992296218872
2.60575437545776367 0.944832444190979004 0.226855546236038208
1.77126443386077881 1.54564738273620605 0.225637704133987427
1.21098613739013672 1.94903564453125 0.226327389478683472
1.11389482021331787 2.01893925666809082 0.158555179834365845
1.60858917236328125 1.66277003288269043 0.243160218000411987
1.6896592378616333 1.6044013500213623 0.235745012760162354
0.810292601585388184 2.23752641677856445 0.224343165755271912
0.723051786422729492 2.30033779144287109 0.172513902187347412
1.83959472179412842 1.49645102024078369 0.224677190184593201
1.11128878593444824 2.02081561088562012 0.109970316290855408
0.862704634666442871 2.19979071617126465 0.217149555683135986
0.557224571704864502 2.41972994804382324 0.124548390507698059
2.10483074188232422 1.30548679828643799 0.225846558809280396
1.89442169666290283 1.45697677135467529 0.14905509352684021
0.871635198593139648 2.19336104393005371 0.239854663610458374
2.44046735763549805 1.06383562088012695 0.225077927112579346
0.744129419326782227 2.28516244888305664 0.0423916280269622803
1.61609053611755371 1.65736913681030273 0.139828950166702271
1.1074674129486084 2.02356696128845215 0.245091542601585388
1.76247322559356689 1.55197691917419434 0.199779316782951355
2.23319268226623535 1.21306896209716797 0.174719423055648804
0.980484485626220703 2.11499190330505371 0.129302904009819031
1.42080521583557129 1.79797041416168213 0.13866618275642395
1.08175754547119141 2.04207754135131836 0.242704048752784729
2.30655288696289062 1.16025125980377197 0.209391281008720398
0.571520566940307617 2.40943717956542969 0.240190431475639343
0.573990881443023682 2.40765857696533203 0.100789055228233337
1.02862763404846191 2.08032989501953125 0.245344310998916626
0.929923534393310547 2.15139460563659668 0.052854880690574646
0.540964484214782715 2.43143677711486816 0.0235860347747802734
1.94218719005584717 1.42258667945861816 0.160288870334625244
1.38654398918151855 1.82263779640197754 0.191945552825927734
1.31459259986877441 1.87444114685058594 0.239781737327575684
2.58966350555419922 0.95641779899597168 0.221162378787994385
1.11335408687591553 2.01932859420776367 0.098194807767868042
1.33094477653503418 1.86266803741455078 0.110708966851234436
1.93759691715240479 1.42589151859283447 0.240076184272766113
2.00261402130126953 1.37908053398132324 0.191603943705558777
0.84395134449005127 2.21329283714294434 0.138983368873596191
1.81596124172210693 1.51346659660339355 0.17019769549369812
0.469939738512039185 2.48257303237915039 0.0869331508874893188
0.553374409675598145 2.42250180244445801 0.21803109347820282
2.02802491188049316 1.36078536510467529 0.230759799480438232
1.97586965560913086 1.39833605289459229 0.218098178505897522
1.17705035209655762 1.97346866130828857 0.167875096201896667
0.847064316272735596 2.21105146408081055 0.0489926934242248535
0.456265151500701904 2.49241852760314941 0.222838714718818665
1.30299794673919678 1.88278913497924805 0.186615556478500366
1.29237866401672363 1.89043474197387695 0.0960361063480377197
0.61910325288772583 2.37517857551574707 0.18421483039855957
1.87826812267303467 1.46860706806182861 0.185311734676361084
2.13289713859558105 1.28527963161468506 0.170926988124847412
1.57183933258056641 1.68922913074493408 0.205023884773254395
1.39603567123413086 1.81580400466918945 0.172872930765151978
0.823183894157409668 2.22824478149414062 0.231910675764083862
0.608230054378509521 2.38300704956054688 0.242257982492446899
0.826559364795684814 2.2258145809173584 0.127937987446784973
1.10606694221496582 2.02457523345947266 0.200992971658706665
1.01759028434753418 2.08827662467956543 0.107898607850074768
1.06349468231201172 2.05522632598876953 0.249944612383842468
2.11354446411132812 1.29921305179595947 0.238676756620407104
0.562900900840759277 2.41564297676086426 0.128247082233428955
1.45406866073608398 1.77402150630950928 0.168530598282814026
1.51910221576690674 1.72719871997833252 0.104770451784133911
1.23047745227813721 1.93500232696533203 0.213063940405845642
0.64899057149887085 2.35366034507751465 0.187167719006538391
1.11566686630249023 2.01766347885131836 0.139714434742927551
2.86509895324707031 0.75811004638671875 0.241433873772621155
1.24581277370452881 1.92396116256713867 0.083764493465423584
1.47821986675262451 1.75663304328918457 0.241743519902229309
0.713638186454772949 2.30711555480957031 0.131081223487854004
0.669717788696289062 2.33873724937438965 0.247865274548530579
1.67876851558685303 1.61224246025085449 0.205396562814712524
0.675548970699310303 2.33453893661499023 0.070553123950958252
1.50061953067779541 1.74050593376159668 0.239673972129821777
1.10350608825683594 2.02641892433166504 0.145851850509643555
1.36272048950195312 1.8397902250289917 0.114710018038749695
2.27693986892700195 1.18157196044921875 0.224718183279037476
1.28876841068267822 1.89303410053253174 0.193445891141891479
2.26754021644592285 1.1883394718170166 0.234033972024917603
2.26162242889404297 1.19260013103485107 0.239209234714508057
1.15125846862792969 1.99203824996948242 0.147549986839294434
1.04902613162994385 2.065643310546875 0.142456233501434326
0.566093087196350098 2.4133446216583252 0.133747637271881104
1.26482772827148438 1.91027092933654785 0.174172922968864441
1.61961841583251953 1.65482926368713379 0.204343438148498535
0.879540801048278809 2.18766927719116211 0.225690603256225586
0.457480907440185547 2.49154305458068848 0.0250854045152664185
1.56849002838134766 1.69164061546325684 0.223776236176490784
1.93518519401550293 1.4276280403137207 0.17621341347694397
1.05292224884033203 2.06283807754516602 0.0642434209585189819
