ply
format ascii 1.0
element vertex 695
property float x
property float y
property float z
end_header
0.0645563304424285889 -0.0368908382952213287 -0.0244141146540641785
0.0820205137133598328 -0.0357621684670448303 -0.0259009599685668945
0.0615997537970542908 -0.0358634516596794128 -0.0259276498109102249
0.084454655647277832 -0.0352226346731185913 -0.0266619324684143066
0.0764310732483863831 -0.0357215516269207001 -0.0260072704404592514
0.0827194452285766602 -0.0364320538938045502 -0.0249245241284370422
0.061360873281955719 -0.0385051816701889038 -0.0221024733036756516
0.0858744904398918152 -0.0362103432416915894 -0.0252189319580793381
-0.0677768439054489136 -0.0315006710588932037 -0.0310938414186239243
-0.0578489974141120911 -0.0298419352620840073 -0.0325902663171291351
-0.0709897056221961975 -0.0321776643395423889 -0.0304853692650794983
-0.0628732666373252869 -0.0320652872323989868 -0.030606929212808609
-0.0609995573759078979 -0.0294763930141925812 -0.0329055674374103546
-0.0738285481929779053 -0.0288653187453746796 -0.0334121547639369965
-0.039813358336687088 -0.0317420810461044312 -0.0309557709842920303
-0.0849676802754402161 -0.0308832675218582153 -0.0315942130982875824
-0.0523798875510692596 -0.0310060307383537292 -0.0315737947821617126
-0.0743718594312667847 -0.0324471704661846161 -0.0302374400198459625
-0.0835907012224197388 -0.0265543423593044281 -0.0354330390691757202
-0.0859941393136978149 -0.0258838050067424774 -0.0360205695033073425
-0.060850139707326889 -0.031633477658033371 -0.0309949629008769989
-0.0788317397236824036 -0.0275520309805870056 -0.0345620661973953247
-0.0438380502164363861 -0.032713472843170166 -0.0300842858850955963
-0.0691685378551483154 -0.0326409749686717987 -0.0300798472017049789
-0.0736000612378120422 -0.0290244314819574356 -0.0332718119025230408
-0.0774725303053855896 -0.0304269008338451385 -0.0320188365876674652
-0.0593579262495040894 -0.0310142990201711655 -0.0315475501120090485
-0.0604026354849338531 -0.0317927934229373932 -0.0308550335466861725
-0.0569951757788658142 -0.031802058219909668 -0.0308560635894536972
-0.0629280507564544678 -0.0328269936144351959 -0.0299319643527269363
-0.0824438109993934631 -0.0287998132407665253 -0.0334468334913253784
-0.0785467326641082764 -0.0273887161165475845 -0.0347075238823890686
-0.0706069245934486389 -0.0304260998964309692 -0.0320381559431552887
-0.0691015720367431641 -0.032068740576505661 -0.0305869858711957932
-0.0763928070664405823 -0.0324711836874485016 -0.0302106887102127075
-0.0800591930747032166 -0.0322006940841674805 -0.0304403845220804214
-0.0658411160111427307 -0.0318896621465682983 -0.0307544730603694916
-0.0813781470060348511 -0.0303780250251293182 -0.0320515520870685577
-0.0716396346688270569 -0.0302297845482826233 -0.0322092808783054352
-0.0842735022306442261 -0.0285868383944034576 -0.0336305536329746246
-0.078547261655330658 -0.0298032872378826141 -0.0325683988630771637
-0.0680669471621513367 -0.0302683077752590179 -0.0321848317980766296
-0.0601236969232559204 -0.030566386878490448 -0.0319422930479049683
-0.0664994046092033386 -0.0291177798062562943 -0.0332083627581596375
-0.0753065720200538635 -0.0268686171621084213 -0.0351770706474781036
-0.0644491389393806458 -0.0289398189634084702 -0.0333715789020061493
0.0498904362320899963 -0.0401144810020923615 -0.0188453476876020432
0.0669408664107322693 -0.0389296598732471466 -0.0214055050164461136
0.0629594326019287109 -0.0390856750309467316 -0.0210561268031597137
0.0596152991056442261 -0.038813956081867218 -0.0215920452028512955
0.0819574818015098572 -0.0393526330590248108 -0.0206405296921730042
0.069188334047794342 -0.0391115546226501465 -0.0210468117147684097
0.0525837056338787079 -0.0388792678713798523 -0.0214079171419143677
0.0758522003889083862 -0.039175521582365036 -0.0209621377289295197
0.0641167759895324707 -0.0390997081995010376 -0.0210354048758745193
0.0474245063960552216 -0.0391253605484962463 -0.0208647418767213821
0.0449308529496192932 -0.0407690368592739105 -0.0174624752253293991
0.0415423624217510223 -0.03970327228307724 -0.0196331795305013657
0.0660394206643104553 -0.0391535758972167969 -0.0209380555897951126
0.0659345686435699463 -0.0397347882390022278 -0.0197404846549034119
0.0414723865687847137 -0.0407694987952709198 -0.0174371134489774704
0.0526830181479454041 -0.0406301505863666534 -0.0178032014518976212
0.0663043111562728882 -0.0396947525441646576 -0.0198255293071269989
0.0621450915932655334 -0.0389554724097251892 -0.0213184934109449387
0.0652584582567214966 -0.0394193492829799652 -0.0203852560371160507
0.0490713492035865784 -0.0399935618042945862 -0.0190885700285434723
0.0474943146109580994 -0.0385414063930511475 -0.0220677182078361511
0.0539783574640750885 -0.0392208471894264221 -0.0207143835723400116
0.0727419108152389526 -0.0392435826361179352 -0.0208000261336565018
0.0546693205833435059 -0.0399819463491439819 -0.0191520042717456818
0.0781533047556877136 -0.0423980802297592163 -0.0128030823543667793
0.0814934819936752319 -0.0397128909826278687 -0.0198148936033248901
0.0772912949323654175 -0.0425088889896869659 -0.0125285675749182701
0.0781367570161819458 -0.0410493910312652588 -0.0163596272468566895
0.0709647089242935181 -0.0405850335955619812 -0.0177309960126876831
0.0789252370595932007 -0.0409214198589324951 -0.0166808906942605972
0.0781002417206764221 -0.0407307334244251251 -0.0172006022185087204
0.0746657326817512512 -0.0419780313968658447 -0.0139821236953139305
0.0839046090841293335 -0.0416947938501834869 -0.014539630152285099
0.0692848116159439087 -0.0418982654809951782 -0.0143027091398835182
0.0458659268915653229 -0.0414882563054561615 -0.0158637333661317825
0.0768778175115585327 -0.0420536026358604431 -0.0137375285848975182
0.0747694075107574463 -0.0415743552148342133 -0.0150444041937589645
0.0854885503649711609 -0.0396093316376209259 -0.0200060885399580002
0.0595383606851100922 -0.0420530363917350769 -0.014094342477619648
0.0689990222454071045 -0.0415668301284313202 -0.0151825025677680969
0.0757051035761833191 -0.0420033857226371765 -0.0138939749449491501
0.0720917955040931702 -0.0405969507992267609 -0.0176764745265245438
0.080370783805847168 -0.0423882082104682922 -0.0127836642786860466
0.079710841178894043 -0.0399127043783664703 -0.0193245559930801392
0.078142113983631134 -0.0428520031273365021 -0.0116064120084047318
0.0634904354810714722 -0.0419695377349853516 -0.0142335249111056328
0.0848319754004478455 -0.0415884107351303101 -0.0148011427372694016
0.063610561192035675 -0.0422587282955646515 -0.0134685356169939041
0.071311555802822113 -0.0405526831746101379 -0.0178091954439878464
0.0727912634611129761 -0.0412132292985916138 -0.0160371586680412292
0.0775573849678039551 -0.0407798402011394501 -0.0170822404325008392
0.078913271427154541 -0.0399535037577152252 -0.0192333254963159561
0.0652089342474937439 -0.0419906154274940491 -0.0141427367925643921
0.0788696110248565674 -0.040632251650094986 -0.0174445006996393204
0.0858643427491188049 -0.0429123565554618835 -0.0112890284508466721
0.0643482506275177002 -0.0415239483118057251 -0.0153908692300319672
-0.07199116051197052 -0.0348880663514137268 -0.0271909888833761215
-0.053227398544549942 -0.036945488303899765 -0.0242801792919635773
-0.0423399955034255981 -0.0346829779446125031 -0.0273715965449810028
-0.0411547347903251648 -0.0373613648116588593 -0.0236630290746688843
-0.0639746412634849548 -0.0351766310632228851 -0.0267640165984630585
-0.03495783731341362 -0.0330638550221920013 -0.0295853335410356522
-0.0436518825590610504 -0.0350738689303398132 -0.026835516095161438
-0.0442305169999599457 -0.0359025225043296814 -0.0256914254277944565
-0.0468481630086898804 -0.0341541320085525513 -0.0281186997890472412
-0.0531431026756763458 -0.0341290347278118134 -0.0281752943992614746
-0.0531207658350467682 -0.0359472110867500305 -0.0256605129688978195
-0.059260241687297821 -0.0350256301462650299 -0.026956481859087944
-0.037589631974697113 -0.0369286611676216125 -0.0242491066455841064
-0.0659729167819023132 -0.0351302586495876312 -0.0268350932747125626
-0.0524947457015514374 -0.036158394068479538 -0.0253662522882223129
-0.0374162942171096802 -0.0336572267115116119 -0.0287731904536485672
-0.0371934473514556885 -0.032759934663772583 -0.030013449490070343
-0.0675260052084922791 -0.0338697358965873718 -0.0285839121788740158
-0.0397069603204727173 -0.0376996435225009918 -0.0231901258230209351
-0.0370737947523593903 -0.0361184589564800262 -0.0253678988665342331
-0.0377500541508197784 -0.0370615459978580475 -0.0240658707916736603
-0.037695813924074173 -0.0353902578353881836 -0.0263772234320640564
-0.0759961903095245361 -0.0333308055996894836 -0.0293587371706962585
-0.0417191609740257263 -0.0359993651509284973 -0.0255487579852342606
-0.0389670506119728088 -0.0333181172609329224 -0.0292475968599319458
-0.0412175990641117096 -0.0342274121940135956 -0.0279977824538946152
-0.0697183609008789062 -0.0349219553172588348 -0.027136215940117836
-0.04054279625415802 -0.0357696935534477234 -0.025862324982881546
-0.0667625963687896729 -0.0331248082220554352 -0.0296115577220916748
-0.042684704065322876 -0.0332596525549888611 -0.0293413791805505753
-0.0399795696139335632 -0.0355779118835926056 -0.026125619187951088
-0.0449950471520423889 -0.0374063402414321899 -0.023614170029759407
-0.0525310225784778595 -0.0358689203858375549 -0.0257667470723390579
-0.0538931563496589661 -0.0345281846821308136 -0.0276258401572704315
-0.0394280515611171722 -0.0336533002555370331 -0.0287856105715036392
-0.08060426265001297 -0.0333269722759723663 -0.0293800551444292068
-0.0332760661840438843 -0.032949838787317276 -0.0297371800988912582
-0.0490967258810997009 -0.0349832922220230103 -0.026979716494679451
0.0545704104006290436 -0.043032567948102951 -0.0106720961630344391
0.0622387342154979706 -0.043046262115240097 -0.0107236281037330627
0.0492315478622913361 -0.0418315567076206207 -0.014838644303381443
0.0449785962700843811 -0.0429961122572422028 -0.0106757963076233864
0.0603724010288715363 -0.0433943308889865875 -0.00947166699916124344
0.0590153373777866364 -0.0429684855043888092 -0.0109559781849384308
0.0486748777329921722 -0.0430606827139854431 -0.0104961805045604706
0.0522097758948802948 -0.042452741414308548 -0.012686464935541153
0.0661355778574943542 -0.0428441017866134644 -0.0114873908460140228
0.052247561514377594 -0.0435083657503128052 -0.00896367616951465607
0.0816812515258789062 -0.0431041456758975983 -0.0107725821435451508
0.0534546487033367157 -0.042449362576007843 -0.0127145769074559212
0.0691685527563095093 -0.0428738445043563843 -0.0114219794049859047
0.0789152607321739197 -0.0430097132921218872 -0.0110696442425251007
0.0587275698781013489 -0.0423294603824615479 -0.0132061317563056946
0.0518529489636421204 -0.0434703752398490906 -0.00909253396093845367
0.0574576631188392639 -0.042671550065279007 -0.0119830230250954628
0.0486152060329914093 -0.0425383411347866058 -0.0123377349227666855
0.052280813455581665 -0.0426836162805557251 -0.0118730682879686356
0.0551146790385246277 -0.0429400354623794556 -0.0110055562108755112
0.0633284002542495728 -0.0429734513163566589 -0.0109946243464946747
0.0558513924479484558 -0.0424590148031711578 -0.0127117447555065155
0.0493855811655521393 -0.0423938930034637451 -0.012857263907790184
-0.0786903500556945801 -0.0351941809058189392 -0.0267214830964803696
-0.0729196295142173767 -0.0364608317613601685 -0.0249112490564584732
-0.0801606103777885437 -0.0385248363018035889 -0.0218898653984069824
-0.0695469081401824951 -0.0375577770173549652 -0.023336559534072876
-0.0800193026661872864 -0.0354342088103294373 -0.0263680219650268555
-0.0732238590717315674 -0.0388625562191009521 -0.0214304439723491669
-0.0819986909627914429 -0.0381459593772888184 -0.02243085578083992
-0.0845366716384887695 -0.035548381507396698 -0.026183178648352623
-0.0574520081281661987 -0.0373462587594985962 -0.0236950386315584183
-0.0559098459780216217 -0.0382136516273021698 -0.022445041686296463
-0.0592910200357437134 -0.0370668508112430573 -0.0240919161587953568
-0.0831821486353874207 -0.0375266075134277344 -0.0233230534940958023
-0.0780030936002731323 -0.0387753546237945557 -0.0215362105518579483
-0.0545048825442790985 -0.0389347486197948456 -0.0214063972234725952
-0.0591320395469665527 -0.0381315164268016815 -0.0225501693785190582
-0.0551880002021789551 -0.038831271231174469 -0.0215533636510372162
-0.0761044993996620178 -0.0370249301195144653 -0.0240803062915802002
-0.0733935609459877014 -0.0391843803226947784 -0.020963471382856369
-0.0676291882991790771 -0.0362582206726074219 -0.0252275411039590836
-0.0635071992874145508 -0.0371870324015617371 -0.0238996651023626328
-0.0798875018954277039 -0.0389833413064479828 -0.021226782351732254
-0.065386258065700531 -0.0374009869992733002 -0.0235816091299057007
-0.0662292614579200745 -0.0374882519245147705 -0.0234515611082315445
-0.0695643573999404907 -0.0370208173990249634 -0.0241144094616174698
-0.0664793998003005981 -0.0389544889330863953 -0.0213262755423784256
-0.0775146484375 -0.0344551987946033478 -0.0277971401810646057
-0.0713801681995391846 -0.035452820360660553 -0.0263782292604446411
-0.0509618408977985382 -0.0380176901817321777 -0.0227502230554819107
-0.0629625469446182251 -0.0363375991582870483 -0.0251326225697994232
-0.0699637904763221741 -0.0389244779944419861 -0.0213547572493553162
-0.0832869112491607666 -0.0387141816318035126 -0.0216021016240119934
-0.0625348687171936035 -0.0372819788753986359 -0.0237662959843873978
-0.0662442892789840698 -0.0358730442821979523 -0.0257915277034044266
-0.0617204755544662476 -0.0384028069674968719 -0.0221459977328777313
0.0577389374375343323 -0.0436869598925113678 -0.00754125602543354034
0.0751248747110366821 -0.0438900552690029144 -0.00509526673704385757
0.065710604190826416 -0.0438904613256454468 -0.00551068736240267754
0.0670702308416366577 -0.0439264029264450073 -0.00515420269221067429
0.0591542348265647888 -0.0435120649635791779 -0.00891868956387042999
0.066020183265209198 -0.0436833649873733521 -0.00720251118764281273
0.0760883614420890808 -0.0435836687684059143 -0.00757572939619421959
0.0590469129383563995 -0.0437141694128513336 -0.00725897680968046188
0.0599191337823867798 -0.0439500100910663605 -0.00527785392478108406
0.0739091113209724426 -0.0438447669148445129 -0.00552233494818210602
0.0466368794441223145 -0.043689236044883728 -0.00801631901413202286
0.0821932405233383179 -0.0432838909327983856 -0.00977309420704841614
0.0742957666516304016 -0.0439694449305534363 -0.00447834422811865807
0.0669590532779693604 -0.0440800152719020844 -0.00389403803274035454
0.052883535623550415 -0.0436261892318725586 -0.00825771410018205643
0.0849837511777877808 -0.0440369769930839539 -0.00344676990061998367
0.0496340692043304443 -0.0437144115567207336 -0.00767565099522471428
0.0799684226512908936 -0.0437383987009525299 -0.00612884853035211563
0.0830006822943687439 -0.0437020808458328247 -0.0062930774874985218
0.0843565240502357483 -0.0436878278851509094 -0.00635014940053224564
0.0763786211609840393 -0.0442223474383354187 -0.00230283057317137718
0.0652592629194259644 -0.043676428496837616 -0.00729347812011837959
0.0813335627317428589 -0.0433379560708999634 -0.00936606526374816895
0.0648983865976333618 -0.0436806157231330872 -0.00727503560483455658
0.0858270451426506042 -0.0439943559467792511 -0.00376025587320327759
0.0647874176502227783 -0.0437993332743644714 -0.00630225613713264465
0.0851669684052467346 -0.0432822518050670624 -0.0096542946994304657
0.0781735479831695557 -0.0434705242514610291 -0.00841481611132621765
0.079738229513168335 -0.0442560277879238129 -0.00187600462231785059
0.0642774403095245361 -0.0439565069973468781 -0.00503049138933420181
-0.0416197590529918671 -0.0392675735056400299 -0.0206316784024238586
-0.0464761145412921906 -0.0415399521589279175 -0.0153028974309563637
-0.0757107064127922058 -0.0393193177878856659 -0.0206937771290540695
-0.0705965384840965271 -0.0404618047177791595 -0.0179738309234380722
-0.0714887902140617371 -0.0404062420129776001 -0.0181095842272043228
-0.0628518462181091309 -0.0400794856250286102 -0.0188329778611660004
-0.0436853207647800446 -0.0407937727868556976 -0.0170462559908628464
-0.0634480565786361694 -0.0393525697290897369 -0.0205492284148931503
-0.062755100429058075 -0.0410207994282245636 -0.0166141949594020844
-0.0496076866984367371 -0.0411237142980098724 -0.0163006950169801712
-0.0590152144432067871 -0.0392754524946212769 -0.0207070168107748032
-0.0620139762759208679 -0.039549216628074646 -0.0200780685991048813
-0.0604016445577144623 -0.0396152734756469727 -0.0199137013405561447
-0.0672011598944664001 -0.0406526215374469757 -0.0175058320164680481
-0.0420193299651145935 -0.0410056784749031067 -0.016537889838218689
-0.0646688714623451233 -0.0393144451081752777 -0.0206456556916236877
-0.0582358837127685547 -0.0400526560842990875 -0.0188712924718856812
-0.0433072187006473541 -0.0415628515183925629 -0.0152318291366100311
-0.0702578723430633545 -0.0394080393016338348 -0.0204552672803401947
-0.0502760894596576691 -0.0417679138481616974 -0.014786209911108017
-0.0596315115690231323 -0.040399014949798584 -0.0180626027286052704
-0.0559241548180580139 -0.0408639386296272278 -0.0169469695538282394
-0.0623091161251068115 -0.0407618917524814606 -0.0172219183295965195
-0.0461643189191818237 -0.0404417179524898529 -0.0178892705589532852
-0.0484510846436023712 -0.0400566905736923218 -0.0188089534640312195
-0.062817007303237915 -0.0397635586559772491 -0.0195772871375083923
-0.0501289330422878265 -0.0397516489028930664 -0.019536871463060379
-0.0569721385836601257 -0.0390679612755775452 -0.0211849622428417206
-0.0575586967170238495 -0.0390619263052940369 -0.0212023444473743439
0.0636046901345252991 -0.0443859100341796875 -0.000683618593029677868
0.0459782220423221588 -0.0443955734372138977 -0.000580530846491456032
0.0653814747929573059 -0.0443012788891792297 -0.00158635899424552917
0.0521200448274612427 -0.0440385043621063232 -0.0043893023394048214
0.0579456798732280731 -0.0443880259990692139 -0.00066107441671192646
0.0649022012948989868 -0.0441425591707229614 -0.00327935838140547276
0.0600447990000247955 -0.0440175272524356842 -0.00461306329816579819
0.0448888204991817474 -0.0442102290689945221 -0.00255754450336098671
0.0442975908517837524 -0.0437936671078205109 -0.00700086960569024086
0.0458963103592395782 -0.0438617169857025146 -0.00627500610426068306
0.0508017688989639282 -0.0438306592404842377 -0.00660631619393825531
0.0467713214457035065 -0.0442518182098865509 -0.00211392692290246487
0.0672584474086761475 -0.0443702749907970428 -0.000850386626552790403
0.05602278932929039 -0.0442337691783905029 -0.00230646738782525063
0.0764473900198936462 -0.0444084256887435913 -0.000443441735114902258
0.0558191314339637756 -0.0443595461547374725 -0.000964843085967004299
0.046305537223815918 -0.0441477485001087189 -0.00322400825098156929
0.0460327453911304474 -0.043808814138174057 -0.00683931494131684303
0.0481539107859134674 -0.0443586893379688263 -0.000973988266196101904
0.0485750958323478699 -0.0439202040433883667 -0.00565114058554172516
0.0779932290315628052 -0.0443840809166431427 -0.000703153957147151232
0.063060566782951355 -0.0440639890730381012 -0.00411744974553585052
0.0627951249480247498 -0.0443284995853900909 -0.00129601708613336086
0.0625145584344863892 -0.04408283531665802 -0.00391641492024064064
-0.0797153115272521973 -0.0423400327563285828 -0.012888692319393158
-0.0831376239657402039 -0.0426629893481731415 -0.0119862891733646393
-0.0756049007177352905 -0.0411252044141292572 -0.0161529816687107086
-0.0661294758319854736 -0.0423832274973392487 -0.0129765812307596207
-0.0811642929911613464 -0.0427740179002285004 -0.0117228422313928604
-0.0577097237110137939 -0.042700592428445816 -0.0122648198157548904
-0.0814917832612991333 -0.0402943864464759827 -0.0182562228292226791
-0.0850953757762908936 -0.0417144373059272766 -0.0144583405926823616
-0.0687644854187965393 -0.0426206998527050018 -0.0123112751170992851
-0.077828139066696167 -0.0423874370753765106 -0.0127917174249887466
-0.0858766362071037292 -0.0397610776126384735 -0.019597318023443222
-0.0799662023782730103 -0.0415046066045761108 -0.0150877935811877251
-0.0722093954682350159 -0.0414801724255084991 -0.0152674326673150063
-0.0800677090883255005 -0.0398249141871929169 -0.0195152740925550461
-0.0792467445135116577 -0.0400738492608070374 -0.0188710875809192657
-0.0832165777683258057 -0.0411201789975166321 -0.0160531755536794662
-0.0730473101139068604 -0.040660317987203598 -0.0174167733639478683
-0.0743853375315666199 -0.0417007468640804291 -0.0146535085514187813
-0.0700777247548103333 -0.0415946990251541138 -0.0149971209466457367
-0.0675592944025993347 -0.0422767139971256256 -0.0132362004369497299
-0.0731148570775985718 -0.0405666790902614594 -0.0176626797765493393
-0.0736651942133903503 -0.040930476039648056 -0.0166952386498451233
-0.0836925432085990906 -0.0402709692716598511 -0.0182852782309055328
-0.0491613149642944336 -0.0421548746526241302 -0.0138307241722941399
-0.0628498569130897522 -0.0414948165416717529 -0.015367838554084301
-0.0792269259691238403 -0.0413528233766555786 -0.0154989929869771004
-0.0597573928534984589 -0.0418704599142074585 -0.0144232865422964096
-0.084255605936050415 -0.0426105819642543793 -0.0121078761294484138
-0.0727265328168869019 -0.0413061343133449554 -0.0157186500728130341
-0.0696434825658798218 -0.0422109924256801605 -0.0133785363286733627
-0.0537111982703208923 -0.0419247373938560486 -0.0143699729815125465
-0.0676198303699493408 -0.0425859764218330383 -0.0124198365956544876
-0.0640036389231681824 -0.0433002002537250519 -0.00975397415459156036
-0.0481294691562652588 -0.0427778251469135284 -0.0118662845343351364
-0.0704351961612701416 -0.0432326346635818481 -0.0101271998137235641
-0.071858137845993042 -0.0431015938520431519 -0.0107207978144288063
-0.064438357949256897 -0.042972177267074585 -0.0112030152231454849
-0.0512941330671310425 -0.0432196445763111115 -0.00995876267552375793
-0.0459582358598709106 -0.0429713055491447449 -0.0109890159219503403
-0.0608985833823680878 -0.0431696847081184387 -0.0102918762713670731
-0.0766349360346794128 -0.0432913042604923248 -0.00994202401489019394
-0.0546387061476707458 -0.0427925363183021545 -0.0118782464414834976
-0.0509411320090293884 -0.043543938547372818 -0.00852710846811532974
-0.0598021894693374634 -0.0432265512645244598 -0.0100286519154906273
-0.0449343100190162659 -0.0438861586153507233 -0.0069499211385846138
-0.0610292516648769379 -0.0431361943483352661 -0.0104408347979187965
-0.0562278702855110168 -0.0428869500756263733 -0.0114813847467303276
-0.0735924988985061646 -0.0433489866554737091 -0.00965224578976631165
-0.0459437817335128784 -0.0431775525212287903 -0.0100809764117002487
-0.0660521388053894043 -0.0429324395954608917 -0.0113969380035996437
-0.0616829320788383484 -0.0432443059980869293 -0.0099726477637887001
-0.0640479326248168945 -0.043575972318649292 -0.00851555541157722473
-0.0729827657341957092 -0.0436841212213039398 -0.00708869565278291702
-0.0816244184970855713 -0.043947998434305191 -0.00439691822975873947
-0.060344696044921875 -0.0441303811967372894 -0.00417179754003882408
-0.0722296535968780518 -0.0441829748451709747 -0.0030254763551056385
-0.0660174787044525146 -0.0440585091710090637 -0.00442329840734601021
-0.0815582573413848877 -0.0437005758285522461 -0.00643859989941120148
-0.0707974135875701904 -0.0441767759621143341 -0.0031624925322830677
-0.0705453455448150635 -0.0434912107884883881 -0.00882369652390480042
-0.0785736367106437683 -0.0437146276235580444 -0.00650197360664606094
-0.0808165222406387329 -0.0440292805433273315 -0.00377600220963358879
-0.0536531470715999603 -0.043914206326007843 -0.00635368330404162407
-0.0527160093188285828 -0.0438921637833118439 -0.00659148441627621651
-0.0574996881186962128 -0.0438496433198451996 -0.00665459875017404556
-0.0593079626560211182 -0.0440503358840942383 -0.00489322515204548836
-0.0677035972476005554 -0.0441148281097412109 -0.00385829340666532516
-0.0535871796309947968 -0.0440061315894126892 -0.00560058001428842545
-0.0726963281631469727 -0.0434663034975528717 -0.00889978930354118347
-0.0821231827139854431 -0.0435460880398750305 -0.00767702888697385788
-0.0819823220372200012 -0.043941061943769455 -0.00443257391452789307
-0.0657497122883796692 -0.0439630225300788879 -0.0052257804200053215
-0.0467388257384300232 -0.0439226366579532623 -0.00669919559732079506
-0.0716237574815750122 -0.0435117930173873901 -0.0085894949734210968
-0.0561283789575099945 -0.0439556986093521118 -0.00586344581097364426
-0.084494568407535553 -0.0439934171736240387 -0.0038506390992552042
-0.0811901390552520752 -0.0440853722393512726 -0.00329160317778587341
-0.0769203752279281616 -0.0439567379653453827 -0.00460721692070364952
-0.0850963816046714783 -0.0441779159009456635 -0.00229501794092357159
-0.0617303997278213501 -0.0438858829438686371 -0.00610225088894367218
-0.080465465784072876 -0.0441390499472618103 -0.00289300805889070034
-0.0459291674196720123 -0.0444493144750595093 -9.0567009465303272e-06
-0.0733615383505821228 -0.0443612039089202881 -0.00117640139069408178
-0.0442393459379673004 -0.0441428720951080322 -0.00406888732686638832
-0.0674117058515548706 -0.044375445693731308 -0.000987709034234285355
-0.0567785277962684631 -0.044350847601890564 -0.00131357775535434484
-0.0562136992812156677 -0.0444130599498748779 -0.000489366124384105206
-0.0635646507143974304 -0.0443706214427947998 -0.00105163257103413343
-0.0679277032613754272 -0.044293820858001709 -0.00206910516135394573
-0.0450470596551895142 -0.0441527925431728363 -0.00393748842179775238
-0.0448809787631034851 -0.044026494026184082 -0.005610697902739048
-0.0822814479470252991 -0.0444066338241100311 -0.000574527308344841003
-0.0568569228053092957 -0.0441874302923679352 -0.00347858737222850323
-0.0486598536372184753 -0.0441911891102790833 -0.00342880422249436378
-0.0811740309000015259 -0.0444076210260391235 -0.00056144071277230978
-0.0517364479601383209 -0.0442217364907264709 -0.00302407704293727875
-0.057067185640335083 -0.0442644506692886353 -0.00245822640135884285
-0.0573377572000026703 -0.0444146990776062012 -0.000467680132715031505
-0.0701568648219108582 -0.0443936176598072052 -0.000746974663343280554
-0.0236260127276182175 -0.00291569111868739128 -0.0441571511328220367
-0.0285314489156007767 -0.00840292219072580338 -0.0434071868658065796
-0.0445485822856426239 -0.00649233255535364151 -0.0437574088573455811
-0.0165735278278589249 -0.00992865115404129028 -0.0431316979229450226
-0.0461252108216285706 -0.00350219127722084522 -0.044187445193529129
-0.0132878851145505905 -0.00606447737663984299 -0.0436606816947460175
-0.0493975058197975159 -0.00757268071174621582 -0.0436292700469493866
-0.0656343698501586914 -0.00485267443582415581 -0.0440948605537414551
-0.0445938296616077423 -0.00521392654627561569 -0.0439381077885627747
-0.0272041279822587967 -0.00220156996510922909 -0.0442759469151496887
-0.0169151145964860916 -0.00509138684719800949 -0.0438162796199321747
-0.0647688880562782288 -0.00552051328122615814 -0.0439962334930896759
-0.0109050627797842026 -0.00357675040140748024 -0.043999888002872467
-0.0580390803515911102 -0.00510430335998535156 -0.0440211594104766846
-0.0527351945638656616 -0.00749831600114703178 -0.0436565466225147247
-0.076846584677696228 -0.00602724449709057808 -0.0439854077994823456
-0.0307139214128255844 -0.00316504621878266335 -0.0441575758159160614
-0.0290850475430488586 -0.00620145490393042564 -0.0437207482755184174
-0.0132300546392798424 -0.0100601855665445328 -0.0430963262915611267
-0.0557041987776756287 -0.00561682181432843208 -0.0439370758831501007
-0.041240304708480835 -0.00847265869379043579 -0.0434612222015857697
-0.0473632924258708954 -0.00462225731462240219 -0.0440355502068996429
-0.027828216552734375 -0.00388673623092472553 -0.0440411902964115143
-0.00870473217219114304 -0.00374797801487147808 -0.0439646616578102112
-0.0807436034083366394 -0.00574237853288650513 -0.0440452061593532562
-0.0539419874548912048 -0.00346355303190648556 -0.0442321896553039551
-0.0465763509273529053 -0.00541778560727834702 -0.0439192913472652435
-0.0279544796794652939 -0.00285311345942318439 -0.0441877394914627075
-0.0566050931811332703 -0.00774266105145215988 -0.0436415039002895355
-0.0263054929673671722 -0.00757980393245816231 -0.0435121990740299225
-0.0127142462879419327 -0.00604673288762569427 -0.0436603054404258728
-0.0143020236864686012 -0.00791084021329879761 -0.0434051305055618286
-0.0598104894161224365 -0.00576270325109362602 -0.0439371205866336823
-0.0771286934614181519 -0.00576230091974139214 -0.0440242253243923187
-0.0716562569141387939 -0.00609019957482814789 -0.0439504310488700867
-0.0244028531014919281 -0.00249752961099147797 -0.0442200861871242523
-0.0116894990205764771 -0.00897455587983131409 -0.0432418398559093475
-0.012238343246281147 -0.00237362505868077278 -0.0441764332354068756
-0.0593928098678588867 -0.00605746544897556305 -0.0438934117555618286
-0.0174845196306705475 -0.0106267128139734268 -0.0430377349257469177
-0.007918553426861763 -0.00622973311692476273 -0.0436103641986846924
-0.0511033684015274048 -0.00395811349153518677 -0.0441481061279773712
-0.0264289472252130508 -0.00879928097128868103 -0.0433406680822372437
-0.0247187297791242599 -0.0045390506274998188 -0.0439334772527217865
-0.0456825122237205505 -0.00493667786940932274 -0.0439827181398868561
-0.0746492967009544373 -0.00545026035979390144 -0.0440558157861232758
-0.0117722880095243454 -0.00292136729694902897 -0.0440967679023742676
-0.0523322932422161102 -0.00634949700906872749 -0.0438166968524456024
-0.0212281923741102219 -0.00653236126527190208 -0.0436345450580120087
-0.0291926618665456772 -0.00265635689720511436 -0.0442217402160167694
-0.0524443089962005615 -0.00516717880964279175 -0.0439841672778129578
-0.0553197041153907776 -0.00760168582201004028 -0.0436549410223960876
-0.0152220930904150009 -0.0107143176719546318 -0.0430139936506748199
-0.0769437998533248901 -0.0054526645690202713 -0.0440670065581798553
-0.00821948796510696411 -0.00498318951576948166 -0.0437878482043743134
-0.0476016327738761902 -0.00409009493887424469 -0.0441118739545345306
-0.0579218529164791107 -0.00668793218210339546 -0.0437970161437988281
-0.035345025360584259 -0.00649895984679460526 -0.0437102168798446655
-0.0268968772143125534 -0.00616328231990337372 -0.0437151342630386353
-0.080167330801486969 -0.00574910733848810196 -0.0440413616597652435
-0.055685143917798996 -0.00629815831780433655 -0.0438407957553863525
-0.0466004461050033569 -0.00335186393931508064 -0.0442110560834407806
-0.0436929091811180115 -0.00464022671803832054 -0.044014565646648407
-0.0471993386745452881 -0.00834557227790355682 -0.043509114533662796
-0.0684291347861289978 -0.0150936674326658249 -0.0417519472539424896
-0.0483590476214885712 -0.0164353419095277786 -0.0410388186573982239
-0.0425378866493701935 -0.0178223215043544769 -0.0403908602893352509
-0.0709775090217590332 -0.0169671475887298584 -0.0409389659762382507
-0.0381315276026725769 -0.020335368812084198 -0.0392535589635372162
-0.0201111156493425369 -0.0129813682287931442 -0.0423968210816383362
-0.0436039231717586517 -0.0203296542167663574 -0.0392888076603412628
-0.0178937092423439026 -0.0175499469041824341 -0.0403639115393161774
-0.0221374370157718658 -0.0206793956458568573 -0.0390058383345603943
-0.0627303719520568848 -0.0178570877760648727 -0.0404962301254272461
-0.0459699183702468872 -0.0141309471800923347 -0.042043246328830719
-0.0494390204548835754 -0.0144868465140461922 -0.0419066548347473145
-0.0426604002714157104 -0.0209491178393363953 -0.0390093177556991577
-0.0615569576621055603 -0.0153734888881444931 -0.0415871515870094299
-0.0478151589632034302 -0.0146990101784467697 -0.0418031513690948486
-0.0171489622443914413 -0.0121979620307683945 -0.0427254363894462585
-0.0361895821988582611 -0.0194716118276119232 -0.0396237894892692566
-0.0661076977849006653 -0.0172716826200485229 -0.0407752208411693573
-0.0451615415513515472 -0.0138144334778189659 -0.0421783328056335449
-0.0223928689956665039 -0.0150957629084587097 -0.0414757467806339264
-0.0296017266809940338 -0.0221256595104932785 -0.0384111106395721436
-0.0388375110924243927 -0.0181413348764181137 -0.0402277074754238129
-0.013779904693365097 -0.0126058207824826241 -0.0425249859690666199
-0.0468920394778251648 -0.0160548537969589233 -0.0411982461810112
-0.0302085317671298981 -0.0142060611397027969 -0.04191579669713974
-0.0349563993513584137 -0.0172192249447107315 -0.0406121388077735901
-0.0498859398066997528 -0.0166366938501596451 -0.0409589335322380066
-0.0728527083992958069 -0.0153963267803192139 -0.0416445955634117126
-0.0438947901129722595 -0.0188074000179767609 -0.0399634949862957001
-0.02622976154088974 -0.0144405653700232506 -0.0417883321642875671
-0.0371866896748542786 -0.0135235078632831573 -0.0422592572867870331
-0.0485699921846389771 -0.0175778903067111969 -0.0405349843204021454
-0.0188854541629552841 -0.0184998679906129837 -0.039949905127286911
-0.0487394519150257111 -0.0196045711636543274 -0.0396400541067123413
-0.0196123551577329636 -0.0192499924451112747 -0.0396226383745670319
-0.0569722726941108704 -0.0174080636352300644 -0.0406603030860424042
-0.0307956337928771973 -0.0156087996438145638 -0.0412991903722286224
-0.0491219423711299896 -0.017830677330493927 -0.0404265336692333221
-0.0575434304773807526 -0.0145864756777882576 -0.0419110693037509918
-0.0694770589470863342 -0.0176189113408327103 -0.0406418628990650177
-0.0313435159623622894 -0.016855631023645401 -0.0407512709498405457
-0.0159710496664047241 -0.0137052442878484726 -0.0420520603656768799
-0.0509324371814727783 -0.0199433844536542892 -0.0395033881068229675
-0.0458059459924697876 -0.0136735867708921432 -0.0422444529831409454
-0.0213914401829242706 -0.0146275041624903679 -0.0416767634451389313
-0.0409908443689346313 -0.0158397238701581955 -0.0412580668926239014
-0.0436176098883152008 -0.0146753620356321335 -0.0417885072529315948
-0.0368116535246372223 -0.017577826976776123 -0.0404647067189216614
-0.0130111584439873695 -0.0125677250325679779 -0.0425372309982776642
-0.0518401600420475006 -0.0140120312571525574 -0.0421309173107147217
-0.056141778826713562 -0.0167403668165206909 -0.0409505106508731842
-0.0326796062290668488 -0.013031497597694397 -0.0424498133361339569
-0.0526601113379001617 -0.0146263577044010162 -0.0418642386794090271
-0.0240787528455257416 -0.0163972973823547363 -0.0409104488790035248
-0.035296313464641571 -0.0207954589277505875 -0.039033208042383194
-0.0287953969091176987 -0.0168287307024002075 -0.0407479293644428253
-0.022428806871175766 -0.0203104373067617416 -0.0391706861555576324
-0.0508228018879890442 -0.0159878116101026535 -0.0412513911724090576
-0.0147754717618227005 -0.0121956076472997665 -0.0427122823894023895
-0.0401466526091098785 -0.0860001891851425171 0.00992083922028541565
-0.0385903418064117432 -0.0860001742839813232 0.0106246704235672951
-0.0433690436184406281 -0.086000196635723114 -0.000577402301132678986
-0.0426213443279266357 -0.086000196635723114 -0.00808852910995483398
-0.0414611287415027618 -0.0860001891851425171 -0.00330227799713611603
-0.0411548390984535217 -0.0860001891851425171 0.00273719988763332367
-0.0361211560666561127 -0.0860001668334007263 0.0217563547194004059
-0.0394402071833610535 -0.0860001817345619202 0.0106614967808127403
-0.0362747535109519958 -0.0860001668334007263 0.021407565101981163
-0.0436132550239562988 -0.086000196635723114 -0.00478876661509275436
-0.0443473830819129944 -0.0860002040863037109 -0.000259301508776843548
-0.039041079580783844 -0.0860001742839813232 -0.0162584539502859116
-0.0367596223950386047 -0.0860001668334007263 0.0118529200553894043
-0.039379119873046875 -0.0860001817345619202 -0.00912719778716564178
-0.0388046689331531525 -0.0860001742839813232 -0.0120936445891857147
-0.0368166714906692505 -0.0860001668334007263 0.0054944213479757309
-0.0370484553277492523 -0.0860001668334007263 0.00735447462648153305
-0.0371120050549507141 -0.0860001668334007263 0.0114420205354690552
-0.0385028459131717682 -0.0860001668334007263 -0.0128883570432662964
-0.0387229807674884796 -0.0860001742839813232 -0.00575554370880126953
-0.0343423858284950256 -0.0860001519322395325 0.0224428065121173859
-0.0375797748565673828 -0.0860001668334007263 0.0102731361985206604
-0.0376301370561122894 -0.0860001668334007263 0.000719994306564331055
-0.0404413491487503052 -0.0860001817345619202 -0.00191691331565380096
-0.0388479307293891907 -0.0860001742839813232 -0.000418360345065593719
-0.0404320396482944489 -0.0860001817345619202 -0.00924571603536605835
-0.0387295633554458618 -0.0860001742839813232 -0.00278203561902046204
-0.0362387001514434814 -0.0860001593828201294 0.00739548914134502411
-0.0351993665099143982 -0.0860001593828201294 -0.0205122139304876328
-0.0333114415407180786 -0.0860001519322395325 0.0233522932976484299
-0.0347640328109264374 -0.0860001593828201294 -0.00672743469476699829
-0.0345146544277667999 -0.0860001593828201294 0.00304555334150791168
-0.0369511544704437256 -0.0860001668334007263 -0.0216471068561077118
-0.0368274413049221039 -0.0860001668334007263 -0.0160461142659187317
-0.0356819033622741699 -0.0860001593828201294 0.00559066049754619598
-0.0386722013354301453 -0.0860001742839813232 -0.0178071539849042892
-0.0349633954465389252 -0.0860001593828201294 -0.0175182484090328217
-0.0353191718459129333 -0.0860001593828201294 0.00187960360199213028
-0.0363064482808113098 -0.0860001593828201294 -0.000634554307907819748
-0.0336515754461288452 -0.0860001519322395325 0.0209889393299818039
-0.0354505106806755066 -0.0860001593828201294 -0.0143254809081554413
-0.0366438254714012146 -0.0860001668334007263 -0.00432344758883118629
-0.035433448851108551 -0.0860001593828201294 0.000850305892527103424
-0.0341570749878883362 -0.0860001519322395325 -0.0231326259672641754
-0.0374064072966575623 -0.0860001668334007263 -0.0211626067757606506
-0.0352716557681560516 -0.0860001593828201294 -0.0133125260472297668
-0.0357112102210521698 -0.0860001593828201294 -0.00753167830407619476
-0.0349036790430545807 -0.0860001593828201294 0.00332731008529663086
-0.0338242128491401672 -0.0860001519322395325 -0.00747645273804664612
-0.036830168217420578 -0.0860001668334007263 -0.0103554725646972656
-0.034980185329914093 -0.0860001593828201294 0.0109114879742264748
-0.0364450439810752869 -0.0860001668334007263 -0.00843924935907125473
-0.0298323910683393478 -0.0860001370310783386 -0.00692358240485191345
-0.0293788369745016098 -0.0860001370310783386 -0.0157807040959596634
-0.0302375424653291702 -0.0860001370310783386 -0.00206474587321281433
-0.0327895358204841614 -0.0860001519322395325 -0.0145009029656648636
-0.0272713098675012589 -0.0860001221299171448 -0.0340294502675533295
-0.0327956452965736389 -0.0860001519322395325 -0.0186675209552049637
-0.0305568408221006393 -0.0860001370310783386 -0.0278823226690292358
-0.0313927531242370605 -0.0860001444816589355 -0.0187252070754766464
-0.0270322542637586594 -0.0860001221299171448 -0.0308909639716148376
-0.0312423035502433777 -0.0860001444816589355 0.0104967113584280014
-0.0288286339491605759 -0.0860001295804977417 -0.0172916240990161896
-0.031121373176574707 -0.0860001444816589355 -0.0062355678528547287
-0.0329104289412498474 -0.0860001519322395325 0.0105028804391622543
-0.0298743806779384613 -0.0860001370310783386 -0.0134607665240764618
-0.0259105302393436432 -0.0860001146793365479 -0.033649250864982605
-0.031987067312002182 -0.0860001444816589355 0.00516765005886554718
-0.0291562005877494812 -0.0860001295804977417 -0.0210832078009843826
-0.0281482599675655365 -0.0860001295804977417 -0.0256444085389375687
-0.0320098884403705597 -0.0860001444816589355 -0.0207642111927270889
-0.0321169756352901459 -0.0860001444816589355 0.0105387652292847633
-0.0303804557770490646 -0.0860001370310783386 -0.0250672176480293274
-0.0317637808620929718 -0.0860001444816589355 0.00736820325255393982
-0.0319945253431797028 -0.0860001444816589355 -0.0204777233302593231
-0.0325409136712551117 -0.0860001519322395325 -0.0177637916058301926
-0.0328373536467552185 -0.0860001519322395325 -0.0184401720762252808
-0.0292803030461072922 -0.0860001370310783386 -0.00994028337299823761
-0.0329605638980865479 -0.0860001519322395325 -0.0217293184250593185
-0.026192445307970047 -0.0860001221299171448 -0.033397279679775238
-0.0317308381199836731 -0.0860001444816589355 -0.0203173570334911346
-0.0294368639588356018 -0.0860001370310783386 -0.0231034848839044571
-0.0314621180295944214 -0.0860001444816589355 -0.0281275548040866852
-0.0218423269689083099 -0.086000099778175354 -0.02546684630215168
-0.018669765442609787 -0.0860000848770141602 -0.0300725698471069336
-0.020549451932311058 -0.0860000923275947571 -0.0348231308162212372
-0.0247358940541744232 -0.0860001072287559509 -0.0160862263292074203
-0.0203081965446472168 -0.0860000923275947571 -0.027785714715719223
-0.0260023660957813263 -0.0860001221299171448 -0.00934337824583053589
-0.0226362999528646469 -0.086000099778175354 -0.0239929929375648499
-0.0208841301500797272 -0.0860000923275947571 -0.0290566980838775635
-0.0191191844642162323 -0.0860000848770141602 -0.0334960930049419403
-0.0163821466267108917 -0.0860000699758529663 -0.0396441146731376648
-0.0270847585052251816 -0.0860001221299171448 -0.00345633924007415771
-0.0233067944645881653 -0.0860001072287559509 -0.0140535254031419754
-0.0292173009365797043 -0.0860001370310783386 -0.00287384120747447014
-0.0204620510339736938 -0.0860000923275947571 -0.0269554723054170609
-0.0238458998501300812 -0.0860001072287559509 -0.0208326596766710281
-0.0301392022520303726 -0.0860001370310783386 0.00382333388552069664
-0.0246027465909719467 -0.0860001146793365479 -0.0215287134051322937
-0.0223702620714902878 -0.086000099778175354 -0.020492900162935257
-0.0227220803499221802 -0.0860001072287559509 -0.0218985434621572495
-0.0210715383291244507 -0.0860000923275947571 -0.0259940605610609055
-0.0315001122653484344 -0.0860001444816589355 0.0205702502280473709
-0.0258663073182106018 -0.0860001146793365479 -0.00551804527640342712
-0.0267235506325960159 -0.0860001221299171448 -0.0134725738316774368
-0.0257323421537876129 -0.0860001146793365479 -0.0259560234844684601
-0.0257283411920070648 -0.0860001221299171448 -0.0293276552110910416
-0.0263845287263393402 -0.0860001221299171448 0.000629410147666931152
-0.0247173476964235306 -0.0860001072287559509 -0.0238681808114051819
-0.0182558614760637283 -0.0860000848770141602 -0.0343392118811607361
-0.0271240118891000748 -0.0860001221299171448 -0.00831742677837610245
-0.0230377055704593658 -0.086000099778175354 -0.0224563013762235641
-0.024625338613986969 -0.0860001072287559509 -0.0240477863699197769
-0.0238857250660657883 -0.0860001072287559509 -0.019227614626288414
-0.0195998698472976685 -0.0860000848770141602 -0.0329103805124759674
-0.0330639928579330444 -0.0860001519322395325 0.0284221284091472626
-0.0254282541573047638 -0.0860001146793365479 -0.0337516963481903076
-0.0194228552281856537 -0.0860000923275947571 -0.0347984880208969116
-0.0250919647514820099 -0.0860001146793365479 -0.0193531513214111328
-0.0304870437830686569 -0.0860001370310783386 0.0073683466762304306
-0.0281617026776075363 -0.0860001295804977417 -0.0101574789732694626
-0.0176203921437263489 -0.0860000774264335632 -0.0222452972084283829
-0.0165575761348009109 -0.0860000699758529663 -0.0369298756122589111
-0.0078030657023191452 -0.0860000327229499817 -0.0419106408953666687
-0.017606271430850029 -0.0860000848770141602 -0.0262569691985845566
-0.0209082029759883881 -0.0860000923275947571 -0.00732729770243167877
-0.0137764476239681244 -0.0860000625252723694 -0.0269148442894220352
-0.0155150927603244781 -0.0860000774264335632 -0.0183727685362100601
-0.0126904305070638657 -0.0860000550746917725 -0.0379328653216362
-0.0213018972426652908 -0.086000099778175354 -0.0179670415818691254
-0.0148422820493578911 -0.0860000625252723694 -0.0270950011909008026
-0.0163936149328947067 -0.0860000699758529663 -0.0166327543556690216
-0.0206956919282674789 -0.0860000923275947571 -0.0166457444429397583
-0.0275432709604501724 -0.0860001221299171448 0.0103909950703382492
-0.0212942622601985931 -0.086000099778175354 -0.00263408757746219635
-0.0203951522707939148 -0.0860000923275947571 -0.00733988918364048004
-0.0154323456808924675 -0.0860000699758529663 -0.026179162785410881
-0.0231172628700733185 -0.0860001072287559509 -0.00233478844165802002
-0.0285397879779338837 -0.0860001295804977417 0.0148184970021247864
-0.0166130717843770981 -0.0860000774264335632 -0.0370491556823253632
-0.0236452389508485794 -0.0860001072287559509 -0.00803769007325172424
-0.0199719350785017014 -0.0860000848770141602 -0.0205129776149988174
-0.0196389146149158478 -0.0860000923275947571 -0.00941784307360649109
-0.0174361038953065872 -0.0860000848770141602 -0.0314629748463630676
-0.0266573373228311539 -0.0860001221299171448 0.00472584366798400879
-0.0218681003898382187 -0.086000099778175354 -0.0161354336887598038
-0.00868975743651390076 -0.0860000401735305786 -0.0386589206755161285
-0.0148704834282398224 -0.0860000699758529663 -0.0194249730557203293
-0.0276784636080265045 -0.0860001221299171448 0.0111859338358044624
-0.0128351263701915741 -0.0860000625252723694 -0.0295989736914634705
-0.0154147893190383911 -0.0860000699758529663 -0.0329687818884849548
-0.0166384205222129822 -0.0860000699758529663 -0.0319635570049285889
-0.0171474125236272812 -0.0860000774264335632 -0.0180678851902484894
-0.014418833889067173 -0.0860000699758529663 -0.0342460572719573975
-0.0139450822025537491 -0.0860000625252723694 -0.0310166534036397934
-0.0275542698800563812 -0.0860001221299171448 0.0106032229959964752
-0.0191042069345712662 -0.0860000848770141602 -0.0184920039027929306
-0.0219937656074762344 -0.086000099778175354 -0.00893731508404016495
-0.0196116603910923004 -0.0860000923275947571 -0.00710157491266727448
-0.014970880001783371 -0.0860000699758529663 -0.0191371999680995941
-0.0304266363382339478 -0.0860001370310783386 0.0197482984513044357
-0.017144475132226944 -0.0860000774264335632 -0.0220556315034627914
-0.0189302898943424225 -0.0860000848770141602 -0.0253994837403297424
-0.0142763936892151833 -0.0860000699758529663 -0.0375233665108680725
-0.0143108321353793144 -0.0860000699758529663 -0.0279256105422973633
-0.0247061755508184433 -0.0860001072287559509 0.0052514541894197464
-0.0113868899643421173 -0.0860000476241111755 -0.0323730967938899994
-0.0190466716885566711 -0.0860000848770141602 -0.00495751760900020599
-0.00589534267783164978 -0.0860000327229499817 -0.0374532118439674377
-0.00481283105909824371 -0.0860000252723693848 -0.0253149494528770447
-0.0151553759351372719 -0.0860000699758529663 -0.0163062512874603271
-0.00558681413531303406 -0.0860000252723693848 -0.0270451866090297699
-0.000999117270112037659 -0.086000002920627594 -0.0422973036766052246
0.00318136066198348999 -0.0859999805688858032 -0.0436249040067195892
-0.0056450599804520607 -0.0860000252723693848 -0.0378240980207920074
-0.00509821437299251556 -0.0860000252723693848 -0.0377170965075492859
-0.00561339408159255981 -0.0860000252723693848 -0.0346335470676422119
-0.00135459192097187042 -0.086000002920627594 -0.0358284786343574524
-0.00859313178807497025 -0.0860000401735305786 -0.0321475528180599213
-0.023550666868686676 -0.0860001146793365479 0.0079572657123208046
0.00350678712129592896 -0.0859999805688858032 -0.0421827472746372223
-0.0079613877460360527 -0.0860000401735305786 -0.0310673452913761139
-0.0182681642472743988 -0.0860000848770141602 0.000756252557039260864
-0.00521096028387546539 -0.0860000252723693848 -0.0242394600063562393
-0.00535783171653747559 -0.0860000252723693848 -0.0326368212699890137
-0.0196398086845874786 -0.0860000923275947571 0.000989744439721107483
-0.0166561976075172424 -0.0860000774264335632 -0.0135594457387924194
-0.0280766040086746216 -0.0860001295804977417 0.0180478207767009735
-0.00147423148155212402 -0.0860000103712081909 -0.0408754646778106689
-0.0149004235863685608 -0.0860000699758529663 -0.00684035569429397583
-0.00727308774366974831 -0.0860000327229499817 -0.0353040881454944611
-0.00576340965926647186 -0.0860000252723693848 -0.0261649377644062042
