ply
format ascii 1.0
element vertex 723
property float x
property float y
property float z
end_header
0.112999998033046722 0.0320661216974258423 -0.00550904497504234314
0.112999998033046722 0.0428745336830615997 -0.0102917421609163284
0.112999998033046722 0.045673273503780365 -0.0161165092140436172
0.112999998033046722 0.0206679515540599823 0.00466996058821678162
0.112999998033046722 -0.00164781883358955383 0.0178300496190786362
0.112999998033046722 0.033451322466135025 0.00152385607361793518
0.112999998033046722 -0.00192504748702049255 0.0139737538993358612
0.112999998033046722 0.0417544655501842499 -0.00807444564998149872
0.112999998033046722 0.0201796963810920715 0.00278275460004806519
0.112999998033046722 0.0561986826360225677 -0.0140466727316379547
0.112999998033046722 0.0606281235814094543 -0.0179880913347005844
0.112999998033046722 0.0525445230305194855 -0.00736477598547935486
0.112999998033046722 0.0590560100972652435 -0.0219753067940473557
0.112999998033046722 -0.0386593975126743317 0.0357201434671878815
0.112999998033046722 -0.0176405664533376694 0.0244249440729618073
0.112999998033046722 -0.0411154404282569885 0.0379692278802394867
0.112999998033046722 0.00660267844796180725 0.00902871415019035339
0.112999998033046722 0.0297757983207702637 0.00246205925941467285
0.112999998033046722 0.0575069598853588104 -0.0212794318795204163
0.112999998033046722 0.0461859777569770813 -0.0158798135817050934
0.112999998033046722 0.00163041800260543823 0.0140542667359113693
0.112999998033046722 0.066336512565612793 -0.0238212347030639648
0.112999998033046722 -0.0398560725152492523 0.0367619507014751434
0.112999998033046722 0.0237319581210613251 -0.00283560110256075859
0.112999998033046722 0.00715451687574386597 0.0102679114788770676
0.112999998033046722 0.0370520539581775665 -0.000530127435922622681
0.112999998033046722 0.0667166560888290405 -0.0306692216545343399
0.112999998033046722 0.0235411375761032104 0.005615968257188797
0.112999998033046722 -0.0395539514720439911 0.0348756313323974609
0.112999998033046722 0.0555056482553482056 -0.022396530956029892
0.112999998033046722 0.0529158264398574829 -0.0178086291998624802
0.112999998033046722 -0.0318034328520298004 0.0327765122056007385
0.112999998033046722 0.0436513349413871765 -0.0143400272354483604
0.112999998033046722 -0.0155354421585798264 0.0214600451290607452
0.112999998033046722 0.0481728091835975647 -0.0156293530017137527
0.112999998033046722 0.0245729461312294006 0.0013064555823802948
0.112999998033046722 -0.00348166748881340027 0.0195517018437385559
0.112999998033046722 0.0247361548244953156 -0.00235555972903966904
0.112999998033046722 -0.0218366757035255432 0.0287612229585647583
0.112999998033046722 -0.0216753408312797546 0.0252068284898996353
0.112999998033046722 0.0690980106592178345 -0.016195148229598999
0.112999998033046722 0.0669222697615623474 -0.0304400250315666199
0.112999998033046722 0.0682542026042938232 -0.0266120694577693939
0.112999998033046722 0.0474068261682987213 -0.019540153443813324
0.112999998033046722 -0.035887010395526886 0.0353096947073936462
0.112999998033046722 0.0538400709629058838 -0.0194790661334991455
0.112999998033046722 0.0305605698376893997 -0.00674669444561004639
0.112999998033046722 0.0524344518780708313 -0.0124291926622390747
0.112999998033046722 0.0245227422565221786 -0.00337943527847528458
0.112999998033046722 -0.0171988401561975479 0.0303648784756660461
0.112999998033046722 0.0681462362408638 -0.0130525659769773483
0.112999998033046722 0.0285402573645114899 0.0103353988379240036
0.112999998033046722 0.0454536229372024536 0.00819283351302146912
0.112999998033046722 -0.0159051381051540375 0.0301348194479942322
0.112999998033046722 0.0630399137735366821 -0.00926937442272901535
0.112999998033046722 0.0632336437702178955 -0.00325321219861507416
0.112999998033046722 0.0371102578938007355 0.0107223223894834518
0.112999998033046722 0.0610503032803535461 0.00289083272218704224
0.112999998033046722 0.047053702175617218 0.00703394599258899689
0.112999998033046722 0.0654922425746917725 -0.0103378165513277054
0.112999998033046722 0.0711100846529006958 -0.0107728587463498116
0.112999998033046722 0.0539845004677772522 0.00374992191791534424
0.112999998033046722 0.0699058696627616882 -0.0149031048640608788
0.112999998033046722 -0.0119927451014518738 0.0273167360574007034
0.112999998033046722 -0.00408907234668731689 0.0253475531935691833
0.112999998033046722 0.0442114397883415222 -0.00165115203708410263
0.112999998033046722 0.0718328952789306641 -0.00601129233837127686
0.112999998033046722 -0.0102757606655359268 0.0249000359326601028
0.112999998033046722 -0.00344536080956459045 0.0222846437245607376
0.112999998033046722 0.0179431363940238953 0.0163331571966409683
0.112999998033046722 0.0682060718536376953 -0.00757929310202598572
0.112999998033046722 0.0659232661128044128 -0.0118413055315613747
0.112999998033046722 0.0703573226928710938 -0.00577157177031040192
0.112999998033046722 0.0396534241735935211 0.00459286291152238846
0.112999998033046722 0.073583357036113739 -0.00157384946942329407
0.112999998033046722 0.0607095286250114441 0.000687478110194206238
0.112999998033046722 0.0426616407930850983 0.00734078884124755859
0.112999998033046722 0.00668532587587833405 0.0184294506907463074
0.112999998033046722 0.00977981835603713989 0.0179912373423576355
0.112999998033046722 0.0388410687446594238 0.00557814538478851318
0.112999998033046722 0.0274778138846158981 0.00659183086827397346
0.112999998033046722 -0.0357965975999832153 0.0359231419861316681
0.112999998033046722 0.0513433441519737244 -0.00378892198204994202
0.112999998033046722 0.0141080189496278763 0.0118968933820724487
0.112999998033046722 0.0323313102126121521 0.0142409205436706543
0.112999998033046722 0.0491260364651679993 -0.00114936288446187973
0.112999998033046722 -0.00100152194499969482 0.0258318036794662476
0.112999998033046722 0.0113008581101894379 0.0205674096941947937
0.112999998033046722 -0.0332952365279197693 0.0356890223920345306
0.112999998033046722 -0.00228381995111703873 0.0212424769997596741
0.112999998033046722 0.0395316630601882935 0.00893192924559116364
0.112999998033046722 0.0598451718688011169 -0.00941034592688083649
0.112999998033046722 0.0272891316562891006 0.00801468733698129654
0.112999998033046722 0.0535775087773799896 -0.00262245908379554749
0.112999998033046722 -0.000905536115169525146 0.0200640000402927399
0.112999998033046722 0.0549641251564025879 0.00644290819764137268
0.112999998033046722 0.00113768503069877625 0.0221849530935287476
0.112999998033046722 0.0675811246037483215 -0.0140550518408417702
0.112999998033046722 0.0481370054185390472 0.00287643447518348694
0.112999998033046722 0.0672693401575088501 0.000406656414270401001
0.112999998033046722 0.0292236953973770142 0.0193736273795366287
0.112999998033046722 0.0091566573828458786 0.0260543562471866608
0.112999998033046722 0.0680913627147674561 0.00212661386467516422
0.112999998033046722 -0.0164663009345531464 0.0365414172410964966
0.112999998033046722 0.0666823312640190125 0.00751890521496534348
0.112999998033046722 0.0350368581712245941 0.0228790752589702606
0.112999998033046722 0.0556144416332244873 0.0136910136789083481
0.112999998033046722 0.0161863639950752258 0.0273506753146648407
0.112999998033046722 0.070160500705242157 0.0161127485334873199
0.112999998033046722 0.0621524564921855927 0.00888094119727611542
0.112999998033046722 0.0364367067813873291 0.0157086160033941269
0.112999998033046722 0.0254973582923412323 0.0207982137799263
0.112999998033046722 0.0348778180778026581 0.0145571976900100708
0.112999998033046722 0.0484021231532096863 0.0129515482112765312
0.112999998033046722 0.0693145394325256348 0.0121522657573223114
0.112999998033046722 0.0561189092695713043 0.0127124236896634102
0.112999998033046722 0.0180512405931949615 0.0227170009166002274
0.112999998033046722 0.0478333309292793274 0.0201133713126182556
0.112999998033046722 0.0487419627606868744 0.016366131603717804
0.112999998033046722 0.0233077816665172577 0.0272453408688306808
0.112999998033046722 0.00243813544511795044 0.026976410299539566
0.112999998033046722 0.0256726071238517761 0.0258120372891426086
0.112999998033046722 0.0572764277458190918 0.0131290070712566376
0.112999998033046722 0.0189188309013843536 0.0197705794125795364
0.112999998033046722 0.0175425410270690918 0.0213742498308420181
0.112999998033046722 0.031679891049861908 0.0154589926823973656
0.112999998033046722 -0.0171679258346557617 0.0329308770596981049
0.112999998033046722 0.0413746312260627747 0.0133947171270847321
0.112999998033046722 0.0194258242845535278 0.0275196675211191177
0.112999998033046722 -0.0131960399448871613 0.0305217858403921127
0.112999998033046722 0.0573180802166461945 0.00673040328547358513
0.112999998033046722 0.0526067614555358887 0.00762896984815597534
0.112999998033046722 -0.0153374485671520233 0.0351826325058937073
0.112999998033046722 0.0280300918966531754 0.0184407085180282593
0.112999998033046722 0.0613369829952716827 0.0187431983649730682
0.112999998033046722 0.0696451663970947266 0.0143926646560430527
0.112999998033046722 0.0538151562213897705 0.00835393182933330536
0.112999998033046722 0.0542349666357040405 0.0197671782225370407
0.112999998033046722 0.0409484803676605225 0.0213090702891349792
0.112999998033046722 0.0503891594707965851 0.00872599147260189056
0.112999998033046722 0.0626578778028488159 0.00660245586186647415
0.112999998033046722 0.0524791628122329712 0.00971446000039577484
0.112999998033046722 0.0560652278363704681 0.0144248036667704582
0.112999998033046722 0.00424727611243724823 0.0279319100081920624
0.112999998033046722 0.0447008386254310608 0.0114622097462415695
0.112999998033046722 -0.00929869711399078369 0.0329893380403518677
0.112999998033046722 0.0556670650839805603 0.00913083367049694061
0.112999998033046722 0.0182339251041412354 0.0358597822487354279
0.112999998033046722 0.0660738050937652588 0.0299084000289440155
0.112999998033046722 0.0395286306738853455 0.0285013802349567413
0.112999998033046722 0.0345543511211872101 0.0298377946019172668
0.112999998033046722 -0.00208902359008789062 0.0361937060952186584
0.112999998033046722 -0.0134120751172304153 0.0379382260143756866
0.112999998033046722 0.062061697244644165 0.0291268806904554367
0.112999998033046722 0.0515740886330604553 0.0260279197245836258
0.112999998033046722 0.0285200402140617371 0.0351806841790676117
0.112999998033046722 -0.0224985368549823761 0.0407691486179828644
0.112999998033046722 0.0142561532557010651 0.0317711122334003448
0.112999998033046722 -0.041346721351146698 0.0442085079848766327
0.112999998033046722 -0.0145286014303565025 0.0364089570939540863
0.112999998033046722 0.0639180541038513184 0.0234390143305063248
0.112999998033046722 -0.00844483077526092529 0.0388185791671276093
0.112999998033046722 -0.00661110132932662964 0.0381280072033405304
0.112999998033046722 0.0544554926455020905 0.0290971212089061737
0.112999998033046722 -0.0132322870194911957 0.0392443090677261353
0.112999998033046722 0.0562992691993713379 0.0309324935078620911
0.112999998033046722 0.0501441806554794312 0.0241561755537986755
0.112999998033046722 -0.0077837035059928894 0.0388249866664409637
0.112999998033046722 -0.00449205562472343445 0.0367132760584354401
0.112999998033046722 -0.030002892017364502 0.0412533730268478394
0.112999998033046722 0.046504240483045578 0.0276785083115100861
0.112999998033046722 0.0448222942650318146 0.0253017786890268326
0.112999998033046722 0.0312407799065113068 0.0300761237740516663
0.112999998033046722 0.0453931018710136414 0.0245152432471513748
0.112999998033046722 0.0477633550763130188 0.0232798215001821518
0.112999998033046722 0.0256685856729745865 0.0294015724211931229
0.112999998033046722 0.0342520102858543396 0.0282979700714349747
0.112999998033046722 0.000347560271620750427 0.0359672345221042633
0.112999998033046722 -0.0189681015908718109 0.0391434058547019958
0.112999998033046722 0.01212337426841259 0.0337020531296730042
0.112999998033046722 0.034810531884431839 0.025345606729388237
0.112999998033046722 0.0362632684409618378 0.0280700959265232086
0.112999998033046722 0.0150057822465896606 0.0344160795211791992
0.112999998033046722 0.0607081577181816101 0.0223449226468801498
0.112999998033046722 0.0529777705669403076 0.0298100709915161133
0.112999998033046722 0.00815541855990886688 0.0346646048128604889
0.112999998033046722 -0.0121918236836791039 0.0368604212999343872
0.112999998033046722 0.0627900958061218262 0.0241292156279087067
0.112999998033046722 0.062894672155380249 0.0246894322335720062
0.112999998033046722 -0.00233794748783111572 0.0378144420683383942
0.112999998033046722 0.0148241817951202393 0.0437745489180088043
0.112999998033046722 0.0136935636401176453 0.0448468029499053955
0.112999998033046722 0.0123416371643543243 0.0432845503091812134
0.112999998033046722 0.00317820906639099121 0.0413354970514774323
0.112999998033046722 -0.0252439416944980621 0.0424917340278625488
0.112999998033046722 0.012781098484992981 0.0458009839057922363
0.112999998033046722 -0.0353309847414493561 0.0440581962466239929
0.112999998033046722 0.0381236858665943146 0.0411940440535545349
0.112999998033046722 0.0400438643991947174 0.0439703352749347687
0.112999998033046722 -0.0229673292487859726 0.0433200225234031677
0.112999998033046722 -0.012809406965970993 0.0429442413151264191
0.112999998033046722 -0.0206957291811704636 0.042381729930639267
0.112999998033046722 0.00205997377634048462 0.0417952537536621094
0.112999998033046722 0.0113470256328582764 0.0432878471910953522
0.112999998033046722 -0.011128624901175499 0.0430102124810218811
0.112999998033046722 0.0138084478676319122 0.0421701818704605103
0.112999998033046722 0.0482470467686653137 0.0344794765114784241
0.112999998033046722 0.00740964710712432861 0.0460202693939208984
0.112999998033046722 0.030589912086725235 0.0457221008837223053
0.112999998033046722 0.0398035608232021332 0.0407435446977615356
0.112999998033046722 0.0498886257410049438 0.0418891459703445435
0.112999998033046722 -0.0433430522680282593 0.0451648645102977753
0.112999998033046722 0.0410217419266700745 0.0353589281439781189
0.112999998033046722 0.0583856105804443359 0.0340943261981010437
0.112999998033046722 0.0394009910523891449 0.0362614244222640991
0.112999998033046722 0.0597285181283950806 0.0373104438185691833
0.112999998033046722 0.0113445082679390907 0.0393674522638320923
0.112999998033046722 0.0281584225594997406 0.04235072061419487
0.112999998033046722 0.0549584850668907166 0.0424717403948307037
0.112999998033046722 0.0411152876913547516 0.0460144095122814178
0.112999998033046722 0.00992482155561447144 0.0440308749675750732
0.112999998033046722 0.0382568016648292542 0.0413399301469326019
0.112999998033046722 0.00812919437885284424 0.0458985157310962677
0.112999998033046722 -0.00530677288770675659 0.0451919473707675934
0.112999998033046722 -0.0311695709824562073 0.0451612547039985657
0.112999998033046722 -0.0202649906277656555 0.0420317240059375763
0.112999998033046722 0.0159182660281658173 0.0434467457234859467
0.112999998033046722 0.0464759767055511475 0.0471694543957710266
0.112999998033046722 0.00764949992299079895 0.0523072630167007446
0.112999998033046722 -0.0155500667169690132 0.0478266589343547821
0.112999998033046722 0.0220657810568809509 0.0530551224946975708
0.112999998033046722 -0.00085429847240447998 0.0505857765674591064
0.112999998033046722 0.00982262752950191498 0.0462842546403408051
0.112999998033046722 0.0107229389250278473 0.0533245392143726349
0.112999998033046722 0.0398481264710426331 0.0559776611626148224
0.112999998033046722 0.0490427091717720032 0.0499999038875102997
0.112999998033046722 0.00217673927545547485 0.0498533621430397034
0.112999998033046722 -0.0350729040801525116 0.0482192374765872955
0.112999998033046722 0.0507256127893924713 0.0509562380611896515
0.112999998033046722 -0.0131316510960459709 0.0464375577867031097
0.112999998033046722 -0.0282747000455856323 0.046988166868686676
0.112999998033046722 0.0141346156597137451 0.0541962645947933197
0.112999998033046722 0.000171761959791183472 0.0522008687257766724
0.112999998033046722 0.0308573339134454727 0.0468233376741409302
0.112999998033046722 0.040918353945016861 0.0479112789034843445
0.112999998033046722 0.0280412249267101288 0.0554420799016952515
0.112999998033046722 0.0379674211144447327 0.0549281202256679535
0.112999998033046722 0.0330736823379993439 0.0516974590718746185
0.112999998033046722 0.0264785550534725189 0.0505309626460075378
0.112999998033046722 0.0458535961806774139 0.0482865795493125916
0.112999998033046722 -0.0277121271938085556 0.0484547428786754608
0.112999998033046722 -0.0116988876834511757 0.0468053855001926422
0.112999998033046722 -0.00344166159629821777 0.0487872585654258728
0.112999998033046722 -0.0255679655820131302 0.0464076250791549683
0.112999998033046722 0.0326230898499488831 0.047094300389289856
0.112999998033046722 0.0324610583484172821 0.0559259764850139618
0.112999998033046722 0.0401890873908996582 0.0525515042245388031
0.112999998033046722 0.0182493962347507477 0.0541415922343730927
0.112999998033046722 0.00452835485339164734 0.057455211877822876
0.112999998033046722 0.00716589903458952904 0.05402359738945961
0.112999998033046722 -0.017190057784318924 0.0528271272778511047
0.112999998033046722 0.0121520292013883591 0.0585268214344978333
0.112999998033046722 0.0056725330650806427 0.0590461157262325287
0.112999998033046722 0.00503650866448879242 0.0570838414132595062
0.112999998033046722 0.0230346657335758209 0.0554910935461521149
0.112999998033046722 -0.0256798248738050461 0.0524456128478050232
0.112999998033046722 0.0180167481303215027 0.0546873807907104492
0.112999998033046722 -0.00577686913311481476 0.054880097508430481
0.112999998033046722 0.0261862929910421371 0.0578268170356750488
0.112999998033046722 -0.0100885853171348572 0.0546461865305900574
0.112999998033046722 0.0147833628579974174 0.0552497841417789459
0.112999998033046722 0.000873105600476264954 0.0538209453225135803
0.112999998033046722 0.0330200418829917908 0.0620980784296989441
0.112999998033046722 0.023194577544927597 0.0620028302073478699
0.112999998033046722 -0.00556583702564239502 0.0572349391877651215
0.112999998033046722 0.0353735983371734619 0.0588468126952648163
0.112999998033046722 -0.019719194620847702 0.0530780963599681854
0.112999998033046722 -0.00589441880583763123 0.0541826710104942322
0.112999998033046722 -0.0308602303266525269 0.0518866404891014099
0.112999998033046722 0.0147637762129306793 0.0619207322597503662
0.112999998033046722 0.0225357301533222198 0.0574684180319309235
0.112999998033046722 -0.00947041064500808716 0.055674433708190918
0.112999998033046722 0.0238966569304466248 0.0648823007941246033
0.112999998033046722 0.010298214852809906 0.0698904916644096375
0.112999998033046722 -0.0247825123369693756 0.057514045387506485
0.112999998033046722 0.0189746599644422531 0.0644335821270942688
0.112999998033046722 0.0149815147742629051 0.0644644647836685181
0.112999998033046722 -0.0106965899467468262 0.0569030307233333588
0.112999998033046722 -0.00361533090472221375 0.0607789382338523865
0.112999998033046722 0.0096494872123003006 0.0619567297399044037
0.112999998033046722 -0.0409090705215930939 0.0509392842650413513
0.112999998033046722 -0.0403104312717914581 0.0510277226567268372
0.112999998033046722 -0.00689399801194667816 0.059309050440788269
0.112999998033046722 -0.00704544037580490112 0.0592415779829025269
0.112999998033046722 0.00508541055023670197 0.06412525475025177
0.112999998033046722 0.0243556015193462372 0.0661309286952018738
0.112999998033046722 0.00323315709829330444 0.062254197895526886
0.112999998033046722 0.0072248019278049469 0.0639721080660820007
0.112999998033046722 -0.0074100792407989502 0.0636182278394699097
0.112999998033046722 -0.011815197765827179 0.05669369176030159
0.112999998033046722 0.0118001587688922882 0.06822214275598526
0.112999998033046722 -0.0107530988752841949 0.0680779218673706055
0.112999998033046722 0.00543140806257724762 0.0699202045798301697
0.112999998033046722 -0.00322137773036956787 0.0698048695921897888
0.112999998033046722 0.000445742160081863403 0.0725306123495101929
0.112999998033046722 -0.0147857200354337692 0.0641041696071624756
0.112999998033046722 -0.00133168697357177734 0.0713261812925338745
0.112999998033046722 -0.00384748168289661407 0.0662973448634147644
0.112999998033046722 0.0130828171968460083 0.071307055652141571
0.112999998033046722 0.00153314881026744843 0.0689936801791191101
0.112999998033046722 -0.0343687832355499268 0.0546458102762699127
0.112999998033046722 0.00621595047414302826 0.0698157548904418945
0.112999998033046722 -0.00766239315271377563 0.0695184245705604553
0.112999998033046722 -0.00453400984406471252 0.0668748468160629272
0.112999998033046722 -0.00771835818886756897 0.0731064304709434509
0.112999998033046722 -0.0098641691729426384 0.0711885541677474976
0.112999998033046722 -0.0240794643759727478 0.0638234689831733704
0.112999998033046722 -0.0151029359549283981 0.0673165544867515564
0.112999998033046722 -0.0193656124174594879 0.0648014247417449951
0.112999998033046722 -0.0336554460227489471 0.0589301027357578278
0.112999998033046722 -0.0359975919127464294 0.0585875436663627625
0.112999998033046722 -0.0180936157703399658 0.0705320388078689575
0.112999998033046722 -0.032078474760055542 0.0658731460571289062
0.112999998033046722 -0.0265882350504398346 0.0680972710251808167
0.112999998033046722 -0.0224344395101070404 0.069422990083694458
0.112999998033046722 -0.0386496931314468384 0.059426087886095047
0.112999998033046722 -0.0453364178538322449 0.0573023445904254913
0.112999998033046722 -0.0497334785759449005 0.0529707111418247223
0.112999998033046722 -0.0719789564609527588 0.0169363692402839661
0.112999998033046722 -0.0736364051699638367 0.0013431645929813385
0.112999998033046722 -0.0696535781025886536 0.014791928231716156
0.112999998033046722 -0.0718680024147033691 0.0131601607427000999
0.112999998033046722 -0.0629538744688034058 0.0342606380581855774
0.104038849472999573 -0.0731904208660125732 0.00718522863462567329
0.101755246520042419 -0.0722410902380943298 0.015610765665769577
0.102263681590557098 -0.0736840367317199707 0.00280424742959439754
0.10858791321516037 -0.073527991771697998 0.0041891634464263916
0.10931309312582016 -0.0727351531386375427 0.0112257944419980049
0.112800858914852142 -0.0725820958614349365 0.0125842159613966942
0.112553209066390991 -0.0729546323418617249 0.00927792023867368698
0.110903561115264893 -0.072367645800113678 0.0144875487312674522
0.112503997981548309 -0.0736695453524589539 0.00293286610394716263
0.11145193874835968 -0.0698539763689041138 0.0230129696428775787
0.111179187893867493 -0.0686286464333534241 0.0265147518366575241
0.109888002276420593 -0.0674806758761405945 0.0297954678535461426
0.108784317970275879 -0.0698435604572296143 0.023042730987071991
0.10486602783203125 -0.0694337114691734314 0.024214012548327446
0.102667644619941711 -0.0717642307281494141 0.0175537541508674622
0.106684304773807526 -0.0719422250986099243 0.0170451030135154724
0.101389914751052856 -0.0685648247599601746 0.0266971457749605179
0.110382921993732452 -0.0716272071003913879 0.017945367842912674
0.102938421070575714 -0.058727506548166275 0.044750504195690155
0.108059048652648926 -0.0606520585715770721 0.0416875965893268585
0.11217750608921051 -0.0592455938458442688 0.0439259707927703857
0.111778683960437775 -0.0627801269292831421 0.0383007973432540894
0.106114812195301056 -0.0630137622356414795 0.0379289686679840088
0.101503685116767883 -0.0620623193681240082 0.0394431762397289276
0.103592038154602051 -0.0617360137403011322 0.0399624891579151154
0.10425904393196106 -0.0614368394017219543 0.0404386259615421295
0.106849424540996552 -0.0483637005090713501 0.0556300729513168335
0.111113324761390686 -0.0463521070778369904 0.0576416663825511932
0.11152445524930954 -0.0513398684561252594 0.0526539050042629242
0.104252912104129791 -0.0461643710732460022 0.0578294023871421814
0.106537260115146637 -0.0536163970828056335 0.05037737637758255
0.110170342028141022 -0.0552524328231811523 0.0487413406372070312
0.107371300458908081 -0.0535735860466957092 0.0504201874136924744
0.10583014041185379 -0.0530738644301891327 0.0509199090301990509
0.11280534416437149 -0.0433671027421951294 0.0595967508852481842
0.103974200785160065 -0.0342773310840129852 0.0653082430362701416
0.110587283968925476 -0.0349745973944664001 0.0648701190948486328
0.104574680328369141 -0.0336105711758136749 0.0657271891832351685
0.102265030145645142 -0.0377874895930290222 0.0631026551127433777
0.106822863221168518 -0.0387855842709541321 0.0624755136668682098
0.10139196366071701 -0.0370440222322940826 0.0635698139667510986
0.103698208928108215 -0.0371441170573234558 0.0635069161653518677
0.106151118874549866 -0.0223133563995361328 0.07009878009557724
0.112609758973121643 -0.031401120126247406 0.0669188350439071655
0.10824856162071228 -0.0208795331418514252 0.0706004947423934937
0.111171677708625793 -0.0224470403045415878 0.0700520053505897522
0.108046695590019226 -0.0307097714394330978 0.0671607479453086853
0.101386867463588715 -0.0318585783243179321 0.066758766770362854
0.107430219650268555 -0.0293039232492446899 0.0676526725292205811
0.102387525141239166 -0.0298510827124118805 0.0674612149596214294
0.108237713575363159 -0.0294417217373847961 0.067604459822177887
0.112429052591323853 -0.00992758385837078094 0.0728814303874969482
0.105594828724861145 -0.00334141077473759651 0.0736235156655311584
0.105532050132751465 -0.00494997808709740639 0.0734422728419303894
0.110468357801437378 -0.00717733101919293404 0.0731913074851036072
0.108007676899433136 -0.00137317599728703499 0.0738452821969985962
0.101560384035110474 -0.0106213130056858063 0.0728032663464546204
0.10692249983549118 -0.0098645426332950592 0.0728885307908058167
0.102638788521289825 -0.0038001001812517643 0.0735718309879302979
0.104145541787147522 -0.014194197952747345 0.0724006965756416321
0.10281682014465332 -0.00649517681449651718 0.0732681751251220703
0.112583264708518982 0.0160932578146457672 0.0721867233514785767
0.10916505753993988 0.0086973775178194046 0.0730200409889221191
0.111772432923316956 0.00647310540080070496 0.0732706561684608459
0.103555947542190552 0.0156339053064584732 0.0722384825348854065
0.108087249100208282 0.00152922514826059341 0.073827698826789856
0.105125300586223602 0.00928020104765892029 0.0729543790221214294
0.101532168686389923 0.00849255640059709549 0.0730431154370307922
0.106014899909496307 0.0049641365185379982 0.0734406784176826477
0.110675126314163208 0.0231864824891090393 0.0697932615876197815
0.112846642732620239 0.0189558882266283035 0.07127360999584198
0.110941328108310699 0.0202330760657787323 0.070826701819896698
0.11015801876783371 0.0275594890117645264 0.0682630836963653564
0.110635504126548767 0.0252224244177341461 0.0690808519721031189
0.102189540863037109 0.0303147695958614349 0.0672989636659622192
0.106595121324062347 0.0212857220321893692 0.0704583674669265747
0.107105746865272522 0.0165238082408905029 0.0721246302127838135
0.106196671724319458 0.0248466469347476959 0.0692123398184776306
0.105539344251155853 0.0431124530732631683 0.0597567595541477203
0.108596883714199066 0.0445418171584606171 0.0588586293160915375
0.10388985276222229 0.0434439778327941895 0.059548448771238327
0.111376091837882996 0.0400079414248466492 0.0617074556648731232
0.106921859085559845 0.0357981957495212555 0.0643526166677474976
0.101756967604160309 0.0336119085550308228 0.065726354718208313
0.110016666352748871 0.0332327522337436676 0.0659645944833755493
0.10625244677066803 0.0351983532309532166 0.0647295266389846802
0.108836948871612549 0.0519215315580368042 0.0520722419023513794
0.110023990273475647 0.0509630627930164337 0.0530307106673717499
0.105770133435726166 0.0564046874642372131 0.0475890859961509705
0.108947642147541046 0.057355143129825592 0.0466386303305625916
0.104550115764141083 0.0464026071131229401 0.0575911663472652435
0.108195237815380096 0.0471641160547733307 0.0568296574056148529
0.105723582208156586 0.0476629771292209625 0.0563307963311672211
0.10829220712184906 0.0490325689315795898 0.0549612045288085938
0.102925658226013184 0.0530909858644008636 0.0509027875959873199
0.111326873302459717 0.0653400197625160217 0.0342267565429210663
0.105926111340522766 0.0641991719603538513 0.0360423997044563293
0.112529121339321136 0.0590141527354717255 0.044294305145740509
0.112592071294784546 0.0590344667434692383 0.0442619770765304565
0.112561851739883423 0.0592467673122882843 0.0439241006970405579
0.108219906687736511 0.05882234126329422 0.0445995703339576721
0.109197229146957397 0.0604205504059791565 0.0420560427010059357
0.104117989540100098 0.0589138790965080261 0.044453892856836319
0.108924821019172668 0.0607523657381534576 0.0415279492735862732
0.111049696803092957 0.0698903128504753113 0.0229091290384531021
0.1126718670129776 0.0673547685146331787 0.0301552936434745789
0.10997520387172699 0.0684990212321281433 0.0268852151930332184
0.109192296862602234 0.0691271722316741943 0.025090046226978302
0.10527985543012619 0.0699711889028549194 0.0226779989898204803
0.105503663420677185 0.0682166740298271179 0.0276920944452285767
0.103584125638008118 0.0686173215508460999 0.0265471115708351135
0.108493991196155548 0.0671888887882232666 0.0306293461471796036
0.102757081389427185 0.0710894316434860229 0.0194822363555431366
0.111763648688793182 0.0735509544610977173 0.00398541241884231567
0.112185820937156677 0.0733832567930221558 0.00547375250607728958
0.102954834699630737 0.0737824216485023499 0.00193109363317489624
0.11018652468919754 0.0732741951942443848 0.00644170865416526794
0.111492671072483063 0.0722707286477088928 0.0153477201238274574
0.105163857340812683 0.0721520856022834778 0.0164006501436233521
0.106896080076694489 0.0730456933379173279 0.00846967846155166626
0.10248139500617981 0.0726893916726112366 0.0116319302469491959
0.109416753053665161 0.0739842280745506287 -0.000139935873448848724
0.110350854694843292 0.0737938955426216125 -0.00182919017970561981
0.102484419941902161 0.0734217464923858643 -0.00513211777433753014
0.108618989586830139 0.0733936727046966553 -0.00538131501525640488
0.107638850808143616 0.0731039047241210938 -0.00795308314263820648
0.110400378704071045 0.0725827440619468689 -0.0125785050913691521
0.112970545887947083 0.0726760849356651306 -0.0117500685155391693
0.109749265015125275 0.0723614096641540527 -0.0145428860560059547
0.112402349710464478 0.0711361989378929138 -0.01934858039021492
0.110355779528617859 0.0669782832264900208 -0.0312312357127666473
0.111625470221042633 0.0683123841881752014 -0.0274185910820960999
0.110268980264663696 0.0679902136325836182 -0.0283393003046512604
0.111802428960800171 0.0693729892373085022 -0.0243875551968812943
0.1036711186170578 0.0691403299570083618 -0.0250524487346410751
0.106075972318649292 0.0712268352508544922 -0.0190895479172468185
0.103451080620288849 0.0715852826833724976 -0.018065180629491806
0.106742791831493378 0.0700894668698310852 -0.0223399680107831955
0.105817124247550964 0.0605040453374385834 -0.0419231578707695007
0.104458808898925781 0.0589700005948543549 -0.0443645752966403961
0.104943662881851196 0.0595462732017040253 -0.0434474386274814606
0.110086724162101746 0.0606020279228687286 -0.0417672209441661835
0.102717220783233643 0.0584669820964336395 -0.0451651215553283691
0.104251459240913391 0.0632084235548973083 -0.0376191623508930206
0.101417116820812225 0.060174986720085144 -0.0424468480050563812
0.103105612099170685 0.0666181072592735291 -0.0321926921606063843
0.107231438159942627 0.06584881991147995 -0.0334170088171958923
0.108635991811752319 0.0492806993424892426 -0.054713074117898941
0.112535566091537476 0.0545404069125652313 -0.0494533665478229523
0.112247303128242493 0.0560601651668548584 -0.0479336082935333252
0.112943023443222046 0.0534023493528366089 -0.0505914241075515747
0.105638608336448669 0.0529922470450401306 -0.051001526415348053
0.104148373007774353 0.0495563074946403503 -0.0544374659657478333
0.10444718599319458 0.0550445765256881714 -0.0489491969347000122
0.10453256219625473 0.0553175583481788635 -0.0486762151122093201
0.111860759556293488 0.0380517467856407166 -0.0629366189241409302
0.110574781894683838 0.0375924333930015564 -0.0632252171635627747
0.10753970593214035 0.0369497910141944885 -0.0636290162801742554
0.112741798162460327 0.0407762490212917328 -0.0612246952950954437
0.103251248598098755 0.0362244471907615662 -0.0640847831964492798
0.103177569806575775 0.0384528674185276031 -0.062684573233127594
0.106015011668205261 0.041759982705116272 -0.0606065690517425537
0.101438224315643311 0.0409119240939617157 -0.0611394457519054413
0.102630950510501862 0.0416834428906440735 -0.0606546700000762939
0.108075082302093506 0.0232943091541528702 -0.0697555318474769592
0.112886160612106323 0.0199912767857313156 -0.070911310613155365
0.111589692533016205 0.0198566913604736328 -0.0709584057331085205
0.112760365009307861 0.0167248174548149109 -0.0720542892813682556
0.105911865830421448 0.0289056375622749329 -0.0677920430898666382
0.10361991822719574 0.0310158543288707733 -0.0670536458492279053
0.1073455810546875 0.0261119604110717773 -0.0687695890665054321
0.110503397881984711 0.0317808762192726135 -0.0667859539389610291
0.110076330602169037 0.00573405157774686813 -0.0733539313077926636
0.1126905158162117 0.00812227185815572739 -0.0730848386883735657
0.107370801270008087 0.00565850548446178436 -0.0733624398708343506
0.105986349284648895 0.000705921498592942953 -0.0739204660058021545
0.105786405503749847 0.0121483542025089264 -0.0726312026381492615
0.103164657950401306 0.0149042103439569473 -0.072320692241191864
0.109666340053081512 0.0128984460607171059 -0.0725466907024383545
0.110452592372894287 0.0149656711146235466 -0.0723137706518173218
0.11053059995174408 -0.0139814997091889381 -0.072424665093421936
0.110519163310527802 -0.00690778531134128571 -0.0732216760516166687
0.111618980765342712 -0.0130232851952314377 -0.0725326314568519592
0.107779435813426971 -0.0127929579466581345 -0.0725585818290710449
0.104234352707862854 -0.00540984142571687698 -0.0733904615044593811
0.106652736663818359 -0.00868727359920740128 -0.0730211809277534485
0.105001457035541534 -0.00660950737074017525 -0.0732552856206893921
0.108484648168087006 -0.00597898568958044052 -0.0733263269066810608
0.104934178292751312 -0.00541449850425124168 -0.0733899325132369995
0.111817099153995514 -0.0231262557208538055 -0.0698143318295478821
0.110597386956214905 -0.0282117873430252075 -0.068034827709197998
0.111565358936786652 -0.0253800246864557266 -0.0690257102251052856
0.109257444739341736 -0.0237237140536308289 -0.0696052759885787964
0.110567077994346619 -0.0256539136171340942 -0.0689298659563064575
0.109510272741317749 -0.0181459039449691772 -0.0715570300817489624
0.103116214275360107 -0.0273911673575639725 -0.0683219805359840393
0.106035433709621429 -0.0175135284662246704 -0.0717783123254776001
0.10926036536693573 -0.019095253199338913 -0.0712248384952545166
0.102564506232738495 -0.0212816949933767319 -0.0704597756266593933
0.110462881624698639 -0.0374639406800270081 -0.0633059591054916382
0.110623031854629517 -0.0355726815760135651 -0.0644943192601203918
0.110742285847663879 -0.0403422527015209198 -0.0614973939955234528
0.112935572862625122 -0.0382488816976547241 -0.0628127455711364746
0.112935557961463928 -0.0456067547202110291 -0.0581894852221012115
0.10198906809091568 -0.04032912477850914 -0.0615056417882442474
0.110093846917152405 -0.0334132462739944458 -0.0658511817455291748
0.105195045471191406 -0.0338775701820850372 -0.0655594244599342346
0.105777069926261902 -0.0321580469608306885 -0.0666398778557777405
0.111451305449008942 -0.0493658334016799927 -0.0546279400587081909
0.110386446118354797 -0.0569450333714485168 -0.0470487400889396667
0.106968909502029419 -0.0563095472753047943 -0.0476842261850833893
0.106008507311344147 -0.0542069189250469208 -0.0497868545353412628
0.103976085782051086 -0.0529732480645179749 -0.0510205253958702087
0.105231687426567078 -0.0534165166318416595 -0.050577256828546524
0.106347531080245972 -0.0527647994458675385 -0.0512289740145206451
0.102183282375335693 -0.0468319468200206757 -0.0571618266403675079
0.108375310897827148 -0.0495661720633506775 -0.0544276013970375061
0.103948473930358887 -0.0661504939198493958 -0.0329368896782398224
0.110106043517589569 -0.0632845833897590637 -0.0374979600310325623
0.111532695591449738 -0.0602171570062637329 -0.0423797369003295898
0.112551823258399963 -0.0604506954550743103 -0.0420080646872520447
0.108286388218402863 -0.0655153244733810425 -0.0339477621018886566
0.105882257223129272 -0.0626147463917732239 -0.0385639965534210205
0.103012323379516602 -0.057922016829252243 -0.0460324250161647797
0.108618848025798798 -0.060339704155921936 -0.0421846956014633179
0.103935778141021729 -0.0638001486659049988 -0.0366774387657642365
0.109796509146690369 -0.0691100507974624634 -0.0251389909535646439
0.108865700662136078 -0.0710959360003471375 -0.0194636508822441101
0.110469475388526917 -0.0698224008083343506 -0.023103201761841774
0.111879728734493256 -0.072013169527053833 -0.016842331737279892
0.10343635082244873 -0.0675065740942955017 -0.0297214742749929428
0.101480938494205475 -0.0716466307640075684 -0.0178898535668849945
0.104114219546318054 -0.0689064562320709229 -0.0257208291441202164
0.105913817882537842 -0.0677192285656929016 -0.0291137378662824631
0.103584118187427521 -0.07379179447889328 -0.00184784946031868458
0.108575493097305298 -0.073778986930847168 -0.00196157465688884258
0.107851296663284302 -0.0738593488931655884 -0.00124834268353879452
0.112314336001873016 -0.0726808831095695496 -0.0117074660956859589
0.101353488862514496 -0.0733323618769645691 -0.00592549331486225128
0.109735012054443359 -0.0724500417709350586 -0.0137562276795506477
0.108061850070953369 -0.0729058012366294861 -0.00971128698438405991
0.10498008131980896 -0.0723763033747673035 -0.0144107053056359291
0.00775995105504989624 -0.112999998033046722 0.00823231227695941925
0.0198635272681713104 -0.112999998033046722 0.00235235365107655525
0.0217588376253843307 -0.112999998033046722 0.00148726138286292553
0.00693632103502750397 -0.112999998033046722 0.00958304665982723236
0.0172825679183006287 -0.112999998033046722 0.00577590148895978928
0.00325269624590873718 -0.112999998033046722 0.010120549239218235
0.020664602518081665 -0.112999998033046722 0.00823350250720977783
0.00116786756552755833 -0.112999998033046722 0.0116889271885156631
0.0182574242353439331 -0.112999998033046722 0.00891109462827444077
0.0147954551503062248 -0.112999998033046722 0.00826811231672763824
-0.00690783467143774033 -0.112999998033046722 0.0158088244497776031
0.0161959677934646606 -0.112999998033046722 0.0133886029943823814
0.00291358307003974915 -0.112999998033046722 0.0145142972469329834
-0.00292375031858682632 -0.112999998033046722 0.0154160270467400551
0.00455645658075809479 -0.112999998033046722 0.0186097621917724609
-0.00872367620468139648 -0.112999998033046722 0.016285015270113945
-0.004010799340903759 -0.112999998033046722 0.0169420912861824036
0.0100020039826631546 -0.112999998033046722 0.0211942512542009354
-0.00197660550475120544 -0.112999998033046722 0.0196897611021995544
0.0103897824883460999 -0.112999998033046722 0.0216352138668298721
0.000807744450867176056 -0.112999998033046722 0.0225468259304761887
-0.00456548389047384262 -0.112999998033046722 0.0228366348892450333
-0.00586319249123334885 -0.112999998033046722 0.0233817454427480698
-0.022201932966709137 -0.112999998033046722 0.00608357787132263184
-0.022335641086101532 -0.112999998033046722 0.000731736421585083008
-0.0212753228843212128 -0.112999998033046722 -0.00501515623182058334
-0.019740743562579155 -0.112999998033046722 -0.0102715892717242241
-0.0186858382076025009 -0.112999998033046722 -0.0113178128376603127
-0.0187548939138650894 -0.112999998033046722 0.0106231654062867165
-0.016670985147356987 -0.112999998033046722 -0.00789531879127025604
-0.0146799366921186447 -0.112999998033046722 -0.0134013686329126358
-0.018159450963139534 -0.112999998033046722 -9.83823556452989578e-05
-0.0149193145334720612 -0.112999998033046722 -0.00357767427340149879
-0.0140028567984700203 -0.112999998033046722 -0.0145229622721672058
-0.0142983458936214447 -0.112999998033046722 -0.00871024653315544128
-0.016263352707028389 -0.112999998033046722 0.00291871791705489159
-0.0123076299205422401 -0.112999998033046722 -0.00217478536069393158
-0.00739004509523510933 -0.112999998033046722 -0.0171430520713329315
-0.00615807902067899704 -0.112999998033046722 -0.0173292960971593857
-0.00696526188403367996 -0.112999998033046722 -0.0148533759638667107
-0.00956995971500873566 -0.112999998033046722 -0.0121125020086765289
0.000948331318795681 -0.112999998033046722 -0.0233664810657501221
-0.00447724387049674988 -0.112999998033046722 -0.0138360774144530296
-0.00165643543004989624 -0.112999998033046722 -0.0198059733957052231
-0.00502364151179790497 -0.112999998033046722 -0.0186742860823869705
-0.00380686996504664421 -0.112999998033046722 -0.0183902867138385773
-0.012933880090713501 -0.112999998033046722 0.00795524194836616516
-0.00452970806509256363 -0.112999998033046722 -0.00833459198474884033
0.00161056150682270527 -0.112999998033046722 -0.020300230011343956
0.00373690668493509293 -0.112999998033046722 -0.0196995213627815247
-0.0104580949991941452 -0.112999998033046722 0.0037889992818236351
-0.00459011178463697433 -0.112999998033046722 -0.00543351750820875168
0.0109008140861988068 -0.112999998033046722 -0.0167582016438245773
-0.00460172444581985474 -0.112999998033046722 0.000228765420615673065
-0.0137148993089795113 -0.112999998033046722 0.00980497151613235474
-0.0108854956924915314 -0.112999998033046722 0.00734870694577693939
-0.00196553487330675125 -0.112999998033046722 -0.00250478461384773254
0.0115435728803277016 -0.112999998033046722 -0.0197608545422554016
0.00620134826749563217 -0.112999998033046722 -0.0173602178692817688
0.00831880047917366028 -0.112999998033046722 -0.0111342994496226311
0.00218810047954320908 -0.112999998033046722 -0.00496315211057662964
0.0170771908015012741 -0.112999998033046722 -0.0160315800458192825
-0.00166175770573318005 -0.112999998033046722 -0.0019748518243432045
-0.00833405740559101105 -0.112999998033046722 0.00626205094158649445
-0.0012166239321231842 -0.112999998033046722 -0.000271978788077831268
0.000817884691059589386 -0.112999998033046722 0.00100112520158290863
-0.0156780369579792023 -0.112999998033046722 0.0141798835247755051
0.0127594200894236565 -0.112999998033046722 -0.00718364212661981583
0.000284792855381965637 -0.112999998033046722 0.00255868490785360336
0.014054739847779274 -0.112999998033046722 -0.0122971031814813614
-0.0138893416151404381 -0.112999998033046722 0.0124917225912213326
0.0122492136433720589 -0.112999998033046722 -0.000305026769638061523
0.0150965182110667229 -0.112999998033046722 -0.00238444749265909195
0.0151421763002872467 -0.112999998033046722 -0.00166213884949684143
0.0131659647449851036 -0.112999998033046722 -0.00153361912816762924
0.018183194100856781 -0.112999998033046722 -0.00445784348994493484
-0.00637193769216537476 -0.112999998033046722 0.00960294902324676514
0.00704229436814785004 -0.112999998033046722 0.0062478845939040184
0.000972660258412361145 -0.112999998033046722 0.00785644166171550751
0.0208726879209280014 -0.112999998033046722 -0.00389080820605158806
0.0064473017118871212 -0.112999998033046722 0.00344711542129516602
0.0220535285770893097 -0.112999998033046722 -0.00364803685806691647
0.0194156747311353683 -0.112999998033046722 -0.00059058796614408493
0.0222079455852508545 -0.101333335041999817 0.00513264350593090057
0.0210103001445531845 -0.101333335041999817 -0.000997294671833515167
0.0213875193148851395 -0.101333335041999817 -0.000555492006242275238
0.019582841545343399 -0.101333335041999817 -0.000737294089049100876
0.0195257104933261871 -0.101333335041999817 -0.00718926358968019485
0.0182447656989097595 -0.101333335041999817 -0.00726644089445471764
0.0177066922187805176 -0.101333335041999817 -0.000938474200665950775
0.0169076714664697647 -0.101333335041999817 -0.00710037350654602051
0.0155134480446577072 -0.101333335041999817 -0.00637597078457474709
0.0122224111109972 -0.101333335041999817 -0.0173771046102046967
0.0168553516268730164 -0.101333335041999817 0.00459670042619109154
0.0103637035936117172 -0.101333335041999817 -0.016611805185675621
0.0172267463058233261 -0.101333335041999817 0.0122163807973265648
0.00475183501839637756 -0.101333335041999817 -0.0234857145696878433
0.00919958949089050293 -0.101333335041999817 -0.0127969272434711456
0.00768182519823312759 -0.101333335041999817 -0.0134074538946151733
0.0126716848462820053 -0.101333335041999817 -0.00143125653266906738
0.00586931174620985985 -0.101333335041999817 -0.0155125260353088379
0.00212393328547477722 -0.101333335041999817 -0.0145744290202856064
0.00938112195581197739 -0.101333335041999817 -0.001074240542948246
0.0119385765865445137 -0.101333335041999817 0.00178308133035898209
0.00566856376826763153 -0.101333335041999817 -0.0109031377360224724
0.00615734560415148735 -0.101333335041999817 -0.0125218825414776802
0.00169037468731403351 -0.101333335041999817 -0.00983267370611429214
0.000284408219158649445 -0.101333335041999817 -0.0109670162200927734
0.00467476900666952133 -0.101333335041999817 -0.00540937669575214386
-0.00251679401844739914 -0.101333335041999817 -0.0164632052183151245
0.00508868461474776268 -0.101333335041999817 -0.00642034970223903656
0.0108305104076862335 -0.101333335041999817 0.00481619592756032944
-0.00661759823560714722 -0.101333335041999817 -0.0163044668734073639
0.0109669193625450134 -0.101333335041999817 0.00607592565938830376
0.0050322115421295166 -0.101333335041999817 0.00106229726225137711
5.04413619637489319e-05 -0.101333335041999817 -0.00563879869878292084
-0.0122029483318328857 -0.101333335041999817 -0.0183853618800640106
-0.0109577793627977371 -0.101333335041999817 -0.0212832856923341751
0.00870447047054767609 -0.101333335041999817 0.00698161497712135315
-0.00177556555718183517 -0.101333335041999817 -0.00455549871549010277
-0.0126052973791956902 -0.101333335041999817 -0.016514994204044342
0.00359432213008403778 -0.101333335041999817 0.00190671905875205994
-0.0072648022323846817 -0.101333335041999817 -0.00702680554240942001
-0.0105716921389102936 -0.101333335041999817 -0.0101209823042154312
-0.0109042944386601448 -0.101333335041999817 -0.0122590623795986176
0.0109980236738920212 -0.101333335041999817 0.00992865487933158875
0.0149503536522388458 -0.101333335041999817 0.0136195030063390732
-0.016320444643497467 -0.101333335041999817 -0.0107197193428874016
-0.0185870081186294556 -0.101333335041999817 -0.0116826444864273071
-0.00301510374993085861 -0.101333335041999817 -0.00181844783946871758
-0.00555007625371217728 -0.101333335041999817 -0.00107834674417972565
-0.00894130486994981766 -0.101333335041999817 0.00101823266595602036
-0.000580267980694770813 -0.101333335041999817 0.00581261422485113144
0.00263612531125545502 -0.101333335041999817 0.00672900024801492691
-0.00381623720750212669 -0.101333335041999817 0.00165225728414952755
-0.0114580774679780006 -0.101333335041999817 -0.000750052742660045624
-0.0160991717129945755 -0.101333335041999817 -0.00670835748314857483
-0.0229339078068733215 -0.101333335041999817 -0.00103149004280567169
-0.0189059842377901077 -0.101333335041999817 0.00182782392948865891
-0.0157933495938777924 -0.101333335041999817 0.00108419684693217278
-0.00987935438752174377 -0.101333335041999817 0.00539652071893215179
2.98884697258472443e-05 -0.101333335041999817 0.00743848271667957306
-0.0181372072547674179 -0.101333335041999817 0.00192774739116430283
-0.00284531223587691784 -0.101333335041999817 0.00844570714980363846
-0.0159216783940792084 -0.101333335041999817 0.00398418586701154709
0.0121007859706878662 -0.101333335041999817 0.0140966139733791351
-0.0110807530581951141 -0.101333335041999817 0.00566861173138022423
-0.0125929787755012512 -0.101333335041999817 0.00547895347699522972
