ply
format ascii 1.0
element vertex 719
property float x
property float y
property float z
end_header
-0.0405035465955734253 0.025072762742638588 0.0604214221239089966
-0.0400062762200832367 0.0229259617626667023 0.0609662309288978577
-0.0455804392695426941 0.014623057097196579 0.0626405999064445496
-0.0464728102087974548 0.0160306189209222794 0.0622507035732269287
-0.0462772548198699951 0.0218958333134651184 0.0608519427478313446
-0.0482395626604557037 0.0154063915833830833 0.0622988045215606689
-0.0409165658056735992 0.0261739566922187805 0.0601328462362289429
-0.0517896339297294617 0.021127527579665184 0.060718487948179245
-0.0510143600404262543 0.019130634143948555 0.0612433068454265594
-0.0495425127446651459 0.0211839713156223297 0.0608346164226531982
-0.0461869239807128906 0.0155909797176718712 0.0623729005455970764
-0.0484903007745742798 0.01268794946372509 0.0629378706216812134
-0.045656256377696991 0.0149688944220542908 0.0625530853867530823
-0.0469254255294799805 0.0172745883464813232 0.0619255192577838898
-0.0491777434945106506 0.0190699845552444458 0.0613638907670974731
-0.0487997569143772125 0.025353115051984787 0.0598751865327358246
-0.0505648814141750336 0.0120038110762834549 0.062982603907585144
-0.0444876626133918762 0.0261920914053916931 0.0599223710596561432
-0.0504447333514690399 0.0200310014188289642 0.0610597282648086548
-0.0745483860373497009 0.0476310849189758301 0.0429346449673175812
-0.0608802773058414459 0.0488129332661628723 0.0428406111896038055
-0.0659137144684791565 0.0449642464518547058 0.0458993017673492432
-0.07427215576171875 0.0437139086425304413 0.0464242212474346161
-0.0648177489638328552 0.0475599206984043121 0.0436761528253555298
-0.0737888738512992859 0.0426788739860057831 0.0473748818039894104
-0.0765372216701507568 0.0382658988237380981 0.0510928109288215637
-0.0781408101320266724 0.0428001284599304199 0.0469640269875526428
-0.0719468295574188232 0.0460580810904502869 0.04450959712266922
-0.076162680983543396 0.047783929854631424 0.0426866859197616577
-0.0770529657602310181 0.0426867641508579254 0.0471403077244758606
-0.0683100894093513489 0.0447417870163917542 0.045929301530122757
-0.0660606473684310913 0.0454917363822460175 0.0454217419028282166
-0.0733187571167945862 0.0403816327452659607 0.0494428388774394989
-0.069848969578742981 0.0423991084098815918 0.04789743572473526
-0.0643117651343345642 0.0469812303781509399 0.0442241057753562927
-0.0780161991715431213 0.0368564501404762268 0.0522383525967597961
-0.0582196228206157684 0.0487387478351593018 0.043091844767332077
-0.0610474571585655212 0.0398308970034122467 0.0507863424718379974
-0.058727167546749115 0.0404273346066474915 0.0504197254776954651
-0.0585237257182598114 0.0424228310585021973 0.0486660562455654144
-0.0579313449561595917 0.0431356355547904968 0.0480758696794509888
-0.0641838088631629944 0.0449718683958053589 0.0460131615400314331
-0.0660684779286384583 0.0411451011896133423 0.0492719784379005432
-0.0615173541009426117 0.0385619327425956726 0.0518777891993522644
-0.0618128180503845215 0.0409144461154937744 0.0497730448842048645
-0.0563490353524684906 0.0419546887278556824 0.0492324195802211761
-0.0757790729403495789 0.0384018979966640472 0.0510251894593238831
-0.075583137571811676 0.0374172106385231018 0.0519112050533294678
-0.0686649605631828308 0.0394489876925945282 0.0505935698747634888
-0.0646178722381591797 0.0381670519709587097 0.0520114414393901825
-0.0659804865717887878 0.0439500398933887482 0.0467931553721427917
-0.0564339794218540192 0.0418557561933994293 0.0493141449987888336
0.0309782251715660095 -0.00448859063908457756 0.0539468266069889069
0.0337971225380897522 -0.00262784445658326149 0.0540861375629901886
0.0294659268110990524 -0.00566131807863712311 0.0537918247282505035
0.0386834442615509033 -0.00295937806367874146 0.0526911355555057526
0.0326772294938564301 0.00516066513955593109 0.057954203337430954
0.036708831787109375 0.00131316669285297394 0.0551589243113994598
0.0364296175539493561 0.00438437564298510551 0.0566429123282432556
0.0365120358765125275 -0.00203796476125717163 0.0536671914160251617
0.024395989254117012 -0.00837118830531835556 0.0538342371582984924
0.0351915881037712097 -0.000955711118876934052 0.0545008629560470581
0.028314497321844101 -0.00360466213896870613 0.0550308190286159515
0.0356048792600631714 0.000938499812036752701 0.0552672594785690308
0.0351899489760398865 -0.00172414956614375114 0.0541477389633655548
0.03244757279753685 -0.00330217555165290833 0.0541190467774868011
0.0372166670858860016 0.00317977601662278175 0.0558885782957077026
0.0333681963384151459 0.00413150666281580925 0.0573050156235694885
0.0372573100030422211 -0.00028637005016207695 0.0542835518717765808
0.0344849675893783569 0.00902630854398012161 0.0592730306088924408
0.0295940563082695007 0.000258570420555770397 0.0564828440546989441
0.0263151265680789948 -0.0022860988974571228 0.0561458505690097809
0.0198947135359048843 -0.00204617949202656746 0.0578887872397899628
0.0215854793787002563 -0.00496336352080106735 0.0561167411506175995
0.0233025625348091125 0.00349040376022458076 0.0595695041120052338
0.0156680792570114136 -0.00378791522234678268 0.0581621862947940826
0.0173522159457206726 -0.00808171741664409637 0.0557584762573242188
0.0190273784101009369 0.00148325087502598763 0.0597331374883651733
0.0202191844582557678 -0.0122466674074530602 0.0531132780015468597
0.0164614226669073105 -0.00348991993814706802 0.0580975562334060669
0.0234020687639713287 0.00319561269134283066 0.0594085752964019775
0.0188845396041870117 -0.00140050705522298813 0.0584427081048488617
0.0250491499900817871 -0.00307401083409786224 0.0561052598059177399
0.0219647064805030823 -0.00166519824415445328 0.0575377196073532104
0.0297785848379135132 0.00485143996775150299 0.0585489906370639801
0.0252424478530883789 0.00473394058644771576 0.0596483610570430756
0.0211605634540319443 0.00150384171865880489 0.0592001937329769135
0.0195717029273509979 -0.00342380581423640251 0.0573371089994907379
0.0788856446743011475 0.0250604897737503052 0.0507699958980083466
0.0850701406598091125 0.0251383092254400253 0.0471648238599300385
0.0744312256574630737 0.0225598402321338654 0.0517492443323135376
0.0794918835163116455 0.0191647596657276154 0.0465108118951320648
0.0772363245487213135 0.0189719945192337036 0.0477169007062911987
0.0694295763969421387 0.0188030116260051727 0.0522209331393241882
0.0855013951659202576 0.0220724586397409439 0.0448814108967781067
0.0685179904103279114 0.0163443591445684433 0.0511332191526889801
0.0788548439741134644 0.0227899365127086639 0.0492859631776809692
0.0752421543002128601 0.0218787267804145813 0.0508191324770450592
0.0866622850298881531 0.0232308786362409592 0.0449614562094211578
0.0854939669370651245 0.026670556515455246 0.0479280054569244385
0.0744944140315055847 0.0225627683103084564 0.0517138205468654633
0.0866558998823165894 0.0237354747951030731 0.0452990792691707611
0.0771259590983390808 0.0187994334846735001 0.0476679876446723938
0.0874609425663948059 0.0227496083825826645 0.0441708192229270935
0.0791458785533905029 0.0212853085249662399 0.0481183938682079315
0.073265567421913147 0.0212823040783405304 0.0515932068228721619
0.0552381798624992371 -0.00544262956827878952 0.0428073741495609283
0.0637108758091926575 0.000199601985514163971 0.0425399988889694214
0.0577495992183685303 0.00280070444568991661 0.0474832318723201752
0.0570568591356277466 0.00233543338254094124 0.0475022308528423309
0.063471674919128418 0.00493304384872317314 0.0460882335901260376
0.0633429661393165588 -0.000160659663379192352 0.042468193918466568
0.0636739581823348999 0.0030938340350985527 0.0446533970534801483
0.0617007613182067871 0.00505969393998384476 0.0470891855657100677
0.0670832321047782898 0.00555045763030648232 0.0446806140244007111
0.0516140945255756378 -0.00828848406672477722 0.0426087826490402222
0.0525231659412384033 -0.00672176573425531387 0.043275780975818634
0.0654564052820205688 0.00869064591825008392 0.047788374125957489
0.0591202080249786377 0.00485269492492079735 0.0482644177973270416
0.0612305216491222382 0.00867514777928590775 0.0499470047652721405
0.0652952268719673157 0.0025869784876704216 0.0434541404247283936
0.0532529428601264954 -0.00597407575696706772 0.0434421375393867493
0.0574942678213119507 -0.00375030608847737312 0.0428736209869384766
0.05284099280834198 -0.00712903495877981186 0.0428178571164608002
0.0523493699729442596 -0.00666992366313934326 0.0434025339782238007
0.0775252208113670349 0.011957160197198391 0.0429049208760261536
0.0709746852517127991 0.00967814214527606964 0.0452701598405838013
0.0840413719415664673 0.0196127425879240036 0.0441172681748867035
0.0740394890308380127 0.00866100378334522247 0.0427850931882858276
0.0631911084055900574 0.013298974372446537 0.0522679165005683899
0.0769965797662734985 0.01244349405169487 0.0435392558574676514
0.0652130097150802612 0.0119797978550195694 0.0501996390521526337
0.0821912437677383423 0.017047833651304245 0.0435141809284687042
0.0741398483514785767 0.0135504221543669701 0.0459606945514678955
0.0729976817965507507 0.0130767300724983215 0.0463226139545440674
0.0687654241919517517 0.00924297980964183807 0.0462884940207004547
0.0669397711753845215 0.0119792940095067024 0.0491783395409584045
0.0809135809540748596 0.0154430866241455078 0.0432078763842582703
0.0657356753945350647 0.0125969331711530685 0.0502989217638969421
0.0709987357258796692 0.00752139603719115257 0.0438289865851402283
0.0712215155363082886 0.00581878237426280975 0.0425707809627056122
0.0715532079339027405 0.0103812646120786667 0.0453932993113994598
0.082559928297996521 0.017011081799864769 0.0432718731462955475
0.0710274800658226013 0.0071155116893351078 0.043543446809053421
0.0605938807129859924 0.0101418029516935349 0.0513352639973163605
0.0510758906602859497 -0.00330436229705810547 0.0464919507503509521
0.0509982965886592865 -0.00564639084041118622 0.0448369570076465607
0.0587047897279262543 0.00805572886019945145 0.0507956370711326599
0.0483807399868965149 0.000917431432753801346 0.0509309768676757812
0.0471605509519577026 -0.00799979269504547119 0.0451044440269470215
0.0518849194049835205 -0.00115023180842399597 0.0476354062557220459
0.0551281645894050598 0.00605032313615083694 0.0511808730661869049
0.0482081547379493713 -0.00520813185721635818 0.0465867519378662109
0.0537548549473285675 0.00141779612749814987 0.0485336408019065857
0.0517338141798973083 0.00160987209528684616 0.0497103780508041382
0.0486770570278167725 -0.00934069044888019562 0.0433554127812385559
0.0496688149869441986 -0.00181873701512813568 0.0482895299792289734
0.0477400831878185272 0.00148522085510194302 0.0516708157956600189
0.043644830584526062 -0.00111219228710979223 0.0518939420580863953
0.0526301823556423187 0.00448237499222159386 0.0513288415968418121
0.0460395403206348419 -0.006488751620054245 0.0467735268175601959
0.0531520731747150421 0.00507383840158581734 0.0514888875186443329
0.0478364899754524231 -0.00307708745822310448 0.048319745808839798
-0.00929015595465898514 0.0198982059955596924 0.0634638816118240356
-0.0178027413785457611 0.0152732338756322861 0.0634638816118240356
-0.0107938079163432121 0.0176539663225412369 0.0634638816118240356
-0.0164487976580858231 0.0180660989135503769 0.0634638816118240356
-0.0140107572078704834 0.0157588887959718704 0.0634638816118240356
-0.010618157684803009 0.0141121344640851021 0.0634638816118240356
-0.0192988067865371704 0.00775546301156282425 0.0634638816118240356
-0.0142372399568557739 0.01113156508654356 0.0634638816118240356
-0.00826577562838792801 0.0146894389763474464 0.0634638816118240356
-0.0107844825834035873 0.0159859471023082733 0.0634638816118240356
-0.0214364323765039444 0.0156876984983682632 0.0634638816118240356
-0.0159824490547180176 0.0142713245004415512 0.0634638816118240356
-0.00431799888610839844 0.0210284218192100525 0.0634638816118240356
-0.0116844754666090012 0.0158855840563774109 0.0634638816118240356
8.44753230921924114e-07 0.0256635341793298721 0.0634638816118240356
-0.0191067550331354141 0.0173130687326192856 0.0634638816118240356
-0.0102736176922917366 0.0212954208254814148 0.0634638816118240356
-0.0172201506793498993 0.0108297364786267281 0.0634638816118240356
-0.000890408875420689583 0.019736945629119873 0.0634638816118240356
-0.0152200274169445038 0.00430821580812335014 0.0634638816118240356
-0.00359848863445222378 0.0192318018525838852 0.0634638816118240356
-0.0053139878436923027 0.0160928238183259964 0.0634638816118240356
-0.011478709988296032 0.00509208440780639648 0.0634638816118240356
0.00263268500566482544 0.0120169641450047493 0.0634638816118240356
0.00119507545605301857 0.0180972311645746231 0.0634638816118240356
-0.0107585787773132324 0.00751251634210348129 0.0634638816118240356
0.00447141192853450775 0.0111408596858382225 0.0634638816118240356
-0.00783540122210979462 0.00683368463069200516 0.0634638816118240356
-0.00891550909727811813 0.0128720700740814209 0.0634638816118240356
0.00303512066602706909 0.0183576755225658417 0.0634638816118240356
0.000820314511656761169 0.0100279217585921288 0.0634638816118240356
-0.000387793988920748234 0.0186624731868505478 0.0634638816118240356
-0.00755777768790721893 0.00844885595142841339 0.0634638816118240356
-0.00265013659372925758 0.0159339513629674911 0.0634638816118240356
0.00562194548547267914 0.012978794053196907 0.0634638816118240356
0.00489174015820026398 0.0121643375605344772 0.0634638816118240356
0.000637259799987077713 0.0232675224542617798 0.0634638816118240356
-0.0517834015190601349 0.0389884822070598602 0.0526408031582832336
-0.0455837175250053406 0.0339818261563777924 0.0559657402336597443
-0.0506775975227355957 0.034938909113407135 0.0548497550189495087
-0.0494686253368854523 0.0312196686863899231 0.0569022819399833679
-0.0378722921013832092 0.0396451316773891449 0.0540143363177776337
-0.0453284271061420441 0.0366590134799480438 0.0546266213059425354
-0.0441753976047039032 0.0384201258420944214 0.0538667850196361542
-0.0484352707862854004 0.0370009467005729675 0.0540697462856769562
-0.0392973348498344421 0.0381723716855049133 0.0545931309461593628
-0.0439081564545631409 0.0339134931564331055 0.0562066510319709778
-0.0533161498606204987 0.0373324602842330933 0.053300175815820694
-0.0496099740266799927 0.0285896100103855133 0.0582312792539596558
-0.048552781343460083 0.0320571884512901306 0.056586097925901413
-0.0421934053301811218 0.0394221954047679901 0.0535973981022834778
-0.0508880093693733215 0.0269222594797611237 0.0589277520775794983
-0.043703712522983551 0.0331933684647083282 0.056600421667098999
-0.0406258553266525269 0.036520831286907196 0.0552753061056137085
-0.036044631153345108 0.0328343994915485382 0.0577254891395568848
-0.0366626866161823273 0.0372374355792999268 0.0553955398499965668
-0.0381492301821708679 0.0317327640950679779 0.0580307766795158386
-0.0290222335606813431 0.03065444715321064 0.0597045011818408966
-0.0476049855351448059 0.028068171814084053 0.058744627982378006
-0.0289832986891269684 0.0309110283851623535 0.0595779381692409515
-0.0311240926384925842 0.0330368541181087494 0.0582265816628932953
-0.0302741490304470062 0.037952374666929245 0.0558147057890892029
-0.0389352999627590179 0.0346690863370895386 0.0564310140907764435
-0.0357783995568752289 0.036821659654378891 0.0557170622050762177
-0.0363481007516384125 0.0340080298483371735 0.057087387889623642
-0.0338685028254985809 0.0327049344778060913 0.0580592118203639984
-0.045283731073141098 0.0296902749687433243 0.0581995286047458649
-0.0491774119436740875 0.0256926883012056351 0.0597674250602722168
-0.0353446453809738159 0.0302861817181110382 0.0591159909963607788
-0.0415251404047012329 0.028888331726193428 0.0590719915926456451
-0.0368962101638317108 0.0307542122900485992 0.0586857087910175323
-0.0367882773280143738 0.0359901934862136841 0.0560185909271240234
-0.0303323399275541306 0.0396836772561073303 0.054921269416809082
-0.0720959305763244629 0.0551871992647647858 0.0326111949980258942
-0.0646579340100288391 0.0561999790370464325 0.0319919995963573456
-0.0696598365902900696 0.0539200529456138611 0.0347247272729873657
-0.0714349076151847839 0.0530166961252689362 0.0358310788869857788
-0.0788857713341712952 0.0514766611158847809 0.037212662398815155
-0.0740422457456588745 0.0516884066164493561 0.0374581515789031982
-0.0749984830617904663 0.0552696399390697479 0.0321608111262321472
-0.0788185223937034607 0.0536701269447803497 0.0340425446629524231
-0.0751921087503433228 0.0554090701043605804 0.0319367311894893646
-0.0724247992038726807 0.0551919154822826385 0.0325668640434741974
-0.0743251889944076538 0.0513753592967987061 0.0378794185817241669
-0.0641547292470932007 0.0564985312521457672 0.031616847962141037
-0.0660284757614135742 0.0562494732439517975 0.0317640304565429688
-0.0771729201078414917 0.0547030940651893616 0.0327336676418781281
-0.0738458484411239624 0.0554468221962451935 0.0320355445146560669
-0.0739614814519882202 0.0501316748559474945 0.0397226735949516296
-0.0632615983486175537 0.0518621988594532013 0.0384355708956718445
-0.063800126314163208 0.0529401674866676331 0.0368124581873416901
-0.0598990842700004578 0.0504806488752365112 0.0408204793930053711
-0.0634458288550376892 0.0543672628700733185 0.0347853563725948334
-0.0608537644147872925 0.0497962124645709991 0.0417032018303871155
-0.063700750470161438 0.0543299019336700439 0.0348104089498519897
-0.0735235586762428284 0.0490151606500148773 0.0413901545107364655
-0.0701482817530632019 0.0509712621569633484 0.0389411002397537231
-0.0670142024755477905 0.0505334809422492981 0.0399326793849468231
-0.0689237937331199646 0.0489769056439399719 0.0419700369238853455
-0.0703801065683364868 0.0503104589879512787 0.0398720018565654755
-0.0597622692584991455 0.0536902546882629395 0.0361861623823642731
-0.0603110417723655701 0.0560566894710063934 0.0326952189207077026
-0.0754040628671646118 0.0495718717575073242 0.0403692014515399933
-0.0720173940062522888 0.0505393072962760925 0.0393537804484367371
0.00902757700532674789 0.00922928191721439362 0.0626234039664268494
0.0168305225670337677 0.0158402789384126663 0.0631200149655342102
0.0226041786372661591 0.0154879158362746239 0.0623544231057167053
0.0154597572982311249 0.0105306059122085571 0.062136474996805191
0.00842928048223257065 0.0114660989493131638 0.063178136944770813
0.0156712457537651062 0.00451621972024440765 0.0608117356896400452
0.00959275756031274796 0.00859254412353038788 0.0624183341860771179
0.0133061837404966354 0.00884779263287782669 0.0620300509035587311
0.0125359836965799332 0.010437830351293087 0.062465570867061615
0.0219402331858873367 0.0196394212543964386 0.0633306950330734253
0.00993538461625576019 0.0107769127935171127 0.0628493800759315491
0.0124226473271846771 0.00887975189834833145 0.0621424615383148193
0.0161517634987831116 0.012549886479973793 0.0624901354312896729
0.0122801251709461212 0.00764069706201553345 0.0618917681276798248
0.0125713460147380829 0.0144720599055290222 0.0633329972624778748
0.0143222641199827194 0.00737452507019042969 0.0615903958678245544
0.0263591744005680084 0.0144940642639994621 0.0616912879049777985
0.0251376200467348099 0.0193829331547021866 0.0628934651613235474
0.0307488981634378433 0.0117957526817917824 0.0605840869247913361
0.0225641876459121704 0.00765974819660186768 0.0606678202748298645
0.0220345780253410339 0.013769080862402916 0.0620510652661323547
0.0250278804451227188 0.00493272393941879272 0.0597844123840332031
0.0275400560349225998 0.0146821187809109688 0.0615909062325954437
0.0168393924832344055 0.00228146510198712349 0.0601893924176692963
0.0199241135269403458 0.00853650271892547607 0.0611725188791751862
0.0284590795636177063 0.0172967799007892609 0.0620460920035839081
0.0275658536702394485 0.0140961427241563797 0.0614612214267253876
0.019809061661362648 0.00231524440459907055 0.0598420724272727966
0.0262338612228631973 0.0185844171792268753 0.0625900253653526306
0.0231871474534273148 0.0139216240495443344 0.0619463920593261719
0.0203728638589382172 0.00948599353432655334 0.0613240823149681091
0.0265328437089920044 0.0167283043265342712 0.0621532872319221497
0.0317778661847114563 0.00894066225737333298 0.0598443374037742615
0.0482362434267997742 0.0150713985785841942 0.0577286258339881897
0.045689266175031662 0.0126469898968935013 0.0574640147387981415
0.0433196872472763062 0.00560938566923141479 0.0551676973700523376
0.0414582192897796631 0.00342288613319396973 0.0547965541481971741
0.0453502386808395386 0.0170915015041828156 0.0594725608825683594
0.0510269589722156525 0.0216988269239664078 0.0597209930419921875
0.0423414111137390137 0.000676395371556282043 0.0533504374325275421
0.0432606786489486694 0.0112625313922762871 0.0576092265546321869
0.0472356788814067841 0.00963438674807548523 0.0557020679116249084
0.0448377951979637146 0.0147292744368314743 0.0586157254874706268
0.0424027703702449799 0.00559550989419221878 0.0554406642913818359
0.0522722192108631134 0.0218202695250511169 0.0593942590057849884
0.0466339588165283203 0.0109246969223022461 0.0564382784068584442
0.0436440035700798035 0.00916619691997766495 0.0565938949584960938
0.0437426157295703888 0.00256359577178955078 0.0537332743406295776
0.0516969338059425354 0.0203287843614816666 0.0589298345148563385
0.0454539842903614044 0.00762241892516613007 0.05538148432970047
0.0725047513842582703 0.031037207692861557 0.0560990236699581146
0.0653782486915588379 0.0331416763365268707 0.0594201385974884033
0.0726751312613487244 0.0391190052032470703 0.0592070780694484711
0.0683581307530403137 0.0366578623652458191 0.0597545579075813293
0.0746975988149642944 0.0349641144275665283 0.0568701066076755524
0.071010686457157135 0.0347172729671001434 0.0580647960305213928
0.0693515464663505554 0.0342491753399372101 0.0584624782204627991
0.0780928805470466614 0.033029802143573761 0.0549226477742195129
0.0725820809602737427 0.0363951325416564941 0.0581720247864723206
0.0595321804285049438 0.0259970743209123611 0.0586674883961677551
0.0695139691233634949 0.03758249431848526 0.0597121119499206543
0.0671284273266792297 0.0276118163019418716 0.0566396117210388184
0.0709661617875099182 0.0346659459173679352 0.0580602735280990601
0.0719963982701301575 0.0382983535528182983 0.059123162180185318
0.0690283328294754028 0.0359911397099494934 0.0592584721744060516
0.0680326223373413086 0.0343823358416557312 0.0589766614139080048
0.0610964335501194 0.0277898013591766357 0.05882224440574646
0.0763209834694862366 0.0263898707926273346 0.052940715104341507
0.0682643577456474304 0.0237881336361169815 0.0547429919242858887
0.0580650903284549713 0.0201754309237003326 0.0568995289504528046
0.0661283060908317566 0.0230724550783634186 0.0552106834948062897
0.0614174306392669678 0.0212777629494667053 0.0561573505401611328
0.0574171356856822968 0.0209296233952045441 0.0574221014976501465
0.0736231580376625061 0.025547591969370842 0.0535555630922317505
0.0632998272776603699 0.0258330479264259338 0.0572834759950637817
0.0756793469190597534 0.0263229068368673325 0.0531392209231853485
0.0637051910161972046 0.0222499463707208633 0.0557370558381080627
0.0658979266881942749 0.0202651768922805786 0.0541910417377948761
0.0574177093803882599 0.0238451473414897919 0.0585646703839302063
0.0655374079942703247 0.0220341570675373077 0.0550106912851333618
0.077425152063369751 0.0268674027174711227 0.052741125226020813
0.0740343481302261353 0.0237987302243709564 0.0527260527014732361
0.0600855238735675812 0.0184414200484752655 0.0555121563374996185
0.0625261887907981873 0.0258051361888647079 0.0575435236096382141
0.0706904828548431396 0.0225635617971420288 0.0534131936728954315
0.0703193619847297668 0.0275490041822195053 0.0554972812533378601
0.0547707155346870422 0.0223796609789133072 0.0588740631937980652
0.0551801696419715881 0.00991306081414222717 0.0534049123525619507
0.0528919212520122528 0.0123485671356320381 0.0551451072096824646
0.0528406314551830292 0.0132614271715283394 0.055552065372467041
0.0553518608212471008 0.0221671238541603088 0.0586061663925647736
0.0544965453445911407 0.0141566190868616104 0.0554321333765983582
0.0479576550424098969 0.00801699422299861908 0.0547890514135360718
0.0496313795447349548 0.00862736627459526062 0.0545415990054607391
0.0556958355009555817 0.0207500085234642029 0.0578939951956272125
0.0516706779599189758 0.0147065175697207451 0.0565274842083454132
0.0475267022848129272 0.00558893661946058273 0.0538792014122009277
0.0593330226838588715 0.0165112912654876709 0.0549704097211360931
0.0583515875041484833 0.014273851178586483 0.0543097332119941711
0.0498495101928710938 0.00617332756519317627 0.0534231662750244141
0.0484625212848186493 0.00399479735642671585 0.0529111064970493317
0.048163924366235733 0.00341121782548725605 0.0527517497539520264
0.0570924393832683563 0.0163686759769916534 0.0555908307433128357
0.0474395826458930969 0.0070267803966999054 0.0545221231877803802
-0.023939838632941246 0.0307564027607440948 0.0601203590631484985
-0.0215215608477592468 0.0272269062697887421 0.0611520111560821533
-0.0151643594726920128 0.0343669727444648743 0.0600996166467666626
-0.0204318314790725708 0.0247169025242328644 0.0618277266621589661
-0.0118049513548612595 0.034554705023765564 0.0603655427694320679
-0.0187613442540168762 0.0258450135588645935 0.0617227107286453247
-0.018010064959526062 0.0289573762565851212 0.0610782057046890259
-0.0174021553248167038 0.034311734139919281 0.0599064715206623077
-0.0244183987379074097 0.0294908508658409119 0.060366511344909668
-0.0218102093786001205 0.02965548075735569 0.060568641871213913
-0.0210075564682483673 0.0287048965692520142 0.060860414057970047
-0.0144444787874817848 0.0280277766287326813 0.0616192743182182312
-0.0232411827892065048 0.0286015402525663376 0.0606786832213401794
-0.0148205496370792389 0.0286157801747322083 0.0614498704671859741
-0.0195000302046537399 0.029789358377456665 0.0607504174113273621
-0.0203623473644256592 0.0308958422392606735 0.0604174137115478516
-0.0143163092434406281 0.0259398892521858215 0.0621097683906555176
-0.00493537355214357376 0.0301383621990680695 0.0620099194347858429
-0.00915821827948093414 0.0324427969753742218 0.0610931813716888428
-0.00394388940185308456 0.029115624725818634 0.0623355992138385773
-0.00872609391808509827 0.0314275138080120087 0.0613657049834728241
-0.000975470989942550659 0.0284859295934438705 0.0627529844641685486
-0.00951051805168390274 0.033199358731508255 0.0608873181045055389
-0.0065811467356979847 0.0357563123106956482 0.0605704747140407562
-0.00363406958058476448 0.0283407308161258698 0.0625417605042457581
-0.00556268263608217239 0.0380945615470409393 0.0601280331611633301
-0.010508611798286438 0.0254268795251846313 0.0625775903463363647
-0.0061307298019528389 0.0293684173375368118 0.0620765127241611481
-0.0095328744500875473 0.0245844870805740356 0.0628604739904403687
-0.0139210978522896767 0.025082690641283989 0.0623426586389541626
-0.00548331299796700478 0.0316550806164741516 0.0616117715835571289
-0.000615907832980155945 0.0264040939509868622 0.0632633715867996216
-0.00150502473115921021 0.0275484807789325714 0.0629192143678665161
-0.0047760913148522377 0.0250659435987472534 0.0631875693798065186
-0.0409684628248214722 0.0514484010636806488 0.0441365726292133331
-0.0452258698642253876 0.0514526888728141785 0.0432496480643749237
-0.0473414473235607147 0.0495349355041980743 0.0444679073989391327
-0.0391927212476730347 0.0526317879557609558 0.0434823818504810333
-0.0482572726905345917 0.0514499396085739136 0.0426231510937213898
-0.0565551780164241791 0.0496175214648246765 0.0424851179122924805
-0.0500043779611587524 0.0425310023128986359 0.0499676316976547241
-0.0524427630007266998 0.0443843789398670197 0.0478602610528469086
-0.0521368086338043213 0.0464439839124679565 0.0461440086364746094
-0.0371926166117191315 0.05393977090716362 0.0427670776844024658
-0.0464746467769145966 0.0477213375270366669 0.0462148785591125488
-0.0407853648066520691 0.0519542992115020752 0.0437374040484428406
-0.0448061153292655945 0.051150687038898468 0.0435976944863796234
-0.0411250777542591095 0.0506172999739646912 0.0448222458362579346
-0.0528053492307662964 0.0411746129393577576 0.0505586229264736176
-0.0523146912455558777 0.0498242080211639404 0.0431862249970436096
-0.0342949517071247101 0.0511305779218673706 0.0457956604659557343
-0.0482775755226612091 0.0436735078692436218 0.0493386164307594299
-0.0381049290299415588 0.0467972420156002045 0.0487497299909591675
-0.035774916410446167 0.0532509908080101013 0.0436563640832901001
-0.0499033480882644653 0.0395658239722251892 0.052550826221704483
-0.040461469441652298 0.046331360936164856 0.0486634299159049988
-0.0347677506506443024 0.052931569516658783 0.0441413186490535736
-0.0464434251189231873 0.0441369488835334778 0.049318656325340271
-0.0349147878587245941 0.0463815778493881226 0.0497707165777683258
-0.0372546389698982239 0.0441540926694869995 0.0512100942432880402
-0.0377604886889457703 0.0482830852270126343 0.0475372597575187683
-0.0348699465394020081 0.0538849644362926483 0.0432962849736213684
-0.0449310578405857086 0.0425792783498764038 0.050978396087884903
-0.0410873889923095703 0.0439911559224128723 0.0505557693541049957
-0.0401488840579986572 0.047914016991853714 0.0473606884479522705
-0.0355210341513156891 0.0522879920899868011 0.0445411689579486847
-0.038235686719417572 0.0433180555701255798 0.0517289973795413971
-0.059810984879732132 0.0651517808437347412 0.00269950437359511852
-0.0616161860525608063 0.0641139298677444458 0.0100769354030489922
-0.0739245563745498657 0.0642238184809684753 0.00119396857917308807
-0.0674412623047828674 0.0643048137426376343 0.00472919968888163567
-0.0616495683789253235 0.0646673887968063354 0.00549715664237737656
-0.0635374635457992554 0.0637666359543800354 0.0116918403655290604
-0.0634224787354469299 0.0642136931419372559 0.00808450579643249512
-0.0717916637659072876 0.0641482993960380554 0.00319838058203458786
-0.0663245692849159241 0.0645667314529418945 0.00329591706395149231
-0.0736568495631217957 0.0641796141862869263 0.00173155311495065689
-0.0699099451303482056 0.0646613612771034241 0.00019265245646238327
-0.0604722574353218079 0.0644742995500564575 0.00785045232623815536
-0.0680864378809928894 0.064715169370174408 0.00093146180734038353
-0.0645799115300178528 0.0642209425568580627 0.00727458624169230461
-0.0780907496809959412 0.0609897375106811523 0.0184464100748300552
-0.0678269639611244202 0.0617793798446655273 0.0184942297637462616
-0.0790528431534767151 0.0570354759693145752 0.0286732800304889679
-0.0731393694877624512 0.0596342571079730988 0.0230480208992958069
-0.0760952532291412354 0.0583161376416683197 0.0259102154523134232
-0.0789145827293395996 0.0608883388340473175 0.0185428168624639511
-0.0763791352510452271 0.0590225309133529663 0.0239887088537216187
-0.0682984068989753723 0.0628460273146629333 0.0155838737264275551
-0.0692148506641387939 0.0627409368753433228 0.0156707968562841415
-0.0672191008925437927 0.0625529363751411438 0.0165806636214256287
-0.0789126977324485779 0.0581336989998817444 0.0258065946400165558
-0.066284671425819397 0.0616006217896938324 0.0192856267094612122
-0.0655786916613578796 0.0626653805375099182 0.0166245922446250916
-0.077501341700553894 0.0581086091697216034 0.0261656325310468674
-0.0757932364940643311 0.0626383870840072632 0.0130399810150265694
-0.0766547992825508118 0.0626045092940330505 0.0127605730667710304
-0.0654967129230499268 0.0633926615118980408 0.0135018210858106613
-0.0782309174537658691 0.0634530410170555115 0.00475067179650068283
-0.0671925470232963562 0.0634104013442993164 0.0122566195204854012
-0.0793717429041862488 0.0626653283834457397 0.0104986606165766716
-0.0610195286571979523 0.0636005252599716187 0.0146918864920735359
-0.0753787457942962646 0.0628718510270118713 0.0113858785480260849
-0.0758710503578186035 0.0624695718288421631 0.0143798841163516045
-0.078397706151008606 0.063025452196598053 0.00816409382969141006
-0.071309216320514679 0.0628911629319190979 0.0138645526021718979
-0.0647000819444656372 0.0632852464914321899 0.0149028385058045387
-0.0748377442359924316 0.0633113831281661987 0.00811666622757911682
-0.0672596469521522522 0.0634623393416404724 0.0117853321135044098
-0.0618738904595375061 0.062067866325378418 0.0189689323306083679
-0.070614933967590332 0.0575669072568416595 0.0290230568498373032
-0.0682468190789222717 0.0595697425305843353 0.0242334417998790741
-0.0745444744825363159 0.0578653551638126373 0.027420656755566597
-0.0635609179735183716 0.0579320602118968964 0.0295240655541419983
-0.0725280418992042542 0.0578962378203868866 0.0277576688677072525
-0.0597605258226394653 0.0591460652649402618 0.0271116606891155243
-0.0702705085277557373 0.0578771829605102539 0.0282763876020908356
-0.0657271966338157654 0.0584267042577266693 0.0277702473104000092
-0.0722234249114990234 0.0587801337242126465 0.0254902411252260208
-0.0624127089977264404 0.0582776069641113281 0.0288512073457241058
-0.059567570686340332 0.0632105246186256409 0.0164346080273389816
-0.0588294714689254761 0.060450427234172821 0.0238655433058738708
-0.0699900239706039429 0.0577608942985534668 0.0286412313580513
-0.0655402019619941711 0.0586935393512248993 0.0271054692566394806
0.0171911530196666718 0.0298282448202371597 0.0634638816118240356
0.0149843888357281685 0.0236421637237071991 0.0634638816118240356
0.0139269120991230011 0.0257364660501480103 0.0634638816118240356
0.0147871105000376701 0.0265806112438440323 0.0634638816118240356
0.0235125329345464706 0.0274814218282699585 0.0634638816118240356
0.0124603975564241409 0.015592474490404129 0.0634638816118240356
0.0171726029366254807 0.0295347459614276886 0.0634638816118240356
0.0166409369558095932 0.0184623189270496368 0.0634638816118240356
0.0191464871168136597 0.024583134800195694 0.0634638816118240356
0.0129033606499433517 0.0156623795628547668 0.0634638816118240356
0.0218841694295406342 0.0262136515229940414 0.0634638816118240356
0.0234463252127170563 0.0216177366673946381 0.0634638816118240356
0.0218876153230667114 0.0239316150546073914 0.0634638816118240356
0.0174036994576454163 0.0311934500932693481 0.0634638816118240356
0.0210895799100399017 0.0225302763283252716 0.0634638816118240356
0.0121607286855578423 0.0163327790796756744 0.0634638816118240356
0.0087869688868522644 0.0185138583183288574 0.0634638816118240356
0.00756314210593700409 0.013537796214222908 0.0634638816118240356
0.00549982767552137375 0.024648057296872139 0.0634638816118240356
0.00657450919970870018 0.0285345464944839478 0.0634638816118240356
0.00602902006357908249 0.0241928547620773315 0.0634638816118240356
0.0111941425129771233 0.0226775705814361572 0.0634638816118240356
0.00890972837805747986 0.0236135330051183701 0.0634638816118240356
0.00909967534244060516 0.0240458864718675613 0.0634638816118240356
0.0165676847100257874 0.033013664186000824 0.0634638816118240356
0.00420481013134121895 0.0278309732675552368 0.0634638816118240356
0.0099728703498840332 0.0302493572235107422 0.0634638816118240356
0.0175691675394773483 0.0344406701624393463 0.0634638816118240356
0.00669352058321237564 0.0244045965373516083 0.0634638816118240356
0.012494971975684166 0.0275604240596294403 0.0634638816118240356
0.0479679927229881287 0.0340798497200012207 0.0626453161239624023
0.0507047511637210846 0.0315813310444355011 0.0617352128028869629
0.0507922060787677765 0.0332100242376327515 0.0620206296443939209
0.0495295226573944092 0.0365716554224491119 0.0628471300005912781
0.0636477172374725342 0.035434626042842865 0.060315404087305069
0.0590175315737724304 0.0378119461238384247 0.0615146644413471222
0.0618915893137454987 0.0379322730004787445 0.0610640347003936768
0.0498455800116062164 0.0359258987009525299 0.0626762732863426208
0.0686022639274597168 0.0375259183347225189 0.0598853379487991333
0.0481662154197692871 0.0357185564935207367 0.0629143565893173218
0.0599621608853340149 0.03545374795794487 0.0609251931309700012
0.0687927156686782837 0.0373243503272533417 0.0598169080913066864
0.0593167878687381744 0.0286713112145662308 0.0597828850150108337
0.0514550954103469849 0.0282256193459033966 0.0609940849244594574
0.0458910092711448669 0.0348474271595478058 0.0631282702088356018
0.0679052919149398804 0.0369939766824245453 0.0599020719528198242
0.0479202568531036377 0.0351988859474658966 0.0628591626882553101
0.0596656873822212219 0.0466412045061588287 0.0630332827568054199
0.0566202327609062195 0.0413559600710868835 0.0625613778829574585
0.0618800446391105652 0.0444944612681865692 0.0622738637030124664
0.0606330633163452148 0.0446342788636684418 0.0625047236680984497
0.0455994978547096252 0.0361187122762203217 0.0634102374315261841
0.0625424012541770935 0.0437704548239707947 0.0620316341519355774
0.0523239299654960632 0.0393521152436733246 0.0628992617130279541
0.0643317028880119324 0.0478491783142089844 0.0624880827963352203
0.0642441138625144958 0.0463457927107810974 0.0622257590293884277
0.0533485151827335358 0.0385035760700702667 0.0625745207071304321
0.0553071871399879456 0.0408961623907089233 0.0626927390694618225
0.0559762530028820038 0.0380382426083087921 0.0620566084980964661
0.0628977939486503601 0.0416800901293754578 0.0615883916616439819
0.0510258041322231293 0.0374907888472080231 0.0627701804041862488
0.0647559687495231628 0.0393966101109981537 0.0608623959124088287
0.0574638247489929199 0.0429966077208518982 0.0627246126532554626
0.0405144095420837402 0.0228016451001167297 0.061473749577999115
0.0472858510911464691 0.0239534415304660797 0.0607383176684379578
0.0402567498385906219 0.0180944669991731644 0.0605628415942192078
0.0471265986561775208 0.031781613826751709 0.062337145209312439
0.0504052005708217621 0.0214304737746715546 0.0597847402095794678
0.0409979037940502167 0.0213323812931776047 0.0611088685691356659
0.0520927608013153076 0.0242045372724533081 0.0601021759212017059
0.0414436310529708862 0.0203029662370681763 0.0608379356563091278
0.0514191538095474243 0.0265575088560581207 0.0606721378862857819
0.0497990921139717102 0.029468044638633728 0.0614895634353160858
0.0397856235504150391 0.0189008079469203949 0.0607924871146678925
0.0414604470133781433 0.0196760427206754684 0.0607093125581741333
0.0471389926970005035 0.031224910169839859 0.0622232928872108459
0.0509613268077373505 0.0264228805899620056 0.0607104375958442688
0.0452718809247016907 0.0194016005843877792 0.0601095780730247498
0.0387166813015937805 0.0189535580575466156 0.0609558112919330597
0.0426018573343753815 0.0162312481552362442 0.0598527006804943085
0.0321907848119735718 0.0145873334258794785 0.061008993536233902
0.0373011156916618347 0.020431123673915863 0.0614555180072784424
0.0316296815872192383 0.0257362071424722672 0.0633338019251823425
0.035434335470199585 0.0175681896507740021 0.0611457861959934235
0.0411397926509380341 0.0294755939394235611 0.0627281069755554199
0.0319328568875789642 0.0252346880733966827 0.0631895214319229126
0.037475191056728363 0.0259381216019392014 0.0625393986701965332
0.0311058219522237778 0.021603832021355629 0.0625766515731811523
0.0340068116784095764 0.0224422924220561981 0.0623310394585132599
0.0315100178122520447 0.0171253867447376251 0.0616172440350055695
0.0319580286741256714 0.0199171695858240128 0.0621153265237808228
0.0307607091963291168 0.0232794899493455887 0.0629633218050003052
0.0368601046502590179 0.0236722193658351898 0.0621710605919361115
0.0373252369463443756 0.0241471529006958008 0.0622002370655536652
0.0384300015866756439 0.0197301041334867477 0.0611531101167201996
0.0300977714359760284 0.0227183010429143906 0.0629450380802154541
-0.0148063255473971367 0.0360411256551742554 0.0597183294594287872
-0.0210885144770145416 0.0367600694298744202 0.0581370331346988678
-0.0253814235329627991 0.0333902947604656219 0.0589415021240711212
-0.0208319388329982758 0.0376714393496513367 0.0577423349022865295
-0.0131115159019827843 0.0427032448351383209 0.0567976720631122589
-0.0171323250979185104 0.0440649278461933136 0.0553454458713531494
-0.0130829475820064545 0.04997219517827034 0.0532544367015361786
-0.0134239103645086288 0.0380794964730739594 0.0589938908815383911
-0.010818159207701683 0.0396557003259658813 0.0587346665561199188
-0.014643046073615551 0.046727936714887619 0.0545328147709369659
-0.0163406077772378922 0.0431974679231643677 0.0559240058064460754
-0.0198683850467205048 0.0409219115972518921 0.0563440956175327301
-0.0230685435235500336 0.0356475710868835449 0.0582924112677574158
-0.0221258215606212616 0.0359911434352397919 0.0583092942833900452
-0.0104780569672584534 0.0459356456995010376 0.0557352863252162933
-0.00949623249471187592 0.0402909256517887115 0.0586834251880645752
-0.0265456400811672211 0.0365569479763507843 0.0571674853563308716
-0.0208092406392097473 0.0431741327047348022 0.055060267448425293
-0.0289581324905157089 0.0445326492190361023 0.0528011471033096313
-0.0203321687877178192 0.0428261719644069672 0.0553235746920108795
-0.0286377295851707458 0.0407673977315425873 0.0547021590173244476
-0.0264382660388946533 0.0349243171513080597 0.0579855926334857941
-0.0247605983167886734 0.0376511961221694946 0.0569828338921070099
-0.0167787820100784302 0.0467601120471954346 0.0540988445281982422
-0.0267861243337392807 0.0412280745804309845 0.0548398606479167938
-0.0296468641608953476 0.0430818386375904083 0.0533745773136615753
-0.0272852424532175064 0.0377239100635051727 0.0564529113471508026
-0.0271088741719722748 0.0327686071395874023 0.0589067190885543823
-0.02308645099401474 0.0410029888153076172 0.0556742921471595764
-0.021517481654882431 0.0418338216841220856 0.055575929582118988
-0.0482636243104934692 0.0578285977244377136 0.0337533988058567047
-0.0497226603329181671 0.0585858374834060669 0.0321883819997310638
-0.039532739669084549 0.062644660472869873 0.0299098845571279526
-0.0499513857066631317 0.0600550174713134766 0.0300347190350294113
-0.0441088750958442688 0.0596014708280563354 0.0326576866209506989
-0.0423006452620029449 0.0610780008137226105 0.0311846807599067688
-0.0557824261486530304 0.0530267097055912018 0.037988077849149704
-0.0510186515748500824 0.0592908300459384918 0.0307525061070919037
-0.0464940108358860016 0.0603581517934799194 0.0307792872190475464
-0.044256456196308136 0.0597389265894889832 0.0324133895337581635
-0.0570594891905784607 0.0560616478323936462 0.0332662351429462433
-0.0563724450767040253 0.0549590140581130981 0.0350574217736721039
-0.0552452653646469116 0.0514120347797870636 0.0404519736766815186
-0.0521598197519779205 0.0555717051029205322 0.0356207750737667084
-0.0499829873442649841 0.0560166984796524048 0.035730455070734024
-0.0433959737420082092 0.0617896690964698792 0.0298074521124362946
-0.0444399341940879822 0.0527612455189228058 0.0422111488878726959
-0.0401828251779079437 0.0594824068248271942 0.0341578535735607147
-0.0487212501466274261 0.0528744682669639587 0.0405987128615379333
-0.0510363169014453888 0.0530086532235145569 0.0396237112581729889
-0.0362287983298301697 0.0560203976929187775 0.0403913408517837524
-0.0394073724746704102 0.0587597042322158813 0.035442158579826355
-0.0374524854123592377 0.0625095143914222717 0.0308065768331289291
-0.0423373430967330933 0.053368687629699707 0.042066086083650589
-0.038729451596736908 0.0592760443687438965 0.0349425114691257477
-0.039593920111656189 0.0578881874680519104 0.0366103909909725189
-0.0423782989382743835 0.058674342930316925 0.0345548875629901886
-0.0422358326613903046 0.0589497163891792297 0.0342140980064868927
-0.0466157346963882446 0.0524477064609527588 0.0419160574674606323
-0.0399942584335803986 0.0597660765051841736 0.0338209792971611023
-0.0375075004994869232 0.055814594030380249 0.0402483567595481873
-0.0438823327422142029 0.0561506114900112152 0.0376108735799789429
0.000152594409883022308 0.0275124646723270416 0.0630929172039031982
0.00270525086671113968 0.0364234521985054016 0.0614724010229110718
-0.00184153486043214798 0.0313807502388954163 0.0620189942419528961
0.00728400470688939095 0.0457800738513469696 0.0599975474178791046
-0.000163130462169647217 0.0273876450955867767 0.063082180917263031
0.00759396655485033989 0.0434915162622928619 0.0605290345847606659
-0.000302331987768411636 0.0345767363905906677 0.0615122616291046143
0.000398054718971252441 0.0357510149478912354 0.0613421797752380371
0.000196203123778104782 0.0325503647327423096 0.0620096176862716675
0.00204283278435468674 0.0413140058517456055 0.060336630791425705
-0.002102613914757967 0.0313381925225257874 0.0619970113039016724
-0.00149431545287370682 0.0372796766459941864 0.0607859157025814056
0.00399111118167638779 0.0409956164658069611 0.0606380738317966461
0.00986738409847021103 0.0379418171942234039 0.0619995966553688049
0.00846275966614484787 0.0353245735168457031 0.0623973570764064789
0.011377677321434021 0.0420102663338184357 0.0613009035587310791
0.00241882284171879292 0.0274404697120189667 0.0633790940046310425
0.0169556979089975357 0.0379586741328239441 0.0628423988819122314
0.0109073296189308167 0.0395392775535583496 0.0617786310613155365
0.0075318249873816967 0.0349827855825424194 0.0623600371181964874
0.0150734037160873413 0.0378955826163291931 0.0626312568783760071
0.00904191192239522934 0.0344845801591873169 0.0626480057835578918
0.00472035584971308708 0.0307845026254653931 0.0629314035177230835
0.00526979006826877594 0.0345238707959651947 0.0621890760958194733
0.00440472876653075218 0.0301699899137020111 0.0630264878273010254
0.0120590915903449059 0.0399168282747268677 0.0618345923721790314
0.011285778135061264 0.0467983707785606384 0.0602553971111774445
0.0386451892554759979 0.049764685332775116 0.0634638816118240356
0.04686732217669487 0.055977948009967804 0.0634638816118240356
0.0438767038285732269 0.0497523993253707886 0.0634638816118240356
0.0502385720610618591 0.0581470057368278503 0.0634638816118240356
0.0451260358095169067 0.0517221875488758087 0.0634638816118240356
0.0397269502282142639 0.0485555045306682587 0.0634638816118240356
0.0435694009065628052 0.0537265688180923462 0.0634638816118240356
0.0451987013220787048 0.0543939992785453796 0.0634638816118240356
0.0483540594577789307 0.0571706332266330719 0.0634638816118240356
0.0474030785262584686 0.0494073592126369476 0.0634638816118240356
0.0486657656729221344 0.0517427362501621246 0.0634638816118240356
0.044136974960565567 0.0496525093913078308 0.0634638816118240356
0.0518371425569057465 0.0506894849240779877 0.0634638816118240356
0.0443430803716182709 0.0500014685094356537 0.0634638816118240356
0.0548190921545028687 0.0557528696954250336 0.0634638816118240356
0.0422024428844451904 0.0472464300692081451 0.0634638816118240356
0.0430235005915164948 0.0435246825218200684 0.0634638816118240356
0.0412602424621582031 0.0481322593986988068 0.0634638816118240356
0.0498454496264457703 0.0440441630780696869 0.0634638816118240356
0.0446720235049724579 0.0466534607112407684 0.0634638816118240356
0.0511310920119285583 0.0460600778460502625 0.0634638816118240356
0.0381051003932952881 0.0472189858555793762 0.0634638816118240356
0.0415569916367530823 0.0459000878036022186 0.0634638816118240356
0.0520902872085571289 0.0458257198333740234 0.0634638816118240356
0.0424118079245090485 0.0424818210303783417 0.0634638816118240356
0.0606197044253349304 0.0504383258521556854 0.0634638816118240356
0.04853815957903862 0.0392554923892021179 0.0634638816118240356
0.048936210572719574 0.0451842807233333588 0.0634638816118240356
0.0507754944264888763 0.0489720776677131653 0.0634638816118240356
0.0531376749277114868 0.0490283854305744171 0.0634638816118240356
0.0416021868586540222 0.0402546226978302002 0.0634638816118240356
0.0304172858595848083 0.0352067835628986359 0.0634638816118240356
0.0298163127154111862 0.0322973541915416718 0.0634638816118240356
0.025803685188293457 0.033348768949508667 0.0634638816118240356
0.0276046004146337509 0.0416050739586353302 0.0634638816118240356
0.0219854507595300674 0.0363254733383655548 0.0634638816118240356
0.0276317894458770752 0.0316289030015468597 0.0634638816118240356
0.0278539992868900299 0.0308112744241952896 0.0634638816118240356
0.0287855286151170731 0.0354195423424243927 0.0634638816118240356
