ply
format ascii 1.0
element vertex 719
property float x
property float y
property float z
end_header
1.04083408558608426e-16 0.205574974417686462 0.083215564489364624
1.04083408558608426e-16 0.258011579513549805 0.132462844252586365
1.04083408558608426e-16 0.263380527496337891 0.0470268130302429199
1.04083408558608426e-16 0.279620468616485596 0.112632811069488525
1.04083408558608426e-16 0.30007481575012207 0.00280066207051277161
1.04083408558608426e-16 0.212676748633384705 0.0946436375379562378
1.04083408558608426e-16 0.0596398711204528809 0.0205410271883010864
1.04083408558608426e-16 0.218154773116111755 0.0671799182891845703
1.04083408558608426e-16 0.363164991140365601 0.165735289454460144
1.04083408558608426e-16 0.228312775492668152 0.0170894265174865723
1.04083408558608426e-16 0.343911439180374146 0.18131883442401886
1.04083408558608426e-16 0.297771692276000977 0.163301646709442139
1.04083408558608426e-16 0.182128101587295532 0.016994282603263855
1.04083408558608426e-16 0.232519850134849548 0.0844012945890426636
1.04083408558608426e-16 0.277731537818908691 0.0830442160367965698
1.04083408558608426e-16 0.294498980045318604 0.0193135887384414673
1.04083408558608426e-16 0.311560779809951782 0.0299209542572498322
1.04083408558608426e-16 0.123458415269851685 0.0455907285213470459
1.04083408558608426e-16 0.332373648881912231 0.181601285934448242
1.04083408558608426e-16 0.35706523060798645 0.115010745823383331
1.04083408558608426e-16 0.349647670984268188 0.0183115676045417786
1.04083408558608426e-16 0.198380216956138611 0.046949431300163269
1.04083408558608426e-16 0.333132237195968628 0.175673171877861023
1.04083408558608426e-16 0.366005361080169678 0.0902375131845474243
1.04083408558608426e-16 0.178747996687889099 0.109787493944168091
1.04083408558608426e-16 0.0799592733383178711 0.0290537327527999878
1.04083408558608426e-16 0.260938942432403564 0.11321713775396347
1.04083408558608426e-16 0.231728091835975647 0.0125151202082633972
1.04083408558608426e-16 0.365569204092025757 0.0879124701023101807
1.04083408558608426e-16 0.113985747098922729 0.0536874085664749146
1.04083408558608426e-16 0.225632220506668091 0.116092190146446228
1.04083408558608426e-16 0.152880027890205383 0.0815398544073104858
1.04083408558608426e-16 0.0263628661632537842 0.0149524658918380737
1.04083408558608426e-16 0.292695462703704834 0.175406262278556824
1.04083408558608426e-16 0.275772035121917725 0.105953112244606018
1.04083408558608426e-16 0.365244626998901367 0.107185415923595428
1.04083408558608426e-16 0.262565910816192627 0.128048181533813477
1.04083408558608426e-16 0.306390762329101562 0.105847209692001343
1.04083408558608426e-16 0.267300784587860107 0.00206913799047470093
1.04083408558608426e-16 0.25635114312171936 0.0532652139663696289
1.04083408558608426e-16 0.255988895893096924 0.156751230359077454
1.04083408558608426e-16 0.121483057737350464 0.00839869678020477295
1.04083408558608426e-16 0.35320088267326355 0.0132199227809906006
1.04083408558608426e-16 0.156902909278869629 0.0254534035921096802
1.04083408558608426e-16 0.194220542907714844 0.0623777508735656738
1.04083408558608426e-16 0.20281769335269928 0.106747306883335114
1.04083408558608426e-16 0.361014604568481445 0.101175732910633087
1.04083408558608426e-16 0.22148953378200531 0.0714976787567138672
1.04083408558608426e-16 0.380780965089797974 0.0660268068313598633
1.04083408558608426e-16 0.256617367267608643 0.155812382698059082
1.04083408558608426e-16 0.205258011817932129 0.0950378179550170898
1.04083408558608426e-16 0.277422308921813965 0.0568398907780647278
1.04083408558608426e-16 0.346136629581451416 0.114495590329170227
1.04083408558608426e-16 0.357663899660110474 0.0149850472807884216
1.04083408558608426e-16 0.185760021209716797 0.0792089402675628662
1.04083408558608426e-16 0.293616890907287598 0.150612756609916687
1.04083408558608426e-16 0.394065737724304199 0.0289335921406745911
1.04083408558608426e-16 0.397943615913391113 0.168074294924736023
1.04083408558608426e-16 0.0990990400314331055 0.0513772517442703247
1.04083408558608426e-16 0.17251141369342804 0.0925690680742263794
1.04083408558608426e-16 0.257681787014007568 0.124821960926055908
1.04083408558608426e-16 0.311306774616241455 0.184707239270210266
1.04083408558608426e-16 0.366523265838623047 0.0402288138866424561
1.04083408558608426e-16 0.209431245923042297 0.00207503139972686768
1.04083408558608426e-16 0.237640172243118286 0.0167391747236251831
1.04083408558608426e-16 0.3135337233543396 0.055460859090089798
1.04083408558608426e-16 0.396823108196258545 0.197054997086524963
1.04083408558608426e-16 0.251951873302459717 0.136474281549453735
1.04083408558608426e-16 0.0562238395214080811 0.00784932076930999756
1.04083408558608426e-16 0.39586225152015686 0.0309749245643615723
1.04083408558608426e-16 0.148660868406295776 0.0433256179094314575
1.04083408558608426e-16 0.328362107276916504 0.0439980700612068176
1.04083408558608426e-16 0.36708521842956543 0.164759650826454163
1.04083408558608426e-16 0.377670496702194214 0.0586714595556259155
1.04083408558608426e-16 0.330415695905685425 0.100467786192893982
1.04083408558608426e-16 0.268218100070953369 0.107402347028255463
1.04083408558608426e-16 0.359421700239181519 0.00233737751841545105
1.04083408558608426e-16 0.394138634204864502 0.230218097567558289
1.04083408558608426e-16 0.384518295526504517 0.144658744335174561
1.04083408558608426e-16 0.378693044185638428 0.168256014585494995
1.04083408558608426e-16 0.206734880805015564 0.0865672454237937927
1.04083408558608426e-16 0.260744750499725342 0.0497086048126220703
1.04083408558608426e-16 0.320497632026672363 0.127775341272354126
1.04083408558608426e-16 0.276242822408676147 0.146269619464874268
1.04083408558608426e-16 0.276497811079025269 0.0213261395692825317
1.04083408558608426e-16 0.25545269250869751 0.110283792018890381
1.04083408558608426e-16 0.258640527725219727 0.118710801005363464
1.04083408558608426e-16 0.201089173555374146 0.00252558290958404541
1.04083408558608426e-16 0.184328749775886536 0.0680441409349441528
1.04083408558608426e-16 0.368958115577697754 0.191508710384368896
1.04083408558608426e-16 0.164319202303886414 0.0308420360088348389
1.04083408558608426e-16 0.300175249576568604 0.0699431449174880981
1.04083408558608426e-16 0.372453778982162476 0.0532670691609382629
1.04083408558608426e-16 0.185581997036933899 0.103156223893165588
1.04083408558608426e-16 0.327719837427139282 0.116897739470005035
1.04083408558608426e-16 0.259502589702606201 0.0911616906523704529
1.04083408558608426e-16 0.203996926546096802 0.02410869300365448
1.04083408558608426e-16 0.215585768222808838 0.0483970567584037781
1.04083408558608426e-16 0.361519575119018555 0.113493680953979492
1.04083408558608426e-16 0.00644773244857788086 0.00380767881870269775
1.04083408558608426e-16 0.246154189109802246 0.0113140344619750977
1.04083408558608426e-16 0.17541821300983429 0.0315162986516952515
1.04083408558608426e-16 0.280448496341705322 0.0239554271101951599
1.04083408558608426e-16 0.392856627702713013 0.140696093440055847
1.04083408558608426e-16 0.187499761581420898 0.0678227841854095459
1.04083408558608426e-16 0.395711660385131836 0.203584596514701843
1.04083408558608426e-16 0.183365508913993835 0.110836505889892578
1.04083408558608426e-16 0.196517422795295715 0.0754210054874420166
1.04083408558608426e-16 0.243823423981666565 0.0620592907071113586
1.04083408558608426e-16 0.386705875396728516 0.145966976881027222
1.04083408558608426e-16 0.35776209831237793 0.210658818483352661
1.04083408558608426e-16 0.197337493300437927 0.0426935851573944092
1.04083408558608426e-16 0.380023598670959473 0.0188937969505786896
1.04083408558608426e-16 0.275235623121261597 0.0415013357996940613
1.04083408558608426e-16 0.286361575126647949 0.0230158641934394836
1.04083408558608426e-16 0.169696256518363953 0.0749665349721908569
1.04083408558608426e-16 0.187906339764595032 0.0915674269199371338
1.04083408558608426e-16 0.380888551473617554 0.0737433284521102905
1.04083408558608426e-16 0.237644806504249573 0.106371812522411346
1.04083408558608426e-16 0.0348944962024688721 0.00376220047473907471
1.04083408558608426e-16 0.329444229602813721 0.13537771999835968
1.04083408558608426e-16 0.329658091068267822 0.0763418450951576233
1.04083408558608426e-16 0.268737256526947021 0.0599707812070846558
1.04083408558608426e-16 0.350367933511734009 0.13693469762802124
1.04083408558608426e-16 0.391441434621810913 0.0331138111650943756
1.04083408558608426e-16 0.392347514629364014 0.0455761179327964783
1.04083408558608426e-16 0.166656240820884705 0.0451860278844833374
1.04083408558608426e-16 0.270786136388778687 0.144404351711273193
1.04083408558608426e-16 0.182661443948745728 0.107907101511955261
1.04083408558608426e-16 0.383998990058898926 0.111462652683258057
1.04083408558608426e-16 0.300714492797851562 0.0958473756909370422
1.04083408558608426e-16 0.107939422130584717 0.00118170678615570068
1.04083408558608426e-16 0.287160217761993408 0.122891291975975037
1.04083408558608426e-16 0.246311768889427185 0.0416113510727882385
1.04083408558608426e-16 0.302111029624938965 0.187073230743408203
1.04083408558608426e-16 0.0374725461006164551 0.00716577470302581787
1.04083408558608426e-16 0.0765403211116790771 0.01455727219581604
1.04083408558608426e-16 0.30788084864616394 0.177375048398971558
1.04083408558608426e-16 0.263658612966537476 0.108519740402698517
1.04083408558608426e-16 0.35589301586151123 0.0895538032054901123
1.04083408558608426e-16 0.125918686389923096 0.0625914484262466431
1.04083408558608426e-16 0.340799719095230103 0.141687303781509399
1.04083408558608426e-16 0.211730942130088806 0.0615613982081413269
1.04083408558608426e-16 0.168848797678947449 0.0752111971378326416
1.04083408558608426e-16 0.329470843076705933 0.178669601678848267
1.04083408558608426e-16 0.357661306858062744 0.117160744965076447
1.04083408558608426e-16 0.389372915029525757 0.0425501428544521332
1.04083408558608426e-16 0.246595054864883423 0.123949050903320312
1.04083408558608426e-16 0.382234573364257812 0.0641155391931533813
1.04083408558608426e-16 0.228406578302383423 0.0275277495384216309
1.04083408558608426e-16 0.393924057483673096 0.0561613067984580994
1.04083408558608426e-16 0.14800754189491272 0.0548892319202423096
1.04083408558608426e-16 0.361701399087905884 0.172268465161323547
1.04083408558608426e-16 0.103106677532196045 0.0464454144239425659
1.04083408558608426e-16 0.398251116275787354 0.091840304434299469
1.04083408558608426e-16 0.246334373950958252 0.00628732889890670776
1.04083408558608426e-16 0.377686738967895508 0.215199202299118042
1.04083408558608426e-16 0.216112911701202393 0.0450836196541786194
1.04083408558608426e-16 0.291698336601257324 0.145013093948364258
1.04083408558608426e-16 0.244531512260437012 0.0445320159196853638
1.04083408558608426e-16 0.332498371601104736 0.0947711169719696045
1.04083408558608426e-16 0.3697376549243927 0.0929670780897140503
1.04083408558608426e-16 0.202898308634757996 0.106574170291423798
1.04083408558608426e-16 0.312779217958450317 0.0224344469606876373
1.04083408558608426e-16 0.270002782344818115 0.126230612397193909
1.04083408558608426e-16 0.321984916925430298 0.159969031810760498
1.04083408558608426e-16 0.148940533399581909 0.0138435959815979004
1.04083408558608426e-16 0.0310270190238952637 0.00223605334758758545
1.04083408558608426e-16 0.161285504698753357 0.0667679160833358765
1.04083408558608426e-16 0.126839160919189453 0.0557335913181304932
1.04083408558608426e-16 0.238526970148086548 0.0798326432704925537
1.04083408558608426e-16 0.396457940340042114 0.163431122899055481
1.04083408558608426e-16 0.396284162998199463 0.114102266728878021
1.04083408558608426e-16 0.332305818796157837 0.172841310501098633
1.04083408558608426e-16 0.223462864756584167 0.125707447528839111
1.04083408558608426e-16 0.340076357126235962 0.00190674141049385071
1.04083408558608426e-16 0.168884634971618652 0.0568850338459014893
1.04083408558608426e-16 0.308470368385314941 0.0663136839866638184
1.04083408558608426e-16 0.356777042150497437 0.15612494945526123
1.04083408558608426e-16 0.0678994357585906982 0.0120826363563537598
1.04083408558608426e-16 0.208174630999565125 0.00307465344667434692
1.04083408558608426e-16 0.341320604085922241 0.200499936938285828
1.04083408558608426e-16 0.171370536088943481 0.0370345860719680786
1.04083408558608426e-16 0.367211759090423584 0.134124666452407837
1.04083408558608426e-16 0.340311586856842041 0.0615513473749160767
1.04083408558608426e-16 0.101177185773849487 0.0567622631788253784
1.04083408558608426e-16 0.323007762432098389 0.0941598415374755859
1.04083408558608426e-16 0.362131595611572266 0.212994486093521118
1.04083408558608426e-16 0.218729734420776367 0.128643646836280823
1.04083408558608426e-16 0.263422966003417969 0.0738552585244178772
1.04083408558608426e-16 0.344456583261489868 0.15721893310546875
1.04083408558608426e-16 0.322203665971755981 0.0602601207792758942
1.04083408558608426e-16 0.206307187676429749 0.0676032379269599915
1.04083408558608426e-16 0.327345490455627441 0.118065118789672852
1.04083408558608426e-16 0.259082436561584473 0.0356026217341423035
1.04083408558608426e-16 0.086784064769744873 0.03923836350440979
1.04083408558608426e-16 0.390655785799026489 0.00500137405470013618
1.04083408558608426e-16 0.306070834398269653 0.140593573451042175
1.04083408558608426e-16 0.36293339729309082 0.130347728729248047
1.04083408558608426e-16 0.120925277471542358 0.0625911802053451538
1.04083408558608426e-16 0.195331931114196777 0.0704076141119003296
1.04083408558608426e-16 0.35350993275642395 0.0316797569394111633
1.04083408558608426e-16 0.333143532276153564 0.151893213391304016
1.04083408558608426e-16 0.226280704140663147 0.0150307342410087585
1.04083408558608426e-16 0.277263343334197998 0.037007652223110199
1.04083408558608426e-16 0.368037581443786621 0.217461749911308289
1.04083408558608426e-16 0.217235580086708069 0.112414203584194183
1.04083408558608426e-16 0.235280618071556091 0.00467519462108612061
1.04083408558608426e-16 0.0665994584560394287 0.0344780832529067993
1.04083408558608426e-16 0.392769962549209595 0.0896253734827041626
1.04083408558608426e-16 0.396524548530578613 0.0540065877139568329
1.04083408558608426e-16 0.109917253255844116 0.0579897165298461914
1.04083408558608426e-16 0.221564337611198425 0.0439934879541397095
1.04083408558608426e-16 0.339148908853530884 0.15326710045337677
1.04083408558608426e-16 0.284823983907699585 0.041029803454875946
1.04083408558608426e-16 0.358271539211273193 0.162683144211769104
1.04083408558608426e-16 0.266350805759429932 0.142177388072013855
1.04083408558608426e-16 0.246002137660980225 0.00151323527097702026
1.04083408558608426e-16 0.308699220418930054 0.122502058744430542
1.04083408558608426e-16 0.335623979568481445 0.0957502424716949463
1.04083408558608426e-16 0.362693756818771362 0.00476928055286407471
1.04083408558608426e-16 0.292336583137512207 0.178201496601104736
1.04083408558608426e-16 0.22635948657989502 0.0715508610010147095
1.04083408558608426e-16 0.364407926797866821 0.129869982600212097
1.04083408558608426e-16 0.321334958076477051 0.0769313350319862366
1.04083408558608426e-16 0.156303241848945618 0.0370485633611679077
1.04083408558608426e-16 0.144491463899612427 0.0706157088279724121
1.04083408558608426e-16 0.382171094417572021 0.0332514569163322449
1.04083408558608426e-16 0.396290451288223267 0.173620745539665222
1.04083408558608426e-16 0.202983185648918152 0.0693103000521659851
1.04083408558608426e-16 0.264638274908065796 0.0785261765122413635
1.04083408558608426e-16 0.17550937831401825 0.0539330393075942993
1.04083408558608426e-16 0.374524176120758057 0.146645739674568176
1.04083408558608426e-16 0.139642387628555298 0.0670671761035919189
1.04083408558608426e-16 0.331861525774002075 0.188881203532218933
1.04083408558608426e-16 0.155165150761604309 0.0689314305782318115
1.04083408558608426e-16 0.30739206075668335 0.125189453363418579
1.04083408558608426e-16 0.295163482427597046 0.00168517976999282837
1.04083408558608426e-16 0.25421065092086792 0.137167558073997498
1.04083408558608426e-16 0.351140648126602173 0.143492758274078369
1.04083408558608426e-16 0.3752879798412323 0.106858298182487488
1.04083408558608426e-16 0.15656578540802002 0.0403415113687515259
1.04083408558608426e-16 0.281761229038238525 0.00441171228885650635
1.04083408558608426e-16 0.0855936110019683838 0.0115157961845397949
1.04083408558608426e-16 0.18433554470539093 0.0367600321769714355
1.04083408558608426e-16 0.215791091322898865 0.0912653058767318726
1.04083408558608426e-16 0.222721666097640991 0.101152203977108002
1.04083408558608426e-16 0.261028081178665161 0.0248264819383621216
1.04083408558608426e-16 0.175381302833557129 0.0351996719837188721
1.04083408558608426e-16 0.324243128299713135 0.0120470523834228516
1.04083408558608426e-16 0.25634467601776123 0.0899554416537284851
1.04083408558608426e-16 0.307964533567428589 0.124828428030014038
1.04083408558608426e-16 0.273590624332427979 0.167612254619598389
1.04083408558608426e-16 0.317949384450912476 0.176628157496452332
1.04083408558608426e-16 0.10329514741897583 0.0464121252298355103
1.04083408558608426e-16 0.116383284330368042 0.0303076654672622681
1.04083408558608426e-16 0.22366727888584137 0.00107229501008987427
1.04083408558608426e-16 0.374444395303726196 0.133820965886116028
1.04083408558608426e-16 0.313058018684387207 0.0606655366718769073
1.04083408558608426e-16 0.344832062721252441 0.0385787077248096466
1.04083408558608426e-16 0.217208296060562134 0.0320219993591308594
1.04083408558608426e-16 0.157609447836875916 0.0760150253772735596
1.04083408558608426e-16 0.304257005453109741 0.178924351930618286
1.04083408558608426e-16 0.183571815490722656 0.0688437223434448242
1.04083408558608426e-16 0.326652646064758301 0.127225592732429504
1.04083408558608426e-16 0.2582358717918396 0.0730156600475311279
1.04083408558608426e-16 0.169454917311668396 0.0275713950395584106
1.04083408558608426e-16 0.228226304054260254 0.137735038995742798
1.04083408558608426e-16 0.234550103545188904 0.0103664323687553406
1.04083408558608426e-16 0.302137106657028198 0.104154914617538452
1.04083408558608426e-16 0.213605970144271851 0.108053945004940033
1.04083408558608426e-16 0.365318894386291504 0.0673995018005371094
1.04083408558608426e-16 0.306470811367034912 0.131959661841392517
1.04083408558608426e-16 0.363895535469055176 0.0566790774464607239
1.04083408558608426e-16 0.338644862174987793 0.149639204144477844
1.04083408558608426e-16 0.327746748924255371 0.0755856111645698547
1.04083408558608426e-16 0.254978567361831665 0.159294381737709045
1.04083408558608426e-16 0.128974109888076782 0.0100920498371124268
1.04083408558608426e-16 0.358994185924530029 0.215183570981025696
1.04083408558608426e-16 0.316323786973953247 0.157328680157661438
1.04083408558608426e-16 0.36976546049118042 0.127443224191665649
1.04083408558608426e-16 0.254912853240966797 0.089824579656124115
1.04083408558608426e-16 0.369598835706710815 0.0575050711631774902
1.04083408558608426e-16 0.310808390378952026 0.169917017221450806
1.04083408558608426e-16 0.366227179765701294 0.193091824650764465
1.04083408558608426e-16 0.279075682163238525 0.163042053580284119
1.04083408558608426e-16 0.208370625972747803 0.0203527733683586121
1.04083408558608426e-16 0.38346138596534729 0.130081146955490112
1.04083408558608426e-16 0.302054911851882935 0.0281273014843463898
1.04083408558608426e-16 0.290791094303131104 0.0575736314058303833
1.04083408558608426e-16 0.302483320236206055 0.0452845916152000427
1.04083408558608426e-16 0.278861939907073975 0.0333735421299934387
1.04083408558608426e-16 0.38089028000831604 0.129989892244338989
1.04083408558608426e-16 0.384165525436401367 0.129075899720191956
1.04083408558608426e-16 0.225966110825538635 0.0797222480177879333
1.04083408558608426e-16 0.22589389979839325 0.0949563533067703247
1.04083408558608426e-16 0.116534560918807983 0.0122342556715011597
1.04083408558608426e-16 0.134794920682907104 0.0428339987993240356
1.04083408558608426e-16 0.391342490911483765 0.0597912147641181946
1.04083408558608426e-16 0.315479665994644165 0.0749520957469940186
1.04083408558608426e-16 0.398753166198730469 0.0817549601197242737
1.04083408558608426e-16 0.315722674131393433 0.155843660235404968
1.04083408558608426e-16 0.345797270536422729 0.175703361630439758
1.04083408558608426e-16 0.160681828856468201 0.0184683501720428467
1.04083408558608426e-16 0.250287503004074097 0.0352980270981788635
1.04083408558608426e-16 0.216377526521682739 0.000566959381103515625
1.04083408558608426e-16 0.397613435983657837 0.189995497465133667
1.04083408558608426e-16 0.396056443452835083 0.151175722479820251
1.04083408558608426e-16 0.316246479749679565 0.0575311258435249329
1.04083408558608426e-16 0.369934141635894775 0.0774283111095428467
1.04083408558608426e-16 0.294168412685394287 0.0371931493282318115
1.04083408558608426e-16 0.313974767923355103 0.081165611743927002
1.04083408558608426e-16 0.108767688274383545 0.0409642159938812256
1.04083408558608426e-16 0.245799198746681213 0.139406204223632812
1.04083408558608426e-16 0.160598829388618469 0.0263794809579849243
1.04083408558608426e-16 0.372545599937438965 0.0429957695305347443
1.04083408558608426e-16 0.352340400218963623 0.146697357296943665
1.04083408558608426e-16 0.117157161235809326 0.00542309880256652832
1.04083408558608426e-16 0.329251557588577271 0.197487503290176392
1.04083408558608426e-16 0.315770924091339111 0.0849868059158325195
1.04083408558608426e-16 0.254658520221710205 0.0132834240794181824
1.04083408558608426e-16 0.229640305042266846 0.098080761730670929
1.04083408558608426e-16 0.272057414054870605 0.133402645587921143
1.04083408558608426e-16 0.0920129120349884033 0.0333722829818725586
1.04083408558608426e-16 0.15271797776222229 0.0200395286083221436
1.04083408558608426e-16 0.36724284291267395 0.174929261207580566
1.04083408558608426e-16 0.111141085624694824 0.0210917890071868896
1.04083408558608426e-16 0.140549123287200928 0.0377413779497146606
1.04083408558608426e-16 0.329018533229827881 0.10423685610294342
1.04083408558608426e-16 0.326363921165466309 0.0711044967174530029
1.04083408558608426e-16 0.232422024011611938 0.0996367931365966797
1.04083408558608426e-16 0.268410861492156982 0.0896869748830795288
1.04083408558608426e-16 0.361703604459762573 0.152856439352035522
1.04083408558608426e-16 0.0793765783309936523 0.00770895183086395264
1.04083408558608426e-16 0.110920161008834839 0.0543765127658843994
1.04083408558608426e-16 0.376930385828018188 0.114297293126583099
1.04083408558608426e-16 0.388876944780349731 0.0582249723374843597
1.04083408558608426e-16 0.297677457332611084 0.119476467370986938
1.04083408558608426e-16 0.190711662173271179 0.038705676794052124
1.04083408558608426e-16 0.387637555599212646 0.0295647084712982178
1.04083408558608426e-16 0.173665553331375122 0.0963924229145050049
1.04083408558608426e-16 0.257186532020568848 0.117480650544166565
1.04083408558608426e-16 0.11597093939781189 0.0255286842584609985
1.04083408558608426e-16 0.321771860122680664 0.0189264155924320221
1.04083408558608426e-16 0.117941558361053467 0.0373329371213912964
1.04083408558608426e-16 0.217680603265762329 0.08214569091796875
1.04083408558608426e-16 0.193816453218460083 0.113854348659515381
1.04083408558608426e-16 0.369004517793655396 0.0383887961506843567
1.04083408558608426e-16 0.350867092609405518 0.121904954314231873
1.04083408558608426e-16 0.188386633992195129 0.102690219879150391
1.04083408558608426e-16 0.165002211928367615 0.0941089540719985962
1.04083408558608426e-16 0.158682093024253845 0.00120748579502105713
1.04083408558608426e-16 0.353506207466125488 0.00141976028680801392
1.04083408558608426e-16 0.291591137647628784 0.176226317882537842
1.04083408558608426e-16 0.344364285469055176 0.107246264815330505
1.04083408558608426e-16 0.347253501415252686 0.0171555802226066589
1.04083408558608426e-16 0.249414488673210144 0.100797444581985474
1.04083408558608426e-16 0.344912588596343994 0.00545150414109230042
1.04083408558608426e-16 0.226233392953872681 0.0951263606548309326
1.04083408558608426e-16 0.109746158123016357 0.0247891396284103394
1.04083408558608426e-16 0.19702613353729248 0.0534350425004959106
1.04083408558608426e-16 0.233539178967475891 0.119549483060836792
1.04083408558608426e-16 0.116652697324752808 0.0303128808736801147
1.04083408558608426e-16 0.0242871344089508057 0.00540979206562042236
1.04083408558608426e-16 0.341896295547485352 0.150085881352424622
1.04083408558608426e-16 0.200164765119552612 0.0826954618096351624
1.04083408558608426e-16 0.368092626333236694 0.203543663024902344
1.04083408558608426e-16 0.314180344343185425 0.0853949487209320068
1.04083408558608426e-16 0.357057124376296997 0.13492286205291748
1.04083408558608426e-16 0.344457834959030151 0.0332040674984455109
1.04083408558608426e-16 0.323409855365753174 0.139262855052947998
1.04083408558608426e-16 0.0643019974231719971 0.02064494788646698
1.04083408558608426e-16 0.239866465330123901 0.127407640218734741
1.04083408558608426e-16 0.375816255807876587 0.0158988609910011292
1.04083408558608426e-16 0.354523718357086182 0.166366428136825562
1.04083408558608426e-16 0.314958035945892334 0.19340185821056366
1.04083408558608426e-16 0.37964785099029541 0.0479553267359733582
1.04083408558608426e-16 0.381657987833023071 0.0235585868358612061
1.04083408558608426e-16 0.197388604283332825 0.119173184037208557
1.04083408558608426e-16 0.299255192279815674 0.0884568244218826294
1.04083408558608426e-16 0.233099982142448425 0.0282885730266571045
1.04083408558608426e-16 0.26938435435295105 0.110567368566989899
1.04083408558608426e-16 0.372894644737243652 0.0370650589466094971
1.04083408558608426e-16 0.340458095073699951 0.201302424073219299
1.04083408558608426e-16 0.151738718152046204 0.0599097013473510742
1.04083408558608426e-16 0.398424357175827026 0.0303423255681991577
1.04083408558608426e-16 0.128167331218719482 0.0686044394969940186
1.04083408558608426e-16 0.353100091218948364 0.175405532121658325
1.04083408558608426e-16 0.317514538764953613 0.0715234354138374329
1.04083408558608426e-16 0.207116290926933289 0.116219870746135712
1.04083408558608426e-16 0.257011055946350098 0.0541981607675552368
1.04083408558608426e-16 0.325739145278930664 0.00443423166871070862
1.04083408558608426e-16 0.316430419683456421 0.0110031291842460632
1.04083408558608426e-16 0.362611442804336548 0.0812148302793502808
1.04083408558608426e-16 0.332141309976577759 0.04798116534948349
1.04083408558608426e-16 0.372418403625488281 0.0775755196809768677
1.04083408558608426e-16 0.304790467023849487 0.158680379390716553
1.04083408558608426e-16 0.280261039733886719 0.0637235119938850403
1.04083408558608426e-16 0.360649168491363525 0.00585188716650009155
1.04083408558608426e-16 0.390057206153869629 0.0378626026213169098
1.04083408558608426e-16 0.368096470832824707 0.0991337224841117859
1.04083408558608426e-16 0.391651839017868042 0.109938874840736389
1.04083408558608426e-16 0.292177915573120117 0.0705295279622077942
1.04083408558608426e-16 0.265922784805297852 0.139825612306594849
1.04083408558608426e-16 0.257734924554824829 0.133093193173408508
1.04083408558608426e-16 0.13955339789390564 0.0753972828388214111
1.04083408558608426e-16 0.258478820323944092 0.00926110148429870605
1.04083408558608426e-16 0.0576151013374328613 0.0250232666730880737
1.04083408558608426e-16 0.248721763491630554 0.0251837596297264099
1.04083408558608426e-16 0.258116811513900757 0.0224761739373207092
1.04083408558608426e-16 0.253681004047393799 0.096782684326171875
1.04083408558608426e-16 0.305128544569015503 0.109951391816139221
1.04083408558608426e-16 0.264414131641387939 0.0800539702177047729
1.04083408558608426e-16 0.26122593879699707 0.0127849280834197998
1.04083408558608426e-16 0.193810567259788513 0.113392502069473267
1.04083408558608426e-16 0.299119532108306885 0.0908664613962173462
1.04083408558608426e-16 0.324042826890945435 0.153776168823242188
1.04083408558608426e-16 0.27501910924911499 0.120168343186378479
1.04083408558608426e-16 0.099193185567855835 4.78327274322509766e-05
1.04083408558608426e-16 0.277666389942169189 0.152994275093078613
1.04083408558608426e-16 0.304268002510070801 0.101756632328033447
1.04083408558608426e-16 0.138417035341262817 0.0146121084690093994
1.04083408558608426e-16 0.337623864412307739 0.15617138147354126
1.04083408558608426e-16 0.0732187926769256592 0.0160615593194961548
1.04083408558608426e-16 0.0416613221168518066 0.000103935599327087402
1.04083408558608426e-16 0.333085119724273682 0.0698791444301605225
1.04083408558608426e-16 0.251217126846313477 0.100158810615539551
1.04083408558608426e-16 0.143081843852996826 0.0080690532922744751
1.04083408558608426e-16 0.293028652667999268 0.112689301371574402
1.04083408558608426e-16 0.325359940528869629 0.0962727665901184082
1.04083408558608426e-16 0.388524442911148071 0.18875393271446228
1.04083408558608426e-16 0.297184199094772339 0.16250079870223999
1.04083408558608426e-16 0.27848660945892334 0.0496918186545372009
1.04083408558608426e-16 0.284956276416778564 0.0423036664724349976
1.04083408558608426e-16 0.295415282249450684 0.140781909227371216
1.04083408558608426e-16 0.370680302381515503 0.169588327407836914
1.04083408558608426e-16 0.119787752628326416 0.0154673010110855103
1.04083408558608426e-16 0.201234385371208191 0.00532442331314086914
1.04083408558608426e-16 0.110600918531417847 0.0382507890462875366
1.04083408558608426e-16 0.349092483520507812 0.0173483565449714661
1.04083408558608426e-16 0.382339358329772949 0.00169377774000167847
1.04083408558608426e-16 0.168099433183670044 0.0466739088296890259
1.04083408558608426e-16 0.170291811227798462 0.0221092104911804199
1.04083408558608426e-16 0.351285636425018311 0.102889791131019592
1.04083408558608426e-16 0.361576706171035767 0.0363981872797012329
1.04083408558608426e-16 0.198775604367256165 0.083165094256401062
1.04083408558608426e-16 0.215515151619911194 0.102047957479953766
1.04083408558608426e-16 0.376490294933319092 0.193269029259681702
1.04083408558608426e-16 0.358155578374862671 0.0208670850843191147
1.04083408558608426e-16 0.0308711826801300049 0.00803557038307189941
1.04083408558608426e-16 0.189766630530357361 0.00853608548641204834
1.04083408558608426e-16 0.231820955872535706 0.0822753831744194031
1.04083408558608426e-16 0.279613584280014038 0.12705838680267334
1.04083408558608426e-16 0.242018908262252808 0.0557472482323646545
1.04083408558608426e-16 0.157115966081619263 0.0495259463787078857
1.04083408558608426e-16 0.187152266502380371 0.0336722135543823242
1.04083408558608426e-16 0.389782369136810303 0.239815071225166321
1.04083408558608426e-16 0.379655599594116211 0.191342025995254517
1.04083408558608426e-16 0.354073226451873779 0.158677011728286743
1.04083408558608426e-16 0.362555593252182007 0.209773391485214233
1.04083408558608426e-16 0.397544890642166138 0.180670857429504395
1.04083408558608426e-16 0.106654733419418335 0.06510142982006073
1.04083408558608426e-16 0.328076720237731934 0.0446801409125328064
1.04083408558608426e-16 0.308473378419876099 0.117984235286712646
1.04083408558608426e-16 0.275380760431289673 0.0717054009437561035
1.04083408558608426e-16 0.134616076946258545 0.0241786986589431763
1.04083408558608426e-16 0.126575201749801636 0.0463524758815765381
1.04083408558608426e-16 0.3007030189037323 0.103150799870491028
1.04083408558608426e-16 0.173907622694969177 0.0593669712543487549
1.04083408558608426e-16 0.0694292187690734863 0.00163325667381286621
1.04083408558608426e-16 0.0873559415340423584 0.0422987192869186401
1.04083408558608426e-16 0.258662700653076172 0.139070510864257812
1.04083408558608426e-16 0.0978899598121643066 0.000452518463134765625
1.04083408558608426e-16 0.204204559326171875 0.102403238415718079
1.04083408558608426e-16 0.312620550394058228 0.183235272765159607
1.04083408558608426e-16 0.394340544939041138 0.172152891755104065
1.04083408558608426e-16 0.366307646036148071 0.110507301986217499
1.04083408558608426e-16 0.111542940139770508 0.00965400040149688721
1.04083408558608426e-16 0.219382897019386292 0.0680747255682945251
1.04083408558608426e-16 0.167492985725402832 0.0765251815319061279
1.04083408558608426e-16 0.227195337414741516 0.0123546421527862549
1.04083408558608426e-16 0.239922761917114258 0.101177811622619629
1.04083408558608426e-16 0.355086863040924072 0.0804317519068717957
1.04083408558608426e-16 0.0727781057357788086 0.00196036696434020996
1.04083408558608426e-16 0.326984941959381104 0.0467469245195388794
1.04083408558608426e-16 0.353644669055938721 0.208553582429885864
1.04083408558608426e-16 0.336909323930740356 0.155369400978088379
1.04083408558608426e-16 0.387987315654754639 0.0265177655965089798
1.04083408558608426e-16 0.345922917127609253 0.190038591623306274
1.04083408558608426e-16 0.0650333762168884277 0.0205826908349990845
1.04083408558608426e-16 0.343275308609008789 0.151557117700576782
1.04083408558608426e-16 0.393242239952087402 0.0957361981272697449
1.04083408558608426e-16 0.177047178149223328 0.0481231659650802612
1.04083408558608426e-16 0.348114192485809326 0.0372657664120197296
1.04083408558608426e-16 0.321595847606658936 0.0805810689926147461
1.04083408558608426e-16 0.199084237217903137 0.114780113101005554
1.04083408558608426e-16 0.258247554302215576 0.0281879007816314697
1.04083408558608426e-16 0.0706744194030761719 0.000685319304466247559
1.04083408558608426e-16 0.33974379301071167 0.0618067234754562378
1.04083408558608426e-16 0.164390444755554199 0.0673274844884872437
1.04083408558608426e-16 0.262841522693634033 0.0523125231266021729
1.04083408558608426e-16 0.108168184757232666 0.0409579873085021973
1.04083408558608426e-16 0.227535799145698547 0.00708003342151641846
1.04083408558608426e-16 0.290157049894332886 0.174186855554580688
1.04083408558608426e-16 0.326811730861663818 0.0448517985641956329
1.04083408558608426e-16 0.362774491310119629 0.198274746537208557
1.04083408558608426e-16 0.304097235202789307 0.0335289053618907928
1.04083408558608426e-16 0.255768120288848877 0.033886246383190155
1.04083408558608426e-16 0.135751426219940186 0.026295095682144165
1.04083408558608426e-16 0.244065180420875549 0.0895868763327598572
1.04083408558608426e-16 0.176233008503913879 0.0774676501750946045
1.04083408558608426e-16 0.0160703063011169434 0.00766026973724365234
1.04083408558608426e-16 0.231605738401412964 0.117424346506595612
1.04083408558608426e-16 0.252443850040435791 0.0439404621720314026
1.04083408558608426e-16 0.366696953773498535 0.0907789915800094604
1.04083408558608426e-16 0.323040246963500977 0.0629703179001808167
1.04083408558608426e-16 0.267935037612915039 0.100889988243579865
1.04083408558608426e-16 0.340620368719100952 0.189060419797897339
1.04083408558608426e-16 0.293565958738327026 0.17512725293636322
1.04083408558608426e-16 0.239977911114692688 0.0168585330247879028
1.04083408558608426e-16 0.207447633147239685 0.0776174440979957581
1.04083408558608426e-16 0.129631340503692627 0.00432199239730834961
1.04083408558608426e-16 0.392030656337738037 0.10264916718006134
1.04083408558608426e-16 0.26677975058555603 0.015168510377407074
1.04083408558608426e-16 0.371717453002929688 0.139437198638916016
1.04083408558608426e-16 0.365738034248352051 0.0635765045881271362
1.04083408558608426e-16 0.273852169513702393 0.151296913623809814
1.04083408558608426e-16 0.270998299121856689 0.0519794225692749023
1.04083408558608426e-16 0.227234512567520142 0.0802035778760910034
1.04083408558608426e-16 0.0736157000064849854 0.0165275037288665771
1.04083408558608426e-16 0.246531009674072266 0.0711650550365447998
1.04083408558608426e-16 0.339444071054458618 0.158045873045921326
1.04083408558608426e-16 0.394143521785736084 0.069540955126285553
1.04083408558608426e-16 0.377038449048995972 0.234995827078819275
1.04083408558608426e-16 0.378912121057510376 0.174772977828979492
1.04083408558608426e-16 0.198028236627578735 0.0136954188346862793
1.04083408558608426e-16 0.374473720788955688 0.112287066876888275
1.04083408558608426e-16 0.186649903655052185 0.0827737301588058472
1.04083408558608426e-16 0.2941398024559021 0.0141890347003936768
1.04083408558608426e-16 0.398112565279006958 5.26993535459041595e-05
1.04083408558608426e-16 0.159318640828132629 0.0790906846523284912
1.04083408558608426e-16 0.332959592342376709 0.188964024186134338
1.04083408558608426e-16 0.156012058258056641 0.0781145542860031128
1.04083408558608426e-16 0.314946681261062622 0.0927355140447616577
1.04083408558608426e-16 0.37257152795791626 0.165063530206680298
1.04083408558608426e-16 0.174535229802131653 0.0546606183052062988
1.04083408558608426e-16 0.088997185230255127 0.0510638654232025146
1.04083408558608426e-16 0.347064107656478882 0.144088417291641235
1.04083408558608426e-16 0.204845979809761047 0.0296307504177093506
1.04083408558608426e-16 0.112321555614471436 0.0473580211400985718
1.04083408558608426e-16 0.300665885210037231 0.137789875268936157
1.04083408558608426e-16 0.314114481210708618 0.123501583933830261
1.04083408558608426e-16 0.313242226839065552 0.0924625247716903687
1.04083408558608426e-16 0.253859400749206543 0.0280827954411506653
1.04083408558608426e-16 0.194800242781639099 0.0391705334186553955
1.04083408558608426e-16 0.187529206275939941 0.064020887017250061
1.04083408558608426e-16 0.383394449949264526 0.197303101420402527
1.04083408558608426e-16 0.199521765112876892 0.0102206915616989136
1.04083408558608426e-16 0.23288138210773468 0.0505212247371673584
1.04083408558608426e-16 0.304847538471221924 0.15130692720413208
1.04083408558608426e-16 0.187762022018432617 0.0288885831832885742
1.04083408558608426e-16 0.189387425780296326 0.0750498473644256592
1.04083408558608426e-16 0.229081347584724426 0.13759186863899231
1.04083408558608426e-16 0.365018308162689209 0.0268356762826442719
1.04083408558608426e-16 0.142597943544387817 0.0711801648139953613
1.04083408558608426e-16 0.380519300699234009 0.12437746673822403
1.04083408558608426e-16 0.234481438994407654 0.0776080116629600525
1.04083408558608426e-16 0.117979705333709717 0.0237869471311569214
1.04083408558608426e-16 0.387892335653305054 0.0801373422145843506
1.04083408558608426e-16 0.0511829555034637451 0.0252494961023330688
1.04083408558608426e-16 0.288121432065963745 0.0757910385727882385
1.04083408558608426e-16 0.375789284706115723 0.0920917987823486328
1.04083408558608426e-16 0.388470232486724854 0.175769522786140442
1.04083408558608426e-16 0.251315772533416748 0.0303484126925468445
1.04083408558608426e-16 0.329552769660949707 0.188283845782279968
1.04083408558608426e-16 0.392463177442550659 0.139984160661697388
1.04083408558608426e-16 0.254120707511901855 0.0964879989624023438
1.04083408558608426e-16 0.389946341514587402 0.167347043752670288
1.04083408558608426e-16 0.37685045599937439 0.0368277840316295624
1.04083408558608426e-16 0.221604704856872559 0.0781373828649520874
1.04083408558608426e-16 0.137969732284545898 0.0269983410835266113
1.04083408558608426e-16 0.382120043039321899 0.161340415477752686
1.04083408558608426e-16 0.338220655918121338 0.060045287013053894
1.04083408558608426e-16 0.236066251993179321 0.0274888277053833008
1.04083408558608426e-16 0.346736371517181396 0.123157203197479248
1.04083408558608426e-16 0.236198186874389648 0.0972043871879577637
1.04083408558608426e-16 0.347361862659454346 0.106985755264759064
1.04083408558608426e-16 0.24124009907245636 0.12301182746887207
1.04083408558608426e-16 0.169127106666564941 0.041157945990562439
1.04083408558608426e-16 0.344828188419342041 0.149310529232025146
1.04083408558608426e-16 0.24785652756690979 0.146173268556594849
1.04083408558608426e-16 0.0579269528388977051 0.0317850261926651001
1.04083408558608426e-16 0.358141183853149414 0.157755225896835327
1.04083408558608426e-16 0.334338068962097168 0.0811849832534790039
1.04083408558608426e-16 0.231852754950523376 0.0987874940037727356
1.04083408558608426e-16 0.273534059524536133 0.0388135313987731934
1.04083408558608426e-16 0.172818213701248169 0.098787263035774231
1.04083408558608426e-16 0.161788105964660645 0.0499226897954940796
1.04083408558608426e-16 0.321219891309738159 0.12952442467212677
1.04083408558608426e-16 0.257787048816680908 0.143581748008728027
1.04083408558608426e-16 0.295808017253875732 0.144805818796157837
1.04083408558608426e-16 0.150936603546142578 0.0467345118522644043
1.04083408558608426e-16 0.226840421557426453 0.130727320909500122
1.04083408558608426e-16 0.214928627014160156 0.0283014923334121704
1.04083408558608426e-16 0.354526668787002563 0.175102159380912781
1.04083408558608426e-16 0.226181656122207642 0.030035555362701416
1.04083408558608426e-16 0.230934768915176392 0.0947634428739547729
1.04083408558608426e-16 0.272641956806182861 0.0350787565112113953
1.04083408558608426e-16 0.39511406421661377 0.0126458983868360519
1.04083408558608426e-16 0.273804336786270142 0.0554931908845901489
1.04083408558608426e-16 0.139160215854644775 0.0827648341655731201
1.04083408558608426e-16 0.218933627009391785 0.0515314042568206787
1.04083408558608426e-16 0.160607725381851196 0.0450392067432403564
1.04083408558608426e-16 0.357800602912902832 0.0955655947327613831
1.04083408558608426e-16 0.217729642987251282 0.0688644647598266602
1.04083408558608426e-16 0.176725700497627258 0.105394124984741211
1.04083408558608426e-16 0.377360522747039795 0.204713091254234314
1.04083408558608426e-16 0.27099686861038208 0.150195598602294922
1.04083408558608426e-16 0.348340094089508057 0.179483890533447266
1.04083408558608426e-16 0.0632416605949401855 0.0358848422765731812
1.04083408558608426e-16 0.324764549732208252 0.075234830379486084
1.04083408558608426e-16 0.361359655857086182 0.107352390885353088
1.04083408558608426e-16 0.352628856897354126 0.0176686272025108337
1.04083408558608426e-16 0.372870534658432007 0.188928008079528809
1.04083408558608426e-16 0.310539007186889648 0.0548041723668575287
1.04083408558608426e-16 0.367596447467803955 0.137365490198135376
1.04083408558608426e-16 0.346157580614089966 0.19765627384185791
1.04083408558608426e-16 0.0319462716579437256 0.00602927803993225098
1.04083408558608426e-16 0.232175394892692566 0.125679165124893188
1.04083408558608426e-16 0.161527067422866821 0.0290039181709289551
1.04083408558608426e-16 0.358350872993469238 0.173194542527198792
1.04083408558608426e-16 0.252706229686737061 0.0100729987025260925
1.04083408558608426e-16 0.276671677827835083 0.134610533714294434
1.04083408558608426e-16 0.350043416023254395 0.116180151700973511
1.04083408558608426e-16 0.277117818593978882 0.00908078253269195557
1.04083408558608426e-16 0.365725398063659668 0.0884242057800292969
1.04083408558608426e-16 0.262013792991638184 0.0732689052820205688
1.04083408558608426e-16 0.235338658094406128 0.0891616120934486389
1.04083408558608426e-16 0.105907738208770752 0.031355738639831543
1.04083408558608426e-16 0.178318619728088379 0.0474391132593154907
1.04083408558608426e-16 0.142740875482559204 0.0188851654529571533
1.04083408558608426e-16 0.107536107301712036 0.0411686748266220093
1.04083408558608426e-16 0.308730721473693848 0.0304657705128192902
1.04083408558608426e-16 0.251784086227416992 0.0366300269961357117
1.04083408558608426e-16 0.199022650718688965 0.042370915412902832
1.04083408558608426e-16 0.205343768000602722 0.109077990055084229
1.04083408558608426e-16 0.149209439754486084 0.0848837196826934814
1.04083408558608426e-16 0.309834152460098267 0.0185234099626541138
1.04083408558608426e-16 0.274133741855621338 0.116448506712913513
1.04083408558608426e-16 0.213564738631248474 0.0322134718298912048
1.04083408558608426e-16 0.390273332595825195 0.0898351371288299561
1.04083408558608426e-16 0.0630617439746856689 0.0113126784563064575
1.04083408558608426e-16 0.376147478818893433 0.0503171831369400024
1.04083408558608426e-16 0.162606030702590942 0.00767080485820770264
1.04083408558608426e-16 0.0831713080406188965 0.0206803828477859497
1.04083408558608426e-16 0.014857947826385498 0.00477731227874755859
1.04083408558608426e-16 0.266154110431671143 0.0691853314638137817
1.04083408558608426e-16 0.348483413457870483 0.055783543735742569
1.04083408558608426e-16 0.360764414072036743 0.0716434791684150696
1.04083408558608426e-16 0.377503037452697754 0.201164036989212036
1.04083408558608426e-16 0.27887803316116333 0.016526445746421814
1.04083408558608426e-16 0.245622009038925171 0.0387046113610267639
1.04083408558608426e-16 0.282880246639251709 0.00336340814828872681
1.04083408558608426e-16 0.320465922355651855 0.094274766743183136
1.04083408558608426e-16 0.339975148439407349 0.103635422885417938
1.04083408558608426e-16 0.377478808164596558 0.230472013354301453
1.04083408558608426e-16 0.304482311010360718 0.0163323543965816498
1.04083408558608426e-16 0.249065518379211426 0.113835588097572327
1.04083408558608426e-16 0.335971236228942871 0.0545252636075019836
1.04083408558608426e-16 0.340166211128234863 0.0781968459486961365
1.04083408558608426e-16 0.279957324266433716 0.040064491331577301
1.04083408558608426e-16 0.382236331701278687 0.183906957507133484
1.04083408558608426e-16 0.223762378096580505 0.0162232816219329834
1.04083408558608426e-16 0.301324605941772461 0.174401998519897461
1.04083408558608426e-16 0.383620619773864746 0.225508064031600952
1.04083408558608426e-16 0.267477095127105713 0.0803370997309684753
1.04083408558608426e-16 0.336556732654571533 0.197658717632293701
1.04083408558608426e-16 0.17957673966884613 0.0152422487735748291
1.04083408558608426e-16 0.332555979490280151 0.148558586835861206
1.04083408558608426e-16 0.288914501667022705 0.0778700262308120728
1.04083408558608426e-16 0.102494895458221436 0.0212995707988739014
1.04083408558608426e-16 0.250031083822250366 0.00201759487390518188
1.04083408558608426e-16 0.376629352569580078 0.0653359964489936829
1.04083408558608426e-16 0.346086859703063965 0.0162688195705413818
1.04083408558608426e-16 0.373046129941940308 0.110075227916240692
1.04083408558608426e-16 0.363815605640411377 0.00888508372008800507
1.04083408558608426e-16 0.304682254791259766 0.0460366792976856232
1.04083408558608426e-16 0.181743621826171875 0.0251924097537994385
1.04083408558608426e-16 0.25112539529800415 0.0217443481087684631
1.04083408558608426e-16 0.391946226358413696 0.135188192129135132
1.04083408558608426e-16 0.215324833989143372 0.12841661274433136
1.04083408558608426e-16 0.161879405379295349 0.0827107131481170654
1.04083408558608426e-16 0.188772961497306824 0.0129855871200561523
1.04083408558608426e-16 0.240214020013809204 0.0991105735301971436
1.04083408558608426e-16 0.274400681257247925 0.11920977383852005
1.04083408558608426e-16 0.141636788845062256 0.036177903413772583
1.04083408558608426e-16 0.355867952108383179 0.112992055714130402
1.04083408558608426e-16 0.284257084131240845 0.121305093169212341
1.04083408558608426e-16 0.285815209150314331 0.00882427394390106201
1.04083408558608426e-16 0.3961353600025177 0.175518542528152466
1.04083408558608426e-16 0.247906133532524109 0.0245802029967308044
1.04083408558608426e-16 0.160180956125259399 0.0329519063234329224
1.04083408558608426e-16 0.238813921809196472 0.140749871730804443
1.04083408558608426e-16 0.369390964508056641 0.0821617469191551208
1.04083408558608426e-16 0.204718157649040222 0.0696015655994415283
1.04083408558608426e-16 0.123554855585098267 0.0049515068531036377
1.04083408558608426e-16 0.278509974479675293 0.142626330256462097
1.04083408558608426e-16 0.229030832648277283 0.0315958410501480103
1.04083408558608426e-16 0.194647073745727539 0.0624151378870010376
1.04083408558608426e-16 0.229095622897148132 0.0754921883344650269
1.04083408558608426e-16 0.381375640630722046 0.190356522798538208
1.04083408558608426e-16 0.394073605537414551 0.217077508568763733
1.04083408558608426e-16 0.276955842971801758 0.144919812679290771
1.04083408558608426e-16 0.0317488312721252441 0.0035829395055770874
1.04083408558608426e-16 0.299020439386367798 0.0314331725239753723
1.04083408558608426e-16 0.236787304282188416 0.00923177599906921387
1.04083408558608426e-16 0.23767225444316864 0.124874912202358246
1.04083408558608426e-16 0.113159418106079102 0.0361645221710205078
1.04083408558608426e-16 0.398865967988967896 0.112323574721813202
