ply
format ascii 1.0
element vertex 709
property float x
property float y
property float z
end_header
0.14711664617061615 0.00703545520082116127 -0.0566971339285373688
0.150716677308082581 0.0172259416431188583 -0.0541854053735733032
0.165232360363006592 0.0155227798968553543 -0.0546051971614360809
-0.0100424680858850479 0.013161282055079937 -0.0551872551441192627
0.0797960609197616577 0.00842523481696844101 -0.0563545860350131989
0.180308952927589417 0.00746085820719599724 -0.0565922819077968597
0.148189395666122437 0.0159744545817375183 -0.0544938668608665466
0.00514112412929534912 0.00900290161371231079 -0.056212201714515686
0.0412789136171340942 0.00832781475037336349 -0.0563785955309867859
0.0487202182412147522 0.0118116568773984909 -0.0555199049413204193
0.164861291646957397 0.0182347912341356277 -0.0539367459714412689
0.104323789477348328 0.0142722427845001221 -0.0549134276807308197
-0.0938792601227760315 0.00730852922424674034 -0.0566298291087150574
0.173759207129478455 0.0114465169608592987 -0.0556099042296409607
0.186720237135887146 0.0180700737982988358 -0.0539773441851139069
0.0235784947872161865 0.0107563380151987076 -0.055780019611120224
0.167423754930496216 0.00937398336827754974 -0.0561207383871078491
0.0119049102067947388 0.0105109661817550659 -0.0558404996991157532
0.0438701659440994263 0.00790444575250148773 -0.056482948362827301
0.192633762955665588 0.010539250448346138 -0.0558335259556770325
0.0307401716709136963 0.00693852175027132034 -0.0567210279405117035
0.0601375102996826172 0.0109438048675656319 -0.0557338111102581024
0.0318696945905685425 0.00804355647414922714 -0.0564486607909202576
-0.00700113177299499512 0.0125772552564740181 -0.0553312040865421295
-0.0355039536952972412 0.0073675401508808136 -0.0566152818500995636
0.0356549471616744995 0.0118362493813037872 -0.0555138438940048218
0.0441432520747184753 0.00997015088796615601 -0.0559737980365753174
0.157103776931762695 0.00905105844140052795 -0.0562003329396247864
0.130165010690689087 0.0149345342069864273 -0.0547501854598522186
-0.122138060629367828 0.00724398577585816383 -0.0566457360982894897
-0.0465150028467178345 0.0101875346153974533 -0.0559202171862125397
0.153989240527153015 0.012022828683257103 -0.0554678589105606079
0.0626765042543411255 0.0143201500177383423 -0.0549016185104846954
0.178879410028457642 0.00765607412904500961 -0.0565441660583019257
0.0528605133295059204 0.0114891370758414268 -0.0555993989109992981
0.0140669941902160645 0.00708609260618686676 -0.0566846542060375214
0.140105769038200378 0.00870593823492527008 -0.0562853962182998657
0.0698076039552688599 0.0156659260392189026 -0.0545699149370193481
0.118614062666893005 0.0131032168865203857 -0.0552015639841556549
0.126707300543785095 0.0135404132306575775 -0.0550938062369823456
0.0431270673871040344 0.0127339232712984085 -0.0552925877273082733
0.0823740586638450623 0.00997904874384403229 -0.0559716038405895233
-0.162556469440460205 0.00736993225291371346 -0.0566146932542324066
0.00527790188789367676 0.00815894361585378647 -0.0564202181994915009
-0.0585370808839797974 0.00708913570269942284 -0.0566839054226875305
0.0337426960468292236 0.00698567181825637817 -0.0567094050347805023
-0.0856264382600784302 0.0106737874448299408 -0.055800367146730423
0.17646104097366333 0.0139189381152391434 -0.0550005063414573669
0.178562968969345093 0.00796696636825799942 -0.0564675368368625641
0.1378956139087677 0.0145117891952395439 -0.0548543818295001984
0.140122085809707642 0.00842786580324172974 -0.0563539378345012665
0.162300571799278259 0.00717079266905784607 -0.0566637776792049408
-0.126495927572250366 0.00855709239840507507 -0.0563220866024494171
-0.0836754217743873596 0.00890870951116085052 -0.0562354177236557007
0.10741792619228363 0.0083900894969701767 -0.0563632473349571228
0.171757161617279053 0.00970787182450294495 -0.056038442999124527
0.191389366984367371 0.0138349048793315887 -0.0550212189555168152
-0.0310903079807758331 0.0109871532768011093 -0.0557231269776821136
0.0927877426147460938 0.0115815773606300354 -0.055576615035533905
-0.0658239126205444336 0.00873199757188558578 -0.0562789738178253174
0.122552588582038879 0.00698394607752561569 -0.056709829717874527
0.11390107125043869 0.00946059916168451309 -0.0560993887484073639
0.194048985838890076 0.0089795328676700592 -0.0562179610133171082
0.0279035493731498718 0.0122997183352708817 -0.0553996115922927856
0.0174481123685836792 0.0119867110624909401 -0.0554767586290836334
0.192959576845169067 0.0111589767038822174 -0.0556807778775691986
0.108295559883117676 0.0078974161297082901 -0.0564846806228160858
0.18957267701625824 0.0170778408646583557 -0.0542219094932079315
0.14418540894985199 0.00797103717923164368 -0.0564665347337722778
0.193047434091567993 0.0157673563808202744 -0.0545449145138263702
0.100347809493541718 0.0158784538507461548 -0.0545175299048423767
0.0690056830644607544 0.00770749058574438095 -0.0565314926207065582
-0.143834337592124939 0.00854588020592927933 -0.0563248470425605774
0.115677282214164734 0.00877264980226755142 -0.0562689565122127533
0.0579247772693634033 0.0091447560116648674 -0.056177239865064621
0.133982390165328979 0.010695253498852253 -0.0557950735092163086
0.195773303508758545 0.0153049938380718231 -0.0546588748693466187
0.0857546031475067139 0.00872309226542711258 -0.0562811680138111115
0.18063044548034668 0.0165964961051940918 -0.0543405488133430481
-0.14649413526058197 0.00767170311883091927 -0.056540314108133316
0.182881414890289307 0.00861546769738197327 -0.0563076958060264587
0.161838158965110779 0.0111256176605820656 -0.0556889995932579041
-0.146539300680160522 0.00755146052688360214 -0.056569952517747879
0.183582872152328491 0.00861610099673271179 -0.0563075393438339233
0.0705208480358123779 0.00833445694297552109 -0.0563769601285457611
-0.0838383585214614868 0.00880985613912343979 -0.0562597848474979401
-0.0512049086391925812 0.0100134927779436111 -0.0559631139039993286
-0.158790469169616699 0.00732845626771450043 -0.0566249154508113861
0.109922796487808228 0.00811828859150409698 -0.0564302392303943634
-0.0970311164855957031 0.00696161622181534767 -0.0567153356969356537
0.0293542556464672089 0.0145173463970422745 -0.0548530146479606628
0.148384198546409607 0.0120397238060832024 -0.0554636940360069275
0.116714373230934143 0.0169650409370660782 -0.0542497113347053528
0.157960191369056702 0.00761056272312998772 -0.0565553829073905945
0.13494756817817688 0.0136149534955620766 -0.0550754331052303314
0.125948727130889893 0.0143637619912624359 -0.0548908673226833344
-0.0719208419322967529 0.0071819736622273922 -0.056661020964384079
-0.0883043631911277771 0.0103248180821537971 -0.0558863803744316101
0.161729201674461365 0.0189044550061225891 -0.0537716895341873169
-0.0551786348223686218 0.00890522636473178864 -0.0562362782657146454
-0.117988012731075287 0.0191472657024860382 -0.0537118390202522278
-0.143651843070983887 0.0191971268504858017 -0.0536995492875576019
-0.132108479738235474 0.0114285945892333984 -0.0556143224239349365
-0.159946173429489136 0.0195106193423271179 -0.0536222830414772034
0.0204589366912841797 0.0178117267787456512 -0.0540410242974758148
-0.0623704493045806885 0.0189066324383020401 -0.0537711493670940399
0.0342095345258712769 0.019004039466381073 -0.0537471435964107513
-0.0718420445919036865 0.0196044333279132843 -0.0535991564393043518
-0.147099912166595459 0.0174210388213396072 -0.0541373193264007568
-0.00341528654098510742 0.0162101313471794128 -0.0544357821345329285
-0.0473668426275253296 0.016741020604968071 -0.0543049275875091553
-0.186226502060890198 0.0193828344345092773 -0.0536537766456604004
-0.170936137437820435 0.0102643100544810295 -0.0559012927114963531
-0.0215784460306167603 0.0135762831196188927 -0.055084962397813797
-0.0841807499527931213 0.0174586493521928787 -0.0541280470788478851
-0.0846232175827026367 0.0178181566298007965 -0.0540394335985183716
-0.103507988154888153 0.0144831370562314987 -0.0548614487051963806
-0.0981122180819511414 0.0171601381152868271 -0.0542016215622425079
-0.150111839175224304 0.0156678315252065659 -0.0545694455504417419
-0.185718446969985962 0.00860288925468921661 -0.0563107989728450775
-0.186666190624237061 0.0137689290568232536 -0.0550374798476696014
-0.0394608825445175171 0.0191525314003229141 -0.053710542619228363
-0.167818829417228699 0.0130049148574471474 -0.0552257969975471497
-0.143013119697570801 0.0132273538038134575 -0.0551709681749343872
-0.0967880859971046448 0.0162670686841011047 -0.054421745240688324
0.170271307229995728 0.0194393433630466461 -0.0536398515105247498
-0.0240379571914672852 0.0194876175373792648 -0.0536279492080211639
-0.126119494438171387 0.0160514246672391891 -0.0544748976826667786
-0.0750869438052177429 0.0190530773252248764 -0.0537350550293922424
-0.0330236256122589111 0.0126098599284887314 -0.0553231686353683472
-0.135116487741470337 0.0159805156290531158 -0.0544923767447471619
-0.0570728927850723267 0.0141890840604901314 -0.0549339205026626587
-0.108462683856487274 0.011350410059094429 -0.05563359335064888
0.0146649032831192017 0.0175395552068948746 -0.0541081055998802185
-0.141780301928520203 0.0112424250692129135 -0.0556602105498313904
-0.12473684549331665 0.0199258122593164444 -0.0535199455916881561
0.0240926146507263184 0.0191192440688610077 -0.0537187457084655762
-0.10954015702009201 0.0183946434408426285 -0.0538973473012447357
-0.197828322649002075 0.0112019497901201248 -0.0556701831519603729
-0.0600909888744354248 0.0122149642556905746 -0.0554204992949962616
-0.178960993885993958 0.0182269364595413208 -0.0539386831223964691
-0.0687816888093948364 0.0145106073468923569 -0.0548546724021434784
-0.0139168798923492432 0.0146165480837225914 -0.0548285618424415588
-0.188593119382858276 0.0111421495676040649 -0.0556849278509616852
-0.00684486329555511475 0.0142825357615947723 -0.0549108870327472687
-0.00772342085838317871 0.0144434897229075432 -0.0548712164163589478
0.0491355359554290771 0.0164467822760343552 -0.0543774515390396118
-0.163118720054626465 0.0143424207344651222 -0.0548961274325847626
-0.124549806118011475 0.0143781732767820358 -0.0548873171210289001
-0.138437554240226746 0.0199833344668149948 -0.0535057671368122101
-0.0963057205080986023 0.0124006662517786026 -0.0553747266530990601
0.0043010413646697998 0.0138466693460941315 -0.0550183206796646118
0.0236487984657287598 0.0184537861496210098 -0.0538827665150165558
-0.072631344199180603 0.0138367265462875366 -0.0550207719206809998
-0.0598903000354766846 0.0169012676924467087 -0.0542654283344745636
-0.0582584887742996216 0.0180921740829944611 -0.0539718978106975555
-0.124654687941074371 0.0148558802902698517 -0.0547695718705654144
-0.0514664947986602783 0.0180027373135089874 -0.0539939440786838531
-0.093460381031036377 0.0199549291282892227 -0.05351276695728302
-0.0196405202150344849 0.014585571363568306 -0.0548361986875534058
-0.163456901907920837 0.0147060006856918335 -0.0548065155744552612
-0.0393613725900650024 0.0169380884617567062 -0.0542563535273075104
-0.163317173719406128 0.0129254991188645363 -0.0552453696727752686
0.118036597967147827 0.0180460624396800995 -0.0539832636713981628
0.0629045367240905762 0.017963949590921402 -0.0540035031735897064
-0.192239582538604736 0.015593252144753933 -0.054587826132774353
0.101774871349334717 0.0193068943917751312 -0.053672492504119873
0.0921855568885803223 0.0187386907637119293 -0.0538125447928905487
0.06068459153175354 0.019402775913476944 -0.0536488629877567291
-0.0837231948971748352 0.0161461997777223587 -0.0544515363872051239
-0.0487725138664245605 0.0155548891052603722 -0.0545972846448421478
-0.022063523530960083 0.0144257796928286552 -0.0548755824565887451
-0.151268318295478821 0.012464120052754879 -0.0553590878844261169
0.0638205111026763916 0.0177658926695585251 -0.0540523193776607513
-0.150631770491600037 0.0142507795244455338 -0.0549187175929546356
-0.108134046196937561 0.0170805994421243668 -0.054221227765083313
0.0379270166158676147 0.0177697557955980301 -0.0540513694286346436
-0.0813381299376487732 0.0185670331120491028 -0.0538548529148101807
-0.0745753124356269836 0.0196875967085361481 -0.0535786598920822144
-0.0187508165836334229 0.0158760827034711838 -0.0545181147754192352
-0.0898325741291046143 0.0183387827128171921 -0.0539111122488975525
-0.157979607582092285 0.00970676448196172714 -0.0560387149453163147
0.0649378597736358643 0.0189730264246463776 -0.0537547878921031952
-0.122102245688438416 0.0103942360728979111 -0.0558692701160907745
-0.0234933346509933472 0.0161552838981151581 -0.0544493012130260468
-0.080678597092628479 0.0182608459144830704 -0.0539303235709667206
-0.00725340843200683594 0.0165170487016439438 -0.0543601289391517639
-0.0294916629791259766 0.0146298110485076904 -0.0548252910375595093
-0.0298792272806167603 0.0152997532859444618 -0.0546601675450801849
-0.176556840538978577 0.0167728904634714127 -0.0542970709502696991
-0.046910405158996582 0.0152497552335262299 -0.0546724908053874969
0.151901006698608398 0.0196688361465930939 -0.0535832829773426056
-0.119126327335834503 0.0188446082174777985 -0.0537864379584789276
-0.14135114848613739 0.0164996851235628128 -0.0543644092977046967
-0.176872223615646362 0.0134338391944766045 -0.055120076984167099
0.0950627028942108154 0.0184800215065479279 -0.0538763031363487244
0.108359634876251221 0.0195312872529029846 -0.0536171868443489075
0.137269735336303711 0.019330265000462532 -0.0536667332053184509
0.0609969496726989746 0.0158871747553348541 -0.0545153804123401642
0.0842451155185699463 0.0183754526078701019 -0.0539020746946334839
-0.0200047343969345093 0.0191453956067562103 -0.0537123009562492371
0.0809502899646759033 0.0176721289753913879 -0.0540754273533821106
-0.176893517374992371 0.010792052373290062 -0.0557712167501449585
-0.175710797309875488 0.00831510499119758606 -0.0563817322254180908
-0.0634156465530395508 0.0149202737957239151 -0.0547536984086036682
-0.0135929286479949951 0.0172321964055299759 -0.05418386310338974
0.0162148773670196533 0.0164651498198509216 -0.0543729215860366821
0.0932078063488006592 0.0202602092176675797 -0.0534375272691249847
-0.129841148853302002 0.0139556461945176125 -0.0549914613366127014
0.0996268093585968018 0.0177760608494281769 -0.0540498122572898865
0.00282844901084899902 0.0186551846563816071 -0.0538331270217895508
-0.102216929197311401 0.0120792053639888763 -0.0554539598524570465
0.0694014132022857666 0.0181359462440013885 -0.0539611093699932098
-0.151199132204055786 0.0118829682469367981 -0.055502329021692276
-0.0125387012958526611 0.0202091820538043976 -0.0534501038491725922
-0.194419816136360168 0.0083975326269865036 -0.0563614144921302795
-0.117856070399284363 0.0171745773404836655 -0.0541980639100074768
-0.0828214064240455627 0.0138406958431005478 -0.0550197958946228027
-0.195031449198722839 0.015018140897154808 -0.0547295771539211273
-0.155454441905021667 0.0114881135523319244 -0.0555996522307395935
0.167539775371551514 0.0194833222776651382 -0.0536290109157562256
-0.131936684250831604 0.0149498796090483665 -0.0547464042901992798
-0.0716172456741333008 0.0169597920030355453 -0.0542510040104389191
-0.187730297446250916 0.00884610880166292191 -0.0562508478760719299
0.0415486991405487061 0.0187545754015445709 -0.0538086295127868652
-0.00319314002990722656 0.0163241829723119736 -0.0544076673686504364
-0.0584243088960647583 0.0158504247665405273 -0.0545244403183460236
-0.029216572642326355 0.0198930930346250534 -0.0535280071198940277
-0.0964842364192008972 0.0154179073870182037 -0.0546310432255268097
-0.000879049301147460938 0.01533491350710392 -0.0546515025198459625
0.0628639757633209229 0.0175688937306404114 -0.0541008748114109039
-0.0476512908935546875 0.0165325645357370377 -0.054356306791305542
-0.0202508717775344849 0.0196029096841812134 -0.0535995364189147949
-0.160416722297668457 0.0115451198071241379 -0.0555856041610240936
-0.0847452878952026367 0.018129521980881691 -0.0539626926183700562
-0.0785274133086204529 0.0194904431700706482 -0.05362725630402565
-0.17536647617816925 0.0150507884100079536 -0.054721534252166748
-0.029310181736946106 0.0158653557300567627 -0.0545207597315311432
-0.0153356790542602539 0.0150471823289990425 -0.054722420871257782
-0.104425571858882904 0.0114117413759231567 -0.0556184761226177216
0.00512012839317321777 0.00116495555266737938 -0.0570795312523841858
0.000491775572299957275 0.00327680609188973904 -0.0569517910480499268
0.129580825567245483 0.00615272670984268188 -0.0567778311669826508
-0.0966636165976524353 0.00356244761496782303 -0.0569345131516456604
-0.0547930970788002014 0.002592471893876791 -0.0569931827485561371
-0.130531236529350281 0.00463707791641354561 -0.0568695105612277985
0.052668355405330658 0.00539276516065001488 -0.0568237975239753723
0.0551371350884437561 0.00323487096466124058 -0.0569543279707431793
0.0929962024092674255 0.00405566906556487083 -0.0569046773016452789
0.0173216983675956726 0.00414285436272621155 -0.0568994022905826569
-0.0616965293884277344 0.00644373195245862007 -0.0567602291703224182
-0.0509758815169334412 0.00581750832498073578 -0.056798107922077179
0.107955187559127808 0.00441885273903608322 -0.056882709264755249
-0.0447531230747699738 0.00480466568842530251 -0.0568593703210353851
-0.0150158852338790894 0.00117597728967666626 -0.0570788644254207611
-0.112459130585193634 0.00597069226205348969 -0.0567888393998146057
0.00995790958404541016 0.000765611417591571808 -0.0571036897599697113
0.0636519491672515869 0.0059115956537425518 -0.0567924156785011292
-0.145066589117050171 0.00633017858490347862 -0.0567670948803424835
-0.0870291143655776978 0.00339952646754682064 -0.0569443665444850922
-0.0286465361714363098 0.00296533806249499321 -0.0569706298410892487
0.01688389852643013 0.00675614224746823311 -0.0567413307726383209
0.0813121870160102844 0.00492518115788698196 -0.0568520836532115936
0.0364267677068710327 0.00405018683522939682 -0.056905008852481842
-0.0294633358716964722 0.00312668038532137871 -0.0569608695805072784
0.0372659191489219666 0.00158254476264119148 -0.057054273784160614
-0.0367109254002571106 0.00560146849602460861 -0.0568111762404441833
-0.0662974193692207336 0.0062314043752849102 -0.0567730702459812164
-0.0190091952681541443 0.00280948774889111519 -0.0569800585508346558
0.00975882261991500854 0.00282565644010901451 -0.0569790787994861603
0.0935429781675338745 0.00633038487285375595 -0.0567670837044715881
0.0427040383219718933 0.00351680419407784939 -0.0569372735917568207
0.0750260055065155029 0.0037253466434776783 -0.0569246597588062286
-0.0822328105568885803 0.00336924521252512932 -0.0569461993873119354
0.0717816278338432312 0.00522138411179184914 -0.0568341650068759918
-0.0895513072609901428 0.0037808944471180439 -0.056921299546957016
0.0475305616855621338 0.00220365356653928757 -0.0570167042315006256
0.130295455455780029 0.0056337420828640461 -0.0568092241883277893
-0.131479769945144653 0.0050257253460586071 -0.0568460002541542053
0.0726330727338790894 0.00380318751558661461 -0.0569199509918689728
0.0428201891481876373 0.00637741526588797569 -0.0567642375826835632
0.0589276403188705444 0.00547871924936771393 -0.0568186007440090179
-0.0706868916749954224 0.00414372701197862625 -0.0568993501365184784
-0.038113325834274292 0.00657490408048033714 -0.0567522943019866943
0.0266578719019889832 0.001761589664965868 -0.0570434443652629852
0.0270925015211105347 0.00358197931200265884 -0.056933332234621048
-0.125106498599052429 0.00656065205112099648 -0.056753154844045639
0.0850581303238868713 0.00301353330723941326 -0.0569677166640758514
0.0147245451807975769 0.00264997547492384911 -0.0569897070527076721
0.0637209117412567139 0.00370799610391259193 -0.0569257065653800964
0.0960835665464401245 0.00609259726479649544 -0.0567814670503139496
-0.0457465425133705139 0.00352364243008196354 -0.0569368600845336914
-0.064715258777141571 0.00686183944344520569 -0.0567349381744861603
-0.01611318439245224 0.00500321295112371445 -0.0568473637104034424
0.126150578260421753 0.00534187722951173782 -0.0568268783390522003
-0.0709568113088607788 0.00572545407339930534 -0.0568036735057830811
-0.082531459629535675 0.00453166011720895767 -0.0568758845329284668
0.120338171720504761 0.00646012043580412865 -0.0567592345178127289
0.141492098569869995 0.00676860380917787552 -0.0567405782639980316
0.00200754404067993164 0.000474879518151283264 -0.0571212731301784515
-0.0244666635990142822 0.00438045430928468704 -0.0568850338459014893
0.0528633669018745422 0.00610112771391868591 -0.0567809529602527618
0.0984996259212493896 0.00388846010901033878 -0.056914791464805603
0.0766890496015548706 0.00286021223291754723 -0.0569769889116287231
0.0955296456813812256 0.00526620727032423019 -0.0568314529955387115
-0.0439802184700965881 0.00412650313228368759 -0.0569003932178020477
-0.0517439693212509155 0.00629740487784147263 -0.0567690804600715637
0.00885131210088729858 0.0032447518315166235 -0.056953728199005127
-0.115941226482391357 0.00629981886595487595 -0.0567689314484596252
-0.0224344581365585327 0.0021649249829351902 -0.0570190474390983582
0.0748990476131439209 -0.00305660022422671318 -0.0569702275097370148
0.121550902724266052 -0.00554047944024205208 -0.0568295828998088837
0.147411063313484192 -0.00625970028340816498 -0.0567841306328773499
0.0737520605325698853 -0.00264230836182832718 -0.0569911450147628784
0.0632779896259307861 -0.00395751092582941055 -0.0569301508367061615
0.0012955936836078763 -0.00322699337266385555 -0.0569900013506412506
0.0141769638285040855 -0.00308714061975479126 -0.0569919794797897339
0.107367925345897675 -0.00515088299289345741 -0.0568542741239070892
0.00718532595783472061 -0.0029583668801933527 -0.0570010244846343994
0.00153120828326791525 -0.00168599060270935297 -0.0570660829544067383
0.100734055042266846 -0.00561345508322119713 -0.0568339526653289795
0.0133750038221478462 -0.00116077379789203405 -0.0570874996483325958
0.082066074013710022 -0.00478048715740442276 -0.056882273405790329
0.125168472528457642 -0.006037101149559021 -0.0568036511540412903
0.0249872710555791855 -0.00189234444405883551 -0.057046893984079361
0.0501806102693080902 -0.00270537938922643661 -0.056997053325176239
0.0790875405073165894 -0.00600529741495847702 -0.0568228773772716522
0.0512767620384693146 -0.004071798175573349 -0.0569291003048419952
0.11731082946062088 -0.0058907349593937397 -0.0568138957023620605
0.118561916053295135 -0.00543745560571551323 -0.0568358227610588074
0.127920955419540405 -0.00449505960568785667 -0.0568788163363933563
0.0387596413493156433 -0.00501133687794208527 -0.0568874552845954895
0.133576378226280212 -0.00489737279713153839 -0.0568567626178264618
0.165300324559211731 -0.00618215138092637062 -0.0567811056971549988
0.0902875959873199463 -0.00533658405765891075 -0.0568516403436660767
0.0338717438280582428 -0.00351220322772860527 -0.0569634288549423218
0.0428113080561161041 -0.00410194369032979012 -0.0569308549165725708
0.1051531583070755 -0.00623570755124092102 -0.0568015016615390778
0.142822012305259705 -0.0096177784726023674 -0.0561656281352043152
0.160845041275024414 -0.0141306538134813309 -0.0550195649266242981
0.137139514088630676 -0.00957586988806724548 -0.0561865977942943573
0.161749854683876038 -0.00938588939607143402 -0.0561873503029346466
0.139735624194145203 -0.0114943757653236389 -0.0557088665664196014
0.177092432975769043 -0.0117009337991476059 -0.0555880218744277954
0.108760803937911987 -0.0106289004907011986 -0.0559801757335662842
0.111278124153614044 -0.0146751999855041504 -0.0549781359732151031
0.107866421341896057 -0.0141145326197147369 -0.05512271448969841
0.101024612784385681 -0.0107881408184766769 -0.0559554062783718109
0.17968595027923584 -0.0123338913545012474 -0.0554271526634693146
0.136513054370880127 -0.0146379247307777405 -0.0549400821328163147
0.110843434929847717 -0.0115433521568775177 -0.0557508841156959534
0.198017090559005737 -0.0115114282816648483 -0.0555955581367015839
0.133883684873580933 -0.0139903025701642036 -0.0551046319305896759
0.0970325320959091187 -0.0150730526074767113 -0.054906744509935379
0.101218819618225098 -0.0101962657645344734 -0.0561009272933006287
0.140445023775100708 -0.0151655599474906921 -0.0548026710748672485
0.0481649860739707947 -0.0123306931927800179 -0.0556741580367088318
0.105584405362606049 -0.0102057652547955513 -0.0560904145240783691
0.0599528923630714417 -0.0126023506745696068 -0.055585131049156189
0.156799450516700745 -0.0170074775815010071 -0.0543180666863918304
0.109796568751335144 -0.0144227845594286919 -0.0550431273877620697
0.196948915719985962 -0.0158645231276750565 -0.0545246154069900513
0.166493818163871765 -0.0126727651804685593 -0.0553683266043663025
0.130691736936569214 -0.0141991041600704193 -0.055059138685464859
0.149591580033302307 -0.0171919297426939011 -0.0542860925197601318
0.0465516969561576843 -0.0118105970323085785 -0.0558053739368915558
0.126479417085647583 -0.0125798797234892845 -0.0554661303758621216
0.12367258220911026 -0.00947075895965099335 -0.0562377125024795532
0.138486713171005249 -0.0154745187610387802 -0.0547301881015300751
0.145668715238571167 -0.00865645706653594971 -0.0563972443342208862
0.133376315236091614 -0.00863303430378437042 -0.0564260296523571014
0.114717341959476471 -0.016208212822675705 -0.0545938462018966675
0.0599800273776054382 -0.0102080674842000008 -0.0561752207577228546
0.126471742987632751 -0.00911318138241767883 -0.0563206076622009277
0.0357025004923343658 -0.0115684196352958679 -0.0558853745460510254
0.18346153199672699 -0.0189840979874134064 -0.0537809580564498901
0.147627055644989014 -0.00972178485244512558 -0.0561309978365898132
0.0466457828879356384 -0.0119040887802839279 -0.0557821504771709442
0.127980723977088928 -0.0119918789714574814 -0.0556082464754581451
0.184979259967803955 -0.0165391918271780014 -0.0543807335197925568
0.144412994384765625 -0.00848551187664270401 -0.0564417317509651184
0.175233513116836548 -0.0158342160284519196 -0.0545727387070655823
0.156268671154975891 -0.0108980555087327957 -0.0558248944580554962
0.185634702444076538 -0.0171339195221662521 -0.0542329177260398865
0.0754114836454391479 -0.0119843026623129845 -0.0557085275650024414
0.194405674934387207 -0.0157868247479200363 -0.0545485243201255798
0.148037731647491455 -0.00831024069339036942 -0.0564781427383422852
0.093388095498085022 -0.0134051591157913208 -0.0553246662020683289
0.0961620509624481201 -0.0151770170778036118 -0.0548827499151229858
0.127104908227920532 -0.0165402144193649292 -0.0544888228178024292
0.150301888585090637 -0.0128345005214214325 -0.0553587749600410461
0.0496788434684276581 -0.0118870213627815247 -0.0557806789875030518
0.184028282761573792 -0.00811577588319778442 -0.0564587004482746124
0.191679805517196655 -0.016862502321600914 -0.0542884990572929382
0.117311611771583557 -0.0100489221513271332 -0.0561071187257766724
0.169564142823219299 -0.0183832496404647827 -0.0539550669491291046
0.0786757916212081909 -0.010840035043656826 -0.0559844560921192169
0.0774846598505973816 -0.00997944828122854233 -0.0561987981200218201
0.130260124802589417 -0.00864382367581129074 -0.056429203599691391
0.18385431170463562 -0.0112855210900306702 -0.0556777529418468475
0.109428912401199341 -0.0125939995050430298 -0.0554945692420005798
0.0644842460751533508 -0.0117561928927898407 -0.0557852089405059814
0.0973733514547348022 -0.0110422009602189064 -0.0558996237814426422
0.0814040005207061768 -0.0129828788340091705 -0.0554511845111846924
0.140926241874694824 -0.0122834071516990662 -0.0555121563374996185
0.158839553594589233 -0.0145662147551774979 -0.0549159608781337738
0.141275525093078613 -0.0116556417196989059 -0.0556662343442440033
0.0691393688321113586 -0.00681271404027938843 -0.056710612028837204
0.0740209221839904785 -0.00935145467519760132 -0.0563335828483104706
0.14112737774848938 -0.00803002063184976578 -0.0565480887889862061
0.0201995931565761566 -0.00576813239604234695 -0.0568534359335899353
0.101537525653839111 -0.00753083173185586929 -0.0566120930016040802
0.0114024961367249489 -0.00840726401656866074 -0.0564578622579574585
0.0773010775446891785 -0.00937649048864841461 -0.0563307106494903564
0.110867373645305634 -0.00860442407429218292 -0.0564545616507530212
0.0686725154519081116 -0.00742041226476430893 -0.0566199310123920441
0.00666444050148129463 -0.00762238632887601852 -0.0565735772252082825
0.0966298356652259827 -0.00899502169340848923 -0.056392621248960495
0.0415789894759654999 -0.00869153346866369247 -0.0564234144985675812
0.113902740180492401 -0.00660297740250825882 -0.056753598153591156
0.0826053917407989502 -0.00618688296526670456 -0.056807398796081543
0.063524588942527771 -0.00678097270429134369 -0.0567138679325580597
0.151080861687660217 -0.0072362339124083519 -0.0566689856350421906
0.139325365424156189 -0.00789674557745456696 -0.0565674789249897003
0.0364288240671157837 -0.00738666718825697899 -0.0566165074706077576
0.0133443679660558701 -0.0102026965469121933 -0.0561908259987831116
0.0664613991975784302 -0.00876481086015701294 -0.0564190186560153961
0.112088248133659363 -0.00819239392876625061 -0.0565162785351276398
0.126376017928123474 -0.00781266391277313232 -0.0565766096115112305
0.0578244812786579132 -0.00996646285057067871 -0.0562376901507377625
0.0301679223775863647 -0.00870813988149166107 -0.0564179494976997375
0.077030964195728302 -0.00685371924191713333 -0.0567065700888633728
0.0633211731910705566 -0.00654817419126629829 -0.0567485056817531586
0.0323691777884960175 -0.00894213467836380005 -0.0563836544752120972
0.0164672154933214188 -0.00653137639164924622 -0.0567387230694293976
0.0591492354869842529 -0.00927166640758514404 -0.0563415735960006714
-0.129441142082214355 0.00388073991052806377 -0.0568788237869739532
-0.0623212456703186035 1.79931521415710449e-05 -0.0570194385945796967
-0.189607515931129456 0.000411392014939337969 -0.0567527785897254944
-0.169950902462005615 -0.00477820169180631638 -0.0567939579486846924
-0.177425235509872437 -0.00472304364666342735 -0.056778300553560257
-0.0807927176356315613 -0.00128948967903852463 -0.0569807402789592743
-0.115650355815887451 -0.00197464600205421448 -0.0569077171385288239
-0.156410425901412964 -0.000627863220870494843 -0.0568223260343074799
-0.149915635585784912 -0.00226375320926308632 -0.0568359307944774628
-0.1650351881980896 0.00482872314751148224 -0.0568042583763599396
-0.1186966672539711 0.0019965816754847765 -0.0569013357162475586
-0.180867686867713928 -0.00604913104325532913 -0.0567710883915424347
-0.170790985226631165 -0.00111559918150305748 -0.0567921996116638184
-0.0845418497920036316 0.000824056798592209816 -0.0569728873670101166
-0.0869718268513679504 -0.00131435529328882694 -0.0569677986204624176
-0.125353232026100159 0.00202610716223716736 -0.0568873882293701172
-0.0661815255880355835 -0.00163256609812378883 -0.0570113509893417358
-0.162532970309257507 0.0055806012824177742 -0.0568094998598098755
-0.181994169950485229 -0.00564648397266864777 -0.0567687302827835083
-0.0839342549443244934 -0.00105885416269302368 -0.0569741614162921906
-0.160853594541549683 0.00475416891276836395 -0.0568130165338516235
-0.18240492045879364 -0.00452575739473104477 -0.0567678697407245636
-0.101301901042461395 -0.00150413741357624531 -0.056937776505947113
-0.143156185746192932 -0.00409688800573348999 -0.056850094348192215
-0.144666969776153564 0.000868200557306408882 -0.0568469278514385223
-0.123292282223701477 -0.00244993902742862701 -0.0568917058408260345
-0.0782481878995895386 -0.00130987353622913361 -0.0569860711693763733
-0.0810150057077407837 0.00111738219857215881 -0.0569802746176719666
-0.170003831386566162 0.00306521146558225155 -0.056793849915266037
-0.175966113805770874 0.00589414080604910851 -0.0567813590168952942
-0.140295147895812988 0.00418006628751754761 -0.0568560883402824402
-0.101280294358730316 0.00275502516888082027 -0.0569378212094306946
-0.109517402946949005 -0.00261512864381074905 -0.056920565664768219
-0.161507919430732727 -0.0025282539427280426 -0.0568116456270217896
-0.171041250228881836 -0.00231684278696775436 -0.0567916743457317352
-0.129686057567596436 0.00344919320195913315 -0.056878313422203064
-0.13131415843963623 0.00258410791866481304 -0.0568749010562896729
-0.103861823678016663 0.00184897542931139469 -0.0569324120879173279
-0.181734427809715271 -0.00192264583893120289 -0.0567692741751670837
-0.178324103355407715 -0.000640365178696811199 -0.0567764192819595337
-0.103435873985290527 -0.000639636535197496414 -0.0569333061575889587
-0.1541329026222229 0.0034406767226755619 -0.0568270981311798096
-0.108353793621063232 -1.88136473298072815e-05 -0.0569230020046234131
-0.0999083369970321655 -0.00252371001988649368 -0.0569406971335411072
-0.0447227954864501953 0.000399074982851743698 -0.0570563077926635742
-0.110469512641429901 0.00227258959785103798 -0.0569185689091682434
-0.112999968230724335 -0.00108993425965309143 -0.0569132678210735321
-0.129649370908737183 0.0030839147511869669 -0.0568783879280090332
-0.196658357977867126 -0.00624190689995884895 -0.0567380078136920929
-0.0922219976782798767 -0.000988829415291547775 -0.0569567978382110596
-0.170873776078224182 -0.00172191858291625977 -0.0567920245230197906
-0.122234940528869629 0.00265443907119333744 -0.0568939223885536194
-0.130350068211555481 0.000148634426295757294 -0.0568769201636314392
-0.153314560651779175 0.00121214380487799644 -0.0568288117647171021
-0.0995287001132965088 0.000445626676082611084 -0.0569414906203746796
-0.186620935797691345 0.00268040155060589314 -0.0567590370774269104
-0.0852591618895530701 0.000901194056496024132 -0.0569713860750198364
-0.165172472596168518 0.00247939350083470345 -0.056803971529006958
-0.192681893706321716 0.0002540523128118366 -0.0567463375627994537
-0.168982788920402527 0.00496819894760847092 -0.0567959882318973541
-0.122620195150375366 -0.000533885089680552483 -0.0568931140005588531
-0.170958265662193298 -0.00273848976939916611 -0.0567918494343757629
-0.168154790997505188 0.00429098866879940033 -0.0567977204918861389
-0.153337985277175903 0.00227011041715741158 -0.056828763335943222
-0.140346497297286987 -0.000563021982088685036 -0.0568559803068637848
-0.186612188816070557 0.00328098121099174023 -0.0567590557038784027
-0.0335547327995300293 -0.000411217100918292999 -0.057079702615737915
-0.198530212044715881 -0.0062938653863966465 -0.056734088808298111
-0.112314336001873016 0.00234205205924808979 -0.0569147057831287384
-0.196494981646537781 -0.00411197589710354805 -0.0567383505403995514
0.122209899127483368 -0.0195359643548727036 -0.0536423586308956146
0.0639220848679542542 -0.0181139316409826279 -0.0540487542748451233
0.00687700696289539337 -0.0152422357350587845 -0.0548725053668022156
0.0480034947395324707 -0.0174480807036161423 -0.0542396232485771179
0.0598038583993911743 -0.0199124496430158615 -0.0535308420658111572
0.0180291533470153809 -0.0154983559623360634 -0.054799344390630722
0.121968887746334076 -0.0179052837193012238 -0.0541117452085018158
0.0946948975324630737 -0.0199212208390235901 -0.0535300746560096741
0.124819405376911163 -0.0183892864733934402 -0.0539725683629512787
0.131635010242462158 -0.0186595190316438675 -0.0538951195776462555
0.00880774110555648804 -0.0189003515988588333 -0.053819604218006134
0.0392417684197425842 -0.0164670087397098541 -0.0545215830206871033
0.0701834633946418762 -0.0163162052631378174 -0.0545665547251701355
0.108662083745002747 -0.0177976097911596298 -0.0541420653462409973
0.194489225745201111 -0.0201509837061166763 -0.0534689687192440033
0.173280671238899231 -0.019076300784945488 -0.0537772513926029205
0.141534730792045593 -0.0181445945054292679 -0.0540438443422317505
0.159530699253082275 -0.0187885873019695282 -0.0538593754172325134
0.0506571009755134583 -0.0179838426411151886 -0.0540855340659618378
0.0557118877768516541 -0.0156988147646188736 -0.0547435395419597626
0.00606111763045191765 -0.0178382527083158493 -0.0541251935064792633
0.140186876058578491 -0.0188104007393121719 -0.0538521222770214081
0.0328767485916614532 -0.0136625813320279121 -0.0553285256028175354
0.0158410128206014633 -0.0189195834100246429 -0.0538144223392009735
0.02708481065928936 -0.0129788331687450409 -0.0555250532925128937
0.115835003554821014 -0.0181258637458086014 -0.0540479384362697601
0.0664751976728439331 -0.0153640070930123329 -0.0548404604196548462
0.0268703028559684753 -0.0144065069034695625 -0.0551140829920768738
0.0570102855563163757 -0.0159698184579610825 -0.0546655952930450439
0.070349082350730896 -0.0181554090231657028 -0.0540371425449848175
0.119492769241333008 -0.0165948066860437393 -0.0544888414442539215
0.0653425082564353943 -0.0200254824012517929 -0.0534985810518264771
0.0240678749978542328 -0.0189436692744493484 -0.0538079030811786652
0.0147132296115159988 -0.0173985809087753296 -0.0542521923780441284
0.00791507307440042496 -0.0127202719449996948 -0.0555985160171985626
0.0521662496030330658 -0.0202443636953830719 -0.0534349121153354645
0.08977489173412323 -0.017876017838716507 -0.0541185438632965088
0.154039561748504639 -0.0202551577240228653 -0.0534369423985481262
0.0792171359062194824 -0.01808181032538414 -0.0540587753057479858
0.0352380052208900452 -0.0197090581059455872 -0.0535881482064723969
0.0997722595930099487 -0.0165745355188846588 -0.054493684321641922
0.087340719997882843 -0.0169334597885608673 -0.0543897412717342377
0.0978201553225517273 -0.0202136766165494919 -0.0534460470080375671
0.0620212852954864502 -0.0141288172453641891 -0.0551957897841930389
0.0508689284324645996 -0.0162973199039697647 -0.0545710138976573944
0.0995844006538391113 -0.0171288680285215378 -0.0543341077864170074
0.0275735873728990555 -0.0126236993819475174 -0.0556273050606250763
0.127668902277946472 -0.0182229019701480865 -0.0540206022560596466
0.101260736584663391 -0.0253088418394327164 -0.0510186664760112762
0.196466743946075439 -0.0281001981347799301 -0.0493300147354602814
0.0777122974395751953 -0.0271395072340965271 -0.0501131750643253326
0.094991639256477356 -0.0273480582982301712 -0.0499631315469741821
0.155607700347900391 -0.028298819437623024 -0.0493217483162879944
0.0915001183748245239 -0.0264397375285625458 -0.0504480563104152679
0.184358656406402588 -0.027414986863732338 -0.0497180819511413574
0.053479265421628952 -0.027306118980050087 -0.0500826500356197357
0.120373211801052094 -0.0288859624415636063 -0.0490963570773601532
0.176128178834915161 -0.0281108319759368896 -0.0493722110986709595
0.191193327307701111 -0.0285957865417003632 -0.0490822978317737579
0.197268187999725342 -0.0307533368468284607 -0.0479356609284877777
0.180545896291732788 -0.0245240330696105957 -0.0512443296611309052
0.116712138056755066 -0.0297393687069416046 -0.048657052218914032
0.165502265095710754 -0.0294221937656402588 -0.0487089119851589203
0.096106991171836853 -0.0254208184778690338 -0.0509720034897327423
0.184104248881340027 -0.0213549286127090454 -0.0528992451727390289
0.107391342520713806 -0.0261962581425905228 -0.0505385175347328186
0.103414684534072876 -0.0268354415893554688 -0.0502123832702636719
0.167382866144180298 -0.0233536753803491592 -0.0518894977867603302
0.160839051008224487 -0.0238822456449270248 -0.0516274571418762207
0.0879286527633666992 -0.0264970939606428146 -0.0504263415932655334
0.180420637130737305 -0.0273958258330821991 -0.0497373901307582855
0.0684714615345001221 -0.0264416541904211044 -0.0505011416971683502
0.166571944952011108 -0.0249539334326982498 -0.0510515235364437103
0.143878534436225891 -0.0262714903801679611 -0.0504133217036724091
0.122893370687961578 -0.0280446335673332214 -0.0495319962501525879
0.113884858787059784 -0.0241081509739160538 -0.0516191869974136353
0.0712342783808708191 -0.0264693833887577057 -0.0504800975322723389
0.0940580368041992188 -0.0264393147081136703 -0.0504422672092914581
0.143302261829376221 -0.0287391673773527145 -0.0491195395588874817
0.102812401950359344 -0.029964059591293335 -0.0485717728734016418
0.116962984204292297 -0.0299902148544788361 -0.0485248081386089325
0.18785548210144043 -0.0270052123814821243 -0.0499249361455440521
0.143041834235191345 -0.0294337514787912369 -0.0487556047737598419
0.186394080519676208 -0.0243428889662027359 -0.0513256639242172241
0.106021612882614136 -0.0293688233941793442 -0.048876643180847168
0.137977272272109985 -0.0282214302569627762 -0.0494037792086601257
0.137407600879669189 -0.0231191441416740417 -0.0520830005407333374
0.183974683284759521 -0.0244024861603975296 -0.0513000674545764923
0.178544878959655762 -0.0282126106321811676 -0.0493131130933761597
0.0695633813738822937 -0.0264412742108106613 -0.0504987761378288269
0.183833867311477661 -0.020900605246424675 -0.0531383268535137177
0.0988514944911003113 -0.0287332423031330109 -0.0492270588874816895
0.172358334064483643 -0.0283319838345050812 -0.0492649935185909271
0.145722672343254089 -0.0297853518277406693 -0.0485647730529308319
0.0409994199872016907 -0.0270331855863332748 -0.05025520920753479
0.15908515453338623 -0.0277516283094882965 -0.0496007688343524933
0.14718705415725708 -0.0277245528995990753 -0.0496429242193698883
0.190601617097854614 -0.0275128763169050217 -0.0496520400047302246
0.193869322538375854 -0.0255131237208843231 -0.0506939142942428589
0.0562600940465927124 -0.0287202820181846619 -0.0493339113891124725
0.115470677614212036 -0.0290761608630418777 -0.0490080490708351135
0.151223152875900269 -0.0277112908661365509 -0.0496404059231281281
0.158812955021858215 -0.0282457508146762848 -0.0493420697748661041
0.118001848459243774 -0.0246762130409479141 -0.0513113737106323242
0.183366000652313232 -0.0312446560710668564 -0.0477104485034942627
0.133780390024185181 -0.0258017238229513168 -0.0506835915148258209
0.137418389320373535 -0.0274213049560785294 -0.0498250275850296021
0.114349111914634705 -0.0249302536249160767 -0.0511866174638271332
0.162727266550064087 -0.0225793682038784027 -0.0523068197071552277
0.176918834447860718 -0.0284963380545377731 -0.049168020486831665
0.11733323335647583 -0.0250836871564388275 -0.0510990843176841736
0.172863960266113281 -0.0256486218422651291 -0.0506721436977386475
0.180890083312988281 -0.0271656010299921036 -0.049857117235660553
0.136928915977478027 -0.025945005938410759 -0.0506009981036186218
0.154814675450325012 -0.0259705353528261185 -0.0505455881357192993
0.0949305295944213867 -0.0243153739720582962 -0.05155196413397789
0.115298241376876831 -0.021099260076880455 -0.0530508756637573242
0.158837199211120605 -0.0203837137669324875 -0.0533827692270278931
0.139667317271232605 -0.0204509124159812927 -0.0533522181212902069
0.0736104100942611694 -0.0206225663423538208 -0.0532748699188232422
0.0859427005052566528 -0.0231746863573789597 -0.0520842596888542175
0.118620432913303375 -0.0228131711483001709 -0.0522515028715133667
0.0788791477680206299 -0.0232650786638259888 -0.0520423948764801025
0.0883542150259017944 -0.0204665698111057281 -0.0533470138907432556
0.0124519802629947662 -0.0247266609221696854 -0.0513635426759719849
0.128581970930099487 -0.0216486230492591858 -0.0527941510081291199
0.0712567269802093506 -0.0206161439418792725 -0.0532779619097709656
0.0714602917432785034 -0.0232370756566524506 -0.0520557574927806854
0.0598557740449905396 -0.0241170302033424377 -0.0516458861529827118
0.0879811644554138184 -0.0231661386787891388 -0.0520881600677967072
0.0618803873658180237 -0.0211465395987033844 -0.0530310124158859253
0.0139717496931552887 -0.0272866301238536835 -0.0501697100698947906
0.0337960831820964813 -0.0212471112608909607 -0.0529852621257305145
0.148765459656715393 -0.0211593024432659149 -0.053021509200334549
0.154597297310829163 -0.0218131430447101593 -0.0527163669466972351
0.0742980167269706726 -0.0235234685242176056 -0.0519220903515815735
0.0656983107328414917 -0.0237186439335346222 -0.0518314242362976074
0.112907297909259796 -0.0218032039701938629 -0.0527227111160755157
0.0108225550502538681 -0.0230250172317028046 -0.0521571226418018341
0.118523597717285156 -0.0228565093129873276 -0.0522312968969345093
0.0562416911125183105 -0.0256367754191160202 -0.0509373471140861511
0.00958629697561264038 -0.0246430430561304092 -0.051402650773525238
0.0348810143768787384 -0.0257640685886144638 -0.0508788637816905975
0.104293376207351685 -0.022284315899014473 -0.0524987056851387024
0.126750528812408447 -0.0204350072890520096 -0.0533601604402065277
0.110614709556102753 -0.0203301440924406052 -0.053409721702337265
0.059802912175655365 -0.0253698863089084625 -0.0510616600513458252
0.00765137840062379837 -0.0233225636184215546 -0.0520185008645057678
0.0391971692442893982 -0.025472668930888176 -0.0510145686566829681
0.0303853992372751236 -0.0245896410197019577 -0.0514267049729824066
0.0547610558569431305 -0.025565439835190773 -0.0509706735610961914
0.0232323221862316132 -0.0256892498582601547 -0.050914224237203598
0.0242255143821239471 -0.0234176423400640488 -0.0519734844565391541
0.160577297210693359 -0.0206185523420572281 -0.0532731860876083374
0.045426584780216217 -0.0240943580865859985 -0.0516570508480072021
0.0347778983414173126 -0.0211328286677598953 -0.0530385151505470276
-0.192615389823913574 -0.01161976158618927 -0.0555849745869636536
-0.0996815040707588196 -0.0142197636887431145 -0.0552069172263145447
-0.178285613656044006 -0.0182733982801437378 -0.0539855174720287323
-0.172611162066459656 -0.01548813097178936 -0.0546880699694156647
-0.188071578741073608 -0.0145468041300773621 -0.0548763684928417206
-0.108947314321994781 -0.0154180750250816345 -0.0548853576183319092
-0.159982189536094666 -0.0147971929982304573 -0.054894082248210907
-0.0675643980503082275 -0.014008665457367897 -0.0553497634828090668
-0.186395168304443359 -0.0158061347901821136 -0.0545707158744335175
-0.17288517951965332 -0.00858958344906568527 -0.056387636810541153
-0.182071477174758911 -0.0113536706194281578 -0.0556803718209266663
-0.176437169313430786 -0.0176085326820611954 -0.0541546158492565155
-0.137754499912261963 -0.0162298586219549179 -0.0546038150787353516
-0.178462564945220947 -0.0137387765571475029 -0.0551027022302150726
-0.0733517557382583618 -0.0140412263572216034 -0.0553253740072250366
-0.192969381809234619 -0.0146039342507719994 -0.0548484399914741516
-0.10202953964471817 -0.0135548487305641174 -0.0553641654551029205
-0.175450339913368225 -0.0151980947703123093 -0.0547515265643596649
-0.129273682832717896 -0.0106955766677856445 -0.0559918768703937531
-0.161352947354316711 -0.0164676867425441742 -0.0544784665107727051
-0.1182083860039711 -0.0158707331866025925 -0.0547476038336753845
-0.165981218218803406 -0.00979582034051418304 -0.0561098493635654449
-0.171015650033950806 -0.0107485586777329445 -0.0558607839047908783
-0.154681950807571411 -0.0105759110301733017 -0.0559495240449905396
-0.0825930759310722351 -0.0143086332827806473 -0.0552333332598209381
-0.138765007257461548 -0.00956344045698642731 -0.0562440827488899231
-0.132833093404769897 -0.0113042062148451805 -0.0558317936956882477
-0.169116199016571045 -0.017803998664021492 -0.0541271418333053589
-0.186053022742271423 -0.0123427761718630791 -0.0554253235459327698
-0.126444488763809204 -0.0105435419827699661 -0.0560373477637767792
-0.14280584454536438 -0.0147805949673056602 -0.0549467429518699646
-0.140115335583686829 -0.0175979249179363251 -0.0542599409818649292
-0.165631651878356934 -0.0109719280153512955 -0.055820949375629425
-0.087436579167842865 -0.0144060757011175156 -0.0551956184208393097
-0.160727217793464661 -0.0121079413220286369 -0.0555548183619976044
-0.187548711895942688 -0.0130167882889509201 -0.055254962295293808
-0.163914978504180908 -0.0124838137999176979 -0.0554531589150428772
-0.179914891719818115 -0.0116446269676089287 -0.0556147582828998566
-0.168731406331062317 -0.0177203044295310974 -0.0541488602757453918
-0.144394129514694214 -0.0155355827882885933 -0.0547561608254909515
-0.14640788733959198 -0.0148419979959726334 -0.054921422153711319
-0.157777756452560425 -0.0111880302429199219 -0.0557898953557014465
-0.0870263725519180298 -0.0147279780358076096 -0.055117439478635788
-0.134407013654708862 -0.0153227504342794418 -0.054836861789226532
-0.065153270959854126 -0.0133895501494407654 -0.0555091798305511475
-0.17395956814289093 -0.0180770773440599442 -0.054046139121055603
-0.141388744115829468 -0.0141171328723430634 -0.0551142804324626923
