ply
format ascii 1.0
element vertex 714
property float x
property float y
property float z
end_header
-1.72986625024407203e-14 0.0564229488372802734 0.495393455028533936
-1.72986625024407203e-14 0.356090545654296875 0.409126371145248413
-1.72986625024407203e-14 0.24973471462726593 0.612143397331237793
-1.72986625024407203e-14 0.0857550874352455139 0.181555449962615967
-1.72986625024407203e-14 0.0931505933403968811 0.603181540966033936
-1.72986625024407203e-14 0.233185797929763794 0.274684399366378784
-1.72986625024407203e-14 0.358830153942108154 0.396741747856140137
-1.72986625024407203e-14 0.245595648884773254 0.23559996485710144
-1.72986625024407203e-14 0.155525624752044678 0.524168670177459717
-1.72986625024407203e-14 0.459119528532028198 0.587543845176696777
-1.72986625024407203e-14 0.0139059470966458321 0.271731376647949219
-1.72986625024407203e-14 0.53274768590927124 0.557945728302001953
-1.72986625024407203e-14 0.404120832681655884 0.34155157208442688
-1.72986625024407203e-14 0.25795668363571167 0.369959175586700439
-1.72986625024407203e-14 0.034550543874502182 0.0553329586982727051
-1.72986625024407203e-14 0.0225304048508405685 0.504246354103088379
-1.72986625024407203e-14 0.232955977320671082 0.606855332851409912
-1.72986625024407203e-14 0.197344645857810974 0.255083560943603516
-1.72986625024407203e-14 0.331584185361862183 0.313734650611877441
-1.72986625024407203e-14 0.115171931684017181 0.292550504207611084
-1.72986625024407203e-14 0.238527372479438782 0.507015049457550049
-1.72986625024407203e-14 0.439139038324356079 0.52923285961151123
-1.72986625024407203e-14 0.0448616556823253632 0.26051861047744751
-1.72986625024407203e-14 0.433023899793624878 0.436921238899230957
-1.72986625024407203e-14 0.128334745764732361 0.522176980972290039
-1.72986625024407203e-14 0.00280837062746286392 0.426698446273803711
-1.72986625024407203e-14 0.157213166356086731 0.433726191520690918
-1.72986625024407203e-14 0.250891655683517456 0.58002781867980957
-1.72986625024407203e-14 0.379797905683517456 0.605338454246520996
-1.72986625024407203e-14 0.0252393372356891632 0.456000089645385742
-1.72986625024407203e-14 0.0345009900629520416 0.371164798736572266
-1.72986625024407203e-14 0.0323315151035785675 0.217686951160430908
-1.72986625024407203e-14 0.391740530729293823 0.462496906518936157
-1.72986625024407203e-14 0.368657350540161133 0.399668306112289429
-1.72986625024407203e-14 0.27457389235496521 0.300106436014175415
-1.72986625024407203e-14 0.321326225996017456 0.329389035701751709
-1.72986625024407203e-14 0.158739477396011353 0.569493353366851807
-1.72986625024407203e-14 0.254687517881393433 0.480575442314147949
-1.72986625024407203e-14 0.0843664929270744324 0.186996400356292725
-1.72986625024407203e-14 0.0977899357676506042 0.424675643444061279
-1.72986625024407203e-14 0.65305626392364502 0.539842069149017334
-1.72986625024407203e-14 0.574419736862182617 0.504653334617614746
-1.72986625024407203e-14 0.346435695886611938 0.59336930513381958
-1.72986625024407203e-14 0.340871483087539673 0.312681823968887329
-1.72986625024407203e-14 0.0211842134594917297 0.38815152645111084
-1.72986625024407203e-14 0.348344147205352783 0.501396358013153076
-1.72986625024407203e-14 0.351112455129623413 0.629237353801727295
-1.72986625024407203e-14 0.0895795524120330811 0.338503628969192505
-1.72986625024407203e-14 0.488516479730606079 0.540906906127929688
-1.72986625024407203e-14 0.0540538914501667023 0.562291264533996582
-1.72986625024407203e-14 0.330666482448577881 0.289381593465805054
-1.72986625024407203e-14 0.0188906099647283554 0.547526657581329346
-1.72986625024407203e-14 0.265942186117172241 0.256177753210067749
-1.72986625024407203e-14 0.53283083438873291 0.533953726291656494
-1.72986625024407203e-14 0.146518200635910034 0.378635644912719727
-1.72986625024407203e-14 0.644985675811767578 0.587511122226715088
-1.72986625024407203e-14 0.491071224212646484 0.599671363830566406
-1.72986625024407203e-14 0.439459800720214844 0.554226040840148926
-1.72986625024407203e-14 0.387102812528610229 0.421358942985534668
-1.72986625024407203e-14 0.0541658289730548859 0.300242006778717041
-1.72986625024407203e-14 0.0147342300042510033 0.505367755889892578
-1.72986625024407203e-14 0.0593434832990169525 0.285932272672653198
-1.72986625024407203e-14 0.707075417041778564 0.610221266746520996
-1.72986625024407203e-14 0.186643853783607483 0.602726340293884277
-1.72986625024407203e-14 0.276596605777740479 0.41723787784576416
-1.72986625024407203e-14 0.506632745265960693 0.461031198501586914
-1.72986625024407203e-14 0.533157289028167725 0.425278902053833008
-1.72986625024407203e-14 0.495532900094985962 0.50814896821975708
-1.72986625024407203e-14 0.560590386390686035 0.624862313270568848
-1.72986625024407203e-14 0.559230387210845947 0.573964893817901611
-1.72986625024407203e-14 0.136944815516471863 0.454990863800048828
-1.72986625024407203e-14 0.451819658279418945 0.588752686977386475
-1.72986625024407203e-14 0.0208093896508216858 0.247856229543685913
-1.72986625024407203e-14 0.536137402057647705 0.527607262134552002
-1.72986625024407203e-14 0.207519680261611938 0.274296849966049194
-1.72986625024407203e-14 0.474373549222946167 0.389094382524490356
-1.72986625024407203e-14 0.0752667859196662903 0.485345959663391113
-1.72986625024407203e-14 0.481735438108444214 0.468944251537322998
-1.72986625024407203e-14 0.180187627673149109 0.190284460783004761
-1.72986625024407203e-14 0.183135896921157837 0.5228729248046875
-1.72986625024407203e-14 0.217742308974266052 0.49954909086227417
-1.72986625024407203e-14 0.158511608839035034 0.353964120149612427
-1.72986625024407203e-14 0.183137819170951843 0.354655653238296509
-1.72986625024407203e-14 0.103218674659729004 0.323142498731613159
-1.72986625024407203e-14 0.371506363153457642 0.414484202861785889
-1.72986625024407203e-14 0.0279235672205686569 0.026672661304473877
-1.72986625024407203e-14 0.0417178049683570862 0.583979249000549316
-1.72986625024407203e-14 0.118177376687526703 0.27652093768119812
-1.72986625024407203e-14 0.275501400232315063 0.474149405956268311
-1.72986625024407203e-14 0.202874332666397095 0.552068471908569336
-1.72986625024407203e-14 0.284509509801864624 0.368967235088348389
-1.72986625024407203e-14 0.346424400806427002 0.43286055326461792
-1.72986625024407203e-14 0.395198822021484375 0.407333672046661377
-1.72986625024407203e-14 0.397610872983932495 0.536870002746582031
-1.72986625024407203e-14 0.627386152744293213 0.544108986854553223
-1.72986625024407203e-14 0.152215197682380676 0.12671971321105957
-1.72986625024407203e-14 0.231282711029052734 0.607257366180419922
-1.72986625024407203e-14 0.409321218729019165 0.575063824653625488
-1.72986625024407203e-14 0.208722546696662903 0.531082451343536377
-1.72986625024407203e-14 0.347086638212203979 0.576648890972137451
-1.72986625024407203e-14 0.444114446640014648 0.384236633777618408
-1.72986625024407203e-14 0.393516033887863159 0.520038723945617676
-1.72986625024407203e-14 0.036912970244884491 0.553924560546875
-1.72986625024407203e-14 0.44666290283203125 0.514947295188903809
-1.72986625024407203e-14 0.141217589378356934 0.159900814294815063
-1.72986625024407203e-14 0.491540253162384033 0.508678853511810303
-1.72986625024407203e-14 0.353368371725082397 0.302502274513244629
-1.72986625024407203e-14 0.382010072469711304 0.621222853660583496
-1.72986625024407203e-14 0.54550546407699585 0.485305666923522949
-1.72986625024407203e-14 0.418014436960220337 0.440437674522399902
-1.72986625024407203e-14 0.317275017499923706 0.539206743240356445
-1.72986625024407203e-14 0.35619083046913147 0.567071795463562012
-1.72986625024407203e-14 0.436079949140548706 0.62398231029510498
-1.72986625024407203e-14 0.0973704978823661804 0.59847867488861084
-1.72986625024407203e-14 0.421770334243774414 0.489736557006835938
-1.72986625024407203e-14 0.0375456251204013824 0.0922498106956481934
-1.72986625024407203e-14 0.367152273654937744 0.515856623649597168
-1.72986625024407203e-14 0.214073643088340759 0.312404662370681763
-1.72986625024407203e-14 0.133952781558036804 0.265631645917892456
-1.72986625024407203e-14 0.47430005669593811 0.56008756160736084
-1.72986625024407203e-14 0.539355158805847168 0.549790441989898682
-1.72986625024407203e-14 0.190517514944076538 0.153124123811721802
-1.72986625024407203e-14 0.252057939767837524 0.209555715322494507
-1.72986625024407203e-14 0.113892830908298492 0.117734611034393311
-1.72986625024407203e-14 0.373046606779098511 0.339189738035202026
-1.72986625024407203e-14 0.372453391551971436 0.323209047317504883
-1.72986625024407203e-14 0.45925632119178772 0.555845320224761963
-1.72986625024407203e-14 0.144188135862350464 0.454708278179168701
-1.72986625024407203e-14 0.540097415447235107 0.530740916728973389
-1.72986625024407203e-14 0.133300527930259705 0.145458251237869263
-1.72986625024407203e-14 0.303950905799865723 0.393612802028656006
-1.72986625024407203e-14 0.336370348930358887 0.358829528093338013
-1.72986625024407203e-14 0.0682781487703323364 0.573757052421569824
-1.72986625024407203e-14 0.408445507287979126 0.388748347759246826
-1.72986625024407203e-14 0.305479973554611206 0.248732388019561768
-1.72986625024407203e-14 0.0726936906576156616 0.240200698375701904
-1.72986625024407203e-14 0.380325168371200562 0.314255326986312866
-1.72986625024407203e-14 0.522202134132385254 0.45103144645690918
-1.72986625024407203e-14 0.357202857732772827 0.515804946422576904
-1.72986625024407203e-14 0.288823217153549194 0.388945579528808594
-1.72986625024407203e-14 0.463968992233276367 0.386175692081451416
-1.72986625024407203e-14 0.279152810573577881 0.305548518896102905
-1.72986625024407203e-14 0.0543417409062385559 0.474585831165313721
-1.72986625024407203e-14 0.338210493326187134 0.391604691743850708
-1.72986625024407203e-14 0.68185955286026001 0.61142122745513916
-1.72986625024407203e-14 0.361583888530731201 0.547407448291778564
-1.72986625024407203e-14 0.542203605175018311 0.499237477779388428
-1.72986625024407203e-14 0.324214667081832886 0.459401518106460571
-1.72986625024407203e-14 0.275293111801147461 0.24801674485206604
-1.72986625024407203e-14 0.325809985399246216 0.289935499429702759
-1.72986625024407203e-14 0.479627758264541626 0.469153702259063721
-1.72986625024407203e-14 0.164932131767272949 0.410615980625152588
-1.72986625024407203e-14 0.166465684771537781 0.388842254877090454
-1.72986625024407203e-14 0.424099653959274292 0.563146054744720459
-1.72986625024407203e-14 0.425927221775054932 0.558383464813232422
-1.72986625024407203e-14 0.334519654512405396 0.359772443771362305
-1.72986625024407203e-14 0.0193056222051382065 0.502063989639282227
-1.72986625024407203e-14 0.413810253143310547 0.328550130128860474
-1.72986625024407203e-14 0.215582802891731262 0.578421413898468018
-1.72986625024407203e-14 0.186454370617866516 0.357422381639480591
-1.72986625024407203e-14 0.652324020862579346 0.595672190189361572
-1.72986625024407203e-14 0.0534398220479488373 0.458002448081970215
-1.72986625024407203e-14 0.0324236825108528137 0.588165938854217529
-1.72986625024407203e-14 0.319729059934616089 0.445462971925735474
-1.72986625024407203e-14 0.450106620788574219 0.589038610458374023
-1.72986625024407203e-14 0.0168829988688230515 0.104852080345153809
-1.72986625024407203e-14 0.163858994841575623 0.585135281085968018
-1.72986625024407203e-14 0.727661550045013428 0.586109519004821777
-1.72986625024407203e-14 0.729652762413024902 0.582307517528533936
-1.72986625024407203e-14 0.0930191501975059509 0.567876458168029785
-1.72986625024407203e-14 0.394384413957595825 0.547429025173187256
-1.72986625024407203e-14 0.101874940097332001 0.270986169576644897
-1.72986625024407203e-14 0.604904770851135254 0.578213989734649658
-1.72986625024407203e-14 0.4539337158203125 0.575918853282928467
-1.72986625024407203e-14 0.139179080724716187 0.503545165061950684
-1.72986625024407203e-14 0.523700356483459473 0.565750360488891602
-1.72986625024407203e-14 0.0601159222424030304 0.131156772375106812
-1.72986625024407203e-14 0.0535371080040931702 0.211835205554962158
-1.72986625024407203e-14 0.48959466814994812 0.511750996112823486
-1.72986625024407203e-14 0.569218099117279053 0.619515180587768555
-1.72986625024407203e-14 0.181225702166557312 0.503699183464050293
-1.72986625024407203e-14 0.191401585936546326 0.5554237961769104
-1.72986625024407203e-14 0.57951962947845459 0.565086781978607178
-1.72986625024407203e-14 0.318109720945358276 0.320842862129211426
-1.72986625024407203e-14 0.225117355585098267 0.318776339292526245
-1.72986625024407203e-14 0.525085210800170898 0.534720242023468018
-1.72986625024407203e-14 0.26887473464012146 0.536260724067687988
-1.72986625024407203e-14 0.414605468511581421 0.462465167045593262
-1.72986625024407203e-14 0.0783842429518699646 0.260872900485992432
-1.72986625024407203e-14 0.0746015459299087524 0.121848523616790771
-1.72986625024407203e-14 0.316684812307357788 0.520042002201080322
-1.72986625024407203e-14 0.547424554824829102 0.495664238929748535
-1.72986625024407203e-14 0.335062712430953979 0.328222811222076416
-1.72986625024407203e-14 0.013045002706348896 0.408712446689605713
-1.72986625024407203e-14 0.148606076836585999 0.234386980533599854
-1.72986625024407203e-14 0.110796175897121429 0.592288494110107422
-1.72986625024407203e-14 0.404055416584014893 0.434289753437042236
-1.72986625024407203e-14 0.548400938510894775 0.518248140811920166
-1.72986625024407203e-14 0.0177980102598667145 0.066817164421081543
-1.72986625024407203e-14 0.235234931111335754 0.556813895702362061
-1.72986625024407203e-14 0.335806339979171753 0.317554682493209839
-1.72986625024407203e-14 0.129759863018989563 0.331727743148803711
-1.72986625024407203e-14 0.0653448179364204407 0.512131810188293457
-1.72986625024407203e-14 0.148984551429748535 0.48541712760925293
-1.72986625024407203e-14 0.676085352897644043 0.573912382125854492
-1.72986625024407203e-14 0.05070529505610466 0.223917365074157715
-1.72986625024407203e-14 0.117391645908355713 0.585402786731719971
-1.72986625024407203e-14 0.369917988777160645 0.360121607780456543
-1.72986625024407203e-14 0.268336713314056396 0.273655235767364502
-1.72986625024407203e-14 0.373336285352706909 0.437964856624603271
-1.72986625024407203e-14 0.604421734809875488 0.598959505558013916
-1.72986625024407203e-14 0.104147486388683319 0.201079130172729492
-1.72986625024407203e-14 0.37642785906791687 0.540291130542755127
-1.72986625024407203e-14 0.0667221024632453918 0.462321966886520386
-1.72986625024407203e-14 0.281694412231445312 0.451853275299072266
-1.72986625024407203e-14 0.146696016192436218 0.521260082721710205
-1.72986625024407203e-14 0.188138052821159363 0.18256908655166626
-1.72986625024407203e-14 0.514560401439666748 0.452612519264221191
-1.72986625024407203e-14 0.20892035961151123 0.430346131324768066
-1.72986625024407203e-14 0.0560068748891353607 0.579700589179992676
-1.72986625024407203e-14 0.338443487882614136 0.589023113250732422
-1.72986625024407203e-14 0.0624277852475643158 0.180212706327438354
-1.72986625024407203e-14 0.156706005334854126 0.550111174583435059
-1.72986625024407203e-14 0.414204418659210205 0.526567935943603516
-1.72986625024407203e-14 0.399330675601959229 0.579158604145050049
-1.72986625024407203e-14 0.5500144362449646 0.446484148502349854
-1.72986625024407203e-14 0.354071378707885742 0.4252128005027771
-1.72986625024407203e-14 0.200491935014724731 0.27524179220199585
-1.72986625024407203e-14 0.241820812225341797 0.605066537857055664
-1.72986625024407203e-14 0.153260320425033569 0.436835289001464844
-1.72986625024407203e-14 0.210467725992202759 0.412857204675674438
-1.72986625024407203e-14 0.697074353694915771 0.615110099315643311
-1.72986625024407203e-14 0.100935958325862885 0.323618859052658081
-1.72986625024407203e-14 0.0385165810585021973 0.0834068655967712402
-1.72986625024407203e-14 0.460669428110122681 0.573096752166748047
-1.72986625024407203e-14 0.153556928038597107 0.299567043781280518
-1.72986625024407203e-14 0.24525432288646698 0.453668415546417236
-1.72986625024407203e-14 0.184783920645713806 0.155853867530822754
-1.72986625024407203e-14 0.234504610300064087 0.221726953983306885
-1.72986625024407203e-14 0.633783161640167236 0.551945209503173828
-1.72986625024407203e-14 0.362325519323348999 0.297114819288253784
-1.72986625024407203e-14 0.314266055822372437 0.421040713787078857
-1.72986625024407203e-14 0.383044332265853882 0.585221290588378906
-1.72986625024407203e-14 0.00404929788783192635 0.419035077095031738
-1.72986625024407203e-14 0.23854433000087738 0.395485728979110718
-1.72986625024407203e-14 0.00802298448979854584 0.3325175940990448
-1.72986625024407203e-14 0.0819260701537132263 0.245769113302230835
-1.72986625024407203e-14 0.505979537963867188 0.40001755952835083
-1.72986625024407203e-14 0.012620958499610424 0.352015256881713867
-1.72986625024407203e-14 0.0590609386563301086 0.495379060506820679
-1.72986625024407203e-14 0.713214516639709473 0.581247389316558838
-1.72986625024407203e-14 0.0730118826031684875 0.572925329208374023
-1.72986625024407203e-14 0.0837177485227584839 0.617573857307434082
-1.72986625024407203e-14 0.210519120097160339 0.59687429666519165
-1.72986625024407203e-14 0.322674423456192017 0.602990329265594482
-1.72986625024407203e-14 0.299317359924316406 0.618566334247589111
-1.72986625024407203e-14 0.183156415820121765 0.407777070999145508
-1.72986625024407203e-14 0.378707468509674072 0.553696870803833008
-1.72986625024407203e-14 0.303987473249435425 0.563409805297851562
-1.72986625024407203e-14 0.254508644342422485 0.38777044415473938
-1.72986625024407203e-14 0.250505417585372925 0.330089807510375977
-1.72986625024407203e-14 0.400241702795028687 0.576534509658813477
-1.72986625024407203e-14 0.44867059588432312 0.407730996608734131
-1.72986625024407203e-14 0.590279102325439453 0.564058899879455566
-1.72986625024407203e-14 0.0581660568714141846 0.31786307692527771
-1.72986625024407203e-14 0.419267088174819946 0.472888290882110596
-1.72986625024407203e-14 0.0535278208553791046 0.520561873912811279
-1.72986625024407203e-14 0.00291046034544706345 0.372938483953475952
-1.72986625024407203e-14 0.359525144100189209 0.426092445850372314
-1.72986625024407203e-14 0.0248606111854314804 0.499366939067840576
-1.72986625024407203e-14 0.308599680662155151 0.517653167247772217
-1.72986625024407203e-14 0.432127237319946289 0.565332233905792236
-1.72986625024407203e-14 0.443612486124038696 0.37491762638092041
-1.72986625024407203e-14 0.336373060941696167 0.463025391101837158
-1.72986625024407203e-14 0.244767650961875916 0.296390354633331299
-1.72986625024407203e-14 0.215370163321495056 0.360619276762008667
-1.72986625024407203e-14 0.0546045489609241486 0.233577609062194824
-1.72986625024407203e-14 0.111692778766155243 0.330172985792160034
-1.72986625024407203e-14 0.592206597328186035 0.508901357650756836
-1.72986625024407203e-14 0.467857420444488525 0.622113347053527832
-1.72986625024407203e-14 0.0530245006084442139 0.0788617730140686035
-1.72986625024407203e-14 0.711836576461791992 0.621322453022003174
-1.72986625024407203e-14 0.157827228307723999 0.187529772520065308
-1.72986625024407203e-14 0.276319235563278198 0.249460965394973755
-1.72986625024407203e-14 0.386872529983520508 0.556016743183135986
-1.72986625024407203e-14 0.310131311416625977 0.529076099395751953
-1.72986625024407203e-14 0.330651909112930298 0.419641196727752686
-1.72986625024407203e-14 0.22417585551738739 0.271264255046844482
-1.72986625024407203e-14 0.161506116390228271 0.292803734540939331
-1.72986625024407203e-14 0.682139456272125244 0.574191570281982422
-1.72986625024407203e-14 0.24537244439125061 0.397673487663269043
-1.72986625024407203e-14 0.240195795893669128 0.419996351003646851
-1.72986625024407203e-14 0.140606090426445007 0.614267051219940186
-1.72986625024407203e-14 0.418737173080444336 0.533992588520050049
-1.72986625024407203e-14 0.390904933214187622 0.325579822063446045
-1.72986625024407203e-14 0.0707600340247154236 0.263273328542709351
-1.72986625024407203e-14 0.235945150256156921 0.577331125736236572
-1.72986625024407203e-14 0.455659449100494385 0.362586528062820435
-1.72986625024407203e-14 0.170869573950767517 0.583954989910125732
-1.72986625024407203e-14 0.100030481815338135 0.567881941795349121
-1.72986625024407203e-14 0.115152470767498016 0.605218172073364258
-1.72986625024407203e-14 0.138015344738960266 0.624912858009338379
-1.72986625024407203e-14 0.300685793161392212 0.506881535053253174
-1.72986625024407203e-14 0.319099456071853638 0.322598963975906372
-1.72986625024407203e-14 0.205597907304763794 0.318465262651443481
-1.72986625024407203e-14 0.269118934869766235 0.32078474760055542
-1.72986625024407203e-14 0.238165974617004395 0.629940211772918701
-1.72986625024407203e-14 0.248774319887161255 0.42549172043800354
-1.72986625024407203e-14 0.499216079711914062 0.528075456619262695
-1.72986625024407203e-14 0.379991352558135986 0.619877517223358154
-1.72986625024407203e-14 0.125215142965316772 0.448135018348693848
-1.72986625024407203e-14 0.352614045143127441 0.621827840805053711
-1.72986625024407203e-14 0.582780182361602783 0.616413295269012451
-1.72986625024407203e-14 0.345199555158615112 0.340729057788848877
-1.72986625024407203e-14 0.163444221019744873 0.377414107322692871
-1.72986625024407203e-14 0.107210658490657806 0.592628359794616699
-1.72986625024407203e-14 0.0693027451634407043 0.463538169860839844
-1.72986625024407203e-14 0.0874487012624740601 0.107459664344787598
-1.72986625024407203e-14 0.251662284135818481 0.446234196424484253
-1.72986625024407203e-14 0.18140237033367157 0.557977080345153809
-1.72986625024407203e-14 0.27742728590965271 0.343773156404495239
-1.72986625024407203e-14 0.19646589457988739 0.52828824520111084
-1.72986625024407203e-14 0.178608834743499756 0.596022844314575195
-1.72986625024407203e-14 0.0149408597499132156 0.270504504442214966
-1.72986625024407203e-14 0.186292901635169983 0.367635399103164673
-1.72986625024407203e-14 0.406962692737579346 0.533039212226867676
-1.72986625024407203e-14 0.373094469308853149 0.360744327306747437
-1.72986625024407203e-14 0.596214175224304199 0.563911139965057373
-1.72986625024407203e-14 0.194025889039039612 0.341218471527099609
-1.72986625024407203e-14 0.502959549427032471 0.623179614543914795
-1.72986625024407203e-14 0.254464983940124512 0.21927565336227417
-1.72986625024407203e-14 0.149297893047332764 0.430248737335205078
-1.72986625024407203e-14 0.129959329962730408 0.609882712364196777
-1.72986625024407203e-14 0.49263879656791687 0.412954926490783691
-1.72986625024407203e-14 0.238462090492248535 0.298143923282623291
-1.72986625024407203e-14 0.496778815984725952 0.615592122077941895
-1.72986625024407203e-14 0.0491841547191143036 0.382942646741867065
-1.72986625024407203e-14 0.0233089756220579147 0.29873204231262207
-1.72986625024407203e-14 0.0679102391004562378 0.27280879020690918
-1.72986625024407203e-14 0.047214072197675705 0.256952136754989624
-1.72986625024407203e-14 0.0554353483021259308 0.381042182445526123
-1.72986625024407203e-14 0.231453657150268555 0.345967203378677368
-1.72986625024407203e-14 0.0107941990718245506 0.363051354885101318
-1.72986625024407203e-14 0.479823917150497437 0.629030525684356689
-1.72986625024407203e-14 0.305174559354782104 0.289540082216262817
-1.72986625024407203e-14 0.134156644344329834 0.315888017416000366
-1.72986625024407203e-14 0.718743264675140381 0.57972252368927002
-1.72986625024407203e-14 0.309558182954788208 0.46858447790145874
-1.72986625024407203e-14 0.475061804056167603 0.572483181953430176
-1.72986625024407203e-14 0.279935598373413086 0.24425169825553894
-1.72986625024407203e-14 0.227769047021865845 0.443373203277587891
-1.72986625024407203e-14 0.664785206317901611 0.553661704063415527
-1.72986625024407203e-14 0.369386047124862671 0.299674868583679199
-1.72986625024407203e-14 0.079227060079574585 0.255651295185089111
-1.72986625024407203e-14 0.34050402045249939 0.412822365760803223
-1.72986625024407203e-14 0.173923656344413757 0.278498321771621704
-1.72986625024407203e-14 0.0137637704610824585 0.120748460292816162
-1.72986625024407203e-14 0.350497245788574219 0.618796348571777344
-1.72986625024407203e-14 0.15834471583366394 0.601676046848297119
-1.72986625024407203e-14 0.0252457689493894577 0.499857276678085327
-1.72986625024407203e-14 0.618810176849365234 0.582870602607727051
-1.72986625024407203e-14 0.210728451609611511 0.294006615877151489
-1.72986625024407203e-14 0.039096485823392868 0.219127118587493896
-1.72986625024407203e-14 0.0697880983352661133 0.376352101564407349
-1.72986625024407203e-14 0.537852823734283447 0.442331612110137939
-1.72986625024407203e-14 0.599238872528076172 0.539940357208251953
-1.72986625024407203e-14 0.406361669301986694 0.38797992467880249
-1.72986625024407203e-14 0.157929897308349609 0.530486941337585449
-1.72986625024407203e-14 0.698106229305267334 0.572622299194335938
-1.72986625024407203e-14 0.475318640470504761 0.442633152008056641
-1.72986625024407203e-14 0.351907342672348022 0.343760639429092407
-1.72986625024407203e-14 0.312059104442596436 0.491424709558486938
-1.72986625024407203e-14 0.693941235542297363 0.552233338356018066
-1.72986625024407203e-14 0.351014107465744019 0.502308666706085205
-1.72986625024407203e-14 0.0395504198968410492 0.418925583362579346
-1.72986625024407203e-14 0.25068393349647522 0.502850651741027832
-1.72986625024407203e-14 0.12009429931640625 0.529821872711181641
-1.72986625024407203e-14 0.669405102729797363 0.528048098087310791
-1.72986625024407203e-14 0.582476556301116943 0.543617129325866699
-1.72986625024407203e-14 0.614473283290863037 0.561527132987976074
-1.72986625024407203e-14 0.320677727460861206 0.376743853092193604
-1.72986625024407203e-14 0.423745155334472656 0.623393356800079346
-1.72986625024407203e-14 0.101295866072177887 0.120977640151977539
-1.72986625024407203e-14 0.283922642469406128 0.614405572414398193
-1.72986625024407203e-14 0.274330496788024902 0.509560286998748779
-1.72986625024407203e-14 0.335189193487167358 0.375310152769088745
-1.72986625024407203e-14 0.126339703798294067 0.572668552398681641
-1.72986625024407203e-14 0.290310293436050415 0.412370145320892334
-1.72986625024407203e-14 0.138953909277915955 0.626917779445648193
-1.72986625024407203e-14 0.333145976066589355 0.600959479808807373
-1.72986625024407203e-14 0.178250342607498169 0.57122504711151123
-1.72986625024407203e-14 0.171757891774177551 0.577613532543182373
-1.72986625024407203e-14 0.460840910673141479 0.535891056060791016
-1.72986625024407203e-14 0.377778738737106323 0.612033724784851074
-1.72986625024407203e-14 0.134528800845146179 0.538369536399841309
-1.72986625024407203e-14 0.186777397990226746 0.60631263256072998
-1.72986625024407203e-14 0.357969373464584351 0.31172257661819458
-1.72986625024407203e-14 0.0382638312876224518 0.313094466924667358
-1.72986625024407203e-14 0.293125569820404053 0.40810626745223999
-1.72986625024407203e-14 0.266091883182525635 0.340344607830047607
-1.72986625024407203e-14 0.308715760707855225 0.283041566610336304
-1.72986625024407203e-14 0.20347324013710022 0.489512234926223755
-1.72986625024407203e-14 0.0156621877104043961 0.278898924589157104
-1.72986625024407203e-14 0.206576496362686157 0.392890393733978271
-1.72986625024407203e-14 0.146042481064796448 0.509161055088043213
-1.72986625024407203e-14 0.05159759521484375 0.120039403438568115
-1.72986625024407203e-14 0.110453046858310699 0.249918311834335327
-1.72986625024407203e-14 0.671230494976043701 0.57245105504989624
-1.72986625024407203e-14 0.23430238664150238 0.593157291412353516
-1.72986625024407203e-14 0.327157169580459595 0.278346627950668335
-1.72986625024407203e-14 0.149017542600631714 0.40373539924621582
-1.72986625024407203e-14 0.0160646270960569382 0.444224655628204346
-1.72986625024407203e-14 0.0904409736394882202 0.372452080249786377
-1.72986625024407203e-14 0.604965567588806152 0.622862100601196289
-1.72986625024407203e-14 0.443057507276535034 0.561598300933837891
-1.72986625024407203e-14 0.184686183929443359 0.560920417308807373
-1.72986625024407203e-14 0.140734344720840454 0.171793520450592041
-1.72986625024407203e-14 0.383744865655899048 0.565104186534881592
-1.72986625024407203e-14 0.447459369897842407 0.555350780487060547
-1.72986625024407203e-14 0.0380300693213939667 0.582163393497467041
-1.72986625024407203e-14 0.238434702157974243 0.518049478530883789
-1.72986625024407203e-14 0.128622785210609436 0.527215838432312012
-1.72986625024407203e-14 0.250085890293121338 0.481761574745178223
-1.72986625024407203e-14 0.2133607417345047 0.305827617645263672
-1.72986625024407203e-14 0.569285869598388672 0.538263261318206787
-1.72986625024407203e-14 0.0253160279244184494 0.0977217555046081543
-1.72986625024407203e-14 0.0527964644134044647 0.129191696643829346
-1.72986625024407203e-14 0.113922417163848877 0.0925858020782470703
-1.72986625024407203e-14 0.284157663583755493 0.351926207542419434
-1.72986625024407203e-14 0.493196785449981689 0.392268657684326172
-1.72986625024407203e-14 0.291359871625900269 0.450651228427886963
-1.72986625024407203e-14 0.494435399770736694 0.509573221206665039
-1.72986625024407203e-14 0.143490895628929138 0.504532396793365479
-1.72986625024407203e-14 0.509541869163513184 0.629852294921875
-1.72986625024407203e-14 0.235376551747322083 0.350162237882614136
-1.72986625024407203e-14 0.452915757894515991 0.569185137748718262
-1.72986625024407203e-14 0.44248238205909729 0.604093730449676514
-1.72986625024407203e-14 0.393693119287490845 0.585413098335266113
-1.72986625024407203e-14 0.480233162641525269 0.389393270015716553
-1.72986625024407203e-14 0.64989173412322998 0.53282618522644043
-1.72986625024407203e-14 0.403632372617721558 0.536910057067871094
-1.72986625024407203e-14 0.301002651453018188 0.330754786729812622
-1.72986625024407203e-14 0.0675033628940582275 0.487737536430358887
-1.72986625024407203e-14 0.212565898895263672 0.237497508525848389
-1.72986625024407203e-14 0.0626689419150352478 0.54139244556427002
-1.72986625024407203e-14 0.607879340648651123 0.578950166702270508
-1.72986625024407203e-14 0.571843445301055908 0.518133401870727539
-1.72986625024407203e-14 0.238825723528862 0.476391077041625977
-1.72986625024407203e-14 0.327150791883468628 0.353113472461700439
-1.72986625024407203e-14 0.311070919036865234 0.538972198963165283
-1.72986625024407203e-14 0.00975252222269773483 0.0191419720649719238
-1.72986625024407203e-14 0.0166947972029447556 0.608279049396514893
-1.72986625024407203e-14 0.377255350351333618 0.341181397438049316
-1.72986625024407203e-14 0.267238706350326538 0.367075145244598389
-1.72986625024407203e-14 0.283584922552108765 0.42474663257598877
-1.72986625024407203e-14 0.304439276456832886 0.489647865295410156
-1.72986625024407203e-14 0.0441229231655597687 0.566531658172607422
-1.72986625024407203e-14 0.350526243448257446 0.380370855331420898
-1.72986625024407203e-14 0.411419391632080078 0.508010149002075195
-1.72986625024407203e-14 0.122705243527889252 0.266246438026428223
-1.72986625024407203e-14 0.00183080078568309546 0.0884981155395507812
-1.72986625024407203e-14 0.0442084372043609619 0.577060222625732422
-1.72986625024407203e-14 0.36452677845954895 0.536897242069244385
-1.72986625024407203e-14 0.481157511472702026 0.430140107870101929
-1.72986625024407203e-14 0.268066376447677612 0.623635709285736084
-1.72986625024407203e-14 0.30544397234916687 0.405956268310546875
-1.72986625024407203e-14 0.261306136846542358 0.508020997047424316
-1.72986625024407203e-14 0.239993318915367126 0.461421817541122437
-1.72986625024407203e-14 0.195756196975708008 0.515264809131622314
-1.72986625024407203e-14 0.120952211320400238 0.367275327444076538
-1.72986625024407203e-14 0.30329933762550354 0.369335711002349854
-1.72986625024407203e-14 0.018338201567530632 0.2939261794090271
-1.72986625024407203e-14 0.185297608375549316 0.239690184593200684
-1.72986625024407203e-14 0.320464015007019043 0.488014638423919678
-1.72986625024407203e-14 0.0810925066471099854 0.0686880350112915039
-1.72986625024407203e-14 0.0962708443403244019 0.15423130989074707
-1.72986625024407203e-14 0.175802871584892273 0.487022995948791504
-1.72986625024407203e-14 0.658757686614990234 0.62077784538269043
-1.72986625024407203e-14 0.421730905771255493 0.35753244161605835
-1.72986625024407203e-14 0.271299421787261963 0.242054611444473267
-1.72986625024407203e-14 0.088851533830165863 0.26639220118522644
-1.72986625024407203e-14 0.426569193601608276 0.375813841819763184
-1.72986625024407203e-14 0.370491206645965576 0.29858696460723877
-1.72986625024407203e-14 0.446801960468292236 0.561888337135314941
-1.72986625024407203e-14 0.164430350065231323 0.589849174022674561
-1.72986625024407203e-14 0.0255175922065973282 0.254395425319671631
-1.72986625024407203e-14 0.402850955724716187 0.565242409706115723
-1.72986625024407203e-14 0.134698778390884399 0.180689752101898193
-1.72986625024407203e-14 0.0365509279072284698 0.493550777435302734
-1.72986625024407203e-14 0.0522607229650020599 0.36033967137336731
-1.72986625024407203e-14 0.280929118394851685 0.480278313159942627
-1.72986625024407203e-14 0.505839049816131592 0.403055310249328613
-1.72986625024407203e-14 0.0708296298980712891 0.427901357412338257
-1.72986625024407203e-14 0.0398264303803443909 0.366814672946929932
-1.72986625024407203e-14 0.138161525130271912 0.388189435005187988
-1.72986625024407203e-14 0.0605205893516540527 0.149299293756484985
-1.72986625024407203e-14 0.00477401958778500557 0.596127748489379883
-1.72986625024407203e-14 0.198764130473136902 0.417476296424865723
-1.72986625024407203e-14 0.0502803921699523926 0.228972882032394409
-1.72986625024407203e-14 0.0233981981873512268 0.0652379989624023438
-1.72986625024407203e-14 0.234293177723884583 0.305275559425354004
-1.72986625024407203e-14 0.00147305219434201717 0.288273870944976807
-1.72986625024407203e-14 0.410302639007568359 0.583906769752502441
-1.72986625024407203e-14 0.49792894721031189 0.420761644840240479
-1.72986625024407203e-14 0.342743754386901855 0.343676924705505371
-1.72986625024407203e-14 0.255159914493560791 0.247313618659973145
-1.72986625024407203e-14 0.322552204132080078 0.371421366930007935
-1.72986625024407203e-14 0.00990966241806745529 0.473948299884796143
-1.72986625024407203e-14 0.74617236852645874 0.617734014987945557
-1.72986625024407203e-14 0.661658167839050293 0.628057420253753662
-1.72986625024407203e-14 0.316132903099060059 0.328291863203048706
-1.72986625024407203e-14 0.1005416139960289 0.207985877990722656
-1.72986625024407203e-14 0.62686997652053833 0.600653529167175293
-1.72986625024407203e-14 0.0707362070679664612 0.263911515474319458
-1.72986625024407203e-14 0.107342801988124847 0.285942316055297852
-1.72986625024407203e-14 0.243273645639419556 0.207264333963394165
-1.72986625024407203e-14 0.115705013275146484 0.120704948902130127
-1.72986625024407203e-14 0.00427794875577092171 0.364917516708374023
-1.72986625024407203e-14 0.358721911907196045 0.616724073886871338
-1.72986625024407203e-14 0.360716044902801514 0.333413571119308472
-1.72986625024407203e-14 0.0467339232563972473 0.359330117702484131
-1.72986625024407203e-14 0.0981879234313964844 0.433859348297119141
-1.72986625024407203e-14 0.0633577853441238403 0.140525400638580322
-1.72986625024407203e-14 0.258564740419387817 0.439655095338821411
-1.72986625024407203e-14 0.260064840316772461 0.306772202253341675
-1.72986625024407203e-14 0.3623390793800354 0.361737847328186035
-1.72986625024407203e-14 0.115317702293395996 0.595614790916442871
-1.72986625024407203e-14 0.385342061519622803 0.595462143421173096
-1.72986625024407203e-14 0.439246654510498047 0.586830258369445801
-1.72986625024407203e-14 0.536741673946380615 0.511360466480255127
-1.72986625024407203e-14 0.249816372990608215 0.322776466608047485
-1.72986625024407203e-14 0.665885806083679199 0.584983289241790771
-1.72986625024407203e-14 0.0362246297299861908 0.510147154331207275
-1.72986625024407203e-14 0.0731287524104118347 0.242741763591766357
-1.72986625024407203e-14 0.361573874950408936 0.510504662990570068
-1.72986625024407203e-14 0.307412594556808472 0.532263398170471191
-1.72986625024407203e-14 0.107485689222812653 0.0850095152854919434
-1.72986625024407203e-14 0.174247786402702332 0.423849701881408691
-1.72986625024407203e-14 0.5021933913230896 0.478160381317138672
-1.72986625024407203e-14 0.206145405769348145 0.365504562854766846
-1.72986625024407203e-14 0.535597562789916992 0.446133822202682495
-1.72986625024407203e-14 0.312045693397521973 0.525864720344543457
-1.72986625024407203e-14 0.238907366991043091 0.342208296060562134
-1.72986625024407203e-14 0.49512481689453125 0.493162691593170166
-1.72986625024407203e-14 0.0866187363862991333 0.255893141031265259
-1.72986625024407203e-14 0.317488968372344971 0.587286770343780518
-1.72986625024407203e-14 0.0271425750106573105 0.200437486171722412
-1.72986625024407203e-14 0.196866914629936218 0.519043087959289551
-1.72986625024407203e-14 0.282510995864868164 0.405219793319702148
-1.72986625024407203e-14 0.38790246844291687 0.576259613037109375
-1.72986625024407203e-14 0.0392197184264659882 0.565572738647460938
-1.72986625024407203e-14 0.463837593793869019 0.538779139518737793
-1.72986625024407203e-14 0.413892239332199097 0.351523637771606445
-1.72986625024407203e-14 0.025231262668967247 0.378032863140106201
-1.72986625024407203e-14 0.0691510289907455444 0.436514675617218018
-1.72986625024407203e-14 0.726577579975128174 0.609728634357452393
-1.72986625024407203e-14 0.536271929740905762 0.592395961284637451
-1.72986625024407203e-14 0.397202163934707642 0.622198283672332764
-1.72986625024407203e-14 0.234610557556152344 0.449807405471801758
-1.72986625024407203e-14 0.208613276481628418 0.616210639476776123
-1.72986625024407203e-14 0.599741458892822266 0.616236031055450439
-1.72986625024407203e-14 0.287753522396087646 0.240998655557632446
-1.72986625024407203e-14 0.115200184285640717 0.246284455060958862
-1.72986625024407203e-14 0.411895602941513062 0.473787546157836914
-1.72986625024407203e-14 0.306235730648040771 0.242989838123321533
-1.72986625024407203e-14 0.58434528112411499 0.534063458442687988
-1.72986625024407203e-14 0.350992888212203979 0.498991072177886963
-1.72986625024407203e-14 0.574506700038909912 0.462300777435302734
-1.72986625024407203e-14 0.605407297611236572 0.562206149101257324
-1.72986625024407203e-14 0.216719150543212891 0.44765174388885498
-1.72986625024407203e-14 0.229555562138557434 0.567894220352172852
-1.72986625024407203e-14 0.493523597717285156 0.609981894493103027
-1.72986625024407203e-14 0.0159387774765491486 0.157537400722503662
-1.72986625024407203e-14 0.162898018956184387 0.210603773593902588
-1.72986625024407203e-14 0.253902465105056763 0.443523824214935303
-1.72986625024407203e-14 0.286515802145004272 0.492156237363815308
-1.72986625024407203e-14 0.0957946702837944031 0.106548070907592773
-1.72986625024407203e-14 0.531047582626342773 0.607087790966033936
-1.72986625024407203e-14 0.0506283119320869446 0.312793880701065063
-1.72986625024407203e-14 0.102178767323493958 0.315167933702468872
-1.72986625024407203e-14 0.148707762360572815 0.217135190963745117
-1.72986625024407203e-14 0.00391911668702960014 0.136067807674407959
-1.72986625024407203e-14 0.330114305019378662 0.373272120952606201
-1.72986625024407203e-14 0.446298509836196899 0.354878544807434082
-1.72986625024407203e-14 0.564834058284759521 0.554769337177276611
-1.72986625024407203e-14 0.475656569004058838 0.525344491004943848
-1.72986625024407203e-14 0.289675444364547729 0.248105347156524658
-1.72986625024407203e-14 0.352440714836120605 0.337346881628036499
-1.72986625024407203e-14 0.361724436283111572 0.596576273441314697
-1.72986625024407203e-14 0.338590651750564575 0.571939468383789062
-1.72986625024407203e-14 0.480034828186035156 0.529195606708526611
-1.72986625024407203e-14 0.320681899785995483 0.624459326267242432
-1.72986625024407203e-14 0.0801378637552261353 0.386314332485198975
-1.72986625024407203e-14 0.201085001230239868 0.46009477972984314
-1.72986625024407203e-14 0.336515039205551147 0.339745014905929565
-1.72986625024407203e-14 0.296467602252960205 0.238699167966842651
-1.72986625024407203e-14 0.330675810575485229 0.610937237739562988
-1.72986625024407203e-14 0.397475451231002808 0.517928183078765869
-1.72986625024407203e-14 0.106352381408214569 0.452661752700805664
-1.72986625024407203e-14 0.59734809398651123 0.573494076728820801
-1.72986625024407203e-14 0.0711829811334609985 0.559291362762451172
-1.72986625024407203e-14 0.114724732935428619 0.391715914011001587
-1.72986625024407203e-14 0.105163536965847015 0.190235793590545654
-1.72986625024407203e-14 0.538571417331695557 0.535615622997283936
-1.72986625024407203e-14 0.413598448038101196 0.376402080059051514
-1.72986625024407203e-14 0.643302381038665771 0.533137381076812744
-1.72986625024407203e-14 0.271504908800125122 0.328879028558731079
-1.72986625024407203e-14 0.200510770082473755 0.180756539106369019
-1.72986625024407203e-14 0.491671234369277954 0.595131158828735352
-1.72986625024407203e-14 0.440959542989730835 0.493352949619293213
-1.72986625024407203e-14 0.032413337379693985 0.456527352333068848
-1.72986625024407203e-14 0.0651669129729270935 0.609772026538848877
-1.72986625024407203e-14 0.15263800323009491 0.226420432329177856
-1.72986625024407203e-14 0.227972984313964844 0.297381103038787842
-1.72986625024407203e-14 0.165833815932273865 0.163548827171325684
-1.72986625024407203e-14 0.199039265513420105 0.62481766939163208
-1.72986625024407203e-14 0.332157611846923828 0.588853001594543457
-1.72986625024407203e-14 0.732362031936645508 0.609752357006072998
-1.72986625024407203e-14 0.338585406541824341 0.533206820487976074
-1.72986625024407203e-14 0.627196788787841797 0.496461063623428345
-1.72986625024407203e-14 0.550425291061401367 0.568773269653320312
-1.72986625024407203e-14 0.0790910422801971436 0.579413831233978271
-1.72986625024407203e-14 0.0957584008574485779 0.298008233308792114
-1.72986625024407203e-14 0.0715400949120521545 0.132448881864547729
-1.72986625024407203e-14 0.1165589839220047 0.545339643955230713
-1.72986625024407203e-14 0.430770605802536011 0.482934772968292236
-1.72986625024407203e-14 0.0292725414037704468 0.22098231315612793
-1.72986625024407203e-14 0.210725292563438416 0.215158581733703613
-1.72986625024407203e-14 0.447968810796737671 0.454720914363861084
-1.72986625024407203e-14 0.299498021602630615 0.262442678213119507
-1.72986625024407203e-14 0.118171274662017822 0.368715077638626099
-1.72986625024407203e-14 0.222997859120368958 0.406615376472473145
-1.72986625024407203e-14 0.218478471040725708 0.622523963451385498
-1.72986625024407203e-14 0.463603585958480835 0.464311450719833374
-1.72986625024407203e-14 0.14139460027217865 0.276095032691955566
-1.72986625024407203e-14 0.281609117984771729 0.419684916734695435
-1.72986625024407203e-14 0.300238996744155884 0.375431567430496216
-1.72986625024407203e-14 0.167516171932220459 0.345342338085174561
-1.72986625024407203e-14 0.0192022901028394699 0.358056306838989258
-1.72986625024407203e-14 0.296744853258132935 0.388562262058258057
-1.72986625024407203e-14 0.0329417549073696136 0.210541307926177979
-1.72986625024407203e-14 0.0922429263591766357 0.0821711421012878418
-1.72986625024407203e-14 0.148301750421524048 0.487621217966079712
-1.72986625024407203e-14 0.130573049187660217 0.464063972234725952
-1.72986625024407203e-14 0.54541856050491333 0.620302438735961914
-1.72986625024407203e-14 0.183862030506134033 0.386590838432312012
-1.72986625024407203e-14 0.261674821376800537 0.302557110786437988
-1.72986625024407203e-14 0.265243351459503174 0.307905703783035278
-1.72986625024407203e-14 0.0586818046867847443 0.377449065446853638
-1.72986625024407203e-14 0.248899653553962708 0.503195345401763916
-1.72986625024407203e-14 0.483797520399093628 0.59564661979675293
-1.72986625024407203e-14 0.0757050663232803345 0.240697652101516724
-1.72986625024407203e-14 0.128352910280227661 0.167596876621246338
-1.72986625024407203e-14 0.0864545330405235291 0.120025634765625
-1.72986625024407203e-14 0.185894504189491272 0.420431375503540039
-1.72986625024407203e-14 0.0353085026144981384 0.394110023975372314
-1.72986625024407203e-14 0.0963299423456192017 0.176009565591812134
-1.72986625024407203e-14 0.150760278105735779 0.214841276407241821
-1.72986625024407203e-14 0.371568143367767334 0.628329932689666748
-1.72986625024407203e-14 0.251855760812759399 0.297688871622085571
-1.72986625024407203e-14 0.209100157022476196 0.614431858062744141
-1.72986625024407203e-14 0.199744746088981628 0.261317610740661621
-1.72986625024407203e-14 0.189733773469924927 0.457323074340820312
-1.72986625024407203e-14 0.0760517418384552002 0.245249778032302856
-1.72986625024407203e-14 0.175964847207069397 0.446955323219299316
-1.72986625024407203e-14 0.620080113410949707 0.623740673065185547
-1.72986625024407203e-14 0.741703450679779053 0.589039742946624756
-1.72986625024407203e-14 0.0666453540325164795 0.497588485479354858
-1.72986625024407203e-14 0.716096103191375732 0.59143906831741333
-1.72986625024407203e-14 0.0116006089374423027 0.235102862119674683
-1.72986625024407203e-14 0.565554261207580566 0.486756086349487305
-1.72986625024407203e-14 0.290673881769180298 0.531407475471496582
-1.72986625024407203e-14 0.24401545524597168 0.210055172443389893
-1.72986625024407203e-14 0.533564329147338867 0.58904874324798584
-1.72986625024407203e-14 0.0329920314252376556 0.604263186454772949
-1.72986625024407203e-14 0.262323439121246338 0.308430373668670654
-1.72986625024407203e-14 0.508189857006072998 0.427770078182220459
-1.72986625024407203e-14 0.0223709307610988617 0.049995720386505127
-1.72986625024407203e-14 0.0776381120085716248 0.511786878108978271
-1.72986625024407203e-14 0.0805547386407852173 0.190382450819015503
-1.72986625024407203e-14 0.539422273635864258 0.446614980697631836
-1.72986625024407203e-14 0.300895273685455322 0.527961790561676025
-1.72986625024407203e-14 0.121583476662635803 0.511886715888977051
-1.72986625024407203e-14 0.175092384219169617 0.147153794765472412
-1.72986625024407203e-14 0.422645807266235352 0.574313461780548096
-1.72986625024407203e-14 0.167211771011352539 0.139628320932388306
-1.72986625024407203e-14 0.0631575211882591248 0.207334160804748535
-1.72986625024407203e-14 0.0677284225821495056 0.373884797096252441
-1.72986625024407203e-14 0.142832845449447632 0.627296745777130127
-1.72986625024407203e-14 0.410270035266876221 0.458203554153442383
-1.72986625024407203e-14 0.178878173232078552 0.250530928373336792
-1.72986625024407203e-14 0.46073150634765625 0.45704418420791626
-1.72986625024407203e-14 0.149650141596794128 0.15848851203918457
-1.72986625024407203e-14 0.24366442859172821 0.587974786758422852
-1.72986625024407203e-14 0.0412481836974620819 0.196039557456970215
-1.72986625024407203e-14 0.560776591300964355 0.517318904399871826
-1.72986625024407203e-14 0.301053673028945923 0.536540985107421875
-1.72986625024407203e-14 0.409469127655029297 0.560136497020721436
-1.72986625024407203e-14 0.662793338298797607 0.627534747123718262
-1.72986625024407203e-14 0.70973128080368042 0.592542290687561035
-1.72986625024407203e-14 0.0995985344052314758 0.40863722562789917
-1.72986625024407203e-14 0.0785158053040504456 0.419934630393981934
-1.72986625024407203e-14 0.0822784081101417542 0.219381511211395264
-1.72986625024407203e-14 0.32184717059135437 0.364419162273406982
-1.72986625024407203e-14 0.501218557357788086 0.436530888080596924
-1.72986625024407203e-14 0.140526264905929565 0.576606929302215576
-1.72986625024407203e-14 0.113722622394561768 0.15104183554649353
-1.72986625024407203e-14 0.604906857013702393 0.615489959716796875
-1.72986625024407203e-14 0.610524296760559082 0.599367737770080566
-1.72986625024407203e-14 0.037665441632270813 0.20196959376335144
-1.72986625024407203e-14 0.226037651300430298 0.44576728343963623
-1.72986625024407203e-14 0.0224212277680635452 0.45493316650390625
-1.72986625024407203e-14 0.0103156892582774162 0.368147790431976318
-1.72986625024407203e-14 0.345620840787887573 0.445731103420257568
