ply
format ascii 1.0
element vertex 693
property float x
property float y
property float z
end_header
0.0509999990463256836 -0.00650075171142816544 0.00850957445800304413
0.0509999990463256836 -0.00212975777685642242 0.00479118060320615768
0.0509999990463256836 -0.012099195271730423 0.00170464860275387764
0.0509999990463256836 -0.0110248997807502747 0.000153068918734788895
0.0509999990463256836 -0.00990411825478076935 0.00459075625985860825
0.0509999990463256836 -0.0072443266399204731 0.0025610397569835186
0.0509999990463256836 0.0107842888683080673 0.000595984980463981628
0.0509999990463256836 0.00818602833896875381 0.0095693664625287056
0.0509999990463256836 -0.00382364913821220398 0.00135079771280288696
0.0509999990463256836 -0.000183653552085161209 0.0131042003631591797
0.0509999990463256836 0.00745222717523574829 0.00144418701529502869
0.0509999990463256836 -0.000716013251803815365 0.0184797700494527817
0.0509999990463256836 -0.000942855724133551121 0.0189530514180660248
0.0509999990463256836 -0.000971723580732941628 0.0157652217894792557
0.0509999990463256836 -0.00177943147718906403 0.00839120708405971527
0.0509999990463256836 0.00359807349741458893 0.00172170344740152359
0.0509999990463256836 -0.000955293886363506317 0.00321262795478105545
0.0509999990463256836 -0.0183764901012182236 0.000788554316386580467
0.0509999990463256836 -0.00224362453445792198 0.00466473447158932686
0.0509999990463256836 0.00969758536666631699 0.00539840105921030045
0.0509999990463256836 -0.00406778929755091667 0.01461060531437397
0.0509999990463256836 -0.011118156835436821 0.00348069192841649055
0.0509999990463256836 0.0177426114678382874 0.000947218388319015503
0.0509999990463256836 0.0140146762132644653 0.00257053785026073456
0.0509999990463256836 -0.000926447566598653793 0.0107533503323793411
0.0509999990463256836 0.017717316746711731 -0.0010751727968454361
0.0509999990463256836 0.00204977625980973244 0.00918984971940517426
0.0509999990463256836 0.000267549185082316399 0.0155335068702697754
0.0509999990463256836 0.00819274876266717911 0.0064652198925614357
0.0509999990463256836 0.00154387205839157104 0.00158812850713729858
0.0509999990463256836 -0.0108835296705365181 -0.000198605470359325409
0.0509999990463256836 -0.00577309727668762207 0.0116245318204164505
0.0509999990463256836 0.00888162851333618164 0.00689663831144571304
0.0509999990463256836 -0.0129290279000997543 0.00138193205930292606
0.0509999990463256836 -0.00579623924568295479 0.0116362199187278748
0.0509999990463256836 0.0176423508673906326 -0.00100901350378990173
0.0509999990463256836 0.00272569060325622559 -0.000678872689604759216
0.0509999990463256836 0.00256624096073210239 0.012457575649023056
0.0509999990463256836 -0.00798504054546356201 0.00538074877113103867
0.0509999990463256836 -0.0132994102314114571 0.00727618159726262093
0.0509999990463256836 -0.0105355372652411461 0.00304889585822820663
0.0509999990463256836 0.0101668853312730789 0.00545473303645849228
0.0509999990463256836 0.0021292511373758316 0.00204396247863769531
0.0509999990463256836 0.00207127165049314499 0.0136956321075558662
0.0509999990463256836 -0.00820359960198402405 0.0119873601943254471
0.0509999990463256836 -0.00809509959071874619 0.0125436624512076378
0.0509999990463256836 -0.00856756232678890228 0.0114909503608942032
0.0509999990463256836 0.00453334767371416092 0.00524486042559146881
0.0509999990463256836 -0.00219465326517820358 0.0116623975336551666
0.0509999990463256836 -0.00970557983964681625 0.011327049694955349
0.0509999990463256836 0.00341428257524967194 0.0146445045247673988
0.0509999990463256836 -0.00562926800921559334 0.0126486886292695999
0.0509999990463256836 -0.00682072993367910385 0.0124207939952611923
0.0509999990463256836 -0.00768590113148093224 0.0048265424557030201
0.0509999990463256836 -0.00698549533262848854 0.00455886451527476311
0.0509999990463256836 -0.00231571914628148079 0.0175560303032398224
0.0509999990463256836 0.00651512201875448227 -9.82554629445075989e-05
0.0509999990463256836 -0.00716409832239151001 0.0140208667144179344
0.0509999990463256836 0.00460259197279810905 0.00921707972884178162
0.0509999990463256836 0.0120918760076165199 0.00307543762028217316
0.0509999990463256836 0.0129585545510053635 0.00418804585933685303
0.0509999990463256836 -0.00986951775848865509 0.0075697670690715313
0.0509999990463256836 -0.00601866468787193298 0.0016320403665304184
0.0509999990463256836 0.0118856132030487061 0.00499019864946603775
0.0509999990463256836 0.0113962600007653236 0.00440758559852838516
0.0509999990463256836 -0.00125168636441230774 -0.000736798159778118134
0.0509999990463256836 -0.00941695459187030792 0.00151386624202132225
0.0509999990463256836 -0.00205675186589360237 0.00789313018321990967
0.0509999990463256836 -0.00560296140611171722 0.0150692090392112732
0.0509999990463256836 -0.00369728542864322662 0.0156274829059839249
0.0509999990463256836 -0.0067903776653110981 0.00218384945765137672
0.0509999990463256836 -0.00049941428005695343 0.010494639165699482
0.0509999990463256836 -0.017247246578335762 0.00193898368161171675
0.0509999990463256836 0.00185115495696663857 0.00803096313029527664
0.0509999990463256836 -0.00862967688590288162 0.00205699261277914047
0.0509999990463256836 0.0165693443268537521 -0.000633193179965019226
0.0509999990463256836 -0.0158030427992343903 0.000361865153536200523
0.0509999990463256836 -0.000627179630100727081 0.0101711545139551163
0.0509999990463256836 -0.0163857042789459229 0.00103058433160185814
0.0509999990463256836 0.0158208049833774567 0.00254935584962368011
0.0509999990463256836 0.00714286928996443748 0.00226333364844322205
0.0509999990463256836 -0.00262024300172924995 0.00622213399037718773
0.0509999990463256836 0.016896342858672142 0.00239314325153827667
0.0509999990463256836 0.000575848855078220367 0.00224163010716438293
0.0509999990463256836 -0.0117252040654420853 0.0100214006379246712
0.0509999990463256836 -0.00728078000247478485 0.00370832439512014389
0.0509999990463256836 -0.0201540011912584305 8.83106258697807789e-05
0.0509999990463256836 0.0108912363648414612 0.000691004097461700439
0.0509999990463256836 -0.000390492379665374756 0.00554924085736274719
0.0509999990463256836 -0.00558889377862215042 0.00980192143470048904
0.0509999990463256836 0.0115913767367601395 0.00342759769409894943
0.0509999990463256836 -0.0108276121318340302 0.0076251043938100338
0.0509999990463256836 -0.00733041903004050255 0.00298680970445275307
0.0509999990463256836 -0.0166243724524974823 0.000846019713208079338
0.0509999990463256836 0.0101450998336076736 0.00299591291695833206
0.0509999990463256836 -0.00506962090730667114 0.00463059358298778534
0.0509999990463256836 -0.00179580412805080414 0.000190748833119869232
0.0509999990463256836 0.00306433532387018204 0.00126892607659101486
0.0509999990463256836 0.00898726657032966614 0.00425870250910520554
0.0509999990463256836 0.00221013091504573822 0.00952280685305595398
0.0509999990463256836 0.00180437974631786346 0.0116474274545907974
0.0509999990463256836 -0.00415321625769138336 0.0011476464569568634
0.0509999990463256836 -0.00195098202675580978 0.0194506403058767319
0.0509999990463256836 -0.00566119374707341194 0.00934857316315174103
0.0509999990463256836 -0.0112151624634861946 0.00673162005841732025
0.0509999990463256836 0.00459232274442911148 0.00937359221279621124
0.0509999990463256836 0.00305119343101978302 0.00141692068427801132
0.0509999990463256836 0.00987724214792251587 0.00465034972876310349
0.0509999990463256836 0.00714999623596668243 -0.000748399645090103149
0.0509999990463256836 -0.00507352827116847038 0.00689644226804375648
0.0509999990463256836 -0.00108084932435303926 0.0194768588989973068
0.0509999990463256836 0.00752768572419881821 0.00694370176643133163
0.0509999990463256836 -0.0118662435561418533 0.000937255099415779114
0.0509999990463256836 -0.0121208354830741882 0.00122514506801962852
0.0509999990463256836 -0.0045291590504348278 0.00316468020901083946
0.0509999990463256836 -0.00511259352788329124 0.00513816112652420998
0.0509999990463256836 0.00885502900928258896 0.00313050299882888794
0.0509999990463256836 -0.0156528148800134659 0.00210424931719899178
0.0509999990463256836 -0.00254920590668916702 0.00688521470874547958
0.0509999990463256836 0.00436710286885499954 0.00673558376729488373
0.0509999990463256836 0.00824715662747621536 0.0057573346421122551
0.0509999990463256836 -0.00347237009555101395 0.0165090896189212799
0.0509999990463256836 0.00540917692705988884 0.00815984141081571579
0.0509999990463256836 -0.0155079187825322151 0.000543379224836826324
0.0509999990463256836 -0.0132486727088689804 0.00165900751017034054
0.0509999990463256836 -0.003247811459004879 0.00934024900197982788
0.0509999990463256836 -0.011490936391055584 0.0048041539266705513
0.0509999990463256836 0.000877823447808623314 0.0144231179729104042
0.0509999990463256836 -0.00318039651028811932 0.0144652305170893669
0.0509999990463256836 0.00246662506833672523 0.0161372330039739609
0.0509999990463256836 0.00390777178108692169 0.013770105317234993
0.0509999990463256836 -0.00973343290388584137 0.00632320716977119446
0.0509999990463256836 0.0091514885425567627 0.000149147585034370422
0.0509999990463256836 -0.0162729062139987946 0.00190420483704656363
0.0509999990463256836 -0.000562408240512013435 0.0167233645915985107
0.0509999990463256836 0.000524355098605155945 0.000980370678007602692
0.0509999990463256836 -0.00579719105735421181 0.00459516001865267754
0.0509999990463256836 0.00156231597065925598 0.00457830727100372314
0.0509999990463256836 -0.00207285443320870399 0.00510545680299401283
0.0509999990463256836 -0.00194564089179039001 0.00443600118160247803
0.0509999990463256836 0.0120359333232045174 -0.000335101038217544556
0.0509999990463256836 -0.00760135892778635025 -0.000118987634778022766
0.0509999990463256836 0.0048869401216506958 -0.000770095735788345337
0.0509999990463256836 -0.00338750309310853481 0.018922753632068634
0.0509999990463256836 0.0110648889094591141 -0.00123986415565013885
0.0509999990463256836 -0.000474876724183559418 0.00281889550387859344
0.0509999990463256836 -0.00339256972074508667 0.00094982050359249115
0.0509999990463256836 -0.00226145703345537186 0.020368676632642746
0.0509999990463256836 0.00307663623243570328 0.00263443682342767715
0.0509999990463256836 0.00254337536171078682 0.0102713331580162048
0.0509999990463256836 0.00108610792085528374 0.00569096580147743225
0.0509999990463256836 0.00896878167986869812 0.00989695265889167786
0.0509999990463256836 -0.00812590494751930237 0.0101368846371769905
0.0509999990463256836 -0.00604061270132660866 0.00247453758493065834
0.0509999990463256836 -0.00937687885016202927 0.00142614170908927917
0.0509999990463256836 0.0114834196865558624 0.00525122974067926407
0.0509999990463256836 0.000444695353507995605 1.58008188009262085e-05
0.0509999990463256836 -0.00362110696732997894 0.00605459883809089661
0.0509999990463256836 -0.00423997640609741211 0.0164871010929346085
0.0509999990463256836 0.0163459684699773788 0.00195561908185482025
0.0509999990463256836 -0.0130922980606555939 0.00794640090316534042
0.0509999990463256836 -0.0187008362263441086 0.000998626346699893475
0.0509999990463256836 0.00837406329810619354 0.0094205634668469429
0.0509999990463256836 -0.00962156429886817932 0.00510081695392727852
0.0509999990463256836 -0.00278343446552753448 0.0183358956128358841
0.0509999990463256836 -0.0138394152745604515 0.00665300525724887848
0.0509999990463256836 -0.00595437036827206612 0.013186408206820488
0.0509999990463256836 0.00110948039218783379 0.00799672771245241165
0.0509999990463256836 0.0059330333024263382 0.00684107467532157898
0.0509999990463256836 0.00916009675711393356 0.0065709725022315979
0.0509999990463256836 -0.0110935326665639877 -0.000277141574770212173
0.0509999990463256836 0.00936698727309703827 0.00578005332499742508
0.0509999990463256836 -0.011571844108402729 0.00347325671464204788
0.0509999990463256836 0.0134366331622004509 0.00575596466660499573
0.0509999990463256836 0.000530396588146686554 0.00594706926494836807
0.0509999990463256836 -0.00799224711954593658 0.0134384818375110626
0.0509999990463256836 0.00651975814253091812 0.0057035079225897789
0.0509999990463256836 0.00158510636538267136 0.00854645669460296631
0.0509999990463256836 0.0025278779212385416 0.0138341952115297318
0.0509999990463256836 -0.00533286295831203461 0.00799561664462089539
0.0509999990463256836 -0.0158374086022377014 0.00376088684424757957
0.0509999990463256836 -0.00633565196767449379 0.0129980659112334251
0.0509999990463256836 0.00111703807488083839 0.00555582623928785324
0.0509999990463256836 -0.00830493122339248657 0.0100479647517204285
0.0509999990463256836 -0.000639842823147773743 0.000176617875695228577
0.0509999990463256836 -0.0147534022107720375 0.00545383570715785027
0.0509999990463256836 0.0123406713828444481 0.00695054139941930771
0.0509999990463256836 0.0132196051999926567 0.00145430117845535278
0.0509999990463256836 -0.0122966235503554344 0.0063592507503926754
0.0509999990463256836 0.00527580175548791885 0.0114773865789175034
0.0509999990463256836 0.00200930703431367874 0.00327993277460336685
0.0509999990463256836 0.00102493003942072392 0.0162898674607276917
0.0509999990463256836 0.00325864460319280624 0.0117020495235919952
0.0509999990463256836 -0.00360201485455036163 0.012223370373249054
0.0509999990463256836 -0.000519564840942621231 0.0115664880722761154
0.0509999990463256836 -0.00219194591045379639 0.00667444616556167603
0.0509999990463256836 0.00682826712727546692 0.00581456813961267471
0.0509999990463256836 0.000723549630492925644 0.0138435680419206619
0.0509999990463256836 -0.0153194880113005638 0.0057652411051094532
0.0509999990463256836 -0.00696241110563278198 0.0127598084509372711
0.0509999990463256836 -0.00344906467944383621 0.0165951289236545563
0.0509999990463256836 -0.00832318514585494995 0.00927172601222991943
0.0509999990463256836 0.0028837667778134346 0.00858626514673233032
0.0509999990463256836 0.0101776076480746269 0.00451405532658100128
0.0509999990463256836 0.00953457970172166824 0.00451970566064119339
0.0509999990463256836 -0.0185176283121109009 0.000160091789439320564
0.0509999990463256836 -0.00641618575900793076 0.0110882418230175972
0.0509999990463256836 0.0112696234136819839 0.00597269646823406219
0.0509999990463256836 -0.00871023442596197128 0.0118297049775719643
0.0509999990463256836 -0.00334365153685212135 0.00444264756515622139
0.0509999990463256836 -0.00354643352329730988 0.000911626964807510376
0.0509999990463256836 -0.000856088707223534584 0.0170081779360771179
0.0509999990463256836 -0.00389898288995027542 0.0157163068652153015
0.0509999990463256836 -0.0051611773669719696 -0.000156679190695285797
0.0509999990463256836 0.0177715644240379333 0.000808713957667350769
0.0509999990463256836 -0.00260798167437314987 0.0010995110496878624
0.0509999990463256836 0.0107652265578508377 0.00768179167062044144
0.0509999990463256836 0.0105686355382204056 0.00215400569140911102
0.0509999990463256836 0.00308996578678488731 0.00991821102797985077
0.0509999990463256836 -0.00434286333620548248 0.0165996793657541275
0.0509999990463256836 0.00856869295239448547 0.00777670927345752716
0.0509999990463256836 0.00854716729372739792 0.00808567926287651062
0.0509999990463256836 -0.00354584609158337116 0.0119242165237665176
0.0509999990463256836 0.00699597597122192383 -0.00077471509575843811
0.0509999990463256836 -0.0177651569247245789 0.00149066781159490347
0.0509999990463256836 0.0124676991254091263 0.00570974405854940414
0.0509999990463256836 -0.0023531205952167511 0.0182716865092515945
0.0509999990463256836 0.00751909194514155388 0.00360558554530143738
0.0509999990463256836 0.00510660279542207718 0.00640020333230495453
0.0509999990463256836 0.00922508351504802704 -0.000287903472781181335
0.0509999990463256836 -0.00660381745547056198 0.00723943952471017838
0.0509999990463256836 -0.00459116464480757713 0.0155308451503515244
0.0509999990463256836 -0.00238129426725208759 0.0171415545046329498
0.0509999990463256836 0.0130317863076925278 0.000218380242586135864
0.0509999990463256836 0.00367916072718799114 0.0152310235425829887
0.0509999990463256836 0.00617070868611335754 0.0069947531446814537
0.0509999990463256836 -0.00743749970570206642 0.0145973889157176018
0.0509999990463256836 -0.00522298971191048622 0.0163987502455711365
0.0509999990463256836 -0.0131302522495388985 0.00197918806225061417
0.0509999990463256836 -0.0169119518250226974 0.00358064356260001659
0.0509999990463256836 0.013518165796995163 -0.000327136367559432983
0.0509999990463256836 0.00655855424702167511 -0.000231224112212657928
0.0509999990463256836 -0.00149555690586566925 0.0152636244893074036
0.0509999990463256836 0.00109719904139637947 0.00717565882951021194
0.0509999990463256836 -0.00353184202685952187 0.0048952135257422924
0.0509999990463256836 -0.00753604574128985405 0.0059455004520714283
0.0509999990463256836 0.00837103277444839478 0.000805044546723365784
0.0509999990463256836 -0.0020557185634970665 0.00842274725437164307
0.0509999990463256836 -0.000194219872355461121 0.000924502499401569366
0.0509999990463256836 -0.000728355837054550648 0.018883509561419487
0.0509999990463256836 -0.00623290287330746651 0.0133696720004081726
0.0509999990463256836 -0.0137820392847061157 0.0053691440261900425
0.0509999990463256836 -0.00223496090620756149 -0.000215768814086914062
0.0509999990463256836 -0.00796702411025762558 0.000415576621890068054
0.0509999990463256836 -0.0045407712459564209 0.00858802534639835358
0.0509999990463256836 -0.00452043302357196808 0.00147939473390579224
0.0509999990463256836 0.0064845881424844265 0.0104590998962521553
0.0509999990463256836 -0.010457795113325119 0.0063504362478852272
0.0509999990463256836 -0.0154338628053665161 0.00459546083584427834
0.0509999990463256836 0.00881821196526288986 0.00868793483823537827
0.0509999990463256836 -0.000953229144215583801 0.00524387229233980179
0.0509999990463256836 -0.0117448344826698303 0.00438760314136743546
0.0509999990463256836 -0.00310976617038249969 0.00700952950865030289
0.0509999990463256836 -0.00838414672762155533 0.0114627853035926819
0.0509999990463256836 6.98110088706016541e-05 0.0103041417896747589
0.0509999990463256836 -0.0151305990293622017 0.00631179055199027061
0.0509999990463256836 0.00534601416438817978 0.0045701637864112854
0.0509999990463256836 -0.00977246183902025223 0.00276766810566186905
0.0509999990463256836 0.016726883128285408 -0.00115796737372875214
0.0509999990463256836 0.00942527409642934799 0.00418728496879339218
0.0509999990463256836 0.0181460268795490265 0.000273467972874641418
0.0509999990463256836 -0.00432657357305288315 0.0158217735588550568
0.0509999990463256836 0.00417267950251698494 0.00989576522260904312
0.0509999990463256836 -0.0047613438218832016 0.00869404897093772888
0.0509999990463256836 0.0146842775866389275 0.00454260781407356262
0.0509999990463256836 -0.0026372913271188736 -0.000415835529565811157
0.0509999990463256836 -0.0163066871464252472 -2.86754220724105835e-06
0.0509999990463256836 -0.00155817833729088306 0.0160854794085025787
0.0509999990463256836 -0.011640891432762146 0.00773015152662992477
0.0509999990463256836 0.00659202225506305695 0.00707669742405414581
0.0509999990463256836 0.00446105236187577248 0.00957796350121498108
0.0509999990463256836 -0.013020714744925499 0.00293760746717453003
0.0509999990463256836 0.00296676089055836201 0.0118070896714925766
0.0509999990463256836 0.00816046260297298431 0.00252731703221797943
0.0509999990463256836 -0.00199937401339411736 0.0118745770305395126
0.0509999990463256836 -0.0102552324533462524 0.0105358446016907692
0.0509999990463256836 -0.00463807536289095879 0.0165996383875608444
0.0509999990463256836 0.00872538518160581589 0.000317567959427833557
0.0509999990463256836 -0.0109522994607686996 0.00499532278627157211
0.0509999990463256836 0.0127870310097932816 -0.000933263450860977173
0.0509999990463256836 0.00115612149238586426 0.00184655841439962387
0.0509999990463256836 -0.000495806802064180374 0.00999332033097743988
0.0509999990463256836 -0.00925040058791637421 -0.000345403794199228287
0.0509999990463256836 -0.00785591732710599899 0.0130131272599101067
0.0509999990463256836 0.00352759147062897682 0.00552827026695013046
0.0509999990463256836 0.00376585265621542931 0.0101828780025243759
0.0509999990463256836 0.000562582165002822876 0.0103355497121810913
0.0509999990463256836 0.0146811390295624733 0.00297026336193084717
0.0509999990463256836 -0.0105067230761051178 0.00986278429627418518
0.0509999990463256836 -0.0123084280639886856 -6.49276189506053925e-05
0.0509999990463256836 0.00571085326373577118 0.0121596278622746468
0.0509999990463256836 -0.00580040412023663521 0.0061982334591448307
0.0509999990463256836 0.00968757364898920059 0.00195168145000934601
0.0509999990463256836 0.000878257676959037781 0.00998634286224842072
0.0509999990463256836 -0.00387008348479866982 0.0113172456622123718
0.0509999990463256836 0.0139039065688848495 0.000207124277949333191
0.0509999990463256836 -0.0107878558337688446 0.010157458484172821
0.0509999990463256836 -0.0150483846664428711 0.00336843379773199558
0.0509999990463256836 -0.00873839110136032104 0.00523072481155395508
0.0509999990463256836 -0.00471810344606637955 0.00500633474439382553
0.0509999990463256836 0.00207488983869552612 0.00407819170504808426
0.0509999990463256836 -0.00535065494477748871 0.00215477682650089264
0.0509999990463256836 0.0120184672996401787 -0.000854274258017539978
0.0509999990463256836 0.00945830345153808594 0.00513449683785438538
0.0509999990463256836 0.000517300097271800041 0.0167101472616195679
0.0509999990463256836 -0.00276778917759656906 0.000240413472056388855
0.0509999990463256836 -0.00281431851908564568 0.0131102157756686211
0.0509999990463256836 -0.00325087923556566238 0.00157432351261377335
0.0509999990463256836 -0.00505727902054786682 0.00851186644285917282
0.0509999990463256836 0.00351306144148111343 0.0121668074280023575
0.0509999990463256836 -0.0110765192657709122 0.00160661153495311737
0.0509999990463256836 -0.0014453371986746788 0.0128579316660761833
0.0509999990463256836 0.0061769396997988224 0.010064324364066124
0.0509999990463256836 0.00501789012923836708 0.0136092528700828552
0.0509999990463256836 -0.00109078921377658844 0.0103368014097213745
0.0509999990463256836 0.00114733725786209106 0.00518845580518245697
0.0509999990463256836 -0.014735010452568531 0.0041882731020450592
0.0509999990463256836 -0.0073947422206401825 0.0104489699006080627
0.0509999990463256836 0.00666674831882119179 0.00912964064627885818
0.0509999990463256836 -0.00144950998947024345 0.0126104019582271576
0.0509999990463256836 -0.00535496324300765991 0.0125539433211088181
0.0509999990463256836 -0.00313570769503712654 0.0144954659044742584
0.0509999990463256836 -0.0148070128634572029 0.00214285310357809067
0.0509999990463256836 -0.0190702266991138458 0.000303307780995965004
0.0509999990463256836 0.00843646004796028137 0.0097678452730178833
0.0509999990463256836 0.00437016645446419716 0.00705218221992254257
0.0509999990463256836 -0.00388069543987512589 4.57838177680969238e-06
0.0509999990463256836 0.00841485988348722458 0.00990470778197050095
0.0509999990463256836 0.00365582434460520744 0.0119237024337053299
0.0509999990463256836 -0.00458626681938767433 0.0164328962564468384
0.0509999990463256836 0.00688848085701465607 0.00501143466681241989
0.0509999990463256836 0.00222517875954508781 0.0100584030151367188
0.0509999990463256836 0.00191746163181960583 0.0159905552864074707
0.0509999990463256836 0.00270127644762396812 0.0113445725291967392
0.0509999990463256836 -0.00815907120704650879 0.00875771977007389069
0.0509999990463256836 0.0037054009735584259 -0.000271644443273544312
0.0509999990463256836 -0.0127468602731823921 0.00404801685363054276
0.0509999990463256836 -0.000860504806041717529 0.00534206163138151169
0.0509999990463256836 -0.0112003954127430916 0.000919869169592857361
0.0509999990463256836 -0.00854123383760452271 0.00186309684067964554
0.0509999990463256836 -0.00686303246766328812 -0.000475652515888214111
0.0509999990463256836 -0.00300906412303447723 0.00914030801504850388
0.0509999990463256836 0.00312617514282464981 0.0117007903754711151
0.0509999990463256836 0.00471555022522807121 0.00925988145172595978
0.0509999990463256836 0.0029038628563284874 0.00232387986034154892
0.0509999990463256836 0.00285060703754425049 0.0122511470690369606
0.0509999990463256836 -0.00761152990162372589 0.00880628917366266251
0.0509999990463256836 0.0155585203319787979 0.00366517901420593262
0.0509999990463256836 -0.00315097905695438385 0.00401245430111885071
0.0509999990463256836 -0.000352875795215368271 0.0170314144343137741
0.0509999990463256836 -0.00153408851474523544 0.00471148639917373657
0.0509999990463256836 0.0189679916948080063 -7.01695680618286133e-05
0.0509999990463256836 0.00995927117764949799 0.00876199547201395035
0.0509999990463256836 0.00448863254860043526 0.0126151610165834427
0.0509999990463256836 0.00617975741624832153 0.00519587751477956772
0.0509999990463256836 -0.00284397322684526443 0.014575175940990448
0.0509999990463256836 0.00347105925902724266 0.0156248435378074646
0.0509999990463256836 -0.000366860302165150642 0.0184132158756256104
0.0509999990463256836 -0.0185304097831249237 0.00259899953380227089
0.0509999990463256836 -0.0112045258283615112 0.0029451628215610981
0.0509999990463256836 0.000527949072420597076 0.0104393456131219864
0.0509999990463256836 -0.00254152785055339336 0.0189951024949550629
0.0509999990463256836 0.00876276195049285889 0.00331024453043937683
0.0509999990463256836 -0.00226253364235162735 0.0197099316865205765
0.0509999990463256836 -0.00628143223002552986 0.0110442191362380981
0.0509999990463256836 0.000655078794807195663 0.0101435817778110504
0.0509999990463256836 -0.0203677844256162643 0.000663244863972067833
0.0509999990463256836 -0.00372841022908687592 0.00254597142338752747
0.0509999990463256836 -0.00575853325426578522 0.000152278691530227661
0.0509999990463256836 0.0107770245522260666 0.00130456313490867615
0.0509999990463256836 0.00641847774386405945 0.0126158548519015312
0.0509999990463256836 -0.0112471990287303925 0.00463437614962458611
0.0509999990463256836 -0.0057902471162378788 0.00219781463965773582
0.0509999990463256836 0.00980188511312007904 0.0075097009539604187
0.0509999990463256836 -0.00511532789096236229 0.0103486254811286926
0.0509999990463256836 -0.0123511627316474915 0.00523775629699230194
0.0509999990463256836 -0.00183774437755346298 0.00460060779005289078
0.0509999990463256836 -0.00505379214882850647 0.00758472178131341934
0.0509999990463256836 0.0152287399396300316 0.000696459785103797913
0.0509999990463256836 -0.00123596400953829288 0.0166089423000812531
0.0509999990463256836 0.00683970982208848 0.010833321139216423
0.0509999990463256836 -0.00232695089653134346 0.00726272491738200188
0.0509999990463256836 -0.0163432247936725616 0.00458255922421813011
0.0509999990463256836 -0.016178429126739502 0.00411662179976701736
0.0509999990463256836 -0.0136860832571983337 0.00440729549154639244
0.0509999990463256836 -0.00722480379045009613 0.00779650360345840454
0.0509999990463256836 -0.0104823336005210876 0.00643397495150566101
0.0509999990463256836 -0.00710527971386909485 0.0114760119467973709
0.0509999990463256836 0.00487928139045834541 0.00288867112249135971
6.28742561758089541e-15 -0.0112369824200868607 0.00229808082804083824
6.33586489073552708e-15 -0.00792065821588039398 0.00701225828379392624
6.33597076985393387e-15 -0.00783438421785831451 0.00702253682538866997
6.30950099025223698e-15 -0.00968310609459877014 0.0044464869424700737
6.34166748994069267e-15 -0.00790126621723175049 0.00757695920765399933
6.37363112523828095e-15 -0.00623722467571496964 0.0106876865029335022
6.3469030005876715e-15 -0.00760461669415235519 0.00808650068938732147
6.34520597007784751e-15 -0.00755949458107352257 0.00792132504284381866
6.27108126983067643e-15 -0.0122915888205170631 0.000707435596268624067
6.37201456285844611e-15 -0.00662783067673444748 0.0105303646996617317
6.28895281798479491e-15 -0.011161203496158123 0.00244672852568328381
6.35864711240135237e-15 -0.00713998451828956604 0.00922942906618118286
6.3181991715875914e-15 -0.00902936607599258423 0.00529302190989255905
6.25886239605005952e-15 -0.0130800604820251465 -0.000481696246424689889
6.36883691875682161e-15 -0.00618027197197079659 0.0102210910990834236
6.3811803063806849e-15 -0.00515341991558670998 0.0114223770797252655
6.34840817813494239e-15 -0.00919992942363023758 0.0082329893484711647
6.36917319083688156e-15 -0.00853779725730419159 0.0102538689970970154
6.31820213620290679e-15 -0.0105725182220339775 0.00529333390295505524
6.28709146308320359e-15 -0.01187105942517519 0.00226559094153344631
6.31174986272719715e-15 -0.0107783451676368713 0.004665338434278965
6.32266049412077979e-15 -0.010115182027220726 0.00572721008211374283
6.29677432021974112e-15 -0.0113848205655813217 0.00320792826823890209
6.34312396309349644e-15 -0.00847927108407020569 0.00771868322044610977
6.36200432748779479e-15 -0.00755599001422524452 0.00955614447593688965
6.36468137511759201e-15 -0.00733767449855804443 0.00981669779866933823
6.35225624881431868e-15 -0.00796533934772014618 0.00860749091953039169
6.3714699206733616e-15 -0.00678594736382365227 0.0104773351922631264
6.35753792275692287e-15 -0.00804093759506940842 0.00912147946655750275
6.36858958513622335e-15 -0.00749249337241053581 0.0101970545947551727
6.31626878350079884e-15 -0.0100786704570055008 0.00510516948997974396
6.35199070398535445e-15 -0.00831041019409894943 0.00858162716031074524
6.39409840585926023e-15 -0.00406919652596116066 0.0126796001568436623
6.30519806288018514e-15 -0.0114555004984140396 0.00402773357927799225
6.35061385192959259e-15 -0.00955192930996417999 0.0084476470947265625
6.35383638877742157e-15 -0.00948076508939266205 0.00876128301024436951
6.31252616842335572e-15 -0.0124554391950368881 0.00474089523777365685
6.30681674284238811e-15 -0.0118568213656544685 0.00418526213616132736
6.26373198846382449e-15 -0.0130630768835544586 -7.7970908023416996e-06
6.29482910905637162e-15 -0.0122904675081372261 0.00301860901527106762
6.29326675678516106e-15 -0.0125995045527815819 0.00286656967364251614
6.3138517749858087e-15 -0.0120464218780398369 0.00486989691853523254
6.33928817439185534e-15 -0.0104325702413916588 0.00734541239216923714
6.28753488483109121e-15 -0.0121799781918525696 0.00230871816165745258
6.33786304145809998e-15 -0.0104654058814048767 0.00720671750605106354
6.33038331701737088e-15 -0.0109090572223067284 0.00647877342998981476
6.32018631088184998e-15 -0.0110021084547042847 0.00548639008775353432
6.31627132459964061e-15 0.00773640815168619156 0.00510538741946220398
6.32708412368781538e-15 0.00623140251263976097 0.00615769205614924431
6.35309311736620592e-15 0.00406836904585361481 0.0086889415979385376
6.31861082959995699e-15 0.00655556377023458481 0.0053330552764236927
6.31778243137754228e-15 0.00780334649607539177 0.00525244418531656265
6.37199381055123838e-15 0.00260733114555478096 0.0105283856391906738
6.35231045892294295e-15 0.00304299639537930489 0.00861272774636745453
6.34713424058227192e-15 0.00382397789508104324 0.00810903310775756836
6.31865826344500323e-15 0.00692048529163002968 0.00533767463639378548
6.3178357944532193e-15 0.00681984703987836838 0.0052576637826859951
6.30146900032989808e-15 0.00927699543535709381 0.00366481207311153412
6.33756192124535107e-15 0.00580872548744082451 0.00717741623520851135
6.3204954779075978e-15 0.00737072434276342392 0.00551647273823618889
6.36859466733390688e-15 0.000711517175659537315 0.0101975463330745697
6.31471574859200808e-15 0.00835800915956497192 0.00495397578924894333
6.34576204720771996e-15 0.00321623892523348331 0.00797542557120323181
6.39444314826879273e-15 -0.00218293489888310432 0.0127131473273038864
6.3907394967069233e-15 -0.00130174588412046432 0.0123527096584439278
6.3006893065019505e-15 0.00889516063034534454 0.00358893908560276031
6.38582077638221758e-15 0.000165847362950444221 0.0118739977478981018
6.34104830885624977e-15 0.00412817113101482391 0.00751669611781835556
6.39658232997708347e-15 0.000371453817933797836 0.0129213239997625351
6.39845342575756822e-15 -0.000597662059590220451 0.0131034394726157188
6.38618838868132595e-15 -0.000490202219225466251 0.01190976332873106
6.38377434478165119e-15 -0.000863163615576922894 0.011674865148961544
6.3005021122206073e-15 0.00885241664946079254 0.00357072427868843079
6.38915850971087315e-15 -0.00204467866569757462 0.0121988337486982346
6.34433479669159646e-15 0.00372581789270043373 0.00783651694655418396
6.34573494215340782e-15 0.00447998940944671631 0.00797280669212341309
6.37318050371034166e-15 0.000584114808589220047 0.0106438277289271355
6.34071711897387334e-15 0.00539812818169593811 0.00748448865488171577
6.33593180633836017e-15 0.00427698623389005661 0.00701874913647770882
6.36972884445028038e-15 0.00134125584736466408 0.0103079285472631454
6.38166015054530446e-15 -0.00107498711440712214 0.0114690614864230156
6.3299500596648503e-15 0.00974124111235141754 0.0064365733414888382
6.36863913656363773e-15 0.00774449668824672699 0.0102018322795629501
6.3342381639603252e-15 0.00952803529798984528 0.0068539278581738472
6.38617653022006439e-15 0.00513285445049405098 0.0119086448103189468
6.36947896973084036e-15 0.00628702202811837196 0.0102836117148399353
6.27265886869493756e-15 0.0127547774463891983 0.000860951782669872046
6.30048855969345123e-15 0.0108546363189816475 0.003569398308172822
6.33836363792992727e-15 0.00829913653433322906 0.00725547783076763153
6.37458234323804752e-15 0.00448581390082836151 0.0107802441343665123
6.36180231012987464e-15 0.00508854305371642113 0.0095365326851606369
6.3225918844520522e-15 0.00852576456964015961 0.00572053389623761177
6.32105028448804937e-15 0.00863659754395484924 0.00557045359164476395
6.33233996312552831e-15 0.00771823804825544357 0.0066691981628537178
6.36906222952079125e-15 0.00442280992865562439 0.0102430656552314758
6.36137921717272112e-15 0.00784831307828426361 0.00949535053223371506
6.2676380809000877e-15 0.0131184449419379234 0.000372363749193027616
6.35583284543409996e-15 0.00753746926784515381 0.00895555503666400909
6.31264221193712956e-15 0.0104854917153716087 0.00475219637155532837
6.36856417414780572e-15 0.00739377783611416817 0.0101945856586098671
6.38656616537580137e-15 0.00576304411515593529 0.0119465496391057968
6.37073300200925036e-15 0.00709411781281232834 0.0104056494310498238
6.31854899619480742e-15 0.00993712805211544037 0.00532705150544643402
6.37391996347329466e-15 0.00691282562911510468 0.010715799406170845
6.3311651284276866e-15 0.00993158947676420212 0.00655486574396491051
6.30294241414164694e-15 0.0114539973437786102 0.00380821665748953819
6.353871117128259e-15 0.00867456384003162384 0.0087646162137389183
6.29644863605152184e-15 0.0117183942347764969 0.00317618879489600658
6.34030080228029785e-15 0.00994860008358955383 0.00744398264214396477
6.35232697606541441e-15 0.0092349667102098465 0.00861437804996967316
6.35925528205748096e-15 0.00937957782298326492 0.00928863976150751114
6.35348614065373192e-15 0.00963599421083927155 0.00872716959565877914
6.29715124988126929e-15 0.0118843121454119682 0.00324459979310631752
6.28120670168215434e-15 0.0126113938167691231 0.00169287272728979588
6.31317923082568878e-15 0.0112580303102731705 0.00480449572205543518
6.37726574361494915e-15 0.00265789194963872433 0.0110414531081914902
6.37544081113008976e-15 0.00365156121551990509 0.0108638210222125053
6.36769554186039644e-15 0.00365079264156520367 0.0101100374013185501
6.39198039997465085e-15 0.00168882496654987335 0.0124735031276941299
6.31301194181860606e-15 0.00882248766720294952 0.00478817429393529892
6.36114289498043717e-15 0.00457636360079050064 0.00947234779596328735
6.36507693950395977e-15 0.00372537109069526196 0.0098551921546459198
6.38556497243214678e-15 0.00174564681947231293 0.0118491211906075478
6.34317351452091081e-15 0.0056735500693321228 0.00772357406094670296
6.33531516635275904e-15 0.00642624171450734138 0.00695875892415642738
6.35959070710459366e-15 0.00417417427524924278 0.00932126957923173904
6.36391819843211588e-15 0.00479563605040311813 0.00974242761731147766
6.28491374137581278e-15 0.0113135352730751038 0.00205360655672848225
6.34902058295580725e-15 0.00588546227663755417 0.00829259958118200302
6.37004224664076447e-15 0.00407461868599057198 0.0103384349495172501
6.33184106071959553e-15 0.0112499464303255081 0.00662065343931317329
6.34639351026989804e-15 0.0106255337595939636 0.00803690124303102493
6.29540636200992543e-15 0.0125291850417852402 0.00307477056048810482
6.29951277773821428e-15 0.0123646557331085205 0.003474400844424963
6.28650616331665087e-15 0.0129872625693678856 0.00220862147398293018
6.29636096814148102e-15 0.0122367003932595253 0.00316769932396709919
6.34819260824986617e-15 0.0104461852461099625 0.00821198895573616028
6.36197256375227276e-15 0.00595505349338054657 0.00955306366086006165
6.35440135975324019e-15 0.00667501334100961685 0.00881622172892093658
6.35022167567501385e-15 0.00668578268960118294 0.00840946659445762634
6.31727929380687322e-15 0.00957327336072921753 0.00520346779376268387
6.36999184818040284e-15 0.00549256103113293648 0.0103335361927747726
6.35727491902680041e-15 0.00658986950293183327 0.00909592490643262863
6.30978559332251443e-15 0.0100936135277152061 0.00447420822456479073
6.36972460928554411e-15 0.00561012234538793564 0.0103075345978140831
6.31933419573691216e-15 0.00923877861350774765 0.00540345953777432442
6.36181586265703071e-15 0.00644022319465875626 0.00953783746808767319
6.38929742311422286e-15 0.00354127911850810051 0.0122123733162879944
6.22616734780251715e-15 -0.0127652864903211594 -0.00366363371722400188
6.1736009066123889e-15 -0.0082951914519071579 -0.00877942983061075211
6.15869143267481871e-15 -0.00505377724766731262 -0.0102304453030228615
6.17318840156707606e-15 -0.00747762201353907585 -0.00881957449018955231
6.1916287323452758e-15 -0.0105930157005786896 -0.00702493637800216675
6.16346192223375493e-15 -0.00650327419862151146 -0.00976617075502872467
6.18259512596280869e-15 -0.00970128178596496582 -0.00790409930050373077
6.14491486530420114e-15 -0.0031116437166929245 -0.0115711856633424759
6.15284902292113217e-15 -0.00495391152799129486 -0.0107990521937608719
6.16266317016449412e-15 -0.00678635435178875923 -0.00984390825033187866
6.15336528950248367e-15 -0.00494232494384050369 -0.0107487831264734268
6.14702101272754896e-15 -0.00373367057181894779 -0.0113662248477339745
6.2348083544139319e-15 0.00137576460838317871 -0.0028226412832736969
6.2474731910412782e-15 -0.00348058715462684631 -0.00159009464550763369
6.22637190625927907e-15 -0.00633574416860938072 -0.00364367803558707237
6.21107533826481366e-15 -0.0108726294711232185 -0.00513238599523901939
6.25089351008229106e-15 -0.0107523687183856964 -0.00125723227392882109
6.23618097130495749e-15 0.00995652005076408386 -0.00268911034800112247
6.23375803355933657e-15 -0.00254024937748908997 -0.00292490189895033836
6.24413715177851714e-15 -0.00403641164302825928 -0.0019147943239659071
6.23240151029430881e-15 0.0049518682062625885 -0.00305691314861178398
6.24389278277323427e-15 0.00143253244459629059 -0.00193855748511850834
6.2436467197020569e-15 -0.010166107676923275 -0.00196248595602810383
6.25210095554860207e-15 -0.0107005815953016281 -0.00113975827116519213
6.24483087176231841e-15 -0.000135707668960094452 -0.0018472656374797225
6.2158149111211751e-15 -0.00457386532798409462 -0.00467113172635436058
6.2474528622505441e-15 -0.00367381051182746887 -0.00159205333329737186
6.24417992694235348e-15 -0.00959112029522657394 -0.00191061384975910187
6.23044782880146676e-15 0.00723794475197792053 -0.00324703333899378777
6.225965330444597e-15 0.00471129920333623886 -0.0036832885816693306
6.22988074024328001e-15 -0.00603367714211344719 -0.00330225564539432526
6.23298257489612526e-15 0.000926320441067218781 -0.00300035509280860424
6.23486849375318695e-15 -0.00650177337229251862 -0.00281683634966611862
6.21229930087359612e-15 -0.00825865194201469421 -0.00501324143260717392
6.21538080673570727e-15 -0.0112028103321790695 -0.0047133956104516983
6.220277927720258e-15 -0.0122196674346923828 -0.0042367810383439064
6.23123853405772865e-15 0.00681885145604610443 -0.00317007210105657578
6.22691104273020643e-15 -0.0119936494156718254 -0.00359123270027339458
6.21655394736765447e-15 -0.00258282199501991272 -0.00459917914122343063
6.23097171867934355e-15 0.000746391713619232178 -0.00319603877142071724
6.21091609607072985e-15 -0.0104367919266223907 -0.00514790741726756096
6.24574736141124756e-15 -0.00250410288572311401 -0.00175808777566999197
6.23180265800060001e-15 0.00707690976560115814 -0.00311517692171037197
6.23554019088035962e-15 0.00499931909143924713 -0.00275144865736365318
6.23621993482053119e-15 -0.00453391112387180328 -0.0026852940209209919
6.2449274335183054e-15 -0.0019787931814789772 -0.00183787953574210405
6.23701487524152935e-15 -0.0018177032470703125 -0.00260793650522828102
6.23264376171722354e-15 -0.000766034238040447235 -0.00303332973271608353
6.24099042437946741e-15 -0.0076305558905005455 -0.00222101295366883278
6.23763998555660303e-15 -0.00315214414149522781 -0.00254707410931587219
6.24139996480946486e-15 -0.0115175116807222366 -0.00218116072937846184
6.23217027029970838e-15 -0.00113357510417699814 -0.00307942274957895279
6.22702158052982312e-15 -0.00267422944307327271 -0.00358046125620603561
6.25103750568332429e-15 -0.00950234197080135345 -0.00124321202747523785
6.22451817465421303e-15 -0.00470367167145013809 -0.0038241224829107523
6.23195046524989589e-15 -0.00376028940081596375 -0.00310077937319874763
6.22229132503588148e-15 -0.00395263079553842545 -0.00404084660112857819
6.22812145281183283e-15 -0.00360835157334804535 -0.00347345368936657906
6.20481703533402526e-15 -0.0114592919126152992 -0.00574149144813418388
6.20776005130926033e-15 -0.0111678941175341606 -0.00545500777661800385
6.22277625139818456e-15 -0.00373778119683265686 -0.00399362854659557343
6.23981389561573119e-15 -0.00777625199407339096 -0.00233548739925026894
6.24161553469454108e-15 0.00553453341126441956 -0.0021601836197078228
6.22810790028467676e-15 0.00216837972402572632 -0.00347477290779352188
6.22284486106691216e-15 0.00122697558254003525 -0.00398699240759015083
6.24841424464567773e-15 -0.00715898117050528526 -0.00149852607864886522
6.23064095231344074e-15 -0.000199658796191215515 -0.00322820572182536125
6.23367333026461114e-15 -0.000797761604189872742 -0.00293311523273587227
6.24258581093562089e-15 -0.00487731024622917175 -0.00206574960611760616
6.23731557193780463e-15 -0.00483509385958313942 -0.00257867202162742615
6.25202472258334918e-15 -0.00981833972036838531 -0.00114713923539966345
6.23635969525682815e-15 0.0071551566943526268 -0.0026716720312833786
6.22858943851519083e-15 -0.0123465079814195633 -0.00342791457660496235
6.21347117095612245e-15 -0.00776042230427265167 -0.00489924754947423935
6.22266105491735798e-15 -0.0121847465634346008 -0.00400486541911959648
6.23857849806216079e-15 -0.00159742496907711029 -0.00245574722066521645
6.23623602844652902e-15 0.00334508437663316727 -0.00268370634876191616
6.24185863315040307e-15 -0.00844641774892807007 -0.0021365045104175806
6.2258264170412473e-15 -0.00455855671316385269 -0.00369681022129952908
6.21783296711800847e-15 -0.00412165466696023941 -0.00447470881044864655
6.22474645003349807e-15 -0.00768366362899541855 -0.00380189390853047371
6.22908325872344008e-15 0.00399646814912557602 -0.00337982852943241596
6.21172713011772584e-15 -0.0056357095018029213 -0.00506896758452057838
6.23497352583864649e-15 -0.0052350643090903759 -0.00280656293034553528
6.23036651363853035e-15 -0.00756168132647871971 -0.00325493002310395241
6.23877035102471389e-15 0.00966717768460512161 -0.00243705650791525841
6.23086033384677961e-15 9.80384647846221924e-05 -0.00320686609484255314
6.24176207139441608e-15 0.00272620841860771179 -0.00214590760879218578
6.24401729661648065e-15 -0.011256127618253231 -0.0019264238653704524
6.2278559079828686e-15 -0.0104925790801644325 -0.00349928089417517185
6.23639992932182273e-15 -0.00340248923748731613 -0.00266775395721197128
6.2456279297656847e-15 -0.0112977810204029083 -0.00176968832965940237
6.22520300079206813e-15 -0.000634696334600448608 -0.00375747168436646461
6.24635087238616625e-15 -0.0116913001984357834 -0.00169930898118764162
6.22733625326972809e-15 -0.00293896440416574478 -0.00354986963793635368
6.21826791853642355e-15 -0.00274460390210151672 -0.00443239696323871613
6.23563463505397847e-15 -0.00168595276772975922 -0.00274224253371357918
6.23568122186607746e-15 0.00011196918785572052 -0.00273768696933984756
6.23765142050139096e-15 -0.000464318320155143738 -0.00254597608000040054
6.15675299777502724e-15 -0.00613962160423398018 -0.0104191219434142113
6.15825436367403549e-15 -0.00669498555362224579 -0.0102729788050055504
6.1695732649481947e-15 -0.00882586929947137833 -0.00917137321084737778
6.16611271184218726e-15 -0.00898803118616342545 -0.0095081813633441925
6.16140490272134786e-15 -0.00776709383353590965 -0.00996635295450687408
6.17075911107435073e-15 -0.00940199848264455795 -0.0090559888631105423
6.15018637485143828e-15 -0.00640521571040153503 -0.0110581545159220695
6.14694223866345431e-15 -0.00525715341791510582 -0.0113738672807812691
6.13950783048540331e-15 -0.00338308117352426052 -0.0120974350720643997
6.14270241524597291e-15 -0.0061246408149600029 -0.0117864841595292091
6.1363051989118348e-15 -0.00348135782405734062 -0.0124091105535626411
6.13242621152988374e-15 -0.00217262888327240944 -0.0127866016700863838
6.14441088070058483e-15 -0.00422876002267003059 -0.0116202319040894508
6.1610343258069241e-15 -0.00876003503799438477 -0.0100024193525314331
6.15411533717727735e-15 -0.00392799777910113335 -0.0106757925823330879
6.15362829323260613e-15 -0.00369145744480192661 -0.0107231792062520981
6.14114429813949862e-15 -0.00168908806517720222 -0.0119381342083215714
6.15119222647630276e-15 -0.00329990917816758156 -0.0109602408483624458
6.13237073087183858e-15 -0.00046877935528755188 -0.0127919940277934074
6.17384824023298716e-15 0.0097199510782957077 -0.00875534489750862122
6.17429928527740007e-15 0.00953475479036569595 -0.00871143210679292679
6.16642569051619772e-15 0.00867571588605642319 -0.00947769917547702789
6.16415056001987267e-15 0.00852763373404741287 -0.00969913043081760406
6.17672730522070453e-15 0.00942383427172899246 -0.00847513135522603989
6.24254472983767905e-15 0.00561193749308586121 -0.00206975685432553291
6.24660794688565793e-15 -0.000204095616936683655 -0.00167434010654687881
6.24207293248605841e-15 0.0111563736572861671 -0.002115658950060606
6.24400035595753557e-15 0.0094643840566277504 -0.00192809372674673796
6.23812110027064347e-15 0.012664496898651123 -0.00250027701258659363
6.24564698800699793e-15 0.00218709465116262436 -0.00176783045753836632
6.24927355957066721e-15 -0.00341377640143036842 -0.00141489331144839525
6.25367347221517968e-15 -0.0115369958803057671 -0.000986685859970748425
6.2440367783742675e-15 0.00872815027832984924 -0.00192455388605594635
6.24417272716230182e-15 0.00383262708783149719 -0.001911330153234303
6.24708990863264563e-15 0.00782043114304542542 -0.00162742414977401495
6.24570966844509474e-15 0.0115458797663450241 -0.00176172738429158926
6.24628565084922767e-15 0.000766318291425704956 -0.00170569517649710178
6.24487788209089102e-15 0.00346966739743947983 -0.00184268271550536156
6.23827610729999101e-15 0.0127654112875461578 -0.00248520704917609692
6.22886938290425837e-15 0.0128844296559691429 -0.00340067083016037941
6.21279354459831901e-15 -0.00345927081070840359 -0.004965195432305336
6.21498058366812961e-15 0.0117765534669160843 -0.00475231511518359184
6.20750043571092688e-15 -0.00489263841882348061 -0.00548033462837338448
6.21428305203606569e-15 0.00751219363883137703 -0.00482023600488901138
6.20687956056058948e-15 -0.00903188996016979218 -0.00554074393585324287
6.22435596784481383e-15 0.00611269660294055939 -0.0038399051409214735
6.21291805844156539e-15 0.011331646703183651 -0.00495306355878710747
