ply
format ascii 1.0
element vertex 779
property float x
property float y
property float z
end_header
3.63161468505859375 2.91469240188598633 0.13651178777217865
3.43169593811035156 3.1546323299407959 0.0370259582996368408
3.63100671768188477 2.91542220115661621 0.0712218955159187317
3.78410148620605469 2.73167991638183594 0.231672763824462891
3.66965794563293457 2.8690333366394043 0.160078078508377075
3.73492741584777832 2.79069805145263672 0.0104046612977981567
3.68050885200500488 2.85601043701171875 0.187667429447174072
3.39615607261657715 3.19728684425354004 0.0265034735202789307
3.56304597854614258 2.99698758125305176 0.110075600445270538
3.62876272201538086 2.91811537742614746 0.0144530907273292542
3.48738718032836914 3.08779239654541016 0.0477999448776245117
3.56508207321166992 2.99454402923583984 0.0846332535147666931
3.65936827659606934 2.88138294219970703 0.0206816978752613068
3.74163317680358887 2.78264999389648438 0.00400815904140472412
3.47119832038879395 3.10722208023071289 0.0592596083879470825
3.71483755111694336 2.81480956077575684 0.199005007743835449
3.4288945198059082 3.15799450874328613 0.0650936812162399292
3.73194050788879395 2.79428291320800781 0.158304378390312195
3.77849650382995605 2.73840689659118652 0.140801563858985901
3.55740070343017578 3.00376296043395996 0.131538450717926025
3.76530957221984863 2.75423359870910645 0.11657317727804184
3.64932394027709961 2.89343810081481934 0.0943856611847877502
3.3450624942779541 3.25860834121704102 0.0222474783658981323
3.7410738468170166 2.78332114219665527 0.016216762363910675
3.7728271484375 2.74521136283874512 0.174816668033599854
3.66532468795776367 2.87423419952392578 0.135774433612823486
3.4259645938873291 3.16151094436645508 0.0302717685699462891
3.49910354614257812 3.07373046875 0.0499551594257354736
3.4808652400970459 3.09561991691589355 0.0914625227451324463
3.75669670104980469 2.76457095146179199 0.0626148581504821777
3.47707676887512207 3.10016679763793945 0.025694623589515686
3.50631809234619141 3.06507158279418945 0.0356782525777816772
3.66300702095031738 2.87701582908630371 0.0424867644906044006
3.65989828109741211 2.88074707984924316 0.159498691558837891
3.64754676818847656 2.89557099342346191 0.123721398413181305
3.76833176612854004 2.75060653686523438 0.167495012283325195
3.34669137001037598 3.2566535472869873 0.00666423141956329346
3.74953174591064453 2.77317023277282715 0.0202395282685756683
3.75897765159606934 2.76183319091796875 0.120172619819641113
3.55870270729064941 3.00220060348510742 0.0149390548467636108
3.62227964401245117 2.92589616775512695 0.123690150678157806
3.69160914421081543 2.84268808364868164 0.131413161754608154
3.54810166358947754 3.0149238109588623 0.0678419992327690125
3.63984203338623047 2.90481805801391602 0.0838491097092628479
3.51639485359191895 3.0529778003692627 0.0170996040105819702
3.76539468765258789 2.75413179397583008 0.221945598721504211
3.65305256843566895 2.88896322250366211 0.114808551967144012
3.52195096015930176 3.04630923271179199 0.0602266192436218262
3.53614068031311035 3.02927899360656738 0.0963224843144416809
3.75038313865661621 2.77214837074279785 0.065286003053188324
3.52189040184020996 3.04638218879699707 0.048831552267074585
3.64237236976623535 2.90178132057189941 0.0765734761953353882
3.72119307518005371 2.80718183517456055 0.101852640509605408
3.77106642723083496 2.74732446670532227 0.211656808853149414
3.77086925506591797 2.74756121635437012 0.198573499917984009
3.72257590293884277 2.80552220344543457 0.104402288794517517
3.68021249771118164 2.85636615753173828 0.193707555532455444
3.31136846542358398 3.29904770851135254 0.000171348452568054199
3.51466083526611328 3.05505895614624023 0.0229589939117431641
3.47048664093017578 3.10807609558105469 0.0942250192165374756
3.4524228572845459 3.12975597381591797 0.0823027342557907104
3.46857929229736328 3.11036539077758789 0.0785847455263137817
3.61727619171142578 2.93190145492553711 0.13552248477935791
3.72290325164794922 2.8051292896270752 0.157241195440292358
3.74126172065734863 2.7830955982208252 0.109316207468509674
3.34714698791503906 3.25610661506652832 0.0299929231405258179
3.59100103378295898 2.96343660354614258 0.125901952385902405
3.75719213485717773 2.76397609710693359 0.0419482104480266571
3.77376008033752441 2.74409151077270508 0.170077040791511536
3.6475064754486084 2.89561939239501953 0.132533907890319824
3.75399518013000488 2.76781320571899414 0.0525113940238952637
3.55135440826416016 3.01101994514465332 0.0599345043301582336
3.49708867073059082 3.07614874839782715 0.0315566807985305786
3.69670677185058594 2.83657002449035645 0.0834557414054870605
3.6457216739654541 2.89776134490966797 0.091133803129196167
3.58980774879455566 2.96486878395080566 0.0787940323352813721
3.60592842102050781 2.94552063941955566 0.109042070806026459
3.75186562538146973 2.77036881446838379 0.0888215675950050354
3.49437499046325684 3.07940578460693359 0.0205187499523162842
3.44935965538024902 3.13343238830566406 0.0429164469242095947
3.64391374588012695 2.89993143081665039 0.072744421660900116
3.50972890853881836 3.06097817420959473 0.0534626990556716919
3.48703551292419434 3.08821439743041992 0.0974075794219970703
3.71515822410583496 2.81442475318908691 0.015513245016336441
3.75736546516418457 2.76376819610595703 0.134400904178619385
3.60273027420043945 2.94935941696166992 0.13711036741733551
3.51975679397583008 3.04894280433654785 0.0266949236392974854
3.73844075202941895 2.78648138046264648 0.121216140687465668
3.46582579612731934 3.11367011070251465 0.0962291806936264038
3.29833054542541504 3.31469535827636719 0.209364831447601318
3.55592870712280273 3.00552988052368164 0.248668253421783447
3.32874369621276855 3.27819395065307617 0.135128498077392578
3.28035902976989746 3.33626461029052734 0.239668980240821838
3.51165485382080078 3.05866670608520508 0.170218169689178467
3.4695441722869873 3.1092073917388916 0.132755711674690247
3.38974142074584961 3.20498538017272949 0.171946510672569275
3.53365778923034668 3.03225898742675781 0.248596489429473877
3.36094474792480469 3.2395470142364502 0.140212759375572205
3.63586926460266113 2.90958619117736816 0.206055238842964172
3.3913266658782959 3.20308279991149902 0.0820570588111877441
3.34377598762512207 3.26015257835388184 0.045998692512512207
3.33805513381958008 3.26701855659484863 0.14973372220993042
3.42286109924316406 3.16523575782775879 0.217106908559799194
3.74842500686645508 2.77449846267700195 0.247331619262695312
3.32783174514770508 3.27928853034973145 0.161516666412353516
3.4412999153137207 3.14310574531555176 0.205430641770362854
3.51108407974243164 3.05935168266296387 0.195127099752426147
3.38470959663391113 3.21102452278137207 0.236539021134376526
3.68689775466918945 2.8483424186706543 0.248266443610191345
3.49266362190246582 3.08145952224731445 0.177243828773498535
3.43991827964782715 3.14476394653320312 0.248416438698768616
3.29890608787536621 3.31400465965270996 0.0544987469911575317
3.54082918167114258 3.02365207672119141 0.157190620899200439
3.65308761596679688 2.88892102241516113 0.218052372336387634
3.43428897857666016 3.1515202522277832 0.181694403290748596
3.58137178421020508 2.97499346733093262 0.175923064351081848
3.32696342468261719 3.28033065795898438 0.210015982389450073
3.2936546802520752 3.32030749320983887 0.208227559924125671
3.31836867332458496 3.29064583778381348 0.0841197669506072998
3.40960526466369629 3.18114519119262695 0.152565032243728638
3.34058189392089844 3.26398611068725586 0.127221062779426575
3.28959250450134277 3.32518267631530762 0.0727866291999816895
3.32204294204711914 3.28623628616333008 0.17723102867603302
3.32875657081604004 3.27817869186401367 0.0475454628467559814
3.59972596168518066 2.95296502113342285 0.214813172817230225
3.67637777328491211 2.86096858978271484 0.207920417189598083
3.44029116630554199 3.14431619644165039 0.164003074169158936
3.30223464965820312 3.31000971794128418 0.158911556005477905
3.3843231201171875 3.21148824691772461 0.0863764733076095581
3.37424468994140625 3.22358441352844238 0.247170135378837585
3.35740017890930176 3.24380111694335938 0.0936452746391296387
3.30794239044189453 3.30315947532653809 0.0617553591728210449
3.38508248329162598 3.21057724952697754 0.160769253969192505
3.36394453048706055 3.2359464168548584 0.235081702470779419
3.5315558910369873 3.03478169441223145 0.195091366767883301
3.46399545669555664 3.11586689949035645 0.204415440559387207
3.36542940139770508 3.23416447639465332 0.106701448559761047
3.28006577491760254 3.33661651611328125 0.243916109204292297
3.36794495582580566 3.23114538192749023 0.10131371021270752
3.41445255279541016 3.17532753944396973 0.159668564796447754
3.29229259490966797 3.32194232940673828 0.0430373549461364746
3.47525668144226074 3.10235118865966797 0.210884720087051392
3.34910273551940918 3.25375938415527344 0.105863332748413086
3.64397096633911133 2.89986276626586914 0.197656393051147461
3.64876055717468262 2.89411449432373047 0.234893113374710083
3.49191427230834961 3.08235907554626465 0.188847064971923828
3.5452880859375 3.01830053329467773 0.215411603450775146
3.39606189727783203 3.19739985466003418 0.108857735991477966
3.63772749900817871 2.90735602378845215 0.18870796263217926
3.48814201354980469 3.08688640594482422 0.145086541771888733
3.31206488609313965 3.29821181297302246 0.130789101123809814
3.52599811553955078 3.04145193099975586 0.235901162028312683
3.3041837215423584 3.30767059326171875 0.0426447242498397827
3.51162815093994141 3.05869865417480469 0.221532180905342102
3.62659072875976562 2.92072224617004395 0.194119557738304138
3.56210637092590332 2.99811553955078125 0.237755924463272095
3.3534548282623291 3.24853610992431641 0.219988271594047546
3.32236719131469727 3.28584694862365723 0.131642475724220276
3.51904535293579102 3.04979658126831055 0.160087466239929199
3.32837653160095215 3.27863454818725586 0.136675596237182617
3.33443784713745117 3.27135992050170898 0.14439605176448822
3.3833165168762207 3.21269655227661133 0.200021535158157349
3.5088036060333252 3.0620887279510498 0.185065552592277527
3.53458833694458008 3.03114223480224609 0.241248279809951782
3.48577141761779785 3.08973169326782227 0.148534268140792847
3.46654367446899414 3.1128084659576416 0.180372610688209534
3.38818979263305664 3.2068479061126709 0.118125230073928833
3.43163442611694336 3.15470600128173828 0.0907717645168304443
3.36920523643493652 3.22963261604309082 0.199409529566764832
3.74500799179077148 2.77859950065612793 0.244832828640937805
3.50676250457763672 3.06453847885131836 0.136259645223617554
3.54263114929199219 3.02148938179016113 0.140516474843025208
3.35494089126586914 3.24675250053405762 0.0833741724491119385
3.30255341529846191 3.30962729454040527 0.230477586388587952
3.34169459342956543 3.26265072822570801 0.174582332372665405
3.50718450546264648 3.06403183937072754 0.117967575788497925
3.3027653694152832 3.30937290191650391 0.082937389612197876
3.28533935546875 3.33028745651245117 0.0215924382209777832
3.70999646186828613 2.82061982154846191 0.217882022261619568
3.39685821533203125 3.19644403457641602 0.244838297367095947
3.32802152633666992 3.27906084060668945 0.13272114098072052
3.35984897613525391 3.24086189270019531 0.111647665500640869
3.37525129318237305 3.22237634658813477 0.114765763282775879
3.4350273609161377 3.15063381195068359 0.212009623646736145
3.72619748115539551 2.80117559432983398 0.249749407172203064
3.74552297592163086 2.77798151969909668 0.24987657368183136
3.2842564582824707 3.33158683776855469 0.182044893503189087
3.53551602363586426 3.0300288200378418 0.146858111023902893
3.34951400756835938 3.2532658576965332 0.198639944195747375
3.53007173538208008 3.03656291961669922 0.183263629674911499
3.52306914329528809 3.0449671745300293 0.191138982772827148
3.46369242668151855 3.11623048782348633 0.207517221570014954
3.55201220512390137 3.01023030281066895 0.198312848806381226
3.28448605537414551 3.33131170272827148 0.135923922061920166
3.33018732070922852 3.27646136283874512 0.0694629698991775513
1.83450663089752197 2.14313483238220215 0.0510764569044113159
2.46088218688964844 2.66503334045410156 0.0713935717940330505
1.48737251758575439 1.85390114784240723 0.0655898302793502808
2.86757087707519531 3.00388813018798828 0.117500551044940948
2.14455246925354004 2.40146636962890625 0.0280371010303497314
1.57876157760620117 1.93004691600799561 0.0256012976169586182
1.43151736259460449 1.80736231803894043 0.0565782636404037476
0.520864963531494141 1.04860281944274902 0.0299204438924789429
1.8497765064239502 2.15585756301879883 0.039683513343334198
2.81737279891967773 2.96206307411193848 0.0503593906760215759
1.63627481460571289 1.97796714305877686 0.0570010095834732056
2.53307867050170898 2.72518801689147949 0.145373821258544922
2.30705070495605469 2.53686046600341797 0.0401633903384208679
2.42338275909423828 2.6337888240814209 0.163486942648887634
2.57735371589660645 2.76207828521728516 0.0480070821940898895
2.78093647956848145 2.93170428276062012 0.00367984920740127563
2.52343392372131348 2.71715211868286133 0.0145566053688526154
2.17640256881713867 2.42800402641296387 0.123639069497585297
2.84941005706787109 2.98875665664672852 0.202951297163963318
3.18985152244567871 3.27241373062133789 0.168420374393463135
2.65777969360351562 2.82908964157104492 0.0908307358622550964
1.3376924991607666 1.72918713092803955 0.054085075855255127
3.10369682312011719 3.20062947273254395 0.18512764573097229
2.96424007415771484 3.08443355560302734 5.29922544956207275e-06
3.22559833526611328 3.30219841003417969 0.0164834391325712204
2.07736992835998535 2.345489501953125 0.106592394411563873
2.69463086128234863 2.85979390144348145 0.159567147493362427
2.81228923797607422 2.95782756805419922 0.0263499915599822998
0.608430624008178711 1.12156295776367188 0.0371930599212646484
2.13976526260375977 2.39747738838195801 0.151944682002067566
1.9870532751083374 2.27023720741271973 0.0187264904379844666
3.27439498901367188 3.34285593032836914 0.00803039595484733582
3.01457834243774414 3.12637567520141602 0.170426338911056519
2.00519847869873047 2.28535604476928711 0.0869865790009498596
1.54183399677276611 1.89927864074707031 0.04644756019115448
1.34293568134307861 1.73355567455291748 0.0407163500785827637
2.93608260154724121 3.06097269058227539 0.0048838835209608078
1.30106139183044434 1.69866597652435303 0.0674855262041091919
2.31673765182495117 2.54493188858032227 0.0216606557369232178
2.87968921661376953 3.01398539543151855 0.0827263519167900085
2.68857622146606445 2.85474920272827148 0.168220892548561096
2.23129868507385254 2.47374343872070312 0.151579439640045166
3.1832120418548584 3.26688194274902344 0.108720429241657257
3.00955700874328613 3.1221916675567627 0.178356930613517761
0.484135150909423828 1.01799941062927246 0.00279851257801055908
3.02710151672363281 3.1368100643157959 0.230232924222946167
3.23386168479919434 3.30908346176147461 0.0468919984996318817
3.21858859062194824 3.29635787010192871 0.0124747678637504578
0.905391931533813477 1.36899244785308838 0.00890533626079559326
3.13589262962341309 3.22745513916015625 0.202735453844070435
0.989795684814453125 1.43931806087493896 0.0442198961973190308
0.774184942245483398 1.25967025756835938 0.0311740338802337646
2.15719175338745117 2.41199755668640137 0.085788041353225708
1.64715945720672607 1.98703634738922119 0.0649027898907661438
1.89804255962371826 2.19607305526733398 0.00319986045360565186
0.347162961959838867 0.903873682022094727 0.0212963372468948364
1.0560157299041748 1.49449276924133301 0.0469802618026733398
2.15409207344055176 2.40941476821899414 0.0967956110835075378
1.57986867427825928 1.93096935749053955 0.0560288429260253906
0.87206578254699707 1.34122490882873535 0.0548077970743179321
2.27364349365234375 2.50902557373046875 0.0471239462494850159
3.18066740036010742 3.26476168632507324 0.242623358964920044
2.58664560317993164 2.76982021331787109 0.0412459522485733032
2.92602229118347168 3.05259037017822266 0.136918991804122925
2.80270242691040039 2.94983959197998047 0.0575930327177047729
3.00455522537231445 3.11802411079406738 0.0923686176538467407
1.24447464942932129 1.65151751041412354 0.0317179411649703979
3.03577661514282227 3.14403820037841797 0.124146804213523865
2.40811753273010254 2.62106990814208984 0.0389128178358078003
0.798444986343383789 1.27988386154174805 0.0578321665525436401
2.10783290863037109 2.37087130546569824 0.00278907269239425659
2.87256646156311035 3.00805068016052246 0.212715446949005127
3.17603087425231934 3.26089859008789062 0.0655630454421043396
2.56592082977294922 2.75255227088928223 0.181259602308273315
3.1105048656463623 3.20630192756652832 0.10265631228685379
3.05035519599914551 3.15618515014648438 0.117690905928611755
3.11935234069824219 3.21367359161376953 0.173518091440200806
1.57935726642608643 1.93054318428039551 0.0858007967472076416
2.74045395851135254 2.89797401428222656 0.0704865232110023499
2.58956670761108398 2.77225399017333984 0.181390911340713501
2.92981505393981934 3.05575037002563477 0.0111388228833675385
2.35350251197814941 2.57556438446044922 0.0898154228925704956
1.56483101844787598 1.91843986511230469 0.0723809003829956055
1.53496778011322021 1.89355766773223877 0.0631996989250183105
1.92898297309875488 2.22185277938842773 0.11651621013879776
2.64655685424804688 2.81973862648010254 0.143841564655303955
2.53984475135803223 2.73082542419433594 0.0297835879027843475
1.82577860355377197 2.13586258888244629 0.0218865945935249329
1.55902993679046631 1.91360628604888916 0.00152683258056640625
1.35567069053649902 1.74416661262512207 0.0059569627046585083
1.37756609916687012 1.76240992546081543 0.0351777374744415283
0.80672144889831543 1.28677964210510254 0.0497123152017593384
3.25870323181152344 3.32978129386901855 0.188025042414665222
2.63708782196044922 2.81184887886047363 0.168004944920539856
2.81455850601196289 2.95971822738647461 0.127961546182632446
2.85282158851623535 2.99159908294677734 0.0933468639850616455
2.98886346817016602 3.1049497127532959 0.0616966784000396729
2.38533520698547363 2.60208749771118164 0.0722495988011360168
1.05992460250854492 1.4977496862411499 0.0195131897926330566
2.45537805557250977 2.66044759750366211 0.0430982932448387146
0.953326702117919922 1.40893185138702393 0.0482106655836105347
1.65007030963897705 1.98946154117584229 0.0764778628945350647
2.49272394180297852 2.69156432151794434 0.153618156909942627
1.53847229480743408 1.89647769927978516 0.0639894753694534302
1.57254672050476074 1.92486858367919922 0.0513355433940887451
0.520555257797241211 1.04834485054016113 0.000718951225280761719
0.243512392044067383 0.817511558532714844 0.00986422598361968994
0.790260076522827148 1.27306413650512695 0.000933811068534851074
2.65409708023071289 2.82602119445800781 0.114989235997200012
1.58309900760650635 1.93366086483001709 0.100958094000816345
3.14053750038146973 3.23132538795471191 0.0935864895582199097
2.9037775993347168 3.03405594825744629 0.0736836791038513184
2.09195876121520996 2.35764503479003906 0.0156871005892753601
2.02487945556640625 2.30175399780273438 0.148588463664054871
2.90390253067016602 3.03415989875793457 0.215031489729881287
1.91926658153533936 2.21375703811645508 0.127368927001953125
1.89011514186859131 2.1894679069519043 0.0663276463747024536
2.95865702629089355 3.07978177070617676 0.139514118432998657
0.950841188430786133 1.40686094760894775 0.0373437404632568359
3.12727761268615723 3.22027707099914551 0.193505808711051941
3.04705286026000977 3.15343356132507324 0.226083517074584961
2.79180192947387695 2.94075727462768555 0.136393502354621887
1.36020076274871826 1.74794101715087891 0.0978346168994903564
1.37421262264251709 1.75961577892303467 0.0738456994295120239
0.861047744750976562 1.33204460144042969 0.00331269204616546631
1.06020593643188477 1.49798405170440674 0.0614715218544006348
0.64566802978515625 1.15258932113647461 0.0187982320785522461
1.7856438159942627 2.10242199897766113 0.109534718096256256
1.46131789684295654 1.83219230175018311 0.0285536050796508789
0.476921319961547852 1.01198887825012207 0.0269689559936523438
1.09327554702758789 1.52553772926330566 0.0595663785934448242
3.1511847972869873 3.24019670486450195 0.159871548414230347
2.30831050872802734 2.53791022300720215 0.0511993914842605591
3.00412440299987793 3.11766529083251953 0.1802653968334198
1.57196855545043945 1.92438685894012451 0.069465339183807373
2.03923416137695312 2.31371450424194336 0.0137247368693351746
1.48837423324584961 1.85473573207855225 0.000276684761047363281
2.24373793601989746 2.48410797119140625 0.159040153026580811
1.46452641487121582 1.83486557006835938 0.013331979513168335
0.465068817138671875 1.00211334228515625 0.0121566206216812134
0.863560199737548828 1.33413791656494141 0.0385096073150634766
2.54363870620727539 2.73398637771606445 0.120581060647964478
2.9333953857421875 3.05873346328735352 0.120876684784889221
2.34887194633483887 2.57170629501342773 0.0441735908389091492
2.52565717697143555 2.71900439262390137 0.0459661409258842468
1.71449935436248779 2.04314422607421875 0.11565668135881424
2.69675707817077637 2.86156558990478516 0.179027318954467773
1.91916239261627197 2.21367025375366211 0.0347609221935272217
1.79585707187652588 2.1109318733215332 0.0465793982148170471
2.56465530395507812 2.75149774551391602 0.00359027460217475891
2.24306440353393555 2.48354673385620117 0.0949153900146484375
2.27034759521484375 2.50627946853637695 0.0258567333221435547
0.993510961532592773 1.4424135684967041 0.0220484137535095215
3.01529574394226074 3.12697339057922363 0.168041273951530457
2.63889193534851074 2.81335210800170898 0.156374543905258179
2.72496390342712402 2.88506746292114258 0.148913443088531494
2.82311177253723145 2.96684479713439941 0.0897646844387054443
2.91974496841430664 3.04735994338989258 0.162971764802932739
1.70509886741638184 2.03531169891357422 0.116694740951061249
2.10721135139465332 2.37035346031188965 0.0873083993792533875
3.20137572288513184 3.28201580047607422 0.0065639084205031395
1.96927130222320557 2.25542116165161133 0.00574238598346710205
3.23636293411254883 3.31116747856140137 0.104790627956390381
2.86746573448181152 3.00380063056945801 0.213613525032997131
2.69510507583618164 2.86018919944763184 0.0965040624141693115
0.642710447311401367 1.15012502670288086 0.0202302038669586182
2.95208978652954102 3.0743098258972168 0.0713401734828948975
0.999747753143310547 1.44761002063751221 0.0346238613128662109
1.12375974655151367 1.55093741416931152 0.00901147723197937012
2.91583728790283203 3.04410409927368164 0.00992481596767902374
0.484314441680908203 1.01814889907836914 0.013805001974105835
0.543915987014770508 1.06780910491943359 0.00388440489768981934
3.19481968879699707 3.27655339241027832 0.238430112600326538
1.9608762264251709 2.24842643737792969 0.0814776942133903503
2.48599576950073242 2.6859581470489502 0.0591288730502128601
1.83627653121948242 2.14460945129394531 0.0288837328553199768
1.46837997436523438 1.83807647228240967 0.0370855331420898438
2.25791597366333008 2.49592113494873047 0.153304517269134521
3.20241665840148926 3.2828831672668457 0.222427681088447571
3.07882070541381836 3.17990255355834961 0.168406084179878235
3.12721085548400879 3.22022151947021484 0.154698163270950317
2.9195401668548584 3.04718947410583496 0.161955177783966064
2.3076021671295166 2.53731989860534668 0.124448187649250031
2.75711536407470703 2.91185617446899414 0.109597489237785339
2.3109736442565918 2.54012918472290039 0.111479245126247406
1.71423280239105225 2.04292201995849609 0.00818701088428497314
2.26016116142272949 2.49779200553894043 0.11928914487361908
1.76079893112182617 2.08172106742858887 0.0271520912647247314
2.09280538558959961 2.35835027694702148 0.0463256686925888062
3.18510746955871582 3.26846122741699219 0.154333382844924927
2.40262985229492188 2.61649751663208008 0.067627444863319397
0.974475383758544922 1.42655289173126221 0.0190981477499008179
2.48320531845092773 2.68363332748413086 0.150395601987838745
2.5728602409362793 2.75833415985107422 0.137322336435317993
2.27896928787231445 2.51346278190612793 0.146520376205444336
2.16916465759277344 2.42197322845458984 0.0116767436265945435
1.64720547199249268 1.98707461357116699 0.071913301944732666
2.30782890319824219 2.53750896453857422 0.160705387592315674
1.5505986213684082 1.90658140182495117 0.0867388546466827393
2.23739218711853027 2.47882080078125 0.145100608468055725
2.97974824905395508 3.09735512733459473 0.136623561382293701
1.21222901344299316 1.62465023994445801 0.0316463112831115723
1.37937211990356445 1.76391470432281494 0.0959227085113525391
0.364948272705078125 0.918692350387573242 0.00848190486431121826
2.93379426002502441 3.0590660572052002 0.126679897308349609
2.02076959609985352 2.29832983016967773 0.114223659038543701
1.4894721508026123 1.85565054416656494 0.0379994958639144897
2.17475605010986328 2.42663192749023438 0.0385255217552185059
2.26689577102661133 2.5034031867980957 0.0148824453353881836
2.87877678871154785 3.01322507858276367 0.021350424736738205
2.58183574676513672 2.76581263542175293 0.0841624736785888672
2.1568448543548584 2.41170835494995117 0.128469765186309814
2.51424908638000488 2.70949912071228027 0.159829750657081604
2.44612312316894531 2.65273618698120117 0.0209672003984451294
2.99395942687988281 3.10919570922851562 0.150846317410469055
1.40397250652313232 1.78441190719604492 0.0498922765254974365
0.526574134826660156 1.0533597469329834 0.0370934456586837769
2.45865607261657715 2.66317868232727051 0.0826244503259658813
1.58952653408050537 1.93901622295379639 0.0167847573757171631
3.06386876106262207 3.16744470596313477 0.0627497509121894836
3.09467029571533203 3.19310855865478516 0.00151516590267419815
1.53435611724853516 1.89304804801940918 0.11265861988067627
2.92140483856201172 3.04874300956726074 0.117096848785877228
2.17049932479858398 2.42308521270751953 0.0892443135380744934
2.59234905242919922 2.77457237243652344 0.114544324576854706
2.64128971099853516 2.81535005569458008 0.0963595882058143616
2.30403399467468262 2.5343470573425293 0.103247582912445068
3.00261902809143066 3.11641097068786621 0.0306645464152097702
2.94077968597412109 3.06488633155822754 0.0338425785303115845
3.23870038986206055 3.31311488151550293 0.19621683657169342
2.64595127105712891 2.81923389434814453 0.193674951791763306
3.21927094459533691 3.29692649841308594 0.131115436553955078
3.13498950004577637 3.22670269012451172 0.143480241298675537
1.35673999786376953 1.74505746364593506 0.0242647230625152588
2.70833349227905273 2.87121105194091797 0.0467150174081325531
2.65397977828979492 2.82592344284057617 0.181954115629196167
1.46243751049041748 1.83312511444091797 0.0157894492149353027
3.16321444511413574 3.25021982192993164 0.152566343545913696
3.1227269172668457 3.21648550033569336 0.129563421010971069
3.12752819061279297 3.22048592567443848 0.0199460238218307495
3.04324603080749512 3.15026164054870605 0.232115745544433594
2.03809452056884766 2.31276512145996094 0.104366771876811981
2.95661640167236328 3.07808136940002441 0.0250625312328338623
2.10958099365234375 2.37232804298400879 0.0465326681733131409
2.64216947555541992 2.81608295440673828 0.00507418438792228699
3.06303095817565918 3.16674661636352539 0.100221544504165649
2.54982709884643555 2.73914289474487305 0.075043506920337677
2.50947713851928711 2.70552301406860352 0.0733526349067687988
3.2130434513092041 3.29173755645751953 0.150308296084403992
2.47890973091125488 2.6800541877746582 0.124824196100234985
0.910653591156005859 1.37337648868560791 0.048389241099357605
1.89414656162261963 2.19282698631286621 0.063426382839679718
2.30294084548950195 2.53343629837036133 0.0937678664922714233
3.18026065826416016 3.26442289352416992 0.0221326835453510284
1.10833621025085449 1.5380864143371582 0.0227615088224411011
1.17944192886352539 1.59733200073242188 0.0626233667135238647
1.64114606380462646 1.9820258617401123 0.0994195491075515747
3.25032138824462891 3.32279777526855469 0.0532406717538833618
1.3295365571975708 1.72239148616790771 0.00457628071308135986
2.10915756225585938 2.37197494506835938 0.106243573129177094
1.74779152870178223 2.07088327407836914 0.0412651300430297852
2.57510042190551758 2.76020073890686035 0.0909622013568878174
2.25516891479492188 2.49363231658935547 0.11047431081533432
3.17893171310424805 3.26331543922424316 0.083532772958278656
2.65456080436706543 2.82640743255615234 0.0134520456194877625
1.81543624401092529 2.12724518775939941 0.123327970504760742
1.73344826698303223 2.05893254280090332 0.00987195968627929688
2.2111203670501709 2.45693087577819824 0.0259759575128555298
2.28765130043029785 2.52069687843322754 0.112623989582061768
2.36204242706298828 2.58267974853515625 0.116708040237426758
1.53912484645843506 1.89702141284942627 0.0757622867822647095
1.35050332546234131 1.7398611307144165 0.0197690874338150024
2.41495490074157715 2.62676668167114258 0.0573644638061523438
2.6114194393157959 2.79046201705932617 0.0999029800295829773
1.87539350986480713 2.17720174789428711 0.0159384235739707947
1.51854193210601807 1.87987160682678223 0.0299892276525497437
2.14698982238769531 2.40349721908569336 0.136542409658432007
1.97860026359558105 2.26319408416748047 0.0114964619278907776
3.18748688697814941 3.27044367790222168 0.14946882426738739
0.822167158126831055 1.29964900016784668 0.049163326621055603
2.27543377876281738 2.51051712036132812 0.158619299530982971
0.391420841217041016 0.940749406814575195 0.0193438827991485596
0.63682103157043457 1.1452178955078125 0.0375841856002807617
1.01127719879150391 1.45721638202667236 0.00228346884250640869
0.400249958038330078 0.948105812072753906 0.00187511742115020752
3.07501387596130371 3.17673063278198242 0.105493098497390747
1.3319936990737915 1.72443878650665283 0.0291477590799331665
2.47073507308959961 2.67324304580688477 0.131020262837409973
2.48726201057434082 2.68701338768005371 0.125680446624755859
2.95992779731750488 3.0808403491973877 0.0124158430844545364
1.6395944356918335 1.98073303699493408 0.0853544846177101135
1.02146553993225098 1.4657055139541626 0.0146066248416900635
3.25839090347290039 3.32952141761779785 0.122610904276371002
0.0703053474426269531 0.673194646835327148 0.00334762036800384521
2.95419716835021973 3.0760657787322998 0.131414636969566345
1.17837619781494141 1.59644412994384766 0.0138712823390960693
0.955607891082763672 1.41083252429962158 0.0716551840305328369
1.34313881397247314 1.73372495174407959 0.0780137926340103149
2.71584510803222656 2.87746977806091309 0.148711860179901123
1.93551862239837646 2.22729825973510742 0.0785704851150512695
0.748135566711425781 1.23796558380126953 0.0156311392784118652
1.98090112209320068 2.26511144638061523 0.130453974008560181
2.2007448673248291 2.44828605651855469 0.0892369598150253296
1.87407183647155762 2.17610073089599609 0.00540441274642944336
3.27438950538635254 3.34285140037536621 0.0878152772784233093
1.83993077278137207 2.14765405654907227 0.0712385103106498718
1.8469926118850708 2.15353822708129883 0.0838335081934928894
2.41046619415283203 2.62302684783935547 0.0245984196662902832
2.56770825386047363 2.75404167175292969 0.191910848021507263
0.975328922271728516 1.42726421356201172 0.0661007016897201538
1.59797275066375732 1.94605374336242676 0.0519981831312179565
3.09254574775695801 3.19133830070495605 0.134829133749008179
3.2430572509765625 3.31674528121948242 0.115285351872444153
2.59780168533325195 2.77911543846130371 0.191932559013366699
1.92255425453186035 2.21649646759033203 0.0335579589009284973
2.40435051918029785 2.61793112754821777 0.14961165189743042
2.88041329383850098 3.01458883285522461 0.177915945649147034
1.69537913799285889 2.02721309661865234 0.0972488895058631897
1.85020720958709717 2.15621662139892578 0.0636251717805862427
2.78001856803894043 2.9309394359588623 0.151184588670730591
2.57140207290649414 2.75711917877197266 0.135275274515151978
1.07702159881591797 1.51199495792388916 0.0100583881139755249
1.38214576244354248 1.76622569561004639 0.0134578049182891846
1.56316328048706055 1.91705036163330078 0.113250419497489929
2.82585430145263672 2.96913003921508789 0.124704062938690186
2.17713046073913574 2.42861032485961914 0.06758137047290802
2.651885986328125 2.82417869567871094 0.20063231885433197
1.82748222351074219 2.13728189468383789 0.0397462621331214905
2.69345784187316895 2.85881662368774414 0.152454107999801636
1.04686951637268066 1.48687207698822021 0.0444776713848114014
3.15236949920654297 3.24118375778198242 0.181925103068351746
2.94405865669250488 3.06761813163757324 0.0492050871253013611
1.52100515365600586 1.88192391395568848 0.00722570717334747314
3.04810380935668945 3.15430927276611328 0.0165143236517906189
1.34842681884765625 1.73813092708587646 0.0121766477823257446
1.22006559371948242 1.6311798095703125 0.00709588825702667236
1.29109466075897217 1.6903616189956665 0.0643387585878372192
2.64663386344909668 2.81980276107788086 0.0708704441785812378
1.67643678188323975 2.01143026351928711 0.025071166455745697
3.23549127578735352 3.31044125556945801 0.136802688241004944
2.78814935684204102 2.9377138614654541 0.0939319953322410583
2.88427042961120605 3.01780247688293457 0.111931860446929932
1.84731411933898926 2.15380597114562988 0.0908682569861412048
1.68657934665679932 2.01988101005554199 0.00580137968063354492
2.36957073211669922 2.58895254135131836 0.0599090531468391418
0.403625726699829102 0.950918436050415039 0.0172809362411499023
1.64962399005889893 1.9890897274017334 0.0170760750770568848
1.33263063430786133 1.72496950626373291 0.0145407170057296753
2.69753265380859375 2.86221170425415039 0.00667975097894668579
1.68236827850341797 2.0163724422454834 0.0462122038006782532
2.03291869163513184 2.30845260620117188 0.14912848174571991
2.32899975776672363 2.55514860153198242 0.112234555184841156
0.941524505615234375 1.39909815788269043 0.0237557739019393921
0.926547050476074219 1.38661885261535645 0.022136986255645752
2.52765846252441406 2.72067165374755859 0.192861407995223999
1.54228603839874268 1.89965534210205078 0.108814582228660583
2.62191987037658691 2.79921102523803711 0.161628946661949158
2.1033320426940918 2.36712121963500977 0.0796083062887191772
2.04487419128417969 2.31841373443603516 0.0572362616658210754
1.82188069820404053 2.1326146125793457 0.0697663575410842896
1.29245471954345703 1.69149482250213623 0.0606700032949447632
3.21403717994689941 3.29256558418273926 0.124839708209037781
1.95592749118804932 2.24430322647094727 0.0212238207459449768
0.601812839508056641 1.11604881286621094 0.0188581943511962891
2.96328973770141602 3.08364176750183105 0.0610040426254272461
2.62949275970458984 2.80552053451538086 0.0620396360754966736
2.78872013092041016 2.93818950653076172 0.0661084279417991638
2.50169467926025391 2.69903874397277832 0.101003512740135193
3.22145628929138184 3.29874706268310547 0.0877502709627151489
1.93386030197143555 2.22591662406921387 0.0549195408821105957
0.936325311660766602 1.39476633071899414 0.06658974289894104
2.46280884742736816 2.66663885116577148 0.0112346336245536804
2.58565282821655273 2.76899313926696777 0.121117785573005676
1.10691332817077637 1.53690087795257568 0.0284711122512817383
1.21298885345458984 1.62528347969055176 0.0412254631519317627
2.46844053268432617 2.67133116722106934 0.123953960835933685
2.49554347991943359 2.69391345977783203 0.177119120955467224
0.944348335266113281 1.4014509916305542 0.0229189246892929077
3.20333194732666016 3.2836461067199707 0.122141055762767792
2.30593729019165039 2.53593301773071289 0.0286590829491615295
2.98505067825317383 3.10177302360534668 0.00869725272059440613
0.938995122909545898 1.39699077606201172 0.000287279486656188965
3.25966477394104004 3.33058261871337891 0.12040034681558609
1.69869208335876465 2.02997350692749023 0.0853593200445175171
1.76608479022979736 2.08612537384033203 0.00149317830801010132
1.47814786434173584 1.84621500968933105 0.0150439590215682983
2.29209160804748535 2.52439641952514648 0.000722065567970275879
1.83700704574584961 2.1452181339263916 0.115039817988872528
2.97228193283081055 3.09113407135009766 0.100591704249382019
2.68352651596069336 2.85054183006286621 0.092478141188621521
1.88728725910186768 2.18711185455322266 0.0641788989305496216
3.12810325622558594 3.22096490859985352 0.100727543234825134
1.30226004123687744 1.69966459274291992 0.0505179613828659058
3.17435073852539062 3.25949859619140625 0.130897849798202515
1.90420091152191162 2.20120429992675781 0.109842881560325623
1.97803723812103271 2.26272487640380859 0.14567488431930542
2.30009746551513672 2.53106689453125 0.170527130365371704
1.26042270660400391 1.66480565071105957 0.0169142037630081177
0.832890748977661133 1.30858421325683594 0.0315297693014144897
3.19727683067321777 3.27860069274902344 0.133591562509536743
2.18275547027587891 2.43329715728759766 0.0520552992820739746
2.89477157592773438 3.02655196189880371 0.216564252972602844
1.8983008861541748 2.1962883472442627 0.0563286915421485901
2.76458334922790527 2.91807866096496582 0.21035921573638916
2.32114791870117188 2.54860639572143555 0.154206916689872742
2.30334734916687012 2.53377485275268555 0.0522905662655830383
1.15730762481689453 1.57888948917388916 0.0224972069263458252
2.83580398559570312 2.97741985321044922 0.0730480179190635681
2.15035533905029297 2.40630125999450684 0.163663238286972046
0.623524665832519531 1.1341392993927002 0.0234593003988265991
2.10273170471191406 2.36662101745605469 0.0575279369950294495
2.87738728523254395 3.01206731796264648 0.20801544189453125
1.71513998508453369 2.04367804527282715 0.0673369318246841431
3.18972349166870117 3.27230715751647949 0.193435221910476685
1.11627960205078125 1.54470491409301758 0.0685904026031494141
2.02996397018432617 2.30599069595336914 0.0909179151058197021
2.66266751289367676 2.83316206932067871 0.115452677011489868
2.96810007095336914 3.08764958381652832 0.0369419977068901062
1.61174178123474121 1.95752608776092529 0.0662093460559844971
0.677626609802246094 1.17921733856201172 0.0217853933572769165
2.23879647254943848 2.47999095916748047 0.157567933201789856
3.0958249568939209 3.19407057762145996 0.147699549794197083
2.98478126525878906 3.10154867172241211 0.0809027627110481262
1.89793908596038818 2.19598698616027832 0.0392819195985794067
1.89728331565856934 2.19544053077697754 0.00830823183059692383
1.25311899185180664 1.65872001647949219 0.0898425877094268799
2.69711136817932129 2.86186075210571289 0.112733900547027588
1.68217957019805908 2.01621532440185547 0.0279245525598526001
2.08995509147644043 2.35597562789916992 0.0259653776884078979
2.30176854133605957 2.53245925903320312 0.0726199597120285034
1.29202783107757568 1.6911391019821167 0.0670286566019058228
1.49101698398590088 1.85693776607513428 0.0311665534973144531
3.03827857971191406 3.14612269401550293 0.047439083456993103
2.66391181945800781 2.8341987133026123 0.0698127076029777527
2.74580645561218262 2.90243363380432129 0.127510994672775269
1.09790921211242676 1.52939856052398682 0.0578354895114898682
2.84135818481445312 2.98204779624938965 0.146549403667449951
2.35335707664489746 2.57544326782226562 0.0425519347190856934
1.9339371919631958 2.22598075866699219 0.0103268399834632874
0.600821495056152344 1.11522293090820312 0.0458475351333618164
2.61892008781433105 2.79671144485473633 0.0419139079749584198
1.92239415645599365 2.21636295318603516 0.0129736661911010742
1.26717543601989746 1.67043197154998779 0.0604915320873260498
2.66390728950500488 2.83419513702392578 0.0743490457534790039
3.09152841567993164 3.19049072265625 0.0248771272599697113
2.74077701568603516 2.89824318885803223 0.0625310912728309631
0.972787380218505859 1.42514646053314209 0.0648722648620605469
0.566954612731933594 1.0870048999786377 0.0404291003942489624
2.95814895629882812 3.07935833930969238 0.00011856667697429657
1.44004154205322266 1.81446468830108643 0.0852376967668533325
1.27962768077850342 1.68080723285675049 0.0968133062124252319
2.92008543014526367 3.04764366149902344 0.026689896360039711
1.93213784694671631 2.22448158264160156 0.121053218841552734
3.24124956130981445 3.31523895263671875 0.150582417845726013
2.17294740676879883 2.4251251220703125 0.130530953407287598
3.1299288272857666 3.22248601913452148 0.0331520736217498779
3.2208411693572998 3.29823446273803711 0.161516487598419189
2.97033023834228516 3.0895078182220459 0.115504048764705658
0.809715747833251953 1.28927445411682129 0.056809544563293457
2.62114429473876953 2.79856467247009277 0.117699816823005676
2.85926985740661621 2.99697184562683105 0.0799247324466705322
1.07771158218383789 1.51256978511810303 0.0676399022340774536
3.26790046691894531 3.33744478225708008 0.0332899391651153564
2.51239895820617676 2.70795750617980957 0.028754744678735733
2.19989824295043945 2.44758057594299316 0.0918303579092025757
2.97951436042785645 3.09716010093688965 0.223308473825454712
2.41364598274230957 2.62567615509033203 0.102156259119510651
3.09188437461853027 3.19078731536865234 0.109367996454238892
1.81236505508422852 2.12468624114990234 0.0314560830593109131
1.66593122482299805 2.00267696380615234 0.0404813662171363831
1.77693521976470947 2.09516596794128418 0.0690176412463188171
2.68442821502685547 2.85129308700561523 0.00335276499390602112
3.05287861824035645 3.15828752517700195 0.232510462403297424
1.75332200527191162 2.07549142837524414 0.086826227605342865
2.44198226928710938 2.64928603172302246 0.117435738444328308
1.79650449752807617 2.11147117614746094 0.0663066580891609192
2.99011325836181641 3.10599112510681152 0.214102685451507568
3.16584229469299316 3.25240945816040039 0.0544620603322982788
2.38764429092407227 2.60401153564453125 0.0832825154066085815
2.41090083122253418 2.62338876724243164 0.102830149233341217
2.00112724304199219 2.28196382522583008 0.0306623354554176331
0.973214864730834961 1.42550265789031982 0.0499255955219268799
0.580015182495117188 1.09788703918457031 0.00448489189147949219
1.43492448329925537 1.81020116806030273 0.0451131165027618408
3.10389947891235352 3.20079827308654785 0.00921348575502634048
2.20849752426147461 2.45474576950073242 0.106713339686393738
2.94297480583190918 3.06671524047851562 0.176992207765579224
3.0970160961151123 3.19506311416625977 0.170141637325286865
0.765209674835205078 1.25219178199768066 0.0533706396818161011
2.87605738639831543 3.01095938682556152 0.18976236879825592
3.01310038566589355 3.12514424324035645 0.141084775328636169
3.04569625854492188 3.15230321884155273 0.0982513502240180969
2.95823001861572266 3.07942581176757812 0.036185387521982193
1.99428212642669678 2.2762603759765625 0.0437938645482063293
2.50818514823913574 2.70444655418395996 0.0640896856784820557
1.42655479907989502 1.80322754383087158 0.0800310373306274414
0.879373311996459961 1.3473135232925415 0.00803288817405700684
2.68929815292358398 2.85535073280334473 0.0739272534847259521
2.84628200531005859 2.98615050315856934 0.207854002714157104
2.62614107131958008 2.80272793769836426 0.194512516260147095
2.80992436408996582 2.9558570384979248 0.00961065664887428284
1.49565327167510986 1.86080062389373779 0.0958361327648162842
3.04158735275268555 3.1488795280456543 0.0509912744164466858
2.59510469436645508 2.77686834335327148 0.0394003279507160187
2.81050229072570801 2.95633864402770996 0.0703136473894119263
1.99075686931610107 2.27332305908203125 0.144794315099716187
2.08181238174438477 2.34919118881225586 0.131765022873878479
1.20826554298400879 1.62134802341461182 0.0798732936382293701
2.81489181518554688 2.95999598503112793 0.212844789028167725
0.679484128952026367 1.18076515197753906 0.0469081699848175049
2.8582160472869873 2.99609375 0.0163653567433357239
1.17106151580810547 1.59034943580627441 0.0867518186569213867
1.5108482837677002 1.87346124649047852 0.0253738164901733398
1.03624725341796875 1.47802162170410156 0.0539365261793136597
2.77404499053955078 2.92596197128295898 0.126528933644294739
2.41063928604125977 2.62317085266113281 0.0236637592315673828
2.55883121490478516 2.74664497375488281 0.166292667388916016
3.23850727081298828 3.31295394897460938 0.222143605351448059
1.21182656288146973 1.62431502342224121 0.0529952794313430786
3.02610969543457031 3.13598346710205078 0.196562051773071289
2.38207149505615234 2.59936833381652832 0.0292599350214004517
1.99197185039520264 2.27433538436889648 0.0340710878372192383
2.63459372520446777 2.80977082252502441 0.0175914391875267029
3.04034733772277832 3.14784622192382812 0.207964777946472168
2.1703486442565918 2.42295980453491211 0.0278359204530715942
0.963088512420654297 1.41706538200378418 0.0608573853969573975
2.73267292976379395 2.89149069786071777 0.201033622026443481
2.70085597038269043 2.86498069763183594 0.0372031480073928833
2.65377926826477051 2.82575607299804688 0.187492772936820984
3.20452690124511719 3.28464150428771973 0.163482621312141418
2.23138093948364258 2.47381210327148438 0.157529205083847046
2.81618785858154297 2.96107578277587891 0.0735366493463516235
2.88698053359985352 3.02006053924560547 0.0981207266449928284
1.05898618698120117 1.49696779251098633 0.0131162106990814209
2.48164606094360352 2.68233418464660645 0.0287338383495807648
2.09117341041564941 2.35699057579040527 0.0434869527816772461
1.42463159561157227 1.80162513256072998 0.00291939079761505127
2.81729316711425781 2.96199679374694824 0.152564868330955505
0.258250951766967773 0.829791545867919922 0.00201861560344696045
2.03426837921142578 2.30957698822021484 0.0792185366153717041
2.77896666526794434 2.93006277084350586 0.13224327564239502
3.15257525444030762 3.24135518074035645 0.237199321389198303
3.14001798629760742 3.23089241981506348 0.182050645351409912
2.7163856029510498 2.87792015075683594 0.0820458680391311646
2.79497551918029785 2.94340157508850098 0.0522908493876457214
2.85767149925231934 2.99564003944396973 0.0257450379431247711
2.79423904418945312 2.94278788566589355 0.0101441852748394012
1.73559057712554932 2.06071758270263672 0.121303215622901917
3.02384471893310547 3.13409638404846191 0.0916142910718917847
2.86823248863220215 3.0044395923614502 0.0659192800521850586
3.12089180946350098 3.21495628356933594 0.189138263463973999
2.43931841850280762 2.64706659317016602 0.140122562646865845
0.974180221557617188 1.42630720138549805 0.0377164781093597412
3.0031285285949707 3.11683559417724609 0.0497347638010978699
2.69343328475952148 2.85879611968994141 0.115906238555908203
2.60574746131896973 2.785736083984375 0.069069787859916687
2.04131817817687988 2.31545114517211914 0.0820410922169685364
1.82349419593811035 2.13395929336547852 0.0809430554509162903
2.71558570861816406 2.87725353240966797 0.00438724830746650696
2.4174962043762207 2.62888431549072266 0.0225963443517684937
0.773719310760498047 1.25928211212158203 0.0403866469860076904
2.36919331550598145 2.5886380672454834 0.121162600815296173
1.62339997291564941 1.96723973751068115 0.0116567462682723999
2.48575925827026367 2.68576145172119141 0.156914323568344116
1.14506936073303223 1.56869268417358398 0.0128125548362731934
2.90116047859191895 3.0318753719329834 0.166434645652770996
2.75623607635498047 2.91112375259399414 0.0724865123629570007
3.2067112922668457 3.28646159172058105 0.10737493634223938
0.823256492614746094 1.30055665969848633 0.0104081928730010986
3.13985824584960938 3.2307591438293457 0.0235663838684558868
0.418095767498016357 0.962975263595581055 0.0914694368839263916
2.03620648384094238 2.31119203567504883 0.197201982140541077
0.686790704727172852 1.18685305118560791 0.186384379863739014
2.39413857460021973 2.60942268371582031 0.207301899790763855
0.264614343643188477 0.835093855857849121 0.172105729579925537
0.531434595584869385 1.05740964412689209 0.12442876398563385
2.17847657203674316 2.42973208427429199 0.177314683794975281
0.206262171268463135 0.78647458553314209 0.240719348192214966
0.0523803383111953735 0.658259570598602295 0.0645125359296798706
1.13369905948638916 1.5592188835144043 0.11425328254699707
3.01213645935058594 3.12434101104736328 0.249330133199691772
0.533319652080535889 1.05898022651672363 0.128073051571846008
0.000521768408361822367 0.615050792694091797 0.111490696668624878
0.0602035708725452423 0.664777934551239014 0.129093974828720093
