ply
format ascii 1.0
element vertex 716
property float x
property float y
property float z
end_header
0.353092670440673828 -5.27355936696949357e-16 0.481410384178161621
0.537606477737426758 -5.27355936696949357e-16 0.564626634120941162
0.316600799560546875 -5.27355936696949357e-16 0.489149093627929688
0.433337271213531494 -5.27355936696949357e-16 0.55566871166229248
0.188637733459472656 -5.27355936696949357e-16 0.504166603088378906
0.702725827693939209 -5.27355936696949357e-16 0.357473194599151611
0.742319047451019287 -5.27355936696949357e-16 0.168379992246627808
0.730374693870544434 -5.27355936696949357e-16 0.537584483623504639
0.708385586738586426 -5.27355936696949357e-16 0.50465083122253418
0.727306783199310303 -5.27355936696949357e-16 0.619073092937469482
0.422289282083511353 -5.27355936696949357e-16 0.359217196702957153
0.682366907596588135 -5.27355936696949357e-16 0.582239031791687012
0.608106017112731934 -5.27355936696949357e-16 0.345763951539993286
0.49199521541595459 -5.27355936696949357e-16 0.601373851299285889
0.373054563999176025 -5.27355936696949357e-16 0.473117530345916748
0.321811974048614502 -5.27355936696949357e-16 0.633362114429473877
0.698295354843139648 -5.27355936696949357e-16 0.187017500400543213
0.559552311897277832 -5.27355936696949357e-16 0.226635158061981201
0.152653157711029053 -5.27355936696949357e-16 0.648276984691619873
0.755682885646820068 -5.27355936696949357e-16 0.265018671751022339
0.309195667505264282 -5.27355936696949357e-16 0.59122157096862793
0.537019968032836914 -5.27355936696949357e-16 0.383001804351806641
0.361420482397079468 -5.27355936696949357e-16 0.419579744338989258
0.642074227333068848 -5.27355936696949357e-16 0.559391379356384277
0.253957509994506836 -5.27355936696949357e-16 0.609265565872192383
0.0633298754692077637 -5.27355936696949357e-16 0.601696193218231201
0.36387297511100769 -5.27355936696949357e-16 0.359643667936325073
0.711305618286132812 -5.27355936696949357e-16 0.252821177244186401
0.0921445488929748535 -5.27355936696949357e-16 0.627957463264465332
0.29565197229385376 -5.27355936696949357e-16 0.45494997501373291
0.76732933521270752 -5.27355936696949357e-16 0.56457209587097168
0.384191960096359253 -5.27355936696949357e-16 0.648117482662200928
0.462933391332626343 -5.27355936696949357e-16 0.585384190082550049
0.570654630661010742 -5.27355936696949357e-16 0.494969457387924194
0.312807798385620117 -5.27355936696949357e-16 0.636747241020202637
0.507942795753479004 -5.27355936696949357e-16 0.488106757402420044
0.68517380952835083 -5.27355936696949357e-16 0.603721559047698975
0.746358215808868408 -5.27355936696949357e-16 0.578028202056884766
0.736876249313354492 -5.27355936696949357e-16 0.147798478603363037
0.648177564144134521 -5.27355936696949357e-16 0.387223392724990845
0.527357220649719238 -5.27355936696949357e-16 0.586402356624603271
0.436389148235321045 -5.27355936696949357e-16 0.509580254554748535
0.518049955368041992 -5.27355936696949357e-16 0.522243380546569824
0.168077051639556885 -5.27355936696949357e-16 0.542584896087646484
0.770609080791473389 -5.27355936696949357e-16 0.534250736236572266
0.641491711139678955 -5.27355936696949357e-16 0.341312050819396973
0.619858145713806152 -5.27355936696949357e-16 0.200288563966751099
0.412221997976303101 -5.27355936696949357e-16 0.553321301937103271
0.528910994529724121 -5.27355936696949357e-16 0.479340493679046631
0.616303741931915283 -5.27355936696949357e-16 0.263808220624923706
0.52505338191986084 -5.27355936696949357e-16 0.401531636714935303
0.763321459293365479 -5.27355936696949357e-16 0.352958381175994873
0.686701059341430664 -5.27355936696949357e-16 0.593461334705352783
0.264392554759979248 -5.27355936696949357e-16 0.445151150226593018
0.0882545709609985352 -5.27355936696949357e-16 0.636705160140991211
0.236191630363464355 -5.27355936696949357e-16 0.627807974815368652
0.686620533466339111 -5.27355936696949357e-16 0.443025648593902588
0.384478092193603516 -5.27355936696949357e-16 0.465386867523193359
0.598521649837493896 -5.27355936696949357e-16 0.397718429565429688
0.637561917304992676 -5.27355936696949357e-16 0.44684898853302002
0.45825427770614624 -5.27355936696949357e-16 0.351027518510818481
0.763328373432159424 -5.27355936696949357e-16 0.322425514459609985
0.673726320266723633 -5.27355936696949357e-16 0.274089992046356201
0.678696870803833008 -5.27355936696949357e-16 0.29729926586151123
0.775093495845794678 -5.27355936696949357e-16 0.163530915975570679
0.736429870128631592 -5.27355936696949357e-16 0.171504884958267212
0.359255045652389526 -5.27355936696949357e-16 0.479971975088119507
0.780236721038818359 -5.27355936696949357e-16 0.450648486614227295
0.779374837875366211 -5.27355936696949357e-16 0.284873068332672119
0.461716264486312866 -5.27355936696949357e-16 0.385049164295196533
0.735776543617248535 -5.27355936696949357e-16 0.19562453031539917
0.791515767574310303 -5.27355936696949357e-16 0.472007185220718384
0.572026252746582031 -5.27355936696949357e-16 0.614452719688415527
0.788416743278503418 -5.27355936696949357e-16 0.179280608892440796
0.662365972995758057 -5.27355936696949357e-16 0.158590972423553467
0.174634575843811035 -5.27355936696949357e-16 0.509557127952575684
0.126480460166931152 -5.27355936696949357e-16 0.612682938575744629
0.455154627561569214 -5.27355936696949357e-16 0.477066695690155029
0.576744794845581055 -5.27355936696949357e-16 0.476016461849212646
0.677414417266845703 -5.27355936696949357e-16 0.311212152242660522
0.458868533372879028 -5.27355936696949357e-16 0.586287617683410645
0.412660330533981323 -5.27355936696949357e-16 0.437602639198303223
0.432916402816772461 -5.27355936696949357e-16 0.299447298049926758
0.450873047113418579 -5.27355936696949357e-16 0.401797175407409668
0.771490871906280518 -5.27355936696949357e-16 0.579452633857727051
0.456385612487792969 -5.27355936696949357e-16 0.298674076795578003
0.632938861846923828 -5.27355936696949357e-16 0.607985556125640869
0.528635144233703613 -5.27355936696949357e-16 0.541536808013916016
0.659670591354370117 -5.27355936696949357e-16 0.389794379472732544
0.69177556037902832 -5.27355936696949357e-16 0.584711253643035889
0.379114598035812378 -5.27355936696949357e-16 0.465241789817810059
0.562418758869171143 -5.27355936696949357e-16 0.35564771294593811
0.390712082386016846 -5.27355936696949357e-16 0.403381824493408203
0.719050168991088867 -5.27355936696949357e-16 0.218641966581344604
0.799551844596862793 -5.27355936696949357e-16 0.399628192186355591
0.112082779407501221 -5.27355936696949357e-16 0.636436700820922852
0.683716297149658203 -5.27355936696949357e-16 0.132794201374053955
0.739037573337554932 -5.27355936696949357e-16 0.449097216129302979
0.306565046310424805 -5.27355936696949357e-16 0.411460518836975098
0.706397652626037598 -5.27355936696949357e-16 0.500156760215759277
0.767342746257781982 -5.27355936696949357e-16 0.245474040508270264
0.553676843643188477 -5.27355936696949357e-16 0.253356248140335083
0.612949728965759277 -5.27355936696949357e-16 0.23296046257019043
0.546499848365783691 -5.27355936696949357e-16 0.538415372371673584
0.71914219856262207 -5.27355936696949357e-16 0.585169434547424316
0.676061511039733887 -5.27355936696949357e-16 0.227852344512939453
0.616782486438751221 -5.27355936696949357e-16 0.248666763305664062
0.625910758972167969 -5.27355936696949357e-16 0.281061768531799316
0.587848067283630371 -5.27355936696949357e-16 0.298357456922531128
0.513883352279663086 -5.27355936696949357e-16 0.255105853080749512
0.678949177265167236 -5.27355936696949357e-16 0.30772283673286438
0.36342698335647583 -5.27355936696949357e-16 0.561281800270080566
0.557677388191223145 -5.27355936696949357e-16 0.307990670204162598
0.352054178714752197 -5.27355936696949357e-16 0.621306419372558594
0.629205644130706787 -5.27355936696949357e-16 0.454177737236022949
0.200282573699951172 -5.27355936696949357e-16 0.540015816688537598
0.71376878023147583 -5.27355936696949357e-16 0.136584579944610596
0.541526615619659424 -5.27355936696949357e-16 0.284549802541732788
0.70218205451965332 -5.27355936696949357e-16 0.277653664350509644
0.594978094100952148 -5.27355936696949357e-16 0.462360531091690063
0.632496833801269531 -5.27355936696949357e-16 0.235273629426956177
0.70471036434173584 -5.27355936696949357e-16 0.42518991231918335
0.427272975444793701 -5.27355936696949357e-16 0.627885222434997559
0.748616576194763184 -5.27355936696949357e-16 0.147802889347076416
0.533190369606018066 -5.27355936696949357e-16 0.24632689356803894
0.285405397415161133 -5.27355936696949357e-16 0.504935622215270996
0.736236095428466797 -5.27355936696949357e-16 0.201732516288757324
0.688501060009002686 -5.27355936696949357e-16 0.449809551239013672
0.425061315298080444 -5.27355936696949357e-16 0.36487579345703125
0.76547163724899292 -5.27355936696949357e-16 0.146634280681610107
0.338079214096069336 -5.27355936696949357e-16 0.540236175060272217
0.63987433910369873 -5.27355936696949357e-16 0.456596851348876953
0.687732219696044922 -5.27355936696949357e-16 0.578732728958129883
0.423293918371200562 -5.27355936696949357e-16 0.307649940252304077
0.272748053073883057 -5.27355936696949357e-16 0.439378172159194946
0.72864830493927002 -5.27355936696949357e-16 0.41866379976272583
0.145670950412750244 -5.27355936696949357e-16 0.587909162044525146
0.292417228221893311 -5.27355936696949357e-16 0.610912740230560303
0.561761915683746338 -5.27355936696949357e-16 0.450166642665863037
0.748572826385498047 -5.27355936696949357e-16 0.0898935198783874512
0.703910470008850098 -5.27355936696949357e-16 0.514122128486633301
0.786237537860870361 -5.27355936696949357e-16 0.078160405158996582
0.743893623352050781 -5.27355936696949357e-16 0.0949954986572265625
0.666294276714324951 -5.27355936696949357e-16 0.524783790111541748
0.49671897292137146 -5.27355936696949357e-16 0.340160220861434937
0.283501505851745605 -5.27355936696949357e-16 0.421061694622039795
0.300780624151229858 -5.27355936696949357e-16 0.582820594310760498
0.334339231252670288 -5.27355936696949357e-16 0.601033508777618408
0.267164707183837891 -5.27355936696949357e-16 0.565436184406280518
0.486783027648925781 -5.27355936696949357e-16 0.426500320434570312
0.293705940246582031 -5.27355936696949357e-16 0.517610371112823486
0.723418712615966797 -5.27355936696949357e-16 0.504359841346740723
0.669552743434906006 -5.27355936696949357e-16 0.488563179969787598
0.78887331485748291 -5.27355936696949357e-16 0.468524515628814697
0.223791837692260742 -5.27355936696949357e-16 0.531835556030273438
0.728176355361938477 -5.27355936696949357e-16 0.586893618106842041
0.299165844917297363 -5.27355936696949357e-16 0.524669766426086426
0.538300156593322754 -5.27355936696949357e-16 0.253643631935119629
0.394556194543838501 -5.27355936696949357e-16 0.547403454780578613
0.738191425800323486 -5.27355936696949357e-16 0.369789600372314453
0.751040458679199219 -5.27355936696949357e-16 0.458985626697540283
0.712613224983215332 -5.27355936696949357e-16 0.573229849338531494
0.37648579478263855 -5.27355936696949357e-16 0.604384839534759521
0.700949609279632568 -5.27355936696949357e-16 0.133367240428924561
0.421919494867324829 -5.27355936696949357e-16 0.339320540428161621
0.790502250194549561 -5.27355936696949357e-16 0.577118754386901855
0.387303739786148071 -5.27355936696949357e-16 0.549039959907531738
0.577498674392700195 -5.27355936696949357e-16 0.441985011100769043
0.520313024520874023 -5.27355936696949357e-16 0.640732705593109131
0.477224379777908325 -5.27355936696949357e-16 0.313028126955032349
0.283432602882385254 -5.27355936696949357e-16 0.509090781211853027
0.586228072643280029 -5.27355936696949357e-16 0.50229567289352417
0.634064853191375732 -5.27355936696949357e-16 0.430216372013092041
0.446732223033905029 -5.27355936696949357e-16 0.51806640625
0.670267820358276367 -5.27355936696949357e-16 0.437973111867904663
0.599975287914276123 -5.27355936696949357e-16 0.563424408435821533
0.391083389520645142 -5.27355936696949357e-16 0.649531960487365723
0.532275915145874023 -5.27355936696949357e-16 0.233654022216796875
0.653424739837646484 -5.27355936696949357e-16 0.134083747863769531
0.274515748023986816 -5.27355936696949357e-16 0.538992524147033691
0.297670900821685791 -5.27355936696949357e-16 0.441279232501983643
0.217362761497497559 -5.27355936696949357e-16 0.567448914051055908
0.654787540435791016 -5.27355936696949357e-16 0.444447517395019531
0.258057534694671631 -5.27355936696949357e-16 0.502808630466461182
0.234535574913024902 -5.27355936696949357e-16 0.615064859390258789
0.685298144817352295 -5.27355936696949357e-16 0.194605469703674316
0.494189709424972534 -5.27355936696949357e-16 0.445373266935348511
0.274510562419891357 -5.27355936696949357e-16 0.469822049140930176
0.790023863315582275 -5.27355936696949357e-16 0.14612877368927002
0.317322790622711182 -5.27355936696949357e-16 0.619536042213439941
0.436532169580459595 -5.27355936696949357e-16 0.416711807250976562
0.591996431350708008 -5.27355936696949357e-16 0.621591508388519287
0.793029904365539551 -5.27355936696949357e-16 0.633149027824401855
0.655555605888366699 -5.27355936696949357e-16 0.454558283090591431
0.293052554130554199 -5.27355936696949357e-16 0.466452240943908691
0.702855587005615234 -5.27355936696949357e-16 0.124513149261474609
0.599242448806762695 -5.27355936696949357e-16 0.629976630210876465
0.276512026786804199 -5.27355936696949357e-16 0.587419748306274414
0.382167071104049683 -5.27355936696949357e-16 0.554110288619995117
0.743954658508300781 -5.27355936696949357e-16 0.243318319320678711
0.602821111679077148 -5.27355936696949357e-16 0.285914897918701172
0.647434830665588379 -5.27355936696949357e-16 0.413367390632629395
0.133725404739379883 -5.27355936696949357e-16 0.573682606220245361
0.562592267990112305 -5.27355936696949357e-16 0.236154496669769287
0.433393478393554688 -5.27355936696949357e-16 0.322022080421447754
0.728618502616882324 -5.27355936696949357e-16 0.230038732290267944
0.716087162494659424 -5.27355936696949357e-16 0.181667327880859375
0.351329654455184937 -5.27355936696949357e-16 0.487293601036071777
0.548187494277954102 -5.27355936696949357e-16 0.476834356784820557
0.32759895920753479 -5.27355936696949357e-16 0.459622204303741455
0.528928756713867188 -5.27355936696949357e-16 0.605671703815460205
0.254861772060394287 -5.27355936696949357e-16 0.586941361427307129
0.758962035179138184 -5.27355936696949357e-16 0.336666315793991089
0.622868180274963379 -5.27355936696949357e-16 0.156006902456283569
0.616713047027587891 -5.27355936696949357e-16 0.634154260158538818
0.618856370449066162 -5.27355936696949357e-16 0.34479522705078125
0.60656440258026123 -5.27355936696949357e-16 0.57287132740020752
0.33021661639213562 -5.27355936696949357e-16 0.501741409301757812
0.655193328857421875 -5.27355936696949357e-16 0.596034526824951172
0.469510644674301147 -5.27355936696949357e-16 0.597861707210540771
0.576190829277038574 -5.27355936696949357e-16 0.223536044359207153
0.688654661178588867 -5.27355936696949357e-16 0.18262287974357605
0.399044424295425415 -5.27355936696949357e-16 0.521867752075195312
0.763061106204986572 -5.27355936696949357e-16 0.646558761596679688
0.479102551937103271 -5.27355936696949357e-16 0.391602307558059692
0.550777554512023926 -5.27355936696949357e-16 0.586458683013916016
0.630746603012084961 -5.27355936696949357e-16 0.194469362497329712
0.453097313642501831 -5.27355936696949357e-16 0.296446144580841064
0.57725822925567627 -5.27355936696949357e-16 0.482961118221282959
0.313380062580108643 -5.27355936696949357e-16 0.495961427688598633
0.298074722290039062 -5.27355936696949357e-16 0.458304643630981445
0.553825020790100098 -5.27355936696949357e-16 0.408148586750030518
0.421863287687301636 -5.27355936696949357e-16 0.504931449890136719
0.548921406269073486 -5.27355936696949357e-16 0.567915976047515869
0.52242356538772583 -5.27355936696949357e-16 0.639856457710266113
0.794237434864044189 -5.27355936696949357e-16 0.523783028125762939
0.635278403759002686 -5.27355936696949357e-16 0.323261052370071411
0.594823360443115234 -5.27355936696949357e-16 0.582575857639312744
0.467806607484817505 -5.27355936696949357e-16 0.375882863998413086
0.0736554265022277832 -5.27355936696949357e-16 0.593305110931396484
0.739159882068634033 -5.27355936696949357e-16 0.351793289184570312
0.745824635028839111 -5.27355936696949357e-16 0.28956189751625061
0.612133681774139404 -5.27355936696949357e-16 0.189993768930435181
0.601376950740814209 -5.27355936696949357e-16 0.49268651008605957
0.747123956680297852 -5.27355936696949357e-16 0.597166776657104492
0.135773241519927979 -5.27355936696949357e-16 0.55913078784942627
0.462693631649017334 -5.27355936696949357e-16 0.513594388961791992
0.749014914035797119 -5.27355936696949357e-16 0.515807449817657471
0.457545697689056396 -5.27355936696949357e-16 0.511127114295959473
0.659845232963562012 -5.27355936696949357e-16 0.435707211494445801
0.52943122386932373 -5.27355936696949357e-16 0.316345483064651489
0.68882519006729126 -5.27355936696949357e-16 0.285287082195281982
0.544206678867340088 -5.27355936696949357e-16 0.502533614635467529
0.311350166797637939 -5.27355936696949357e-16 0.553976833820343018
0.346662729978561401 -5.27355936696949357e-16 0.551392495632171631
0.552317023277282715 -5.27355936696949357e-16 0.475915879011154175
0.533073306083679199 -5.27355936696949357e-16 0.416330456733703613
0.423114001750946045 -5.27355936696949357e-16 0.542305290699005127
0.458316892385482788 -5.27355936696949357e-16 0.595733582973480225
0.470086395740509033 -5.27355936696949357e-16 0.397614061832427979
0.343372076749801636 -5.27355936696949357e-16 0.406535625457763672
0.350660800933837891 -5.27355936696949357e-16 0.473549246788024902
0.461836189031600952 -5.27355936696949357e-16 0.357011646032333374
0.693464994430541992 -5.27355936696949357e-16 0.514412760734558105
0.699409127235412598 -5.27355936696949357e-16 0.111140906810760498
0.765415012836456299 -5.27355936696949357e-16 0.291247099637985229
0.787618398666381836 -5.27355936696949357e-16 0.557754993438720703
0.199577391147613525 -5.27355936696949357e-16 0.643461704254150391
0.640585362911224365 -5.27355936696949357e-16 0.581443071365356445
0.333977997303009033 -5.27355936696949357e-16 0.496939808130264282
0.328384846448898315 -5.27355936696949357e-16 0.53776472806930542
0.497504055500030518 -5.27355936696949357e-16 0.453761100769042969
0.597202122211456299 -5.27355936696949357e-16 0.450177460908889771
0.658585429191589355 -5.27355936696949357e-16 0.514434754848480225
0.554399251937866211 -5.27355936696949357e-16 0.54766470193862915
0.793905913829803467 -5.27355936696949357e-16 0.580409407615661621
0.590593099594116211 -5.27355936696949357e-16 0.546572744846343994
0.385645389556884766 -5.27355936696949357e-16 0.375135749578475952
0.347237676382064819 -5.27355936696949357e-16 0.376374959945678711
0.696947634220123291 -5.27355936696949357e-16 0.644667685031890869
0.777153253555297852 -5.27355936696949357e-16 0.289744138717651367
0.571223020553588867 -5.27355936696949357e-16 0.514420986175537109
0.689300239086151123 -5.27355936696949357e-16 0.211130142211914062
0.760740995407104492 -5.27355936696949357e-16 0.446737468242645264
0.639472126960754395 -5.27355936696949357e-16 0.517985403537750244
0.631773114204406738 -5.27355936696949357e-16 0.339086979627609253
0.564727783203125 -5.27355936696949357e-16 0.341329187154769897
0.695449769496917725 -5.27355936696949357e-16 0.115117788314819336
0.238379418849945068 -5.27355936696949357e-16 0.532646417617797852
0.567301154136657715 -5.27355936696949357e-16 0.483168184757232666
0.145673871040344238 -5.27355936696949357e-16 0.598939895629882812
0.784715056419372559 -5.27355936696949357e-16 0.32136845588684082
0.790389060974121094 -5.27355936696949357e-16 0.599510431289672852
0.410377770662307739 -5.27355936696949357e-16 0.38823583722114563
0.182505965232849121 -5.27355936696949357e-16 0.565543532371520996
0.572145462036132812 -5.27355936696949357e-16 0.594038307666778564
0.317524969577789307 -5.27355936696949357e-16 0.545273959636688232
0.484634101390838623 -5.27355936696949357e-16 0.539883911609649658
0.605791628360748291 -5.27355936696949357e-16 0.15807226300239563
0.778495430946350098 -5.27355936696949357e-16 0.583042502403259277
0.540729999542236328 -5.27355936696949357e-16 0.485871672630310059
0.65132063627243042 -5.27355936696949357e-16 0.527844727039337158
0.575072348117828369 -5.27355936696949357e-16 0.252821356058120728
0.322224944829940796 -5.27355936696949357e-16 0.543353617191314697
0.700033247470855713 -5.27355936696949357e-16 0.434802889823913574
0.552879989147186279 -5.27355936696949357e-16 0.547695338726043701
0.501606225967407227 -5.27355936696949357e-16 0.334984898567199707
0.622103095054626465 -5.27355936696949357e-16 0.429222166538238525
0.41828387975692749 -5.27355936696949357e-16 0.316231131553649902
0.555217444896697998 -5.27355936696949357e-16 0.380761116743087769
0.633740603923797607 -5.27355936696949357e-16 0.170526385307312012
0.495023339986801147 -5.27355936696949357e-16 0.474722057580947876
0.303885310888290405 -5.27355936696949357e-16 0.572028875350952148
0.327921688556671143 -5.27355936696949357e-16 0.534050643444061279
0.79652094841003418 -5.27355936696949357e-16 0.0496707558631896973
0.664139807224273682 -5.27355936696949357e-16 0.425066471099853516
0.67262953519821167 -5.27355936696949357e-16 0.595260679721832275
0.686165988445281982 -5.27355936696949357e-16 0.15565025806427002
0.288696706295013428 -5.27355936696949357e-16 0.489910304546356201
0.773373246192932129 -5.27355936696949357e-16 0.623210668563842773
0.640834331512451172 -5.27355936696949357e-16 0.499502658843994141
0.369936048984527588 -5.27355936696949357e-16 0.567882120609283447
0.630990803241729736 -5.27355936696949357e-16 0.342084020376205444
0.585138797760009766 -5.27355936696949357e-16 0.43960842490196228
0.291972041130065918 -5.27355936696949357e-16 0.479505479335784912
0.634939193725585938 -5.27355936696949357e-16 0.477210372686386108
0.365344345569610596 -5.27355936696949357e-16 0.629119277000427246
0.515464901924133301 -5.27355936696949357e-16 0.284075707197189331
0.627040982246398926 -5.27355936696949357e-16 0.485235333442687988
0.708590388298034668 -5.27355936696949357e-16 0.49639466404914856
0.643677711486816406 -5.27355936696949357e-16 0.162259668111801147
0.493936270475387573 -5.27355936696949357e-16 0.584769129753112793
0.303546816110610962 -5.27355936696949357e-16 0.567175567150115967
0.248485684394836426 -5.27355936696949357e-16 0.623892843723297119
0.284902691841125488 -5.27355936696949357e-16 0.590859711170196533
0.428794205188751221 -5.27355936696949357e-16 0.520471334457397461
0.718034744262695312 -5.27355936696949357e-16 0.490438938140869141
0.440450072288513184 -5.27355936696949357e-16 0.512365937232971191
0.652890920639038086 -5.27355936696949357e-16 0.558333992958068848
0.263278543949127197 -5.27355936696949357e-16 0.536693394184112549
0.426896929740905762 -5.27355936696949357e-16 0.482036769390106201
0.638529121875762939 -5.27355936696949357e-16 0.462815999984741211
0.191420853137969971 -5.27355936696949357e-16 0.645639777183532715
0.570728898048400879 -5.27355936696949357e-16 0.531664907932281494
0.494751185178756714 -5.27355936696949357e-16 0.606055617332458496
0.756960093975067139 -5.27355936696949357e-16 0.318934410810470581
0.417766332626342773 -5.27355936696949357e-16 0.562378287315368652
0.348990917205810547 -5.27355936696949357e-16 0.513127923011779785
0.688634097576141357 -5.27355936696949357e-16 0.252863079309463501
0.355709552764892578 -5.27355936696949357e-16 0.643919467926025391
0.717544436454772949 -5.27355936696949357e-16 0.261435359716415405
0.627721130847930908 -5.27355936696949357e-16 0.374310106039047241
0.720157384872436523 -5.27355936696949357e-16 0.111794948577880859
0.245885491371154785 -5.27355936696949357e-16 0.585582196712493896
0.640625059604644775 -5.27355936696949357e-16 0.300662428140640259
0.0460788607597351074 -5.27355936696949357e-16 0.646218419075012207
0.674323141574859619 -5.27355936696949357e-16 0.610927700996398926
0.708261430263519287 -5.27355936696949357e-16 0.626299023628234863
0.72568666934967041 -5.27355936696949357e-16 0.5667533278465271
0.404423743486404419 -5.27355936696949357e-16 0.580940842628479004
0.747354388236999512 -5.27355936696949357e-16 0.0887612104415893555
0.424283921718597412 -5.27355936696949357e-16 0.648563206195831299
0.438707679510116577 -5.27355936696949357e-16 0.611317753791809082
0.639621496200561523 -5.27355936696949357e-16 0.254166871309280396
0.721342563629150391 -5.27355936696949357e-16 0.289948374032974243
0.757887125015258789 -5.27355936696949357e-16 0.320859730243682861
0.189336240291595459 -5.27355936696949357e-16 0.59527742862701416
0.712232232093811035 -5.27355936696949357e-16 0.427331805229187012
0.757095932960510254 -5.27355936696949357e-16 0.563623189926147461
0.589889705181121826 -5.27355936696949357e-16 0.442847013473510742
0.617473363876342773 -5.27355936696949357e-16 0.223330795764923096
0.587287306785583496 -5.27355936696949357e-16 0.508907914161682129
0.640880227088928223 -5.27355936696949357e-16 0.246236473321914673
0.522248387336730957 -5.27355936696949357e-16 0.642640411853790283
0.76744544506072998 -5.27355936696949357e-16 0.0938843488693237305
0.653566122055053711 -5.27355936696949357e-16 0.419825077056884766
0.0405559539794921875 -5.27355936696949357e-16 0.636038720607757568
0.588387429714202881 -5.27355936696949357e-16 0.560866951942443848
0.74502408504486084 -5.27355936696949357e-16 0.633791327476501465
0.776962220668792725 -5.27355936696949357e-16 0.215445846319198608
0.752683043479919434 -5.27355936696949357e-16 0.348741024732589722
0.49663090705871582 -5.27355936696949357e-16 0.307023495435714722
0.487303316593170166 -5.27355936696949357e-16 0.570819616317749023
0.685778021812438965 -5.27355936696949357e-16 0.382698297500610352
0.516629159450531006 -5.27355936696949357e-16 0.647496163845062256
0.487527340650558472 -5.27355936696949357e-16 0.346443474292755127
0.40036734938621521 -5.27355936696949357e-16 0.555931687355041504
0.669284343719482422 -5.27355936696949357e-16 0.408529877662658691
0.72013700008392334 -5.27355936696949357e-16 0.1204184889793396
0.233452677726745605 -5.27355936696949357e-16 0.549201488494873047
0.0190011262893676758 -5.27355936696949357e-16 0.64732205867767334
0.610841870307922363 -5.27355936696949357e-16 0.614024817943572998
0.548580050468444824 -5.27355936696949357e-16 0.407290041446685791
0.419131368398666382 -5.27355936696949357e-16 0.333570510149002075
0.776548445224761963 -5.27355936696949357e-16 0.227417409420013428
0.53737330436706543 -5.27355936696949357e-16 0.403621435165405273
0.505085468292236328 -5.27355936696949357e-16 0.552547335624694824
0.767020523548126221 -5.27355936696949357e-16 0.221812546253204346
0.42160382866859436 -5.27355936696949357e-16 0.390278071165084839
0.797541260719299316 -5.27355936696949357e-16 0.383481472730636597
0.0353345274925231934 -5.27355936696949357e-16 0.641004741191864014
0.566817164421081543 -5.27355936696949357e-16 0.606818139553070068
0.699624300003051758 -5.27355936696949357e-16 0.331246376037597656
0.526683449745178223 -5.27355936696949357e-16 0.305647164583206177
0.792646229267120361 -5.27355936696949357e-16 0.519899487495422363
0.542559504508972168 -5.27355936696949357e-16 0.54055941104888916
0.554393649101257324 -5.27355936696949357e-16 0.536786496639251709
0.739730596542358398 -5.27355936696949357e-16 0.434348106384277344
0.192959904670715332 -5.27355936696949357e-16 0.506505489349365234
0.496795982122421265 -5.27355936696949357e-16 0.629416108131408691
0.707641720771789551 -5.27355936696949357e-16 0.396652519702911377
0.576747775077819824 -5.27355936696949357e-16 0.576129674911499023
0.40788644552230835 -5.27355936696949357e-16 0.386879384517669678
0.563830912113189697 -5.27355936696949357e-16 0.573713183403015137
0.793351352214813232 -5.27355936696949357e-16 0.635407328605651855
0.560883283615112305 -5.27355936696949357e-16 0.450789600610733032
0.645543277263641357 -5.27355936696949357e-16 0.330453634262084961
0.385399907827377319 -5.27355936696949357e-16 0.580553650856018066
0.739900827407836914 -5.27355936696949357e-16 0.144613981246948242
0.650913476943969727 -5.27355936696949357e-16 0.354904979467391968
0.786883771419525146 -5.27355936696949357e-16 0.287203729152679443
0.610790610313415527 -5.27355936696949357e-16 0.512309908866882324
0.385503500699996948 -5.27355936696949357e-16 0.53798067569732666
0.223096489906311035 -5.27355936696949357e-16 0.535228431224822998
0.690703511238098145 -5.27355936696949357e-16 0.238523006439208984
0.766602993011474609 -5.27355936696949357e-16 0.554894447326660156
0.752936244010925293 -5.27355936696949357e-16 0.0565077662467956543
0.589000403881072998 -5.27355936696949357e-16 0.2107657790184021
0.132700681686401367 -5.27355936696949357e-16 0.635614097118377686
0.603945493698120117 -5.27355936696949357e-16 0.261260986328125
0.384785085916519165 -5.27355936696949357e-16 0.373110949993133545
0.610171616077423096 -5.27355936696949357e-16 0.212045431137084961
0.509499430656433105 -5.27355936696949357e-16 0.395372509956359863
0.614106416702270508 -5.27355936696949357e-16 0.475079119205474854
0.477553993463516235 -5.27355936696949357e-16 0.581972837448120117
0.556414365768432617 -5.27355936696949357e-16 0.466431319713592529
0.564833521842956543 -5.27355936696949357e-16 0.563338160514831543
0.30341300368309021 -5.27355936696949357e-16 0.633965909481048584
0.63373565673828125 -5.27355936696949357e-16 0.220632761716842651
0.740430653095245361 -5.27355936696949357e-16 0.273487389087677002
0.56881403923034668 -5.27355936696949357e-16 0.290405958890914917
0.716057300567626953 -5.27355936696949357e-16 0.327393472194671631
0.466306626796722412 -5.27355936696949357e-16 0.437638312578201294
0.525615572929382324 -5.27355936696949357e-16 0.572513461112976074
0.494942247867584229 -5.27355936696949357e-16 0.610472738742828369
0.397941917181015015 -5.27355936696949357e-16 0.51970672607421875
0.615144491195678711 -5.27355936696949357e-16 0.385415971279144287
0.695581018924713135 -5.27355936696949357e-16 0.292995810508728027
0.747268855571746826 -5.27355936696949357e-16 0.571766197681427002
0.575673818588256836 -5.27355936696949357e-16 0.438250958919525146
0.257103621959686279 -5.27355936696949357e-16 0.517329812049865723
0.584405481815338135 -5.27355936696949357e-16 0.198560565710067749
0.544134020805358887 -5.27355936696949357e-16 0.224890172481536865
0.625926613807678223 -5.27355936696949357e-16 0.299204319715499878
0.423782408237457275 -5.27355936696949357e-16 0.472133278846740723
0.574279308319091797 -5.27355936696949357e-16 0.269642561674118042
0.0738933682441711426 -5.27355936696949357e-16 0.622765719890594482
0.630266726016998291 -5.27355936696949357e-16 0.308927685022354126
0.302213817834854126 -5.27355936696949357e-16 0.443193674087524414
0.631599307060241699 -5.27355936696949357e-16 0.219954460859298706
0.322296202182769775 -5.27355936696949357e-16 0.535889685153961182
0.594908535480499268 -5.27355936696949357e-16 0.225918024778366089
0.758549094200134277 -5.27355936696949357e-16 0.369838416576385498
0.53457343578338623 -5.27355936696949357e-16 0.460338830947875977
0.154701352119445801 -5.27355936696949357e-16 0.555681109428405762
0.65789949893951416 -5.27355936696949357e-16 0.199402689933776855
0.389977425336837769 -5.27355936696949357e-16 0.625223875045776367
0.314926952123641968 -5.27355936696949357e-16 0.458045870065689087
0.561694800853729248 -5.27355936696949357e-16 0.320349782705307007
0.409870505332946777 -5.27355936696949357e-16 0.535615921020507812
0.641435861587524414 -5.27355936696949357e-16 0.604583084583282471
0.640692472457885742 -5.27355936696949357e-16 0.403746336698532104
0.472258299589157104 -5.27355936696949357e-16 0.379426777362823486
0.727605760097503662 -5.27355936696949357e-16 0.231320858001708984
0.296050965785980225 -5.27355936696949357e-16 0.567645013332366943
0.647362112998962402 -5.27355936696949357e-16 0.237261325120925903
0.615093111991882324 -5.27355936696949357e-16 0.219878554344177246
0.496929049491882324 -5.27355936696949357e-16 0.266346961259841919
0.661777734756469727 -5.27355936696949357e-16 0.540763139724731445
0.76048964262008667 -5.27355936696949357e-16 0.445495367050170898
0.614121675491333008 -5.27355936696949357e-16 0.583495974540710449
0.62599790096282959 -5.27355936696949357e-16 0.624663472175598145
0.561806380748748779 -5.27355936696949357e-16 0.231026113033294678
0.525873661041259766 -5.27355936696949357e-16 0.411066710948944092
0.787953376770019531 -5.27355936696949357e-16 0.285549730062484741
0.739610075950622559 -5.27355936696949357e-16 0.300427466630935669
0.572639644145965576 -5.27355936696949357e-16 0.447081685066223145
0.515067338943481445 -5.27355936696949357e-16 0.437067210674285889
0.385592758655548096 -5.27355936696949357e-16 0.404929608106613159
0.140956640243530273 -5.27355936696949357e-16 0.639081239700317383
0.74905627965927124 -5.27355936696949357e-16 0.13277745246887207
0.483557075262069702 -5.27355936696949357e-16 0.391149699687957764
0.356519997119903564 -5.27355936696949357e-16 0.4548988938331604
0.565809428691864014 -5.27355936696949357e-16 0.215258657932281494
0.490891516208648682 -5.27355936696949357e-16 0.616485834121704102
0.726553380489349365 -5.27355936696949357e-16 0.355726718902587891
0.327421426773071289 -5.27355936696949357e-16 0.50384676456451416
0.343240022659301758 -5.27355936696949357e-16 0.634247839450836182
0.590050160884857178 -5.27355936696949357e-16 0.17189633846282959
0.660124659538269043 -5.27355936696949357e-16 0.143242597579956055
0.621133208274841309 -5.27355936696949357e-16 0.272183984518051147
0.266047298908233643 -5.27355936696949357e-16 0.500376224517822266
0.625984728336334229 -5.27355936696949357e-16 0.317851096391677856
0.376853704452514648 -5.27355936696949357e-16 0.552798032760620117
0.522170066833496094 -5.27355936696949357e-16 0.247207194566726685
0.671560347080230713 -5.27355936696949357e-16 0.173260778188705444
0.506846785545349121 -5.27355936696949357e-16 0.520171165466308594
0.385191261768341064 -5.27355936696949357e-16 0.394632995128631592
0.798095047473907471 -5.27355936696949357e-16 0.327787011861801147
0.344372332096099854 -5.27355936696949357e-16 0.397792279720306396
0.0637040138244628906 -5.27355936696949357e-16 0.602730691432952881
0.758303821086883545 -5.27355936696949357e-16 0.529806196689605713
0.694279909133911133 -5.27355936696949357e-16 0.61240077018737793
0.728474318981170654 -5.27355936696949357e-16 0.566289961338043213
0.714497566223144531 -5.27355936696949357e-16 0.624752521514892578
0.391182899475097656 -5.27355936696949357e-16 0.491106629371643066
0.646271169185638428 -5.27355936696949357e-16 0.619989395141601562
0.070687413215637207 -5.27355936696949357e-16 0.59268265962600708
0.672738432884216309 -5.27355936696949357e-16 0.44425123929977417
0.155482888221740723 -5.27355936696949357e-16 0.52685624361038208
0.4778708815574646 -5.27355936696949357e-16 0.58424842357635498
0.44494590163230896 -5.27355936696949357e-16 0.374147593975067139
0.340169429779052734 -5.27355936696949357e-16 0.50395810604095459
0.548016488552093506 -5.27355936696949357e-16 0.247403383255004883
0.576271712779998779 -5.27355936696949357e-16 0.218923091888427734
0.672070980072021484 -5.27355936696949357e-16 0.343266397714614868
0.266830086708068848 -5.27355936696949357e-16 0.554715156555175781
0.0907459259033203125 -5.27355936696949357e-16 0.638959109783172607
0.535276830196380615 -5.27355936696949357e-16 0.321424245834350586
0.557895779609680176 -5.27355936696949357e-16 0.278600722551345825
0.250717282295227051 -5.27355936696949357e-16 0.625208914279937744
0.331953048706054688 -5.27355936696949357e-16 0.451440036296844482
0.414119154214859009 -5.27355936696949357e-16 0.586939871311187744
0.767566800117492676 -5.27355936696949357e-16 0.555724382400512695
0.622462451457977295 -5.27355936696949357e-16 0.45657658576965332
0.651941597461700439 -5.27355936696949357e-16 0.432396590709686279
0.195882916450500488 -5.27355936696949357e-16 0.557187139987945557
0.246456503868103027 -5.27355936696949357e-16 0.535918891429901123
0.716844081878662109 -5.27355936696949357e-16 0.415804356336593628
0.301486819982528687 -5.27355936696949357e-16 0.641993463039398193
0.735559165477752686 -5.27355936696949357e-16 0.0647957324981689453
0.73546290397644043 -5.27355936696949357e-16 0.2095622718334198
0.0639493465423583984 -5.27355936696949357e-16 0.643618583679199219
0.699811577796936035 -5.27355936696949357e-16 0.599017620086669922
0.538691997528076172 -5.27355936696949357e-16 0.270464926958084106
0.356815546751022339 -5.27355936696949357e-16 0.478931576013565063
0.691434502601623535 -5.27355936696949357e-16 0.147788107395172119
0.521802544593811035 -5.27355936696949357e-16 0.622838675975799561
0.393641769886016846 -5.27355936696949357e-16 0.466004014015197754
0.423822671175003052 -5.27355936696949357e-16 0.453512787818908691
0.712922096252441406 -5.27355936696949357e-16 0.257669806480407715
0.726506352424621582 -5.27355936696949357e-16 0.507202863693237305
0.683399379253387451 -5.27355936696949357e-16 0.292169153690338135
0.544312000274658203 -5.27355936696949357e-16 0.327688395977020264
0.178430676460266113 -5.27355936696949357e-16 0.528507351875305176
0.314734786748886108 -5.27355936696949357e-16 0.404752284288406372
0.193663954734802246 -5.27355936696949357e-16 0.602329373359680176
0.369192272424697876 -5.27355936696949357e-16 0.425989121198654175
0.163995742797851562 -5.27355936696949357e-16 0.573352336883544922
0.795846223831176758 -5.27355936696949357e-16 0.353208243846893311
0.774445176124572754 -5.27355936696949357e-16 0.305527836084365845
0.679337918758392334 -5.27355936696949357e-16 0.176438748836517334
0.570559084415435791 -5.27355936696949357e-16 0.334490567445755005
0.180366098880767822 -5.27355936696949357e-16 0.52371978759765625
0.751304864883422852 -5.27355936696949357e-16 0.119531154632568359
0.58268129825592041 -5.27355936696949357e-16 0.459586471319198608
0.556598246097564697 -5.27355936696949357e-16 0.646055757999420166
0.643168330192565918 -5.27355936696949357e-16 0.647539377212524414
0.382375866174697876 -5.27355936696949357e-16 0.512207865715026855
0.506766796112060547 -5.27355936696949357e-16 0.246172398328781128
0.55164492130279541 -5.27355936696949357e-16 0.583215296268463135
0.526954889297485352 -5.27355936696949357e-16 0.312690466642379761
0.0702695846557617188 -5.27355936696949357e-16 0.622608661651611328
0.717397868633270264 -5.27355936696949357e-16 0.543936967849731445
0.650260806083679199 -5.27355936696949357e-16 0.141484498977661133
0.782507598400115967 -5.27355936696949357e-16 0.222785472869873047
0.358188629150390625 -5.27355936696949357e-16 0.508798778057098389
0.66859138011932373 -5.27355936696949357e-16 0.304412096738815308
0.058060765266418457 -5.27355936696949357e-16 0.624571561813354492
0.192398667335510254 -5.27355936696949357e-16 0.587465107440948486
0.564167439937591553 -5.27355936696949357e-16 0.256563127040863037
0.597049951553344727 -5.27355936696949357e-16 0.639759480953216553
0.550261497497558594 -5.27355936696949357e-16 0.585772216320037842
0.373298555612564087 -5.27355936696949357e-16 0.528141021728515625
0.759334862232208252 -5.27355936696949357e-16 0.333365142345428467
0.162645041942596436 -5.27355936696949357e-16 0.529527544975280762
0.574729681015014648 -5.27355936696949357e-16 0.553770840167999268
0.157468199729919434 -5.27355936696949357e-16 0.609164297580718994
0.509828925132751465 -5.27355936696949357e-16 0.325273960828781128
0.702172160148620605 -5.27355936696949357e-16 0.302291363477706909
0.201511621475219727 -5.27355936696949357e-16 0.603936374187469482
0.584815800189971924 -5.27355936696949357e-16 0.33749091625213623
0.625870406627655029 -5.27355936696949357e-16 0.489472478628158569
0.72077631950378418 -5.27355936696949357e-16 0.116980314254760742
0.219955325126647949 -5.27355936696949357e-16 0.584011554718017578
0.76731407642364502 -5.27355936696949357e-16 0.0809952020645141602
0.724816858768463135 -5.27355936696949357e-16 0.506280660629272461
0.285350680351257324 -5.27355936696949357e-16 0.435624510049819946
0.729773402214050293 -5.27355936696949357e-16 0.603769183158874512
0.787466108798980713 -5.27355936696949357e-16 0.0188236236572265625
0.584369361400604248 -5.27355936696949357e-16 0.284297764301300049
0.715425729751586914 -5.27355936696949357e-16 0.2874278724193573
0.321596682071685791 -5.27355936696949357e-16 0.631983458995819092
0.423765838146209717 -5.27355936696949357e-16 0.449089288711547852
0.691830694675445557 -5.27355936696949357e-16 0.114210844039916992
0.499247878789901733 -5.27355936696949357e-16 0.615654945373535156
0.707635998725891113 -5.27355936696949357e-16 0.149261474609375
0.275558054447174072 -5.27355936696949357e-16 0.516932487487792969
0.687638223171234131 -5.27355936696949357e-16 0.638930320739746094
0.756122291088104248 -5.27355936696949357e-16 0.0953986644744873047
0.722754836082458496 -5.27355936696949357e-16 0.548482120037078857
0.411853134632110596 -5.27355936696949357e-16 0.398883163928985596
0.529306769371032715 -5.27355936696949357e-16 0.26506727933883667
0.684007406234741211 -5.27355936696949357e-16 0.499744236469268799
0.724912703037261963 -5.27355936696949357e-16 0.285836964845657349
0.684402167797088623 -5.27355936696949357e-16 0.472567260265350342
0.795746862888336182 -5.27355936696949357e-16 0.379400163888931274
0.583643019199371338 -5.27355936696949357e-16 0.309158653020858765
0.299807965755462646 -5.27355936696949357e-16 0.569501936435699463
0.781897246837615967 -5.27355936696949357e-16 0.133617877960205078
0.520699381828308105 -5.27355936696949357e-16 0.299694448709487915
0.66821211576461792 -5.27355936696949357e-16 0.52396923303604126
0.549922943115234375 -5.27355936696949357e-16 0.372618496417999268
0.438976973295211792 -5.27355936696949357e-16 0.372614860534667969
0.282508969306945801 -5.27355936696949357e-16 0.592645347118377686
0.322444349527359009 -5.27355936696949357e-16 0.446333765983581543
0.538939952850341797 -5.27355936696949357e-16 0.328828871250152588
0.735915303230285645 -5.27355936696949357e-16 0.0948678851127624512
0.368436068296432495 -5.27355936696949357e-16 0.421549439430236816
0.537811517715454102 -5.27355936696949357e-16 0.308746784925460815
0.783271253108978271 -5.27355936696949357e-16 0.381582945585250854
0.353309214115142822 -5.27355936696949357e-16 0.640305399894714355
0.536118626594543457 -5.27355936696949357e-16 0.311030447483062744
0.291760563850402832 -5.27355936696949357e-16 0.488417655229568481
0.273748040199279785 -5.27355936696949357e-16 0.437758952379226685
0.607338547706604004 -5.27355936696949357e-16 0.531073331832885742
0.620334506034851074 -5.27355936696949357e-16 0.365059465169906616
0.378268718719482422 -5.27355936696949357e-16 0.461796045303344727
0.562930941581726074 -5.27355936696949357e-16 0.451719135046005249
0.482025831937789917 -5.27355936696949357e-16 0.294644355773925781
0.546914815902709961 -5.27355936696949357e-16 0.38712427020072937
0.440316230058670044 -5.27355936696949357e-16 0.577556967735290527
0.53255915641784668 -5.27355936696949357e-16 0.453303098678588867
0.250348329544067383 -5.27355936696949357e-16 0.478789687156677246
0.280890464782714844 -5.27355936696949357e-16 0.439902007579803467
0.323937892913818359 -5.27355936696949357e-16 0.387287259101867676
0.75086820125579834 -5.27355936696949357e-16 0.576604306697845459
0.668519854545593262 -5.27355936696949357e-16 0.205687731504440308
0.622506499290466309 -5.27355936696949357e-16 0.295799523591995239
0.578954219818115234 -5.27355936696949357e-16 0.61211395263671875
0.73782724142074585 -5.27355936696949357e-16 0.507019281387329102
0.599451303482055664 -5.27355936696949357e-16 0.354860663414001465
0.728090465068817139 -5.27355936696949357e-16 0.414638489484786987
0.770011305809020996 -5.27355936696949357e-16 0.0458669066429138184
0.650610566139221191 -5.27355936696949357e-16 0.342822372913360596
0.601851105690002441 -5.27355936696949357e-16 0.201449364423751831
0.137745082378387451 -5.27355936696949357e-16 0.629124283790588379
0.670673370361328125 -5.27355936696949357e-16 0.1568145751953125
0.3615570068359375 -5.27355936696949357e-16 0.568553447723388672
0.761157095432281494 -5.27355936696949357e-16 0.261506378650665283
0.206638216972351074 -5.27355936696949357e-16 0.64793473482131958
0.163474678993225098 -5.27355936696949357e-16 0.523936152458190918
0.62606579065322876 -5.27355936696949357e-16 0.351509243249893188
0.0704551339149475098 -5.27355936696949357e-16 0.602999269962310791
0.737229406833648682 -5.27355936696949357e-16 0.291519731283187866
0.484203487634658813 -5.27355936696949357e-16 0.551067829132080078
0.592307806015014648 -5.27355936696949357e-16 0.380204558372497559
0.721456468105316162 -5.27355936696949357e-16 0.169051140546798706
0.72801053524017334 -5.27355936696949357e-16 0.155429601669311523
0.50712275505065918 -5.27355936696949357e-16 0.584129810333251953
0.600307822227478027 -5.27355936696949357e-16 0.32423776388168335
0.253879368305206299 -5.27355936696949357e-16 0.638998210430145264
0.562383353710174561 -5.27355936696949357e-16 0.219840168952941895
0.233650922775268555 -5.27355936696949357e-16 0.630189239978790283
0.773862063884735107 -5.27355936696949357e-16 0.161512643098831177
0.259576320648193359 -5.27355936696949357e-16 0.607316017150878906
0.446381419897079468 -5.27355936696949357e-16 0.646120607852935791
0.364654064178466797 -5.27355936696949357e-16 0.59927058219909668
0.144604742527008057 -5.27355936696949357e-16 0.552098631858825684
0.695681571960449219 -5.27355936696949357e-16 0.631587505340576172
0.135854840278625488 -5.27355936696949357e-16 0.612970590591430664
0.719408988952636719 -5.27355936696949357e-16 0.356364041566848755
0.499025106430053711 -5.27355936696949357e-16 0.346021026372909546
0.619830906391143799 -5.27355936696949357e-16 0.198012501001358032
0.790873527526855469 -5.27355936696949357e-16 0.630843639373779297
0.632622838020324707 -5.27355936696949357e-16 0.287954330444335938
0.703593552112579346 -5.27355936696949357e-16 0.404200047254562378
0.47026333212852478 -5.27355936696949357e-16 0.523539185523986816
0.667130112648010254 -5.27355936696949357e-16 0.377841323614120483
0.521411001682281494 -5.27355936696949357e-16 0.483323633670806885
0.488565713167190552 -5.27355936696949357e-16 0.574923694133758545
0.586713910102844238 -5.27355936696949357e-16 0.525531649589538574
0.502235293388366699 -5.27355936696949357e-16 0.322502642869949341
0.5270346999168396 -5.27355936696949357e-16 0.60558629035949707
0.459439605474472046 -5.27355936696949357e-16 0.428168237209320068
0.68033754825592041 -5.27355936696949357e-16 0.478808760643005371
0.623153090476989746 -5.27355936696949357e-16 0.430893003940582275
0.333255857229232788 -5.27355936696949357e-16 0.540809810161590576
0.246852993965148926 -5.27355936696949357e-16 0.455919384956359863
0.676621794700622559 -5.27355936696949357e-16 0.55773085355758667
0.311591058969497681 -5.27355936696949357e-16 0.607307553291320801
0.600459873676300049 -5.27355936696949357e-16 0.33878481388092041
0.652143895626068115 -5.27355936696949357e-16 0.602200508117675781
0.747445225715637207 -5.27355936696949357e-16 0.63272547721862793
0.762870073318481445 -5.27355936696949357e-16 0.334745168685913086
0.748006165027618408 -5.27355936696949357e-16 0.415690392255783081
0.65731579065322876 -5.27355936696949357e-16 0.280034810304641724
0.681932151317596436 -5.27355936696949357e-16 0.391394197940826416
0.548434138298034668 -5.27355936696949357e-16 0.472790807485580444
0.764225780963897705 -5.27355936696949357e-16 0.633211731910705566
0.71501392126083374 -5.27355936696949357e-16 0.424469530582427979
0.676451742649078369 -5.27355936696949357e-16 0.102567970752716064
0.421579033136367798 -5.27355936696949357e-16 0.339754700660705566
0.518114328384399414 -5.27355936696949357e-16 0.373838871717453003
0.358949989080429077 -5.27355936696949357e-16 0.545942723751068115
0.606990575790405273 -5.27355936696949357e-16 0.5629538893699646
