ply
format ascii 1.0
element vertex 718
property float x
property float y
property float z
end_header
-0.0546680763363838196 0.0527759566903114319 0.0654713809490203857
0.0543328151106834412 0.0510148331522941589 0.0668227449059486389
0.135764062404632568 0.0532296076416969299 0.0651232898235321045
0.0620646625757217407 0.0505590513348579407 0.0671724751591682434
0.125370711088180542 0.0526166558265686035 0.065593622624874115
0.122817128896713257 0.0521809197962284088 0.0659279674291610718
0.0505370087921619415 0.0505514703691005707 0.0671782940626144409
-0.00252036377787590027 0.0523601025342941284 0.0657904818654060364
0.0823242068290710449 0.0510909967124462128 0.0667643025517463684
0.0809278115630149841 0.049818284809589386 0.0677408874034881592
0.108054034411907196 0.0522752925753593445 0.0658555552363395691
0.0679656565189361572 0.0510688535869121552 0.0667812898755073547
0.111533865332603455 0.0456704720854759216 0.0705854669213294983
-0.00465469807386398315 0.0466612689197063446 0.0699542611837387085
-0.0158914700150489807 0.0470938347280025482 0.0696786865592002869
0.0225935205817222595 0.0452989935874938965 0.0708221271634101868
0.00481851957738399506 0.0456536896526813507 0.070596158504486084
0.104044400155544281 0.0437446087598800659 0.0718123763799667358
0.018155023455619812 0.0477275922894477844 0.0692749395966529846
-0.119286954402923584 0.0478702746331691742 0.0691840425133705139
-0.0803800150752067566 0.047649141401052475 0.0693249180912971497
-0.026093214750289917 0.0480702072381973267 0.0690566673874855042
0.0266848988831043243 0.0448626652359962463 0.0711001008749008179
0.0614799223840236664 0.0446659252047538757 0.0712254345417022705
0.0723406523466110229 0.0442780554294586182 0.0714725330471992493
0.136751443147659302 0.043013349175453186 0.072278238832950592
-0.0428924560546875 0.0478941015899181366 0.0691688582301139832
0.0364094674587249756 0.0482301153242588043 0.0689547955989837646
-0.0101767554879188538 0.0474742241203784943 0.0694363564252853394
-0.07787361741065979 0.04695921391248703 0.0697644501924514771
0.0767063796520233154 0.0464115142822265625 0.0701133757829666138
0.0651703774929046631 0.0464439615607261658 0.0700927004218101501
0.00682883709669113159 0.0468397438526153564 0.069840557873249054
-0.0116124078631401062 0.047466229647397995 0.0694414451718330383
0.0986084491014480591 0.0475477986037731171 0.0693894773721694946
-0.00837549567222595215 0.0481775552034378052 0.0689882785081863403
-0.0961089953780174255 0.0474472939968109131 0.069453507661819458
0.0780930370092391968 0.0472254976630210876 0.0695948079228401184
0.138181507587432861 0.0445576272904872894 0.0712944269180297852
0.0938624441623687744 0.0474440865218639374 0.0694555491209030151
0.0380692183971405029 0.0451958104968070984 0.0708878636360168457
0.0659774318337440491 0.0477516986429691315 0.0692595839500427246
0.133292153477668762 0.0452947802841663361 0.0708248093724250793
0.126477792859077454 0.0465946868062019348 0.0699966773390769958
-0.00770040601491928101 0.0461781434714794159 0.0702620446681976318
0.0686233639717102051 0.04444102942943573 0.0713687092065811157
-0.0477547943592071533 0.0478890500962734222 0.0691720768809318542
0.100894689559936523 0.0481868907809257507 0.0689823329448699951
0.040144018828868866 0.0466251708567142487 0.0699772611260414124
0.0293476283550262451 0.0478038415312767029 0.0692263618111610413
0.0234416723251342773 0.0459524765610694885 0.070405811071395874
0.0565613135695457458 0.0462545789778232574 0.0702133551239967346
0.141025498509407043 0.043198954313993454 0.0721599981188774109
0.0297617465257644653 0.047568194568157196 0.0693764910101890564
0.0965348333120346069 0.0451866090297698975 0.0708937197923660278
0.0655608847737312317 0.0463101677596569061 0.0701779350638389587
-0.0464136749505996704 0.0628233551979064941 0.055879548192024231
0.0309096798300743103 0.0618591420352458954 0.0569318011403083801
0.0785039365291595459 0.063184201717376709 0.055485747754573822
0.0998642891645431519 0.0625274926424026489 0.056202419102191925
0.0671738088130950928 0.0616577491164207458 0.0571515820920467377
0.0851498469710350037 0.0620461143553256989 0.0567277520895004272
0.136551409959793091 0.0626799985766410828 0.0560359880328178406
0.0304560214281082153 0.0617432370781898499 0.057058282196521759
-0.0772933065891265869 0.0637491792440414429 0.0548691824078559875
0.0128666013479232788 0.0624984987080097198 0.0562340617179870605
-0.127926677465438843 0.0643872246146202087 0.0541728772222995758
0.087224714457988739 0.0640617609024047852 0.0545280613005161285
-0.101255849003791809 0.0638217851519584656 0.0547899529337882996
0.0127385258674621582 0.0642336234450340271 0.0543405003845691681
0.11819099634885788 0.0603470057249069214 0.0585820041596889496
0.10026029497385025 0.0637108907103538513 0.0549109689891338348
0.0446676090359687805 0.0638745501637458801 0.0547323673963546753
-0.0257485955953598022 0.0633924379944801331 0.0552584975957870483
0.019555896520614624 0.0626437216997146606 0.0560755804181098938
0.0981831476092338562 0.06370573490858078 0.0549165904521942139
-0.0752100348472595215 0.0639012232422828674 0.0547032579779624939
0.0822610557079315186 0.0618471018970012665 0.0569449402391910553
-0.0937060564756393433 0.064139150083065033 0.0544436089694499969
0.125196725130081177 0.0632327273488044739 0.0554327890276908875
0.0774236768484115601 0.0638783201575279236 0.0547282509505748749
0.0696146562695503235 0.062672838568687439 0.0560437999665737152
0.0356824696063995361 0.0626489222049713135 0.0560699030756950378
-0.0188440233469009399 0.0640905275940895081 0.0544966645538806915
-0.00311605632305145264 0.0629292726516723633 0.0557639524340629578
-0.0294901877641677856 0.0634805783629417419 0.0551623068749904633
0.0441678464412689209 0.0624402090907096863 0.0562976747751235962
0.059184245765209198 0.0620289109647274017 0.0567465275526046753
0.135895922780036926 0.060077965259552002 0.0588756166398525238
0.122907936573028564 0.0600610710680484772 0.0588940493762493134
-0.0195811837911605835 0.0638978555798530579 0.0547069311141967773
0.0473059564828872681 0.0642164573073387146 0.0543592348694801331
0.0578224062919616699 0.0631552413105964661 0.0555173493921756744
-0.097618594765663147 0.0642763823270797729 0.0542938373982906342
0.102979525923728943 0.0618041455745697021 0.0569918192923069
0.105494774878025055 0.0622088313102722168 0.0565501786768436432
0.00486315786838531494 0.0622474551200866699 0.0565080270171165466
-0.00236009061336517334 0.0632579997181892395 0.0554052144289016724
0.026682533323764801 0.0632502287626266479 0.0554136931896209717
0.0437963828444480896 0.0618570223450660706 0.056934114545583725
0.107532590627670288 0.0635733678936958313 0.0550610572099685669
0.104679495096206665 0.0202549155801534653 0.0816206783056259155
0.136992931365966797 0.0197187624871730804 0.0817395448684692383
-0.0226486474275588989 0.0193095989525318146 0.081830248236656189
0.0471667870879173279 0.0197048578411340714 0.0817426219582557678
-0.0694193318486213684 0.0203577242791652679 0.0815978869795799255
0.0776539444923400879 0.019756510853767395 0.0817311704158782959
0.0269226506352424622 0.0176205635070800781 0.0822046995162963867
0.0868300125002861023 0.0190639160573482513 0.0818847194314002991
0.038427501916885376 0.0188828166574239731 0.0819248631596565247
0.0818786695599555969 0.0202353484928607941 0.0816250145435333252
0.130397334694862366 0.019304230809211731 0.0818314403295516968
0.0286349356174468994 0.0195225607603788376 0.0817830413579940796
0.0671141073107719421 0.0166141614317893982 0.0824278146028518677
0.0678802058100700378 0.0168282389640808105 0.0823803544044494629
0.0830048099160194397 0.0177533775568008423 0.0821752548217773438
0.0608367584645748138 0.0181759428232908249 0.0820815786719322205
0.039483286440372467 0.0199268236756324768 0.0816934183239936829
-0.0361422523856163025 0.0210889317095279694 0.0814357846975326538
-0.07802562415599823 0.0203658975660800934 0.081596076488494873
0.111522302031517029 0.0173554439097642899 0.0822634771466255188
0.140920966863632202 0.0159119367599487305 0.0825834944844245911
-0.0377650186419487 0.0198163501918315887 0.0817179083824157715
-0.00321033596992492676 0.0192248411476612091 0.0818490386009216309
-2.05822288990020752e-05 0.0196262188255786896 0.0817600563168525696
0.142525434494018555 0.0209006667137145996 0.0814775228500366211
0.0688060149550437927 0.0178968328982591629 0.0821434557437896729
-0.0212953910231590271 0.0212319418787956238 0.081404075026512146
0.114947795867919922 0.0155762992799282074 0.0826579034328460693
0.0535061359405517578 0.0178650934249162674 0.0821504890918731689
0.0527503937482833862 0.0204418431967496872 0.0815792381763458252
0.115575127303600311 0.0167889390140771866 0.0823890641331672668
0.0987055748701095581 0.0162241943180561066 0.0825142636895179749
0.0868347138166427612 0.0214108619838953018 0.0813644155859947205
-0.0604708977043628693 0.0199522543698549271 0.0816877782344818115
-0.00458994507789611816 0.0200612451881170273 0.0816636160016059875
0.0210168808698654175 0.0212264601141214371 0.0814052969217300415
-0.0507093332707881927 0.0205030161887407303 0.0815656781196594238
-0.0888795703649520874 0.0207638069987297058 0.0815078616142272949
-0.0379477702081203461 0.0205556843429803848 0.0815540030598640442
0.00701703131198883057 0.0217644385993480682 0.0812860280275344849
0.110478803515434265 0.0208288002759218216 0.0814934521913528442
0.130816981196403503 0.0182730536907911301 0.0820600464940071106
0.0493715927004814148 0.0192310940474271774 0.081847652792930603
-0.0199169404804706573 0.019642222672700882 0.0817565098404884338
0.127784833312034607 0.0839477032423019409 0.00463333399966359138
0.030037224292755127 0.0841479599475860596 4.68026846647262573e-05
0.114471197128295898 0.0839561969041824341 0.00443883147090673447
-0.00350931286811828613 0.0841436013579368591 0.000146608799695968628
0.142242103815078735 0.0839796662330627441 0.00390126765705645084
0.0888582020998001099 0.084125816822052002 0.00055388233158737421
0.11917462944984436 0.0839188918471336365 0.00529311364516615868
0.0111390203237533569 0.0840890780091285706 0.00139545463025569916
0.0865205824375152588 0.0841264799237251282 0.000538820400834083557
0.0732646360993385315 0.0841183140873908997 0.000725858495570719242
0.138146564364433289 0.0838889032602310181 0.00598009908571839333
0.079726390540599823 0.0839806869626045227 0.00387792615219950676
0.107112407684326172 0.0841246023774147034 0.000581688131205737591
-0.0745367109775543213 0.0841409638524055481 0.000207144301384687424
0.12573300302028656 0.0839411616325378418 0.00478315260261297226
0.0708977356553077698 0.0840319022536277771 0.00270477775484323502
0.0943090245127677917 0.0838884413242340088 0.00599065609276294708
-0.025938764214515686 0.084097445011138916 0.00120364828035235405
0.0588992610573768616 0.0840326473116874695 0.00268778763711452484
0.0635479316115379333 0.0839779675006866455 0.00394018087536096573
0.114496901631355286 0.0839197263121604919 0.0052740052342414856
-0.032978549599647522 0.0840454995632171631 0.00239335931837558746
0.122792944312095642 0.084125615656375885 0.000558539759367704391
0.113148234784603119 0.0840241536498069763 0.00288244755938649178
-0.0734802484512329102 0.0840990245342254639 0.00116761308163404465
0.0140734612941741943 0.0841004252433776855 0.00113559840247035027
0.0723749175667762756 0.0841412097215652466 0.000201346469111740589
-0.109344363212585449 0.084139607846736908 0.000238011125475168228
0.0791896656155586243 0.0840199068188667297 0.00297963223420083523
-0.0471768081188201904 0.0840938165783882141 0.00128683540970087051
-0.0329175740480422974 0.0841079056262969971 0.000964047852903604507
0.125310361385345459 0.0840180367231369019 0.00302239321172237396
0.0849889814853668213 0.0839037895202636719 0.00563922757282853127
-0.0658622384071350098 0.0841376706957817078 0.000282450579106807709
0.0917615443468093872 0.083951994776725769 0.00453502312302589417
0.106837257742881775 0.0838940590620040894 0.00586200505495071411
0.0585551559925079346 0.0839632004499435425 0.00427836505696177483
0.0937815606594085693 0.0840411856770515442 0.00249218335375189781
0.0836721658706665039 0.0841242820024490356 0.000589199131354689598
0.1270894855260849 0.0840450450778007507 0.00240386812947690487
0.027247302234172821 0.0840960294008255005 0.00123617425560951233
0.0407777726650238037 0.0840254426002502441 0.00285297911614179611
0.127519845962524414 0.0841010361909866333 0.00112147338222712278
-0.0632388591766357422 0.084089621901512146 0.00138286687433719635
0.0754453465342521667 0.0841104462742805481 0.000906008994206786156
-0.0315470434725284576 -0.0186961404979228973 0.0820106416940689087
-0.0479811728000640869 -0.0188933536410331726 0.0819544121623039246
-0.0471342653036117554 -0.0173223037272691727 0.082315005362033844
-0.0231500193476676941 -0.0173703152686357498 0.0823201090097427368
-0.0253073461353778839 -0.0194112658500671387 0.0818509608507156372
-0.062261924147605896 -0.0175701882690191269 0.0822480320930480957
-0.0932435914874076843 -0.0160547029227018356 0.0825745090842247009
-0.0462528690695762634 -0.0190935507416725159 0.0819096937775611877
-0.021833077073097229 -0.0185605846345424652 0.0820482373237609863
-0.0819100886583328247 -0.0171110555529594421 0.082340046763420105
-0.105117730796337128 -0.0157640930265188217 0.0826331228017807007
-0.0228620171546936035 -0.0183700509369373322 0.082091204822063446
-0.0955412834882736206 -0.0273129157721996307 0.0795707255601882935
-0.0311568602919578552 -0.0255385413765907288 0.0801691263914108276
-0.0899834036827087402 -0.0285240691155195236 0.0791582316160202026
-0.0564623028039932251 -0.0277252364903688431 0.0794272720813751221
-0.059614129364490509 -0.0274315141141414642 0.0795274525880813599
-0.0882578566670417786 -0.0284219831228256226 0.07919282466173172
-0.1186385378241539 -0.0281241443008184433 0.0792966112494468689
-0.0321536362171173096 -0.0260696783661842346 0.0799885168671607971
-0.0954040735960006714 -0.028074994683265686 0.0793114453554153442
-0.0776369944214820862 -0.0281040295958518982 0.0793001279234886169
-0.0837344080209732056 -0.0287394654005765915 0.079084448516368866
-0.0904421433806419373 -0.0218890048563480377 0.0812434852123260498
-0.0882191061973571777 -0.0217683762311935425 0.081277407705783844
-0.0592708960175514221 -0.0238549467176198959 0.0806800797581672668
-0.0362687781453132629 -0.0218352470546960831 0.081250406801700592
-0.027859807014465332 -0.021146407350897789 0.0814448297023773193
-0.021648116409778595 -0.0211121030151844025 0.0814536288380622864
-0.0992352887988090515 -0.0225961711257696152 0.0810438990592956543
-0.0392387732863426208 -0.0217282865196466446 0.0812812522053718567
-0.0899311080574989319 -0.0228920392692089081 0.0809584036469459534
-0.0448453649878501892 -0.0218558814376592636 0.0812458693981170654
-0.0688604637980461121 -0.00108019832987338305 0.0841230005025863647
-0.01213812455534935 -0.00274888239800930023 0.0840812847018241882
-0.0137373507022857666 -7.24689889466390014e-05 0.0841481909155845642
-0.0348734110593795776 -0.003125340910628438 0.0840718671679496765
-0.00504614412784576416 -0.000101535828434862196 0.0841474607586860657
-0.0339930877089500427 -0.000776018190663307905 0.0841306000947952271
-0.0875265598297119141 -0.00120199762750416994 0.0841199532151222229
-0.0337986722588539124 -0.000511159887537360191 0.0841372236609458923
-0.0679053366184234619 -0.00174641108606010675 0.0841063410043716431
-0.0978491753339767456 -0.000186465302249416709 0.0841453373432159424
-0.0714203640818595886 -0.000590144249144941568 0.0841352492570877075
-0.0189383029937744141 -0.000484645628603175282 0.0841378867626190186
-0.0585078448057174683 -0.000298562488751485944 0.084142535924911499
-0.0274735614657402039 -0.0101034706458449364 0.0835111737251281738
-0.0312690585851669312 -0.0105475559830665588 0.0834544748067855835
-0.0479671582579612732 -0.00981095805764198303 0.0835427418351173401
-0.0321299396455287933 -0.010197213850915432 0.0834982320666313171
-0.0779983252286911011 -0.00845309719443321228 0.0837056562304496765
-0.117865271866321564 -0.00789606757462024689 0.0837655588984489441
-0.08249712735414505 -0.00864928867667913437 0.0836798995733261108
-0.0167824327945709229 -0.00859756488353013992 0.0837028995156288147
-0.0196708887815475464 -0.0106469746679067612 0.0834449082612991333
-0.0218781903386116028 -0.00916837342083454132 0.0836299657821655273
-0.0570129752159118652 -0.00981353037059307098 0.0835401490330696106
-0.0971724987030029297 -0.00888163037598133087 0.0836470350623130798
-0.0888965725898742676 -0.00832024868577718735 0.0837195888161659241
-0.0531140826642513275 -0.00676703732460737228 0.0838591828942298889
-0.0103858597576618195 -0.00786926224827766418 0.0837698578834533691
-0.0684435591101646423 -0.0070218406617641449 0.0838422626256942749
-0.0521582067012786865 -0.00642556650564074516 0.0838847532868385315
-0.0372706465423107147 -0.00803004391491413116 0.0837617293000221252
-0.0242190547287464142 -0.00813741888850927353 0.0837517157196998596
-0.124085433781147003 -0.00747136864811182022 0.0838166549801826477
-0.0752698928117752075 -0.0064622112549841404 0.0838854163885116577
-0.0242334082722663879 -0.00466241128742694855 0.0840133875608444214
-0.0193733386695384979 -0.00808889139443635941 0.0837546512484550476
-0.0512687899172306061 -0.00790099799633026123 0.0837735161185264587
-0.0164615288376808167 -0.00813251547515392303 0.0837509334087371826
-0.0863518118858337402 -0.0149907013401389122 0.0827925205230712891
-0.119494155049324036 -0.014437064528465271 0.0828977450728416443
-0.0592305734753608704 -0.0159380901604890823 0.0826186984777450562
-0.0805190354585647583 -0.0139444777742028236 0.0829769298434257507
-0.0557040087878704071 -0.0142354071140289307 0.0829200670123100281
-0.0191252529621124268 -0.0146265076473355293 0.0828429684042930603
-0.0185358747839927673 -0.0132486065849661827 0.083087332546710968
-0.0636254251003265381 -0.0145779717713594437 0.0828609615564346313
-0.0976777523756027222 -0.0151091953739523888 0.0827738791704177856
-0.0143563598394393921 -0.012842138297855854 0.0831585675477981567
-0.0929569602012634277 -0.0144192483276128769 0.0828953087329864502
-0.0390707328915596008 -0.0138219064101576805 0.0829899385571479797
-0.0831421613693237305 -0.0330546796321868896 0.0773482099175453186
-0.0901322215795516968 -0.0327558182179927826 0.0774669423699378967
-0.0973391979932785034 -0.0309515763074159622 0.0782090723514556885
-0.102707594633102417 -0.0336030721664428711 0.0771069005131721497
-0.0742117017507553101 -0.0322784408926963806 0.0776761919260025024
-0.12843051552772522 -0.0309666097164154053 0.078180357813835144
-0.0773551091551780701 -0.0323546677827835083 0.0776423439383506775
-0.0515093803405761719 -0.0330399796366691589 0.0773771777749061584
-0.116485446691513062 -0.0307325497269630432 0.0782859474420547485
-0.135045453906059265 -0.0305039435625076294 0.0783672183752059937
-0.0865911245346069336 -0.0310464520007371902 0.0781775489449501038
-0.119254410266876221 -0.0303994975984096527 0.0784219056367874146
-0.0621374994516372681 -0.032037045806646347 0.0777849182486534119
-0.129697024822235107 -0.0310470499098300934 0.0781461223959922791
-0.131119921803474426 -0.0327743925154209137 0.0774296075105667114
-0.138771846890449524 -0.0300408806651830673 0.0785563290119171143
-0.0691408514976501465 -0.0330215096473693848 0.0773720741271972656
-0.0609657801687717438 -0.0348845571279525757 0.0765551254153251648
-0.084510505199432373 -0.0346356183290481567 0.0766765326261520386
-0.0864250659942626953 -0.0350166969001293182 0.0765015110373497009
-0.0390074290335178375 -0.0350558161735534668 0.0764699652791023254
-0.0707610473036766052 -0.0362828448414802551 0.0759137049317359924
-0.0544060319662094116 -0.035012509673833847 0.0764943137764930725
-0.0468618273735046387 -0.0336061418056488037 0.0771401003003120422
-0.0652688965201377869 -0.0342424921691417694 0.0768521726131439209
-0.0387854613363742828 -0.0356579534709453583 0.0761924907565116882
-0.0790410041809082031 -0.0357262305915355682 0.0761725082993507385
-0.100112244486808777 -0.0297538358718156815 0.0786915719509124756
-0.0807961374521255493 -0.0294661466032266617 0.0788081809878349304
-0.0840226411819458008 -0.0290513280779123306 0.0789732262492179871
-0.0870539695024490356 -0.0307501088827848434 0.0782957151532173157
-0.0650088638067245483 -0.0317628383636474609 0.0778941810131072998
-0.0373930931091308594 -0.0294816009700298309 0.0788063332438468933
-0.0857456773519515991 -0.0295365620404481888 0.0787796154618263245
-0.0734585821628570557 -0.03074629046022892 0.0782985836267471313
-0.069601893424987793 -0.0298856087028980255 0.0786420777440071106
-0.0833928212523460388 -0.0309339966624975204 0.0782227665185928345
-0.109517470002174377 -0.0295626949518918991 0.0787668377161026001
-0.105622991919517517 -0.0265967231243848801 0.0797902941703796387
-0.137105256319046021 -0.0269124656915664673 0.0796684548258781433
-0.138275027275085449 -0.0253681447356939316 0.0801545530557632446
-0.0509875938296318054 -0.0245668981224298477 0.0804689675569534302
-0.0734151601791381836 -0.0239493865519762039 0.0806477963924407959
-0.100457042455673218 -0.0268153771758079529 0.0797250121831893921
-0.125047445297241211 -0.0246120970696210861 0.0804022923111915588
-0.133466333150863647 -0.0237893443554639816 0.0806557461619377136
-0.0415493771433830261 -0.0249993652105331421 0.0803392976522445679
-0.130396023392677307 -0.0270387530326843262 0.0796333849430084229
-0.0838813930749893188 -0.0242402553558349609 0.0805486738681793213
-0.0967294424772262573 -0.0253952108323574066 0.0801754221320152283
-0.0952322185039520264 -0.0271553527563810349 0.0796215161681175232
-0.102331757545471191 -0.0264385323971509933 0.0798425003886222839
-0.0958370789885520935 -0.0268430709838867188 0.0797195509076118469
-0.119275368750095367 -0.0267324540764093399 0.079737834632396698
-0.123093657195568085 -0.0249807834625244141 0.0802874341607093811
-0.131201595067977905 -0.0252710171043872833 0.0801901817321777344
-0.136646062135696411 -0.0278891716152429581 0.0793608278036117554
-0.130191758275032043 -0.0187677238136529922 0.0819540470838546753
-0.124357014894485474 -0.0209012515842914581 0.0814827308058738708
-0.0861279070377349854 -0.0198005679994821548 0.0817376822233200073
-0.13504377007484436 -0.0164478737860918045 0.0824669599533081055
-0.128803253173828125 -0.017706526443362236 0.082189708948135376
-0.140407979488372803 -0.0200767070055007935 0.081660933792591095
-0.0714600831270217896 -0.0183966774493455887 0.0820531249046325684
-0.131035551428794861 -0.0176149457693099976 0.082209371030330658
-0.134545966982841492 -0.0209339503198862076 0.0814725607633590698
-0.0423007756471633911 -0.020816609263420105 0.0815249830484390259
-0.134631916880607605 -0.0184041839092969894 0.0820333734154701233
-0.119583964347839355 -0.0197228938341140747 0.0817453265190124512
-0.0932119190692901611 -0.0182040054351091385 0.0820896029472351074
-0.128337308764457703 -0.0188480857759714127 0.081936761736869812
-0.142822161316871643 -0.017298426479101181 0.0822761654853820801
-0.0718991011381149292 -0.0201431401073932648 0.0816658064723014832
-0.133699357509613037 -0.0184252560138702393 0.0820289626717567444
-0.135765179991722107 -0.018282625824213028 0.0820599943399429321
-0.106068506836891174 -0.0195981506258249283 0.0817768499255180359
-0.108737349510192871 -0.00911118369549512863 0.0836128965020179749
-0.0608759298920631409 -0.0121271219104528427 0.0832396745681762695
-0.0523519143462181091 -0.012887321412563324 0.0831438452005386353
-0.131739139556884766 -0.0128747997805476189 0.0831059515476226807
-0.0547002553939819336 -0.0121588446199893951 0.0832385867834091187
-0.125702977180480957 -0.011259240098297596 0.0833216458559036255
-0.0875142812728881836 -0.0132072921842336655 0.08308420330286026
-0.141759380698204041 -0.0105914436280727386 0.0834015682339668274
-0.103554874658584595 -0.0125036071985960007 0.0831688567996025085
-0.118787392973899841 -0.00991987530142068863 0.0835014283657073975
-0.142548829317092896 -0.0142310559749603271 0.0829220190644264221
-0.111321985721588135 -0.00972733180969953537 0.0835304930806159973
-0.1369914710521698 -0.0129356877878308296 0.0830953195691108704
-0.0668870881199836731 -0.0112057235091924667 0.0833579897880554199
-0.117226749658584595 -0.0121844075620174408 0.0832040756940841675
-0.079659588634967804 -0.0127052664756774902 0.0831542089581489563
-0.0692663639783859253 -0.0121272429823875427 0.0832354873418807983
-0.0870826467871665955 -0.0112032629549503326 0.0833482518792152405
-0.106312088668346405 -0.0136011028662323952 0.0830229967832565308
-0.142446085810661316 -0.0116730667650699615 0.0832588300108909607
-0.134775072336196899 -0.00340952910482883453 0.0840057879686355591
-0.0868756324052810669 -0.00584739446640014648 0.0839264243841171265
-0.0675553753972053528 -0.00363036757335066795 0.0840341448783874512
-0.106761723756790161 -0.00226040929555892944 0.0840718001127243042
-0.112146735191345215 -0.00618384918197989464 0.0838974490761756897
-0.108661159873008728 -0.00586845539510250092 0.0839131921529769897
-0.0896023660898208618 -0.00574263744056224823 0.0839294567704200745
-0.0776525363326072693 -0.00324485497549176216 0.0840452760457992554
-0.099293142557144165 -0.00174196017906069756 0.0840986520051956177
-0.0838141590356826782 -0.00253086863085627556 0.0840729624032974243
-0.092818140983581543 -0.00372818647883832455 0.0840155929327011108
-0.104883238673210144 -0.00305933784693479538 0.0840379819273948669
-0.123649284243583679 -0.00528690125793218613 0.0839301049709320068
-0.0682528987526893616 -0.00363886961713433266 0.084033377468585968
-0.100721061229705811 -0.00160439882893115282 0.0841038599610328674
-0.101326696574687958 -0.00503518339246511459 0.0839537158608436584
-0.05120135098695755 -0.00421300064772367477 0.0840179547667503357
-0.0786270797252655029 -0.00412402208894491196 0.0840063393115997314
-0.0877893641591072083 -0.00553497299551963806 0.0839395523071289062
-0.0941686928272247314 -0.00161824887618422508 0.0841069519519805908
-0.142176702618598938 -0.00495921308174729347 0.0839339420199394226
-0.0600839331746101379 0.00132735772058367729 0.0840920507907867432
-0.109142333269119263 0.00082143337931483984 0.0841141343116760254
-0.122873000800609589 0.00370542216114699841 0.0839882194995880127
-0.104425378143787384 0.000174998072907328606 0.0841423645615577698
-0.109063133597373962 0.00328856240957975388 0.0840064212679862976
-0.132121577858924866 0.00171153072733432055 0.0840752795338630676
-0.110057443380355835 0.00212755054235458374 0.0840571075677871704
-0.133294105529785156 0.00281452806666493416 0.0840271115303039551
-0.0617645531892776489 0.00039284583181142807 0.084132850170135498
-0.141112715005874634 0.00190809532068669796 0.0840666890144348145
-0.0175060182809829712 0.000375950708985328674 0.0841335877776145935
-0.0671746358275413513 0.00237981928512454033 0.084046095609664917
-0.0416804924607276917 0.00123117770999670029 0.0840962454676628113
-0.0807948559522628784 0.0036933007650077343 0.0839887484908103943
-0.0566042885184288025 0.00200862949714064598 0.0840623006224632263
-0.136540651321411133 0.00595786469057202339 0.0838898718357086182
-0.117813952267169952 0.00149529671762138605 0.0840847194194793701
-0.103451311588287354 0.00345685705542564392 0.0839990675449371338
-0.135672971606254578 0.00437666568905115128 0.0839589089155197144
-0.11068357527256012 0.00130991928745061159 0.0840928107500076294
-0.0435943603515625 0.00193313183262944221 0.0840656012296676636
-0.0761546790599822998 0.00352793489582836628 0.0839959681034088135
-0.0553244426846504211 0.00421760603785514832 0.0838444158434867859
-0.128593385219573975 0.00910657364875078201 0.0835314244031906128
-0.0444132909178733826 0.00324631575495004654 0.08392304927110672
-0.0824012905359268188 0.00675533944740891457 0.0836325064301490784
-0.110121071338653564 0.00923033151775598526 0.0834317654371261597
-0.0767207369208335876 0.00722748273983597755 0.0835447162389755249
-0.0648811310529708862 0.00618534348905086517 0.0836284831166267395
-0.0453373342752456665 0.00335474219173192978 0.0839129462838172913
-0.049462929368019104 0.00493326690047979355 0.0837237462401390076
-0.0918474048376083374 0.00830234773457050323 0.0834714770317077637
-0.135180056095123291 0.0112160481512546539 0.0832834318280220032
-0.10633908212184906 0.00692302081733942032 0.0837184637784957886
-0.110280625522136688 0.0101712178438901901 0.0833086222410202026
-0.104789920151233673 0.00852933526039123535 0.0834999978542327881
-0.0986877977848052979 0.00958012044429779053 0.083334118127822876
-0.122946277260780334 0.00837809685617685318 0.0836018472909927368
-0.102332323789596558 0.0104326847940683365 0.0832383260130882263
-0.068042658269405365 0.00403237808495759964 0.0839262008666992188
-0.0845180526375770569 0.00562146678566932678 0.0837913379073143005
-0.0270478501915931702 0.0025233319029211998 0.0839398652315139771
-0.116053283214569092 0.0103451879695057869 0.0833117663860321045
-0.107995137572288513 0.00883908197283744812 0.0834736824035644531
0.0203447341918945312 0.0140607878565788269 0.0829198360443115234
-0.0465395636856555939 0.0113982446491718292 0.0831527858972549438
0.0792190507054328918 0.014360048808157444 0.0828936547040939331
0.00748175382614135742 0.00668513774871826172 0.0835651233792304993
-0.0760650634765625 0.00815939810127019882 0.0834361463785171509
-0.0103984475135803223 0.00749432342126965523 0.083494335412979126
0.043796095997095108 0.0143214631825685501 0.0828970298171043396
-0.00558210164308547974 0.0121469572186470032 0.0830872803926467896
-0.00100280158221721649 0.0119496211409568787 0.0831045433878898621
0.0556579716503620148 0.00926604494452476501 0.0833393260836601257
0.0737055689096450806 0.0131311723962426186 0.0830011665821075439
-0.0927336364984512329 0.012002311646938324 0.0830999314785003662
-0.0603787787258625031 0.0107585405930876732 0.0832087472081184387
0.0386110544204711914 0.00472479220479726791 0.0837366357445716858
-0.0196052826941013336 0.0106381475925445557 0.083219282329082489
0.100328080356121063 0.0141300447285175323 0.0829137787222862244
-0.0420679226517677307 0.0137809021398425102 0.0829443261027336121
0.0343083962798118591 0.00684649357572197914 0.0835510119795799255
-0.0770327374339103699 0.013863295316696167 0.0829371213912963867
0.104911237955093384 0.0141618521884083748 0.0829109996557235718
0.0243619009852409363 0.0104808155447244644 0.0832330435514450073
-0.11200261116027832 0.0137746967375278473 0.0829448699951171875
-0.111694321036338806 0.0126159107312560081 0.08304625004529953
0.042454693466424942 0.0136775048449635506 0.0829533711075782776
-0.108628243207931519 0.0140926502645015717 0.0829170495271682739
-0.0318542607128620148 0.00991986319422721863 0.0832821205258369446
0.014819808304309845 0.00717307440936565399 0.0835224390029907227
-0.00692801550030708313 0.0115953460335731506 0.0831355378031730652
-0.0817916318774223328 0.0123876500874757767 0.0830662176012992859
0.102653332054615021 0.0122531037777662277 0.0830779895186424255
0.0645277649164199829 0.00666247215121984482 0.0835671126842498779
0.0548484399914741516 0.00625703111290931702 0.0836025774478912354
0.0588865280151367188 0.0123349083587527275 0.0830708369612693787
0.0365658923983573914 0.0104978885501623154 0.0832315534353256226
-0.00810422375798225403 0.0121216708794236183 0.0830894932150840759
-0.0601893961429595947 0.0125435004010796547 0.0830525830388069153
-0.0753551274538040161 0.00976492278277873993 0.0832956805825233459
-0.0211060773581266403 0.0130420364439487457 0.0830089673399925232
0.107613064348697662 0.0110338926315307617 0.083184659481048584
0.00546566769480705261 0.00950117781758308411 0.083318755030632019
-0.00966701935976743698 0.0132621536031365395 0.0829897075891494751
0.0619386918842792511 0.0144315985962748528 0.0828873962163925171
-0.0357839874923229218 0.00869955494999885559 0.083388887345790863
-0.0868253186345100403 0.0101699670776724815 0.0832602456212043762
-0.0543572902679443359 0.0070557580329477787 0.0835326984524726868
0.0278663411736488342 0.00498515646904706955 0.0837138593196868896
0.0341990813612937927 0.00409091450273990631 0.0837920904159545898
0.0128953726962208748 0.0144947255030274391 0.0828818753361701965
0.0194716323167085648 0.0139858238399028778 0.0829264000058174133
0.0248907171189785004 0.0114251952618360519 0.083150424063205719
0.0637572705745697021 0.00765930162742733955 0.0834798961877822876
-0.0304367989301681519 0.00802927091717720032 0.0834475308656692505
-0.0555114820599555969 0.00798211060464382172 0.0834516584873199463
0.0083028208464384079 0.0125656761229038239 0.0830506458878517151
-0.092538788914680481 0.0145290661603212357 0.0828788727521896362
0.0565278641879558563 0.0116361640393733978 0.0831319689750671387
0.0749181881546974182 0.0113816484808921814 0.0831542313098907471
0.105242587625980377 0.0138217145577073097 0.0829407572746276855
0.000547420233488082886 0.00919571332633495331 0.0833454802632331848
-0.0981902778148651123 0.0142121948301792145 0.0829065963625907898
-0.000948369503021240234 0.00660874135792255402 0.0835718065500259399
-0.0572356358170509338 0.0130390860140323639 0.0830092281103134155
-0.116138853132724762 0.0135240228846669197 0.0829667970538139343
-0.0292442888021469116 0.0124171711504459381 0.0830636397004127502
-0.125251889228820801 0.012925206683576107 0.0830191895365715027
0.0576547048985958099 0.00912140216678380966 0.0833519771695137024
0.0739274770021438599 0.0099406978115439415 0.0832803025841712952
0.0260821431875228882 0.00816140975803136826 0.0834359675645828247
-0.0220668762922286987 0.00794450379908084869 0.0834549441933631897
-0.00527035444974899292 0.00452502816915512085 0.0837541148066520691
0.0492050349712371826 0.012831391766667366 0.0830274000763893127
0.0307638049125671387 0.00460792891681194305 0.0837468579411506653
-0.0272199101746082306 0.0104491058737039566 0.0832358226180076599
-0.0508951097726821899 0.0141328703612089157 0.0829135328531265259
-0.10122372955083847 0.0142518207430839539 0.0829031243920326233
-0.00601217895746231079 0.00273196399211883545 0.0839109867811203003
0.0156124308705329895 0.00677778385579586029 0.0835570245981216431
-0.0352383144199848175 0.0109065407887101173 0.0831957980990409851
0.0360334739089012146 0.00422751531004905701 0.083780139684677124
0.0177670493721961975 0.00598249118775129318 0.0836265981197357178
0.134600743651390076 0.0142776882275938988 0.0829008594155311584
0.0884880125522613525 0.0120599269866943359 0.0830948948860168457
-0.0390293262898921967 0.0142134139314293861 0.0829064846038818359
-0.0658611729741096497 0.00763504253700375557 0.0834820196032524109
0.079281926155090332 0.014318385161459446 0.0828973054885864258
-0.0254128649830818176 0.00262265000492334366 0.0839205458760261536
0.0554486662149429321 0.00699416035786271095 0.0835380926728248596
-0.0833413898944854736 0.0101052951067686081 0.0832659006118774414
-0.127402499318122864 0.0190780535340309143 0.0818815827369689941
-0.109715431928634644 0.0198184382170438766 0.0817174464464187622
0.0435570627450942993 0.0168909225612878799 0.0823664590716362
-0.00322102010250091553 0.0163664426654577255 0.0824827328324317932
-0.107613548636436462 0.0156253371387720108 0.0826470255851745605
-0.0529189705848693848 0.0184526368975639343 0.0820202305912971497
-0.141562208533287048 0.0182225853204727173 0.0820712372660636902
-0.0180873945355415344 0.016171211376786232 0.0825260132551193237
-0.00304976105690002441 0.0173875484615564346 0.0822563618421554565
-0.0695721134543418884 0.0173902437090873718 0.0822557657957077026
-0.059588409960269928 0.0172947384417057037 0.0822769328951835632
-0.0849115625023841858 0.0151535095646977425 0.0827516242861747742
-0.0765512585639953613 0.014973505400121212 0.0827915370464324951
-0.104874730110168457 0.0147781213745474815 0.0828348547220230103
-0.0910270810127258301 0.0156510844826698303 0.0826413184404373169
-0.12983335554599762 0.0195163451135158539 0.0817844197154045105
-0.103328555822372437 0.015573602169752121 0.0826584994792938232
-0.0401119589805603027 0.0153718087822198868 0.0827032327651977539
0.00874017179012298584 0.0160733945667743683 0.0825476944446563721
-0.0454952120780944824 0.0161368120461702347 0.0825336426496505737
0.0238061249256134033 0.016058698296546936 0.0825509503483772278
-0.0863222554326057434 0.0183299127966165543 0.0820474475622177124
-0.136522844433784485 0.0171012356877326965 0.0823198333382606506
0.0692937374114990234 0.0152598563581705093 0.0827280580997467041
0.104187905788421631 0.0148493014276027679 0.0828190669417381287
-0.0752670690417289734 0.0189909599721431732 0.0819008871912956238
-0.141398176550865173 0.0166948363184928894 0.0824099257588386536
-0.126721993088722229 0.0184611920267343521 0.082018338143825531
-0.00201104581356048584 0.0175326094031333923 0.0822241976857185364
0.0626053810119628906 0.0153399566188454628 0.0827103033661842346
0.0304913371801376343 0.0171195678412914276 0.0823157653212547302
-0.0634056776762008667 0.0197590459138154984 0.0817306116223335266
0.0911452025175094604 0.0154429199174046516 0.08268747478723526
-0.0385899245738983154 0.016392875462770462 0.0824768692255020142
0.0266173779964447021 0.015549197793006897 0.0826639086008071899
-0.0501365512609481812 0.0159347057342529297 0.0825784429907798767
-0.0690271705389022827 0.0158576145768165588 0.08259553462266922
-0.117218837141990662 0.0164052676409482956 0.0824741199612617493
-0.0889274477958679199 0.0169365592300891876 0.0823563411831855774
-0.0140829086303710938 0.0183470696210861206 0.0820436403155326843
0.0919260382652282715 0.0147007238119840622 0.0828520134091377258
0.0170014649629592896 0.0166601892560720444 0.082417607307434082
-0.139960676431655884 0.016168251633644104 0.082526668906211853
0.00834764540195465088 0.0162666905671358109 0.0825048461556434631
-0.0765019059181213379 0.0235785897821187973 0.0807154476642608643
-0.101943768560886383 0.0265268180519342422 0.0797858759760856628
0.0736685991287231445 0.0218741204589605331 0.0812528654932975769
-0.0472945123910903931 0.0257647484540939331 0.0800261572003364563
-0.0172316431999206543 0.0239543318748474121 0.0805969759821891785
-0.134732499718666077 0.0244115628302097321 0.0804528146982192993
-0.0851789265871047974 0.0266912579536437988 0.0797340273857116699
-0.0584614947438240051 0.0251558106392621994 0.0802181512117385864
0.107063949108123779 0.0218348503112792969 0.0812652483582496643
-0.0495667904615402222 0.0242090895771980286 0.0805166587233543396
-0.109255164861679077 0.024355616420507431 0.080470450222492218
-0.0448019653558731079 0.0245616137981414795 0.080405503511428833
-0.127157777547836304 0.0261728167533874512 0.0798974931240081787
-0.0528842434287071228 0.0237708855420351028 0.0806548222899436951
-0.0421714857220649719 0.0220743753015995026 0.0811897292733192444
-0.0576975196599960327 0.0235330387949943542 0.0807298049330711365
-0.00547762215137481689 0.0223095100373029709 0.0811155885457992554
-0.142876148223876953 0.0241360757499933243 0.0805396735668182373
-0.00354105234146118164 0.024083184078335762 0.0805563479661941528
-0.0869663506746292114 0.0239285901188850403 0.0806050896644592285
-0.0176499783992767334 0.0236383844166994095 0.080696597695350647
-0.100260645151138306 0.0223645176738500595 0.0810982435941696167
-0.00363215804100036621 0.0245275739580392838 0.0804162397980690002
-0.0645640790462493896 0.0266656056046485901 0.0797421187162399292
-0.0562764257192611694 0.0246000103652477264 0.0803933963179588318
0.0339057445526123047 0.0224276799708604813 0.0810783281922340393
-0.138467773795127869 0.0248070899397134781 0.0803280994296073914
0.00347286462783813477 0.024689994752407074 0.0803650170564651489
-0.135298386216163635 0.026714228093624115 0.07972678542137146
-0.124061629176139832 0.0233452934771776199 0.0807890072464942932
0.0413169711828231812 0.0222965311259031296 0.0811196789145469666
-0.129615917801856995 0.0217818673700094223 0.0812819525599479675
-0.0477926656603813171 0.0243295691907405853 0.0804786607623100281
-0.0820626914501190186 0.0269331671297550201 0.0796577557921409607
-0.0964752137660980225 0.0274639278650283813 0.0794904083013534546
-0.137595564126968384 0.0228521432727575302 0.0809445008635520935
0.0308447182178497314 0.0237587504088878632 0.080658644437789917
-0.12981317937374115 0.0257460419088602066 0.080032050609588623
-0.133994221687316895 0.027672547847032547 0.0794246271252632141
-0.0165126174688339233 0.0246347077190876007 0.0803824588656425476
-0.12968897819519043 0.0270299650728702545 0.0796272307634353638
0.0202456563711166382 0.0225718766450881958 0.0810328572988510132
-0.129609838128089905 0.0244258902966976166 0.0804482921957969666
-0.0930588170886039734 0.022598613053560257 0.0810244381427764893
-0.11991630494594574 0.0266327578574419022 0.0797524675726890564
-0.12225496768951416 0.0317284129559993744 0.0778542682528495789
-0.11420132964849472 0.0317834466695785522 0.0778314769268035889
0.0298167318105697632 0.0290170367807149887 0.0789773613214492798
-0.0886450409889221191 0.0341807901859283447 0.0768384635448455811
-0.0779771953821182251 0.0327818728983402252 0.0774179175496101379
-0.003299713134765625 0.0308934524655342102 0.078200124204158783
-0.104650199413299561 0.0295690726488828659 0.0787487030029296875
-0.128443524241447449 0.0347096808254718781 0.0766193866729736328
-0.138984620571136475 0.0326780825853347778 0.0774609073996543884
0.108892709016799927 0.0294142253696918488 0.0788128450512886047
-0.057916790246963501 0.0293519850820302963 0.0788386240601539612
-0.120770193636417389 0.028942599892616272 0.0790081992745399475
-0.0389498397707939148 0.0320317558944225311 0.0777286216616630554
0.0833278000354766846 0.0298217013478279114 0.0786440595984458923
-0.00332105159759521484 0.0292553156614303589 0.0788786634802818298
-0.0837614089250564575 0.0339614897966384888 0.0769293010234832764
-0.0830041468143463135 0.0325701348483562469 0.0775056257843971252
-0.0661262944340705872 0.0298860538750886917 0.0786174014210700989
-0.102142736315727234 0.0311095826327800751 0.0781105980277061462
-0.00128883123397827148 0.0291391722857952118 0.078926771879196167
-0.0576402619481086731 0.0329137444496154785 0.0773632898926734924
-0.107509806752204895 0.0339174792170524597 0.0769475251436233521
-0.142852172255516052 0.0314105227589607239 0.0779859498143196106
0.059816703200340271 0.0288243386894464493 0.0790571793913841248
-0.0533324331045150757 0.0294185560196638107 0.0788110494613647461
0.00710014998912811279 0.030748782679438591 0.0782600492238998413
-0.0398032143712043762 0.0308974646031856537 0.0781984627246856689
-0.0198431909084320068 0.0289538595825433731 0.0790035277605056763
0.0121030509471893311 0.0287944227457046509 0.0790695697069168091
-0.13698926568031311 0.0293957144021987915 0.0788205116987228394
-0.116481803357601166 0.0291966535151004791 0.0789029672741889954
-0.0048821866512298584 0.0310975387692451477 0.0781155899167060852
-0.088757045567035675 0.0340439341962337494 0.0768951475620269775
-0.100127026438713074 0.0297565162181854248 0.0786710605025291443
0.0253766775131225586 0.0304269306361675262 0.0783933624625205994
-0.0236221179366111755 0.0307546164840459824 0.078257635235786438
-0.0504964962601661682 0.0317336544394493103 0.077852100133895874
-0.0662643983960151672 0.0299616735428571701 0.0785860791802406311
-0.100811384618282318 0.033948112279176712 0.0769348442554473877
-0.00750231742858886719 0.0320974886417388916 0.0777013897895812988
-0.120986305177211761 0.0308113954961299896 0.0782341137528419495
-0.0988533049821853638 0.029191652312874794 0.0789050310850143433
-0.101323209702968597 0.0335446745157241821 0.0771019533276557922
0.0239602625370025635 0.030309164896607399 0.0784421488642692566
-0.0807906091213226318 0.0383726954460144043 0.0748033300042152405
-0.124829597771167755 0.0416061319410800934 0.0731201097369194031
-0.102209717035293579 0.0394025929272174835 0.0742672011256217957
-0.0316074565052986145 0.0378468930721282959 0.0750770494341850281
-0.1131562739610672 0.0409429296851158142 0.0734653547406196594
-0.0672831907868385315 0.0366246886551380157 0.0757132917642593384
-0.124658167362213135 0.0380757004022598267 0.0749579370021820068
-0.0398060530424118042 0.036281093955039978 0.0758921504020690918
-0.0299230962991714478 0.0363128297030925751 0.0758756324648857117
-0.12824779748916626 0.0408632345497608185 0.0735068470239639282
-0.0704565346240997314 0.03879547119140625 0.0745832473039627075
-0.042361527681350708 0.0387900397181510925 0.0745860785245895386
-0.0416052863001823425 0.0356140434741973877 0.0762393996119499207
-0.101701274514198303 0.0363793633878231049 0.0758409947156906128
-0.130097448825836182 0.0390289127826690674 0.0744617283344268799
-0.112972602248191833 0.0389650948345661163 0.0744949504733085632
-0.103113800287246704 0.0402953177690505981 0.0738024860620498657
-0.00943587720394134521 0.0375756584107875824 0.0752182379364967346
0.00745688378810882568 0.0362870991230010986 0.0758890211582183838
-0.0542675778269767761 0.0381644740700721741 0.0749117285013198853
-0.112051256000995636 0.0356088802218437195 0.0762420818209648132
-0.131348118185997009 0.0400496125221252441 0.0739303901791572571
0.0354686528444290161 0.0377999916672706604 0.0751014649868011475
-0.13865111768245697 0.0365389585494995117 0.0757579132914543152
-0.136315807700157166 0.0385987460613250732 0.0746856555342674255
-0.0585875362157821655 0.039196208119392395 0.0743746459484100342
-0.108208790421485901 0.0389907732605934143 0.0744815841317176819
-0.114857375621795654 0.0414060242474079132 0.073224283754825592
-0.0785447284579277039 0.037993893027305603 0.0750005245208740234
-0.0763820484280586243 0.0394872352480888367 0.0742231383919715881
-0.0694049671292304993 0.0388247072696685791 0.0745680257678031921
-0.113775990903377533 0.0369361713528633118 0.0755511373281478882
-0.0925653576850891113 0.039190683513879776 0.0743775144219398499
-0.109129846096038818 0.0356436707079410553 0.0762239694595336914
-0.126042574644088745 0.0377267785370349884 0.0751395821571350098
0.00369440019130706787 0.035910632461309433 0.0760850012302398682
0.0157643407583236694 0.0357722938060760498 0.0761570185422897339
0.0709699243307113647 0.0361093059182167053 0.0759815797209739685
-0.130593106150627136 0.0364165864884853363 0.0758216157555580139
0.0166632980108261108 0.0359980203211307526 0.0760395079851150513
-0.0104380100965499878 0.0381230004131793976 0.0749333128333091736
0.0672646015882492065 0.0366771034896373749 0.0756860002875328064
0.000959455966949462891 0.0358789078891277313 0.0761015117168426514
-0.10431024432182312 0.0398397445678710938 0.0740396305918693542
-0.110568158328533173 0.0474068522453308105 0.0694792792201042175
-0.126669794321060181 0.0437444299459457397 0.0718124881386756897
-0.128275215625762939 0.0421945787966251373 0.0727998614311218262
-0.135228782892227173 0.046548839658498764 0.0700258910655975342
0.0659769624471664429 0.0422740951180458069 0.0727491974830627441
-0.00461654365062713623 0.0429359227418899536 0.0723275691270828247
-0.0485605299472808838 0.045274980366230011 0.0708374232053756714
-0.0687007978558540344 0.0450510606169700623 0.070980072021484375
-0.0789506956934928894 0.0426103956997394562 0.0725349485874176025
-0.115422762930393219 0.0448982864618301392 0.071077398955821991
-0.108553923666477203 0.0442733131349086761 0.0714755579829216003
0.083006635308265686 0.0425387769937515259 0.0725805759429931641
0.0433416962623596191 0.0442321598529815674 0.0715017691254615784
0.00604294240474700928 0.0443496294319629669 0.0714269354939460754
0.117003351449966431 0.0421815328299999237 0.0728081613779067993
-0.0325268730521202087 0.0427277088165283203 0.0724602118134498596
0.00712162256240844727 0.0440607704222202301 0.0716109573841094971
-0.0927346199750900269 0.0427996031939983368 0.0724144130945205688
-0.050519309937953949 0.0451643466949462891 0.0709079056978225708
