ply
format ascii 1.0
element vertex 712
property float x
property float y
property float z
end_header
-0.0240792017430067062 0.0680059194564819336 0.0542661957442760468
-0.0200990550220012665 0.069802895188331604 0.0550488494336605072
-0.0263756364583969116 0.0666814297437667847 0.0538383647799491882
-0.0231969840824604034 0.0780664160847663879 0.0536422915756702423
-0.021311270073056221 0.0762112438678741455 0.0542364567518234253
-0.0150064155459403992 0.0885198712348937988 0.0550354383885860443
-0.019644053652882576 0.0848990157246589661 0.0539960786700248718
-0.0145802916958928108 0.090333789587020874 0.0550886876881122589
-0.0118174860253930092 0.0885165035724639893 0.0558212399482727051
-0.00696686934679746628 0.0997264683246612549 0.0566965863108634949
-0.0158452577888965607 0.0830610468983650208 0.0549844764173030853
-0.0174452122300863266 0.0873523056507110596 0.054467860609292984
-0.0151090808212757111 0.0860280394554138184 0.0550812259316444397
-0.0121177453547716141 0.0818188488483428955 0.0559383146464824677
-0.0137851834297180176 0.0745171457529067993 0.0561366081237792969
-0.0167149677872657776 0.0689412057399749756 0.0559114962816238403
-0.0166712366044521332 0.0735749304294586182 0.0555393211543560028
-0.0182105898857116699 0.0743679031729698181 0.0551138296723365784
-0.0140120303258299828 0.0798246338963508606 0.0556455403566360474
-0.0125655503943562508 0.078329719603061676 0.0561072416603565216
-0.0214525461196899414 0.0835763514041900635 0.0535955950617790222
-0.0168631002306938171 0.0757072940468788147 0.0553184710443019867
-0.063209041953086853 0.0637546554207801819 0.0308998189866542816
-0.062123861163854599 0.0686897784471511841 0.0274295173585414886
-0.0609339587390422821 0.064050137996673584 0.0331304818391799927
-0.0592700280249118805 0.0700687691569328308 0.0292739663273096085
-0.0554897487163543701 0.0666944533586502075 0.0366362035274505615
-0.0582435503602027893 0.06665029376745224 0.0336396507918834686
-0.057089146226644516 0.0654038563370704651 0.0360921919345855713
-0.0496297106146812439 0.0651396960020065308 0.0421008244156837463
-0.0519550666213035583 0.0697495639324188232 0.0382168032228946686
-0.0486875995993614197 0.0637779682874679565 0.0434427633881568909
-0.0480163246393203735 0.0724241435527801514 0.0399958230555057526
-0.0404439829289913177 0.0698818489909172058 0.0469344593584537506
-0.0425962507724761963 0.0732659325003623962 0.0437436811625957489
-0.0463450141251087189 0.0694603398442268372 0.0426273941993713379
-0.0455771461129188538 0.0662186145782470703 0.0446972623467445374
-0.0466261208057403564 0.0738188549876213074 0.0404173769056797028
-0.0271888021379709244 0.0755007341504096985 0.0523377768695354462
-0.0278194621205329895 0.0681560561060905457 0.0533143393695354462
-0.0331258736550807953 0.0858072340488433838 0.0475696437060832977
-0.0332549624145030975 0.0855308324098587036 0.0475539229810237885
-0.0283510647714138031 0.0778992176055908203 0.0513374246656894684
-0.0326954498887062073 0.0836648494005203247 0.0481604970991611481
-0.0323617011308670044 0.0815558433532714844 0.0486973375082015991
-0.0242018289864063263 0.0884588807821273804 0.0520209744572639465
-0.0264815390110015869 0.0890439748764038086 0.0507894009351730347
-0.0219814833253622055 0.0886327177286148071 0.0531753078103065491
-0.0266690310090780258 0.0919746086001396179 0.0505130216479301453
-0.0219057518988847733 0.093873828649520874 0.0528966821730136871
-0.0277704466134309769 0.0875088796019554138 0.0502064339816570282
-0.0326269008219242096 0.0863723829388618469 0.0477275587618350983
-0.0228320769965648651 0.0896959006786346436 0.0526644662022590637
-0.0293143205344676971 0.0971078053116798401 0.0488133914768695831
-0.0318255126476287842 0.101900622248649597 0.0472047887742519379
-0.0295254997909069061 0.0941779240965843201 0.0488805659115314484
-0.0262322574853897095 0.0991090387105941772 0.050308816134929657
-0.0262841116636991501 0.101753517985343933 0.0501209832727909088
-0.0261121820658445358 0.0957130119204521179 0.050578095018863678
-0.0312803387641906738 0.0725155994296073914 0.0508245378732681274
-0.0374953411519527435 0.0753700584173202515 0.0472275130450725555
-0.0322210639715194702 0.0762699395418167114 0.0496962592005729675
-0.0325560346245765686 0.0770888254046440125 0.0493855252861976624
-0.0349010713398456573 0.0782708153128623962 0.0480098612606525421
-0.0351858288049697876 0.0802924856543540955 0.0475127696990966797
-0.0319268517196178436 0.0697051659226417542 0.0509964115917682648
-0.0660627186298370361 0.0684297084808349609 0.0206815898418426514
-0.0665249302983283997 0.0713966488838195801 0.0146462162956595421
-0.0675049647688865662 0.0704252272844314575 0.01435040682554245
-0.0648907199501991272 0.0714527592062950134 0.0178312361240386963
-0.0633875057101249695 0.0785745307803153992 0.00321008474566042423
-0.0658396780490875244 0.0745764449238777161 0.00366213265806436539
-0.0648629516363143921 0.0750778093934059143 0.00781645625829696655
-0.0646515935659408569 0.0754728987812995911 0.00757693452760577202
-0.0618808381259441376 0.0709916204214096069 0.0246691033244132996
-0.0646132528781890869 0.069047972559928894 0.022527940571308136
-0.0632900893688201904 0.069929949939250946 0.0236667636781930923
-0.0679522454738616943 0.0710122734308242798 0.00953568890690803528
-0.0671414658427238464 0.0715587511658668518 0.0118403956294059753
-0.0670766755938529968 0.0717486068606376648 0.0111808488145470619
-0.055182531476020813 0.0682715699076652527 0.0355014875531196594
-0.0576394349336624146 0.0728042200207710266 0.0290437042713165283
-0.057523973286151886 0.0711976811289787292 0.0303906071931123734
-0.0555354729294776917 0.0738000944256782532 0.0309218075126409531
-0.0518815554678440094 0.0770690664649009705 0.0330307967960834503
-0.0541845783591270447 0.0700470954179763794 0.0354165583848953247
-0.0538658201694488525 0.0686677694320678711 0.0368468537926673889
-0.0524711087346076965 0.0774654150009155273 0.0319988168776035309
-0.0448437780141830444 0.0814140364527702332 0.0393902622163295746
-0.0444692745804786682 0.0757034868001937866 0.0413990132510662079
-0.0436826460063457489 0.0741991251707077026 0.0425065718591213226
-0.0426055490970611572 0.0791644155979156494 0.0419392623007297516
-0.0457830764353275299 0.0803030058741569519 0.0389301441609859467
-0.0361071564257144928 0.0898399800062179565 0.044767431914806366
-0.0354299880564212799 0.0947766751050949097 0.0448609553277492523
-0.0356334783136844635 0.0918328091502189636 0.0449825860559940338
-0.0391617752611637115 0.0925751775503158569 0.0417818501591682434
-0.0379037782549858093 0.0894797965884208679 0.0432132892310619354
-0.0328961014747619629 0.0983222797513008118 0.0467414073646068573
-0.0399210080504417419 0.0938531532883644104 0.0409784466028213501
-0.0420263558626174927 0.0931985452771186829 0.0391810908913612366
-0.0426851995289325714 0.0951533913612365723 0.0383971966803073883
-0.0378005541861057281 0.0972990542650222778 0.0425029881298542023
-0.0380274280905723572 0.0990218222141265869 0.0421254336833953857
-0.0388701632618904114 0.0979007557034492493 0.0414940565824508667
-0.04200764000415802 0.0867232009768486023 0.0401997976005077362
-0.0388607904314994812 0.0775432363152503967 0.0455683991312980652
-0.0393905714154243469 0.082179144024848938 0.0437478795647621155
-0.0415288805961608887 0.0862710028886795044 0.0407364256680011749
-0.0403854772448539734 0.0855622813105583191 0.0419079214334487915
-0.0412240289151668549 0.0878528505563735962 0.0405234992504119873
-0.0595662258565425873 0.0741139277815818787 0.0249232463538646698
-0.059572417289018631 0.0789902955293655396 0.0182638037949800491
-0.0586954690515995026 0.080450303852558136 0.0182645618915557861
-0.0595045983791351318 0.0738311335444450378 0.0254485029727220535
-0.062684573233127594 0.0765705779194831848 0.0144976582378149033
-0.0620598234236240387 0.0746986791491508484 0.0184666290879249573
-0.0612830668687820435 0.0754899978637695312 0.019151248037815094
-0.0610879622399806976 0.0809215158224105835 0.00903945136815309525
-0.061815313994884491 0.0789789482951164246 0.0121516352519392967
-0.061792619526386261 0.0794184505939483643 0.0104417828842997551
-0.0610425844788551331 0.081629239022731781 0.00634871236979961395
-0.0497055836021900177 0.0776365622878074646 0.035486910492181778
-0.0545873269438743591 0.0799443498253822327 0.0276559814810752869
-0.0506016388535499573 0.0795233473181724548 0.0333397760987281799
-0.0527091175317764282 0.0790495574474334717 0.0306722074747085571
-0.0528971999883651733 0.0844479724764823914 0.0277950018644332886
-0.0463894978165626526 0.0943904295563697815 0.0334780216217041016
-0.04406014084815979 0.0901351124048233032 0.0375648923218250275
-0.0465168766677379608 0.0932601392269134521 0.033483065664768219
-0.047293737530708313 0.0940971523523330688 0.0322176665067672729
-0.0490213632583618164 0.0907146930694580078 0.0302828513085842133
-0.0464168451726436615 0.0907099097967147827 0.0340555235743522644
-0.0504498258233070374 0.0975275710225105286 0.0270718298852443695
-0.0451611466705799103 0.101884223520755768 0.0340004488825798035
-0.048059951514005661 0.0972026214003562927 0.030587339773774147
-0.0441307947039604187 0.100555017590522766 0.0357154756784439087
-0.0450977310538291931 0.0866202488541603088 0.0374641045928001404
-0.0486092381179332733 0.0815179944038391113 0.0351114049553871155
-0.0473784618079662323 0.0869474634528160095 0.0341698043048381805
-0.0485838502645492554 0.0885988324880599976 0.0317115858197212219
-0.0482932068407535553 0.0799686983227729797 0.0362974107265472412
-0.0571696124970912933 0.0967482924461364746 0.00224960176274180412
-0.0567381046712398529 0.0942698195576667786 0.00816442724317312241
-0.0570790842175483704 0.0995759516954421997 0.000299674924463033676
-0.0570016540586948395 0.094321027398109436 0.00594590511173009872
-0.0573175698518753052 0.0905092358589172363 0.00967833958566188812
-0.0569512695074081421 0.0916340574622154236 0.0094394264742732048
-0.0581978745758533478 0.0893174484372138977 0.00608475366607308388
-0.0600549802184104919 0.0857306793332099915 0.00146121066063642502
-0.053193267434835434 0.0883850753307342529 0.0245919190347194672
-0.055199500173330307 0.0850852504372596741 0.0224851500242948532
-0.0521756894886493683 0.0897713527083396912 0.0259142443537712097
-0.0541593581438064575 0.0853194519877433777 0.0248810462653636932
-0.0558898486196994781 0.0891869962215423584 0.0171365197747945786
-0.0570535697042942047 0.0876346006989479065 0.0155951743945479393
-0.0560384020209312439 0.0845866575837135315 0.0208262279629707336
-0.0574900619685649872 0.0841031745076179504 0.0176207050681114197
-0.0563412904739379883 0.0885298177599906921 0.0165871027857065201
-0.0521537140011787415 0.0950636640191078186 0.0237532332539558411
-0.0531711392104625702 0.0937590599060058594 0.0214696340262889862
-0.0519330054521560669 0.0951612368226051331 0.0243051927536725998
-0.0526804812252521515 0.0966765731573104858 0.0218725912272930145
-0.0557732470333576202 0.0999739766120910645 0.010670812800526619
-0.0563421472907066345 0.0961624830961227417 0.00962019897997379303
-0.0555144995450973511 0.100996866822242737 0.0118260113522410393
-0.0565369538962841034 0.096278756856918335 0.00790559500455856323
-0.0561993159353733063 0.100687757134437561 0.00648279348388314247
-0.0545581132173538208 0.0970709696412086487 0.016803177073597908
-0.0550694726407527924 0.0982456877827644348 0.0150968665257096291
-0.0556400716304779053 0.0976739078760147095 0.0137673793360590935
-0.0531190894544124603 0.0986465737223625183 0.0201153252273797989
-0.0524891838431358337 0.10108763724565506 0.0210307016968727112
-0.0602451637387275696 0.084515497088432312 0.00332572311162948608
-0.0578641071915626526 0.0888572931289672852 0.00996216572821140289
-0.0602314844727516174 0.0834902524948120117 0.0062597319483757019
-0.0593621060252189636 0.0842824280261993408 0.0108698531985282898
-0.100942820310592651 -0.0556795969605445862 0.0117183774709701538
-0.100315302610397339 -0.0564247146248817444 0.00534941768273711205
-0.093401588499546051 -0.0556146427989006042 0.0094608403742313385
-0.101953595876693726 -0.0567808188498020172 0.00302329380065202713
-0.0958870500326156616 -0.0558209978044033051 0.00868171826004981995
-0.0911828130483627319 -0.0553461164236068726 0.0108507564291357994
-0.0883884280920028687 -0.0557418130338191986 0.00655717402696609497
-0.101439245045185089 -0.0568743050098419189 0.00206286879256367683
-0.0941133573651313782 -0.0564780458807945251 0.00109869707375764847
-0.0914956629276275635 -0.0563183017075061798 0.000140690943226218224
-0.0819561406970024109 -0.0552054047584533691 0.00774189410731196404
-0.0826977714896202087 -0.0553797222673892975 0.00531600229442119598
-0.0809577479958534241 -0.0554633475840091705 0.000712374225258827209
-0.089180387556552887 -0.055910211056470871 0.00486939586699008942
-0.0935935080051422119 -0.0564461275935173035 0.000912546645849943161
-0.0697306841611862183 -0.0524650886654853821 0.0106472987681627274
-0.0775891393423080444 -0.0548584908246994019 0.0038152989000082016
-0.0775341913104057312 -0.0546499192714691162 0.00554176513105630875
-0.07724742591381073 -0.0544838719069957733 0.0064798048697412014
-0.0797121375799179077 -0.0548627711832523346 0.00759016210213303566
-0.0999077558517456055 -0.0539803393185138702 0.0176389086991548538
-0.101791307330131531 -0.0518941320478916168 0.0231549534946680069
-0.0960270985960960388 -0.0521389022469520569 0.0224631316959857941
-0.096122153103351593 -0.0532770715653896332 0.0194627866148948669
-0.101344458758831024 -0.0538942813873291016 0.0178773906081914902
-0.0885322540998458862 -0.0551196448504924774 0.0111600905656814575
-0.0916688740253448486 -0.0552302449941635132 0.0116517134010791779
-0.0917247608304023743 -0.0542617738246917725 0.0154045987874269485
-0.0925292223691940308 -0.0547357127070426941 0.0138116087764501572
-0.0907034426927566528 -0.0539329499006271362 0.0163742415606975555
-0.0847580432891845703 -0.0537512153387069702 0.0153347114101052284
-0.0956556275486946106 -0.0543513074517250061 0.01618974469602108
-0.0892982333898544312 -0.0528344884514808655 0.0199358761310577393
-0.0741955041885375977 -0.0525166355073451996 0.0147129502147436142
-0.0783287733793258667 -0.0531426146626472473 0.0149953998625278473
-0.071371816098690033 -0.0525611229240894318 0.012540740892291069
-0.08294677734375 -0.0540260039269924164 0.0137387793511152267
-0.0829107910394668579 -0.053631119430065155 0.0152207827195525169
-0.0757575482130050659 -0.0501289330422878265 0.0221060812473297119
-0.0734027400612831116 -0.0486483573913574219 0.0244673453271389008
-0.0834336355328559875 -0.0523685961961746216 0.0200409591197967529
-0.0743586868047714233 -0.0506014823913574219 0.0203857272863388062
-0.070798628032207489 -0.0499767214059829712 0.0199399106204509735
-0.073322102427482605 -0.0509873107075691223 0.0187951531261205673
-0.0685964152216911316 -0.047274373471736908 0.0256227720528841019
-0.0693207085132598877 -0.0484964326024055481 0.0228962115943431854
-0.0462843067944049835 -0.0466734170913696289 6.05247914791107178e-05
-0.0481834821403026581 -0.0471361875534057617 0.00484843365848064423
-0.0507337898015975952 -0.0481899790465831757 0.00485017662867903709
-0.0509909912943840027 -0.048608485609292984 0.000208550132811069489
-0.0450573638081550598 -0.0459429472684860229 0.00338227325119078159
-0.0482377894222736359 -0.0469697862863540649 0.00765590043738484383
-0.0398567616939544678 -0.0437949597835540771 0.00336519256234169006
-0.0523204877972602844 -0.0486837476491928101 0.00553205609321594238
-0.0541663505136966705 -0.0492124520242214203 0.0049291723407804966
-0.0546758249402046204 -0.0488588139414787292 0.00963170919567346573
-0.0534735433757305145 -0.0493537485599517822 0.00184424081817269325
-0.0602062679827213287 -0.0503241084516048431 0.00898299738764762878
-0.0318643264472484589 -0.0405841544270515442 0.00153358303941786289
-0.0442922189831733704 -0.0450622439384460449 0.00942041352391242981
-0.0339649058878421783 -0.0402205809950828552 0.0123126842081546783
-0.0395753234624862671 -0.0434479638934135437 0.00570758990943431854
-0.0355487391352653503 -0.0415422394871711731 0.00698680989444255829
-0.0413039214909076691 -0.0437018312513828278 0.00991533417254686356
-0.0338412970304489136 -0.0413936972618103027 0.00196884991601109505
-0.0330619886517524719 -0.0404641106724739075 0.00694380328059196472
-0.0332808271050453186 -0.0399207621812820435 0.0123281506821513176
-0.0961592793464660645 -0.044585593044757843 0.0353068150579929352
-0.0958599001169204712 -0.0471148602664470673 0.0316440239548683167
-0.101894170045852661 -0.0463739782571792603 0.0326874256134033203
-0.0977748483419418335 -0.0463995262980461121 0.0326708629727363586
-0.0956107079982757568 -0.0500057600438594818 0.0268261097371578217
-0.0890917032957077026 -0.0503300130367279053 0.0254453029483556747
-0.0910942107439041138 -0.0508835874497890472 0.0247137323021888733
-0.095648348331451416 -0.0499522611498832703 0.0269254334270954132
-0.100402750074863434 -0.0506662502884864807 0.0262507051229476929
-0.0977078750729560852 -0.0486364811658859253 0.0294097177684307098
-0.0949170738458633423 -0.0486090816557407379 0.0292014274746179581
-0.0797860771417617798 -0.0469624362885951996 0.0299233477562665939
-0.07948283851146698 -0.0493164174258708954 0.0250397603958845139
-0.07638511061668396 -0.0492677688598632812 0.0241566002368927002
-0.0745493024587631226 -0.0470164492726325989 0.0281532369554042816
-0.0896203368902206421 -0.0518977083265781403 0.0226788260042667389
-0.0842707231640815735 -0.0494708642363548279 0.0261114593595266342
-0.0781899020075798035 -0.0453608371317386627 0.0318471603095531464
-0.0755429789423942566 -0.0425552353262901306 0.0348346792161464691
-0.0888978540897369385 -0.0504813827574253082 0.025147363543510437
-0.0808233097195625305 -0.0467483401298522949 0.0305328387767076492
-0.0698135867714881897 -0.0420199967920780182 0.0338642485439777374
-0.075079500675201416 -0.0455565787851810455 0.0305859707295894623
-0.0698734298348426819 -0.0421352311968803406 0.0337210558354854584
-0.0708329752087593079 -0.0448896028101444244 0.0301450788974761963
-0.0750233307480812073 -0.0435010269284248352 0.0334695093333721161
-0.0661556124687194824 -0.0504631102085113525 0.0159932076930999756
-0.0582450032234191895 -0.0458932407200336456 0.0230399686843156815
-0.0642319545149803162 -0.0491659566760063171 0.0181843489408493042
-0.0642464086413383484 -0.0486219786107540131 0.0195904895663261414
-0.063970714807510376 -0.0496905893087387085 0.0166814699769020081
-0.0610750950872898102 -0.0497761517763137817 0.0136367082595825195
-0.0529728755354881287 -0.0476298816502094269 0.0125344069674611092
-0.0546649396419525146 -0.0466587953269481659 0.0177628528326749802
-0.0577515102922916412 -0.0488391928374767303 0.0133836613968014717
-0.0531189031898975372 -0.047215096652507782 0.0141512108966708183
-0.0550222508609294891 -0.0466577522456645966 0.018148466944694519
-0.0563499294221401215 -0.0467786677181720734 0.0190137326717376709
-0.0557150170207023621 -0.0460970960557460785 0.0205760374665260315
-0.0407022424042224884 -0.0429567620158195496 0.0129056517034769058
-0.0472130961716175079 -0.045490998774766922 0.0133229754865169525
-0.0390351787209510803 -0.0419823937118053436 0.0141716264188289642
-0.0449804589152336121 -0.0446359701454639435 0.0131208915263414383
-0.047373257577419281 -0.0440287627279758453 0.0188794191926717758
-0.0475147217512130737 -0.0442767813801765442 0.0181713253259658813
-0.0377250425517559052 -0.0385721847414970398 0.0215086676180362701
-0.0349266231060028076 -0.0374629423022270203 0.0209767837077379227
-0.0348123423755168915 -0.0376772359013557434 0.0203370656818151474
-0.0352762527763843536 -0.0382159985601902008 0.0195804089307785034
-0.036076810210943222 -0.0403854548931121826 0.0153233343735337257
-0.0466433912515640259 -0.0424798652529716492 0.0214893147349357605
-0.0412499122321605682 -0.0393804162740707397 0.0232834704220294952
-0.0957089364528656006 -0.0374591536819934845 0.0425201877951622009
-0.096995525062084198 -0.035158354789018631 0.0445766858756542206
-0.100703306496143341 -0.0362241491675376892 0.0436848178505897522
-0.101460620760917664 -0.0359681621193885803 0.0439222939312458038
-0.0978356972336769104 -0.0395956747233867645 0.0406574197113513947
-0.0888150781393051147 -0.0377441160380840302 0.0421704016625881195
-0.0952778011560440063 -0.0413274392485618591 0.0389009863138198853
-0.092568032443523407 -0.0408779159188270569 0.0391613319516181946
-0.0924459695816040039 -0.0425002649426460266 0.0374182462692260742
-0.0868948623538017273 -0.0372412949800491333 0.0425860397517681122
-0.0898335352540016174 -0.0392784029245376587 0.0406482256948947906
-0.0856409370899200439 -0.0384968593716621399 0.0410202518105506897
-0.0795439630746841431 -0.041993945837020874 0.0361897535622119904
-0.0748976096510887146 -0.0390423908829689026 0.038793317973613739
-0.0797799006104469299 -0.0427407920360565186 0.0353895686566829681
-0.0842429623007774353 -0.0438369736075401306 0.0348345153033733368
-0.0791589915752410889 -0.039227120578289032 0.039227806031703949
-0.078387916088104248 -0.0388328805565834045 0.0395529270172119141
-0.0864708647131919861 -0.0412506870925426483 0.0380744524300098419
-0.0898024439811706543 -0.0432434529066085815 0.0364081114530563354
-0.0861759036779403687 -0.039076928049325943 0.0404529869556427002
-0.0788529515266418457 -0.0331610329449176788 0.0447540394961833954
-0.073746606707572937 -0.0333143062889575958 0.043686889111995697
-0.0707931295037269592 -0.0355350598692893982 0.0412212498486042023
-0.0811237543821334839 -0.0355442725121974945 0.0431033894419670105
-0.0816875025629997253 -0.034752868115901947 0.0438926331698894501
-0.0827075913548469543 -0.0366845130920410156 0.0424046553671360016
-0.0788398757576942444 -0.036991611123085022 0.0414307713508605957
-0.0636699646711349487 -0.0398442372679710388 0.0349873453378677368
-0.0680371671915054321 -0.0424156039953231812 0.0327360965311527252
-0.0684078112244606018 -0.0451296456158161163 0.0290167555212974548
-0.0691400021314620972 -0.0411515980958938599 0.0348724573850631714
-0.0637395903468132019 -0.0463653802871704102 0.0250641908496618271
-0.0647927820682525635 -0.0460256598889827728 0.0261818878352642059
-0.0603894367814064026 -0.0428239218890666962 0.0293559059500694275
-0.055647432804107666 -0.0417415574193000793 0.0287578478455543518
-0.0624862201511859894 -0.045125957578420639 0.0265246331691741943
-0.0551996976137161255 -0.0399590134620666504 0.031552143394947052
-0.06079912930727005 -0.0421193242073059082 0.0306700374931097031
-0.065758436918258667 -0.0451199859380722046 0.0281644091010093689
-0.0508244968950748444 -0.0402212552726268768 0.0287185478955507278
-0.0530807077884674072 -0.0428726933896541595 0.0254216715693473816
-0.0442286208271980286 -0.0406446047127246857 0.0231922660022974014
-0.0450848303735256195 -0.037575453519821167 0.0297136474400758743
-0.0505362190306186676 -0.0445282310247421265 0.0205629710108041763
-0.042669784277677536 -0.0392326563596725464 0.0247068628668785095
-0.0482704415917396545 -0.0422763153910636902 0.0231462679803371429
-0.0552772656083106995 -0.0452362112700939178 0.0225159153342247009
-0.0507346838712692261 -0.0428763516247272491 0.0238006524741649628
-0.0501715652644634247 -0.0419147126376628876 0.0252153854817152023
-0.0455137528479099274 -0.0354685410857200623 0.0327054187655448914
-0.0445507839322090149 -0.0347790904343128204 0.0330495275557041168
-0.0490693934261798859 -0.0364390760660171509 0.0333103053271770477
-0.0417012237012386322 -0.0318208374083042145 0.0351249836385250092
-0.0386577583849430084 -0.0318590812385082245 0.0331549569964408875
-0.0379171483218669891 -0.0341506823897361755 0.0296990685164928436
-0.0380188822746276855 -0.0316172875463962555 0.0330672189593315125
-0.101399943232536316 -0.0291101858019828796 0.0487961769104003906
-0.0898767337203025818 -0.0259146559983491898 0.0505109280347824097
-0.0968788042664527893 -0.0297155976295471191 0.0484931915998458862
-0.100110284984111786 -0.0309940576553344727 0.0478116534650325775
-0.101317413151264191 -0.0238864216953516006 0.0515380874276161194
-0.0979470312595367432 -0.0305178537964820862 0.0480686463415622711
-0.09214000403881073 -0.0299463327974081039 0.0480517186224460602
-0.0876184254884719849 -0.0273648649454116821 0.0494979321956634521
-0.0900279507040977478 -0.0330659113824367523 0.0457578971982002258
-0.0897812545299530029 -0.0278677437454462051 0.0493086241185665131
-0.0888859033584594727 -0.0340245217084884644 0.0450174883008003235
-0.0920220240950584412 -0.0353229381144046783 0.0443522073328495026
-0.0974779129028320312 -0.0331836119294166565 0.0462141484022140503
-0.0804447382688522339 -0.02765624038875103 0.0487109050154685974
-0.0845489501953125 -0.0340243726968765259 0.0446836166083812714
-0.0807464942336082458 -0.0299773681908845901 0.0471448823809623718
-0.0778586938977241516 -0.0290905963629484177 0.0475153960287570953
-0.0855592787265777588 -0.0287431105971336365 0.0483861938118934631
-0.0835625454783439636 -0.0341184139251708984 0.0445381179451942444
-0.0749575197696685791 -0.0305692330002784729 0.0462636426091194153
-0.0805059075355529785 -0.0239205919206142426 0.050690431147813797
-0.0775362104177474976 -0.0231749285012483597 0.0507159121334552765
-0.0751169770956039429 -0.0184801314026117325 0.0528253577649593353
-0.0744879767298698425 -0.0211128145456314087 0.0514047145843505859
-0.0725812017917633057 -0.0284114684909582138 0.04744672030210495
-0.0741939842700958252 -0.0245150327682495117 0.0496309436857700348
-0.0130018237978219986 -0.0270968284457921982 0.0156424902379512787
-0.0155206359922885895 -0.0275666136294603348 0.0184577498584985733
-0.0130617003887891769 -0.0253309998661279678 0.0195390172302722931
-0.0103192646056413651 -0.0254002101719379425 0.0152223361656069756
-0.0118002304807305336 -0.0256244242191314697 0.0169896744191646576
-0.0120247770100831985 -0.0252653378993272781 0.01810477115213871
-0.0272088069468736649 -0.0336495675146579742 0.0209399759769439697
-0.0271852314472198486 -0.0348209328949451447 0.0181454755365848541
-0.023745417594909668 -0.0324757881462574005 0.0196523554623126984
-0.030592968687415123 -0.0366880521178245544 0.0177301354706287384
-0.031887441873550415 -0.0365398265421390533 0.0195977911353111267
-0.0258976742625236511 -0.0329309962689876556 0.0211002454161643982
-0.0200584866106510162 -0.0307588391005992889 0.0179090667515993118
-0.0243478864431381226 -0.033070836216211319 0.0188821963965892792
-0.0207620672881603241 -0.0311514418572187424 0.0180154163390398026
-0.0220238156616687775 -0.0321126319468021393 0.0171815678477287292
-0.0175816807895898819 -0.0298064984381198883 0.0158223975449800491
-0.0240594558417797089 -0.034023921936750412 0.0143995862454175949
-0.0592400580644607544 -0.0308757089078426361 0.042804863303899765
-0.0654274895787239075 -0.0317632816731929779 0.0433433838188648224
-0.0646211728453636169 -0.0323468521237373352 0.0426713936030864716
-0.0660758316516876221 -0.0367406010627746582 0.0391960293054580688
-0.0689380243420600891 -0.0353095680475234985 0.0410301536321640015
-0.0668578892946243286 -0.0367511101067066193 0.0393516048789024353
-0.0408866852521896362 -0.0267060678452253342 0.0399537608027458191
-0.0469623394310474396 -0.0271820705384016037 0.0418242514133453369
-0.0441824831068515778 -0.0225139874964952469 0.0445494242012500763
-0.053883671760559082 -0.0290020033717155457 0.0429269969463348389
-0.0439664050936698914 -0.0226676836609840393 0.0443456023931503296
-0.0451008938252925873 -0.0237492658197879791 0.0438960790634155273
-0.0541810505092144012 -0.0348717421293258667 0.0370598249137401581
-0.0571359656751155853 -0.0367895364761352539 0.0362595245242118835
-0.0557168461382389069 -0.0376706309616565704 0.0347483828663825989
-0.046203911304473877 -0.029695022851228714 0.0393809378147125244
-0.0530895665287971497 -0.0325184948742389679 0.0391159169375896454
-0.0511484332382678986 -0.0374702922999858856 0.0331117250025272369
-0.0501359663903713226 -0.0367066338658332825 0.0335192680358886719
-0.0436138324439525604 -0.0313656479120254517 0.0365905016660690308
-0.0523708425462245941 -0.0334227085113525391 0.0378755852580070496
-0.0535138882696628571 -0.0319776982069015503 0.0398555546998977661
-0.0592118799686431885 -0.035591762512922287 0.0382022559642791748
-0.0586686655879020691 -0.0377923324704170227 0.035777851939201355
-0.057644333690404892 -0.0315304994583129883 0.0418635644018650055
-0.0593599453568458557 -0.0349114909768104553 0.0389454364776611328
-0.0670788809657096863 -0.037580929696559906 0.0386548377573490143
-0.100610077381134033 -0.0137581070885062218 0.055066969245672226
-0.10044117271900177 -0.0104395942762494087 0.0558881685137748718
-0.0961700454354286194 -0.0159818846732378006 0.0546045266091823578
-0.100448399782180786 -0.0120163094252347946 0.0554994046688079834
-0.101828373968601227 -0.0150789916515350342 0.0547178946435451508
-0.100498870015144348 -0.0137549871578812599 0.0550698824226856232
-0.0889017805457115173 -0.0228312984108924866 0.0517706535756587982
-0.0906465053558349609 -0.0195549242198467255 0.0530947968363761902
-0.090127505362033844 -0.0149565478786826134 0.0547942072153091431
-0.0930920913815498352 -0.0173693560063838959 0.0540467686951160431
-0.0953218787908554077 -0.017046196386218071 0.0542876310646533966
-0.0989560261368751526 -0.0212715920060873032 0.0528952367603778839
-0.0829307883977890015 -0.0210014693439006805 0.0522546358406543732
-0.0792407840490341187 -0.0178406648337841034 0.0533348508179187775
-0.0849832221865653992 -0.023470195010304451 0.0513850860297679901
-0.084367014467716217 -0.0167595315724611282 0.0539034195244312286
-0.0817082971334457397 -0.0163227785378694534 0.0539857149124145508
-0.0790476873517036438 -0.016495533287525177 0.0538374744355678558
-0.0866324231028556824 -0.0129417581483721733 0.0553144775331020355
-0.0781854614615440369 -0.00564239639788866043 0.0564161688089370728
-0.0785211771726608276 -0.00876685325056314468 0.0557033643126487732
-0.0768148079514503479 -0.0122326873242855072 0.0547597929835319519
-0.0823754146695137024 -0.0134840309619903564 0.054873395711183548
-0.0790367797017097473 -0.0124141303822398186 0.0548803843557834625
-0.0232139024883508682 -0.0281468462198972702 0.0266331098973751068
-0.0195474009960889816 -0.02539784274995327 0.0274657793343067169
-0.0230364520102739334 -0.0290435068309307098 0.0249985139816999435
-0.0208854731172323227 -0.0265718605369329453 0.026884106919169426
-0.0191951226443052292 -0.0243147797882556915 0.0288778487592935562
-0.0200034994632005692 -0.0271768346428871155 0.0250247567892074585
-0.0253624841570854187 -0.0281175374984741211 0.0287754423916339874
-0.0300836879760026932 -0.0305988416075706482 0.029213516041636467
-0.0289865043014287949 -0.0315102860331535339 0.0266609732061624527
-0.0261901505291461945 -0.0307543426752090454 0.0252260752022266388
-0.0282083712518215179 -0.0300327856093645096 0.0283485576510429382
-0.0291391946375370026 -0.030617203563451767 0.0282781235873699188
-0.0205599796026945114 -0.0182089079171419144 0.0370989516377449036
-0.0300035253167152405 -0.0267198402434587479 0.0343177840113639832
-0.0238886326551437378 -0.020026007667183876 0.0372596271336078644
-0.026587221771478653 -0.0247760787606239319 0.0342288985848426819
-0.0208073332905769348 -0.0184327960014343262 0.0370251759886741638
-0.0320164300501346588 -0.0314956456422805786 0.0294076446443796158
-0.0299554876983165741 -0.0276996977627277374 0.0330365970730781555
-0.0367457158863544464 -0.0316522307693958282 0.0322135463356971741
-0.0296883173286914825 -0.0291058607399463654 0.0310364104807376862
-0.0295776203274726868 -0.0280523989349603653 0.0323370732367038727
-0.03367658331990242 -0.0317016169428825378 0.0301960855722427368
-0.016600143164396286 -0.0168014243245124817 0.0357625409960746765
-0.0188723355531692505 -0.0199870150536298752 0.0339194349944591522
-0.0164735652506351471 -0.0161051992326974869 0.0364768765866756439
-0.022886861115694046 -0.0250100120902061462 0.0313767381012439728
-0.0240589454770088196 -0.0252541955560445786 0.032075587660074234
-0.0527752973139286041 -0.0146352760493755341 0.0512788780033588409
-0.0469760112464427948 -0.0183295160531997681 0.048201344907283783
-0.0495531037449836731 -0.0129699679091572762 0.0513225458562374115
-0.0513009577989578247 -0.0177604593336582184 0.0494654178619384766
-0.0529088340699672699 -0.0149128623306751251 0.0511786900460720062
-0.0513679236173629761 -0.0138087291270494461 0.0513447299599647522
-0.0548800081014633179 -0.0271462108939886093 0.0444634296000003815
-0.0561892762780189514 -0.0207845848053693771 0.0489026755094528198
-0.0471898652613162994 -0.0207739192992448807 0.0468190759420394897
-0.0504135265946388245 -0.0206055007874965668 0.0476773940026760101
-0.0468125678598880768 -0.0195310749113559723 0.0475392863154411316
-0.0484765246510505676 -0.0218226164579391479 0.0464362986385822296
-0.0703887492418289185 -0.0233211107552051544 0.0498045049607753754
-0.0664321184158325195 -0.0197580382227897644 0.0511819012463092804
-0.0713639482855796814 -0.0179432015866041183 0.0526710264384746552
-0.0671437457203865051 -0.0205291919410228729 0.0508673861622810364
-0.0649819225072860718 -0.0200740955770015717 0.0508555322885513306
-0.067336544394493103 -0.0225186236202716827 0.0498697347939014435
-0.062742672860622406 -0.0281221847981214523 0.0455953627824783325
-0.0658596158027648926 -0.0292859915643930435 0.0455292351543903351
-0.0667159855365753174 -0.028941761702299118 0.0459448769688606262
-0.0579327009618282318 -0.0251171905547380447 0.0464873313903808594
-0.0591187141835689545 -0.0284872613847255707 0.0445496700704097748
-0.0617331899702548981 -0.0289972685277462006 0.0447987839579582214
-0.0602676607668399811 -0.0243667047470808029 0.0474977269768714905
-0.0954653620719909668 -0.00148772983811795712 0.0569714494049549103
-0.101302385330200195 -0.0034465310163795948 0.056758735328912735
-0.100363366305828094 0.00459761591628193855 0.0567929558455944061
-0.100755974650382996 0.00396874407306313515 0.0567786470055580139
-0.0920007377862930298 0.00103497505187988281 0.0570977106690406799
-0.0821138173341751099 0.00814083684235811234 0.0567877218127250671
-0.0950937271118164062 0.00414698943495750427 0.0569279082119464874
-0.0945815369486808777 0.00543532334268093109 0.0568598359823226929
-0.0891032665967941284 0.00294736702926456928 0.0570315159857273102
-0.0914911925792694092 0.00309746759012341499 0.0570083633065223694
-0.0858657211065292358 -0.00045544814202003181 0.0569918639957904816
-0.0865988433361053467 0.0021562785841524601 0.0569967776536941528
-0.0814283937215805054 -0.000780103378929197788 0.0568368211388587952
-0.083762243390083313 0.00342474784702062607 0.0568857230246067047
-0.0822912305593490601 0.00659365067258477211 0.0568078085780143738
-0.0919873416423797607 -0.00532525870949029922 0.0565067753195762634
-0.095210835337638855 -0.00331505574285984039 0.0568752475082874298
-0.0959216803312301636 -0.00921269692480564117 0.0562109425663948059
-0.090910494327545166 -0.00693306978791952133 0.0562735982239246368
-0.0989148169755935669 -0.00822759605944156647 0.0564494431018829346
-0.0817282497882843018 -0.00350208580493927002 0.0567597560584545135
-0.0891827866435050964 4.24228492192924023e-05 0.057095114141702652
-0.0844485685229301453 -0.00602589268237352371 0.0564097687602043152
-0.0887000039219856262 -0.00814229343086481094 0.0560889877378940582
-0.0890431627631187439 -0.00748635130003094673 0.0561654046177864075
-0.05899854376912117 -0.00955639127641916275 0.0540899895131587982
-0.0556164607405662537 -0.0104945255443453789 0.0533638373017311096
-0.0533080659806728363 -0.00805088598281145096 0.0539839044213294983
-0.0575062781572341919 -0.0105164786800742149 0.0535720065236091614
-0.0545706525444984436 -0.0122466161847114563 0.0526103824377059937
-0.0610436834394931793 -0.00824279710650444031 0.0547990873456001282
-0.0546312965452671051 0.000655940268188714981 0.0560345165431499481
-0.0509853102266788483 -0.00660512875765562057 0.0540294349193572998
-0.0513582974672317505 -0.00535752810537815094 0.0543424859642982483
-0.059259314090013504 -0.00179804395884275436 0.0560842715203762054
-0.0614794641733169556 -0.00466077681630849838 0.0557477585971355438
-0.0563239417970180511 -0.00449050217866897583 0.055144231766462326
-0.0643007233738899231 -0.0100945578888058662 0.0545347109436988831
-0.0633712038397789001 -0.0160130467265844345 0.0523114688694477081
-0.0598542280495166779 -0.0191995091736316681 0.0507052913308143616
-0.0684358030557632446 -0.0150835895910859108 0.0533278472721576691
-0.0603850819170475006 -0.0173683222383260727 0.0514261610805988312
-0.0751030817627906799 -0.0101303569972515106 0.0551784001290798187
-0.0735709741711616516 -0.00891694054007530212 0.0554201789200305939
-0.0725469291210174561 -0.0099658546969294548 0.0551268197596073151
-0.0718955174088478088 -0.0110647687688469887 0.0548346191644668579
-0.0767545700073242188 -0.00691383611410856247 0.0560245104134082794
-0.0680682584643363953 -0.00667125219479203224 0.0557718388736248016
-0.0736781731247901917 0.00923469942063093185 0.0568660050630569458
-0.066953711211681366 0.0100071756169199944 0.0569487735629081726
-0.0755831226706504822 0.00934997200965881348 0.0568249970674514771
-0.0706549659371376038 0.0103933187201619148 0.0568605810403823853
-0.0772059857845306396 0.00888363085687160492 0.0568197295069694519
-0.0736914500594139099 0.00162775907665491104 0.0569242015480995178
-0.072126433253288269 0.00347346789203584194 0.0569947473704814911
-0.0766841098666191101 0.00127783557400107384 0.0568150319159030914
-0.0759246945381164551 0.00271925283595919609 0.0568536818027496338
-0.0728161856532096863 0.00485322857275605202 0.0569814033806324005
-0.0618409775197505951 0.00607997458428144455 0.0569331683218479156
-0.0550804547965526581 0.00395437749102711678 0.0567446425557136536
-0.0556838735938072205 0.00556766660884022713 0.0567390061914920807
-0.0668914765119552612 0.00708667468279600143 0.0570831820368766785
-0.0644268989562988281 0.00422684010118246078 0.0569117031991481781
-0.0639604702591896057 -0.00528321228921413422 0.0557284988462924957
-0.0559767484664916992 0.00356941297650337219 0.0567122809588909149
-0.061235375702381134 -0.00330407125875353813 0.055935300886631012
-0.0656804516911506653 0.00380551978014409542 0.05687708780169487
-0.0673939287662506104 -0.00418799091130495071 0.0560466162860393524
-0.0690191909670829773 0.000535894883796572685 0.0566525682806968689
-0.0704745352268218994 -1.80753413587808609e-05 0.0566902570426464081
-0.0701063945889472961 0.000367560191079974174 0.0567066334187984467
-0.0664822831749916077 -0.00191466044634580612 0.0562263131141662598
0.0262726806104183197 0.0128319505602121353 0.0173836927860975266
0.0261894315481185913 0.0158113092184066772 0.0221114140003919601
0.0251334700733423233 0.0107126599177718163 0.016597457230091095
0.0250740125775337219 0.0129013173282146454 0.0200668200850486755
0.0240748021751642227 0.012277090921998024 0.0212621595710515976
0.0270424727350473404 0.0132033601403236389 0.0162956323474645615
0.0336909592151641846 0.024509131908416748 0.0173808690160512924
0.0366115644574165344 0.0289125815033912659 0.0162805281579494476
0.0328073911368846893 0.0230408385396003723 0.017388736829161644
0.0380216948688030243 0.0308240447193384171 0.0152368191629648209
0.0345213748514652252 0.0251533240079879761 0.0156166516244411469
0.0344614610075950623 0.0253272391855716705 0.016270175576210022
0.035664241760969162 0.0345080755650997162 0.0251454319804906845
0.0354295596480369568 0.0331578850746154785 0.0241054892539978027
0.0354181304574012756 0.0289787929505109787 0.0192006751894950867
0.0363865606486797333 0.0322531536221504211 0.0207810197025537491
0.0361460223793983459 0.0329531282186508179 0.0221742969006299973
0.034557826817035675 0.0303703416138887405 0.0228716172277927399
0.0424311943352222443 0.0374450609087944031 0.00801371876150369644
0.0452851466834545135 0.0438479222357273102 0.00767966127023100853
0.0438251718878746033 0.0402028709650039673 0.0064830356277525425
0.0401771031320095062 0.0320500731468200684 0.00702717574313282967
0.0423159115016460419 0.0382694490253925323 0.0120345214381814003
0.0416228622198104858 0.0342945493757724762 0.0031611924059689045
0.0435680150985717773 0.0397895723581314087 0.00711857806891202927
0.040903974324464798 0.0344017185270786285 0.00960955675691366196
0.0401178412139415741 0.03090706467628479 0.00329679250717163086
0.0479751564562320709 0.0492168329656124115 0.00211391504853963852
0.0464442446827888489 0.0461141467094421387 0.0056285560131072998
0.0483043752610683441 0.0501882545650005341 0.00324195250868797302
0.0453944988548755646 0.0427048318088054657 0.000100684352219104767
0.0452530495822429657 0.0424442142248153687 0.000586786773055791855
0.0475866310298442841 0.0487795211374759674 0.00517401145771145821
0.0480468012392520905 0.0492029562592506409 0.000964324455708265305
0.0503598712384700775 0.0583016276359558105 0.00622637057676911354
0.049463808536529541 0.0558499917387962341 0.00883024372160434723
0.0500376187264919281 0.0560296773910522461 0.00369110354222357273
0.0489109605550765991 0.0536544807255268097 0.0087314266711473465
0.0493262112140655518 0.0532108508050441742 0.00357981212437152863
0.0339111723005771637 0.0334324687719345093 0.0272568091750144958
0.0279667023569345474 0.0243206508457660675 0.0282461792230606079
0.0324025005102157593 0.0321257933974266052 0.0284773223102092743
0.03005254827439785 0.0247514210641384125 0.0252327732741832733
0.0290652737021446228 0.0281710028648376465 0.0301512964069843292
0.0312776155769824982 0.0291558187454938889 0.0274639427661895752
0.027289925143122673 0.0222408715635538101 0.0272701773792505264
0.0258859544992446899 0.0232410077005624771 0.0305471811443567276
0.0259334351867437363 0.0236475653946399689 0.0308757703751325607
0.026860428974032402 0.0246794372797012329 0.030400596559047699
0.0290243718773126602 0.0236124135553836823 0.0258231926709413528
0.0268912427127361298 0.0226490199565887451 0.028324611485004425
0.0231052562594413757 0.0182740502059459686 0.0298744887113571167
0.0186503268778324127 0.0170011986047029495 0.0340382158756256104
0.0226069316267967224 0.0157781913876533508 0.028349732980132103
0.018289659172296524 0.0161453075706958771 0.0337385758757591248
0.016556084156036377 0.0164825692772865295 0.0360630005598068237
0.0245367679744958878 0.0224986709654331207 0.0317636840045452118
0.0313197486102581024 0.0323452018201351166 0.0300506260246038437
0.0288033876568078995 0.033940393477678299 0.0343424677848815918
0.0286284349858760834 0.0330330133438110352 0.0339884497225284576
0.0281417649239301682 0.0346995368599891663 0.0356885641813278198
0.029122794046998024 0.0348616167902946472 0.0345176383852958679
0.0183934736996889114 0.0194423869252204895 0.0363752841949462891
0.0265594255179166794 0.0305294487625360489 0.034922473132610321
0.0244655292481184006 0.0254161711782217026 0.0339826531708240509
0.0226254574954509735 0.0258920881897211075 0.0360292233526706696
0.0268736369907855988 0.0307106282562017441 0.034724704921245575
0.016060343012213707 0.017789054661989212 0.0376657545566558838
0.0396808907389640808 0.0360858440399169922 0.0174451842904090881
0.0403126850724220276 0.0371818654239177704 0.0171958506107330322
0.04005475714802742 0.0414250642061233521 0.022656269371509552
0.0406459569931030273 0.0425703451037406921 0.022559676319360733
0.0378088727593421936 0.0388018973171710968 0.0249968115240335464
0.043713785707950592 0.0470156073570251465 0.0194674581289291382
0.0420869551599025726 0.040757693350315094 0.0165415685623884201
0.0444402545690536499 0.0450760945677757263 0.0142834987491369247
0.0455367378890514374 0.0458360910415649414 0.0114750899374485016
0.0438728407025337219 0.0466481000185012817 0.0184862148016691208
0.0434858091175556183 0.0411406680941581726 0.0121479872614145279
0.0457103289663791656 0.0456818081438541412 0.0106463115662336349
0.0442328415811061859 0.0471569821238517761 0.0179269984364509583
0.0497386716306209564 0.0658813267946243286 0.0183468777686357498
0.0480329468846321106 0.0585188455879688263 0.0182875413447618484
0.0488966479897499084 0.0604303665459156036 0.0172226503491401672
0.0475068129599094391 0.0661583766341209412 0.0242430027574300766
0.0511483214795589447 0.066523037850856781 0.0151151437312364578
0.0455416925251483917 0.0549146868288516998 0.0216328278183937073
0.0465952157974243164 0.0631666556000709534 0.0245142057538032532
0.0470185652375221252 0.0571472793817520142 0.0198866743594408035
0.0472097732126712799 0.0530791692435741425 0.0154649708420038223
0.0459566600620746613 0.0513385720551013947 0.0176153033971786499
0.048366401344537735 0.0575804375112056732 0.0165471471846103668
0.048383515328168869 0.0544760823249816895 0.0126668093726038933
0.0513750538229942322 0.0657403245568275452 0.0140397055074572563
0.0478775203227996826 0.0528110265731811523 0.0127293039113283157
0.0561431460082530975 0.086312316358089447 0.00155661767348647118
0.0554615817964076996 0.0792313888669013977 0.00368657009676098824
0.0557753592729568481 0.0834984779357910156 0.00442855898290872574
0.0561235509812831879 0.0872437655925750732 0.0035592119675129652
0.0557437725365161896 0.0818606987595558167 0.00228748470544815063
0.0565126985311508179 0.0918826013803482056 0.00336226774379611015
0.0568946786224842072 0.0950830802321434021 0.000855003949254751205
0.0559285432100296021 0.0961773544549942017 0.0105882715433835983
0.0558618567883968353 0.0891908332705497742 0.00836043804883956909
0.0560382679104804993 0.09040851891040802 0.00739176850765943527
0.0561878271400928497 0.096998170018196106 0.00877942703664302826
0.0556572824716567993 0.0890264809131622314 0.00997966993600130081
0.055664699524641037 0.0891587436199188232 0.00997119396924972534
0.0565806031227111816 0.0941139385104179382 0.00439872546121478081
0.057132333517074585 0.101543933153152466 0.00280874408781528473
0.0543172135949134827 0.0757095068693161011 0.007686663419008255
0.05499277263879776 0.0790061131119728088 0.00779413804411888123
0.0554074943065643311 0.0791512206196784973 0.00443231686949729919
0.0544839762151241302 0.0758080184459686279 0.00640815868973731995
0.0549708977341651917 0.0763643309473991394 0.00316522037610411644
0.0348672345280647278 0.04207625612616539 0.0316479690372943878
0.0352541953325271606 0.0443877056241035461 0.0326146781444549561
0.0308068413287401199 0.0395464040338993073 0.0353237763047218323
0.0316561497747898102 0.0410609915852546692 0.0351817645132541656
0.0317432209849357605 0.042761482298374176 0.0361501723527908325
0.0360463410615921021 0.0363807938992977142 0.0263668615370988846
0.0382769070565700531 0.0491405539214611053 0.0311167370527982712
0.038102857768535614 0.0434574112296104431 0.0276520941406488419
0.036232583224773407 0.0385830849409103394 0.0275138802826404572
0.0363584719598293304 0.0457300096750259399 0.0318758152425289154
0.0358582921326160431 0.038500659167766571 0.0280358828604221344
0.036909986287355423 0.0479670017957687378 0.0324601903557777405
0.0436524264514446259 0.0543447546660900116 0.0250253863632678986
0.045650288462638855 0.0616083592176437378 0.0254610497504472733
0.043995346873998642 0.0558763295412063599 0.0252714622765779495
0.0455139428377151489 0.0582980290055274963 0.0237385481595993042
0.0453386381268501282 0.0580889023840427399 0.023957863450050354
0.0425826609134674072 0.05554184690117836 0.027842547744512558
0.0441449955105781555 0.0517002120614051819 0.022448662668466568
0.0427311547100543976 0.0634264424443244934 0.0311643835157155991
0.0427230075001716614 0.0652541369199752808 0.0317653864622116089
0.0407720096409320831 0.0681002289056777954 0.0354389287531375885
0.0416591614484786987 0.0674288272857666016 0.0339693650603294373
0.0417773686349391937 0.0522627122700214386 0.027266286313533783
