ply
format ascii 1.0
element vertex 727
property float x
property float y
property float z
end_header
0.0495659634470939636 0.0776048004627227783 0.0199196897447109222
0.0432089976966381073 0.082055993378162384 0.0216680821031332016
0.0592335984110832214 0.0708354488015174866 0.0353408679366111755
0.0413090884685516357 0.0833863243460655212 0.030350835993885994
0.0563483014702796936 0.0728557556867599487 0.0381269007921218872
0.0623764358460903168 0.0686348080635070801 0.0151205789297819138
0.0432685986161231995 0.0820142626762390137 0.0216787699609994888
0.0642304867506027222 0.0673365890979766846 0.0262795016169548035
0.0577877052128314972 0.0718478783965110779 0.0181155148893594742
0.0316585823893547058 0.0901436805725097656 0.0255056582391262054
0.0473046712577342987 0.0791881754994392395 0.0228786822408437729
0.0675952434539794922 0.0649805590510368347 0.0257435068488121033
0.0493463687598705292 0.0777585655450820923 0.0199011992663145065
0.0759939029812812805 0.0590997561812400818 0.0134560214355587959
0.0578469559550285339 0.0718063861131668091 0.0366017855703830719
0.0696598142385482788 0.0635349377989768982 0.0147690847516059875
0.0491233281791210175 0.0779147371649742126 0.0330265089869499207
0.0459519624710083008 0.0801353529095649719 0.0215926878154277802
0.0534734055399894714 0.0748687759041786194 0.0351735539734363556
0.067330487072467804 0.0651659369468688965 0.0265044979751110077
0.0485707521438598633 0.078301653265953064 0.0331352576613426208
0.0409467071294784546 0.0836400687694549561 0.022320084273815155
0.0491458587348461151 0.077898956835269928 0.0194961428642272949
0.0616503879427909851 0.0691431909799575806 0.0328698605298995972
0.0510471835732460022 0.0765676423907279968 0.0286211781203746796
0.0497014634311199188 0.0775099173188209534 0.0234747491776943207
0.0558898486196994781 0.0731767714023590088 0.0217899121344089508
0.0624497197568416595 0.0685834884643554688 0.0233356542885303497
0.067612282931804657 0.0649686306715011597 0.0161305461078882217
0.0694063752889633179 0.063712388277053833 0.0163440927863121033
0.0667306706309318542 0.0655859410762786865 0.0153029747307300568
0.0511258617043495178 0.0765125453472137451 0.0275739654898643494
0.0696966499090194702 0.0635091438889503479 0.0220253169536590576
0.0514935441315174103 0.0762550979852676392 0.0215987972915172577
0.0614731833338737488 0.06926727294921875 0.0330279991030693054
0.0471320673823356628 0.0793090388178825378 0.0223684012889862061
0.0494126342236995697 0.0777121633291244507 0.0242317840456962585
0.0625211521983146667 0.0685334727168083191 0.0318400003015995026
0.0595704354345798492 0.0705995932221412659 0.0187033358961343765
0.0526145249605178833 0.0754701718688011169 0.0329348817467689514
0.0502983778715133667 0.0770919546484947205 0.0270090028643608093
0.0481638908386230469 0.0785865411162376404 0.0214198306202888489
0.0590166188776493073 0.0709873810410499573 0.0180342774838209152
0.0545972511172294617 0.0740818530321121216 0.0369803346693515778
0.0580190643668174744 0.0716858729720115662 0.035770900547504425
0.0549221821129322052 0.0738543272018432617 0.0267809405922889709
0.0608631744980812073 0.0696944072842597961 0.0215626582503318787
0.0554640032351016998 0.0734749436378479004 0.0205506272614002228
0.0593865513801574707 0.0707283467054367065 0.0267366319894790649
0.0673066303133964539 0.0651826485991477966 0.01571694016456604
0.057483036071062088 0.0720612034201622009 0.0228420887142419815
0.0639457628130912781 0.0675359517335891724 0.0216870829463005066
0.0644830167293548584 0.0671597644686698914 0.0247167814522981644
0.0571173988282680511 0.0723172202706336975 0.0169981624931097031
0.0553095638751983643 0.0735830888152122498 0.0220066830515861511
0.0572450272738933563 0.0722278580069541931 0.0369392335414886475
0.070926278829574585 0.0626481473445892334 0.0165810137987136841
0.0794966518878936768 0.0566471070051193237 0.0122038461267948151
0.057567056268453598 0.0720023736357688904 0.0182384923100471497
0.0566516071557998657 0.072643376886844635 0.0212629120796918869
0.0615769512951374054 0.0691946223378181458 0.0173752773553133011
0.0709556490182876587 0.0626275762915611267 0.0206191688776016235
0.0607655085623264313 0.069762788712978363 0.0294647272676229477
0.0568445771932601929 0.0725082606077194214 0.0318754464387893677
0.062161467969417572 0.0687853246927261353 0.0300480853766202927
0.0411978475749492645 0.0834642127156257629 0.0231995619833469391
0.0636056512594223022 0.0677741020917892456 0.0206033028662204742
0.0572178959846496582 0.0722468569874763489 0.0327753461897373199
0.0509391576051712036 0.0766432806849479675 0.0358247421681880951
0.0542352795600891113 0.0743353068828582764 0.028706645593047142
0.0431408882141113281 0.0821036845445632935 0.0329704955220222473
0.0582904815673828125 0.0714958235621452332 0.0308316871523857117
0.0628217235207557678 0.0683230161666870117 0.0272929742932319641
0.0636316761374473572 0.0677558854222297668 0.0143461637198925018
0.0415381342172622681 0.0832259505987167358 0.0311930868774652481
0.0522257313132286072 0.0757424086332321167 0.0396882519125938416
0.0752549543976783752 0.0381870530545711517 0.00132719543762505054
0.0729100629687309265 0.0348353944718837738 0.00129022193141281605
0.0806797817349433899 0.0459261685609817505 0.00121747399680316448
0.0824037790298461914 0.0483155213296413422 0.000261669047176837921
0.0732527822256088257 0.0353470556437969208 0.00158194941468536854
0.0830068737268447876 0.0493875667452812195 0.00303000165149569511
0.0813958793878555298 0.0469901487231254578 0.00175986450631171465
0.0779688358306884766 0.0421217009425163269 0.00209995335899293423
0.0850030407309532166 0.0520601086318492889 0.000687985680997371674
0.07846049964427948 0.0426883846521377563 0.000320005463436245918
0.0815791860222816467 0.0472088977694511414 0.00119453831575810909
0.0795113444328308105 0.0442613661289215088 0.00126878614537417889
0.077804863452911377 0.0418789386749267578 0.00198701117187738419
0.0805074498057365417 0.0463678762316703796 0.00571884308010339737
0.0762056633830070496 0.0398782007396221161 0.00421104626730084419
0.0814943984150886536 0.0478161796927452087 0.00588791817426681519
0.0802465230226516724 0.0459436811506748199 0.00549424067139625549
0.0754894167184829712 0.0391459353268146515 0.00547728780657052994
0.0675495639443397522 0.0275120940059423447 0.00419396162033081055
0.0848057717084884644 0.0523559674620628357 0.0050629638135433197
0.0642753541469573975 0.0226703416556119919 0.00347212329506874084
0.0683647245168685913 0.0285483933985233307 0.00363691197708249092
0.0822184309363365173 0.0486749112606048584 0.00512417778372764587
0.0777703374624252319 0.0422559306025505066 0.00483470363542437553
0.0789469331502914429 0.0437813811004161835 0.00415977975353598595
0.07572975754737854 0.039374619722366333 0.00497817015275359154
0.0806016400456428528 0.0472001731395721436 0.00800845306366682053
0.082848772406578064 0.0511978119611740112 0.0100482199341058731
0.0811474993824958801 0.0476500988006591797 0.00715560233220458031
0.0784377828240394592 0.0446162819862365723 0.00931866932660341263
0.08433523029088974 0.0525472946465015411 0.00804728176444768906
0.0828302279114723206 0.0510040000081062317 0.00961532257497310638
0.0734030231833457947 0.0370030701160430908 0.00822472758591175079
0.0702002719044685364 0.0323867686092853546 0.00811528507620096207
0.0704452693462371826 0.0325568318367004395 0.00765001075342297554
0.0772227197885513306 0.0427724570035934448 0.00903789140284061432
0.0795872956514358521 0.0456357896327972412 0.00770896673202514648
0.0687714517116546631 0.0301516391336917877 0.00761190615594387054
0.0794126242399215698 0.0459907501935958862 0.00927274394780397415
0.0717910975217819214 0.0380348265171051025 0.0145969586446881294
0.0755319520831108093 0.0434614159166812897 0.0147134186699986458
0.0715152621269226074 0.0373846665024757385 0.0142421545460820198
0.0709574520587921143 0.0366039276123046875 0.014264177531003952
0.0769488215446472168 0.0461046844720840454 0.0155716435983777046
0.0806098729372024536 0.0519009195268154144 0.0163577571511268616
0.0741637349128723145 0.0411655902862548828 0.0142401047050952911
0.0704011246562004089 0.0362391285598278046 0.014859209768474102
0.0783657729625701904 0.0472974441945552826 0.0144211165606975555
0.0732293426990509033 0.0394157879054546356 0.0136649571359157562
0.0804680138826370239 0.0506497696042060852 0.0149057973176240921
0.0776691213250160217 0.0459147989749908447 0.0138842193409800529
0.075887531042098999 0.0441220849752426147 0.0149250691756606102
0.0722216591238975525 0.0449138283729553223 0.0215776897966861725
0.0778212472796440125 0.0523956678807735443 0.0211138408631086349
0.0714253634214401245 0.0424398258328437805 0.020374152809381485
0.0670013800263404846 0.0366614200174808502 0.0208600517362356186
0.0729244500398635864 0.0460965335369110107 0.021738855168223381
0.0727921724319458008 0.0439667142927646637 0.0199913941323757172
0.0760948732495307922 0.0500631071627140045 0.0212335456162691116
0.0689111128449440002 0.0391540005803108215 0.0206486470997333527
0.0729627311229705811 0.0456608012318611145 0.021297333762049675
0.0731776654720306396 0.0463997498154640198 0.0216862615197896957
0.0646357908844947815 0.0332018658518791199 0.0207869932055473328
0.0757294446229934692 0.0489526316523551941 0.020703611895442009
0.0785056799650192261 0.052354864776134491 0.0201970543712377548
0.0768013671040534973 0.047009546309709549 0.017055753618478775
0.078136838972568512 0.0494749583303928375 0.0176707543432712555
0.0817223265767097473 0.0544078759849071503 0.01746395044028759
0.0695510208606719971 0.0369102694094181061 0.0173370521515607834
0.0798786655068397522 0.0530436970293521881 0.0188620053231716156
0.0739943534135818481 0.0439521558582782745 0.0181040838360786438
0.0727839097380638123 0.0418038628995418549 0.017641749233007431
0.0810304358601570129 0.0534211881458759308 0.017465539276599884
0.0797833427786827087 0.0512929186224937439 0.0170829501003026962
0.0754244774580001831 0.0456431470811367035 0.0177168697118759155
0.0611977614462375641 0.0246934536844491959 0.017020687460899353
0.074339352548122406 0.0435071215033531189 0.0170708503574132919
0.0811957418918609619 0.053250730037689209 0.0170175973325967789
0.0763481780886650085 0.0428304299712181091 0.011790398508310318
0.0724950060248374939 0.036896880716085434 0.0110069913789629936
0.0826340541243553162 0.0523476786911487579 0.0127729037776589394
0.0703993737697601318 0.0342223718762397766 0.0115861454978585243
0.0766834169626235962 0.043309137225151062 0.011790289543569088
0.0794008821249008179 0.0474200919270515442 0.0122087020426988602
0.0815162360668182373 0.0497449785470962524 0.0109422961249947548
0.0810305550694465637 0.0487926825881004333 0.0104717426002025604
0.0831813663244247437 0.0523817315697669983 0.0114129260182380676
0.0804307162761688232 0.0492589846253395081 0.0128784198313951492
0.0789447203278541565 0.046214565634727478 0.0112008033320307732
0.0828083008527755737 0.0515186786651611328 0.0108121167868375778
0.0824921280145645142 0.0524301677942276001 0.0132917026057839394
0.0766020789742469788 0.0529233142733573914 0.0231007989495992661
0.0650208070874214172 0.0366847217082977295 0.0233259350061416626
0.066483035683631897 0.0381748005747795105 0.0228787865489721298
0.0755741894245147705 0.053006388247013092 0.0242602117359638214
0.0746571049094200134 0.050830550491809845 0.0236128009855747223
0.0742022544145584106 0.0493325963616371155 0.0229786541312932968
0.0689743906259536743 0.0424804538488388062 0.0234376322478055954
0.0768088176846504211 0.0551000237464904785 0.0245071854442358017
0.069769248366355896 0.0444603562355041504 0.0240690652281045914
0.0755115747451782227 0.0535193271934986115 0.024710480123758316
0.069057755172252655 0.043329726904630661 0.0239834673702716827
0.0631322041153907776 0.0335213206708431244 0.0229774527251720428
0.0723204389214515686 0.0487622916698455811 0.0245612580329179764
0.0731622427701950073 0.0586295202374458313 0.0298292320221662521
0.0717633515596389771 0.0539316385984420776 0.0284101162105798721
0.0542444810271263123 0.0285737235099077225 0.0282322689890861511
0.0714359283447265625 0.0568345040082931519 0.0301815904676914215
0.0662205442786216736 0.0462623387575149536 0.0285397563129663467
0.0653908774256706238 0.0451087914407253265 0.0285562220960855484
0.0643011704087257385 0.043996322900056839 0.0287894755601882935
0.0639570355415344238 0.0430749468505382538 0.0285635292530059814
0.0611571520566940308 0.038950696587562561 0.0284975133836269379
0.0583979971706867218 0.0350495800375938416 0.0285182036459445953
0.0628781914710998535 0.0418769046664237976 0.0287436433136463165
0.0744387879967689514 0.057553466409444809 0.0283054839819669724
0.067759096622467041 0.0484043359756469727 0.0285107027739286423
0.0565855801105499268 0.037474408745765686 0.0310450252145528793
0.0602908805012702942 0.0417343750596046448 0.0305909328162670135
0.0676789283752441406 0.0539242774248123169 0.0313121452927589417
0.0674245506525039673 0.0552071556448936462 0.032036658376455307
0.0717635303735733032 0.0606820434331893921 0.0317189730703830719
0.0695619285106658936 0.0570707023143768311 0.0315133780241012573
0.0593271218240261078 0.0403121449053287506 0.0305707585066556931
0.068776346743106842 0.0549045205116271973 0.0310537833720445633
0.0526763647794723511 0.030668351799249649 0.0305067058652639389
0.0728549957275390625 0.0602698735892772675 0.0308515243232250214
0.0552843064069747925 0.0344763398170471191 0.0305434372276067734
0.0643982738256454468 0.0484607145190238953 0.0309696048498153687
0.0667105987668037415 0.0538420975208282471 0.0318846292793750763
0.0669510141015052795 0.0592082738876342773 0.0338418334722518921
0.0662390962243080139 0.0574288740754127502 0.0335631445050239563
0.0570390820503234863 0.0424749180674552917 0.0328999385237693787
0.067171826958656311 0.058526601642370224 0.0334775112569332123
0.0620888359844684601 0.0494563542306423187 0.0328157618641853333
0.0655561536550521851 0.0575496256351470947 0.033963669091463089
0.0546056479215621948 0.0384914577007293701 0.0327142514288425446
0.0549737215042114258 0.0400720760226249695 0.0330997444689273834
0.0690981671214103699 0.0592880696058273315 0.0327504798769950867
0.0599185936152935028 0.0467061884701251984 0.03294338658452034
0.0666171461343765259 0.0589445754885673523 0.0339197069406509399
0.0508494079113006592 0.0330400913953781128 0.0326824970543384552
0.0684211254119873047 0.0581753551959991455 0.0326972082257270813
0.0625574365258216858 0.0557026565074920654 0.0347831100225448608
0.0623912438750267029 0.0545742958784103394 0.0345170646905899048
0.056764114648103714 0.0489605553448200226 0.0352404266595840454
0.0606920830905437469 0.0557930022478103638 0.0356055162847042084
0.0578103139996528625 0.0490144938230514526 0.0348104089498519897
0.0596394352614879608 0.0523326098918914795 0.035021170973777771
0.0625306665897369385 0.0568273402750492096 0.0351303368806838989
0.0669246688485145569 0.061411932110786438 0.0346255265176296234
0.0503072142601013184 0.0378165096044540405 0.034666355699300766
0.0603973120450973511 0.0552859455347061157 0.0355798155069351196
0.055011652410030365 0.046102084219455719 0.0351342223584651947
0.0509763583540916443 0.0393299199640750885 0.0348328985273838043
0.0519893765449523926 0.0404960587620735168 0.0347491167485713959
0.0529535301029682159 0.0685574710369110107 0.0395714975893497467
0.0527331344783306122 0.0672799199819564819 0.039498794823884964
0.0578237809240818024 0.070852331817150116 0.0392195656895637512
0.0460431724786758423 0.0554874986410140991 0.0393297858536243439
0.0523921027779579163 0.0629186034202575684 0.039206240326166153
0.0460598766803741455 0.0550439208745956421 0.0392944887280464172
0.0563158765435218811 0.069353640079498291 0.0392690151929855347
0.0543667711317539215 0.0689857006072998047 0.0394514277577400208
0.0483288243412971497 0.0578364953398704529 0.0392606742680072784
0.0522316358983516693 0.0643812268972396851 0.0393339917063713074
0.0550268068909645081 0.0720132887363433838 0.0396088697016239166
0.0537701845169067383 0.0668586790561676025 0.0393551476299762726
0.0406016334891319275 0.046368427574634552 0.0392280146479606628
0.0465624779462814331 0.0534768514335155487 0.0390717573463916779
0.0589558593928813934 0.0698368623852729797 0.0389014184474945068
0.0593106485903263092 0.0699655637145042419 0.0388533547520637512
0.0596589893102645874 0.0686958581209182739 0.0386286415159702301
0.0433101058006286621 0.0486911982297897339 0.0390538536012172699
0.0504482388496398926 0.0593000017106533051 0.0391065590083599091
0.0468190014362335205 0.0533087290823459625 0.0390037931501865387
0.0566233769059181213 0.0665778368711471558 0.0389105826616287231
0.0518918260931968689 0.0595443062484264374 0.0388754680752754211
0.0465615168213844299 0.0539333894848823547 0.0391299799084663391
0.0542819611728191376 0.0639848336577415466 0.0390060693025588989
0.0533072426915168762 0.0601718835532665253 0.0386982299387454987
0.0568372085690498352 0.0655520260334014893 0.0387413166463375092
0.0592874959111213684 0.056607324630022049 0.0363706760108470917
0.0628387853503227234 0.0615910999476909637 0.0363497696816921234
0.0592395700514316559 0.0591629259288311005 0.036994103342294693
0.0605811215937137604 0.060099281370639801 0.0367613770067691803
0.0631238445639610291 0.0644022822380065918 0.0369209349155426025
0.0566514283418655396 0.0533047802746295929 0.0364804752171039581
0.0484307333827018738 0.040999535471200943 0.0363462716341018677
0.0564181096851825714 0.051316332072019577 0.0360872223973274231
0.063699968159198761 0.0660102888941764832 0.0371074900031089783
0.0622648000717163086 0.062633030116558075 0.0367920733988285065
0.0608946569263935089 0.0577451959252357483 0.0360957011580467224
0.0554512068629264832 0.0525502562522888184 0.0367084518074989319
0.066214241087436676 0.0654374212026596069 0.036118287593126297
0.0707641169428825378 0.0499002598226070404 0.0268309805542230606
0.0692834258079528809 0.0464615747332572937 0.0260022003203630447
0.0757768154144287109 0.0581654049456119537 0.0275234505534172058
0.0694659426808357239 0.0481449216604232788 0.0268927253782749176
0.0583372525870800018 0.0305129531770944595 0.0258044805377721786
0.071264803409576416 0.0510150045156478882 0.0270811617374420166
0.0727728530764579773 0.0537913180887699127 0.027470877394080162
0.0768036246299743652 0.0571372359991073608 0.0259619485586881638
0.0740368962287902832 0.0525805875658988953 0.0255830381065607071
0.0716751962900161743 0.0499917864799499512 0.0260738171637058258
0.0749070793390274048 0.0560683831572532654 0.0269883200526237488
0.075590960681438446 0.0561525411903858185 0.0264296457171440125
0.0756665989756584167 0.0575700514018535614 0.0272493176162242889
0.045107867568731308 0.0411311313509941101 0.0374798662960529327
0.0523503497242927551 0.0528787039220333099 0.0377338193356990814
0.0527750998735427856 0.0537853538990020752 0.0377880819141864777
0.0565324947237968445 0.0574796199798583984 0.0374857299029827118
0.0578456856310367584 0.0627511441707611084 0.0380999110639095306
0.0590627081692218781 0.064235985279083252 0.0380541086196899414
0.0614268667995929718 0.0677661076188087463 0.0380819179117679596
0.057435840368270874 0.0617562383413314819 0.0380258373916149139
0.0460677668452262878 0.0423958413302898407 0.03746066614985466
0.0439639165997505188 0.0391748398542404175 0.0374215319752693176
0.0508812889456748962 0.0492176637053489685 0.0374511517584323883
0.0502119101583957672 0.0502341389656066895 0.0378078669309616089
0.0602332055568695068 0.0672126635909080505 0.0382901206612586975
0.0672725364565849304 0.0380039326846599579 0.0217201095074415207
0.0649001598358154297 0.0339285172522068024 0.0211012903600931168
0.0684390291571617126 0.0393013991415500641 0.0213883649557828903
0.0579372048377990723 0.0245909802615642548 0.0216474346816539764
0.0644066408276557922 0.0348590649664402008 0.0225736703723669052
0.0752174258232116699 0.050016254186630249 0.0223195832222700119
0.0650677084922790527 0.0347155556082725525 0.0215944536030292511
0.071105659008026123 0.0442938953638076782 0.022454502061009407
0.0629510357975959778 0.0327326059341430664 0.0225307829678058624
0.0697566866874694824 0.0427328571677207947 0.0227835755795240402
0.0640209317207336426 0.0325558856129646301 0.0209959913045167923
0.066273324191570282 0.0368814133107662201 0.0219942647963762283
0.0606076493859291077 0.0269548799842596054 0.0203420482575893402
0.0631765425205230713 0.0364576093852519989 0.0251249969005584717
0.0599314272403717041 0.0299321133643388748 0.0237114802002906799
0.0629290863871574402 0.0346601679921150208 0.0240455791354179382
0.070781409740447998 0.0479237698018550873 0.0255774427205324173
0.0599928312003612518 0.0294498838484287262 0.0232854560017585754
0.061494138091802597 0.0332235358655452728 0.0245035570114850998
0.0729395374655723572 0.050551392138004303 0.0252377018332481384
0.0586077384650707245 0.0302278436720371246 0.025345630943775177
0.0582623854279518127 0.0276560243219137192 0.0237918682396411896
0.075472608208656311 0.0544643029570579529 0.0254584457725286484
0.071104101836681366 0.04815664142370224 0.0254070311784744263
0.0605142600834369659 0.0331275798380374908 0.0254778899252414703
0.0703913569450378418 0.0464862771332263947 0.0249193143099546432
0.0674091428518295288 0.0350818857550621033 0.0186928920447826385
0.0674725770950317383 0.036104246973991394 0.0197195429354906082
0.0720252767205238342 0.0420315414667129517 0.0190863888710737228
0.070893406867980957 0.0404475592076778412 0.0191222019493579865
0.06809234619140625 0.0370539277791976929 0.0197906717658042908
0.0677535608410835266 0.0365464799106121063 0.0197646655142307281
0.0695197507739067078 0.0388554148375988007 0.0195294804871082306
0.0751890838146209717 0.0469826981425285339 0.0195632409304380417
0.0607783086597919464 0.0252022277563810349 0.0182413049042224884
0.0585783869028091431 0.0233698748052120209 0.0196841079741716385
0.0763992443680763245 0.0489778928458690643 0.019857313483953476
0.0713600441813468933 0.0413197651505470276 0.0193489342927932739
0.0608308687806129456 0.0265773534774780273 0.0196737498044967651
0.0648027285933494568 0.0238845404237508774 0.00548065919429063797
0.0750656053423881531 0.0385793298482894897 0.00564573006704449654
0.0637598186731338501 0.022237749770283699 0.00479509914293885231
0.0700554028153419495 0.031667906790971756 0.00670830346643924713
0.0655977204442024231 0.0251452550292015076 0.00602682121098041534
0.0625343471765518188 0.0206674449145793915 0.00557871023193001747
0.0627787411212921143 0.0207642074674367905 0.00447961455211043358
0.0630068480968475342 0.0215530898422002792 0.00649728067219257355
0.0703776180744171143 0.031884465366601944 0.00564691983163356781
0.0767113789916038513 0.0411355793476104736 0.00654250243678689003
0.0641220882534980774 0.022973276674747467 0.00574552267789840698
0.0770723223686218262 0.0417106077075004578 0.00680196750909090042
0.0660282894968986511 0.0253289565443992615 0.00414812937378883362
0.06836661696434021 0.0312732458114624023 0.0115023823454976082
0.0761371180415153503 0.043480459600687027 0.013521246612071991
0.0747276321053504944 0.0414184033870697021 0.0134319160133600235
0.0624643750488758087 0.0234214495867490768 0.012552882544696331
0.0681880265474319458 0.0311540607362985611 0.01174953393638134
0.0610085725784301758 0.0218089241534471512 0.0134016610682010651
0.0716877579689025879 0.0363830365240573883 0.0121694579720497131
0.0654431805014610291 0.0277043264359235764 0.0126051092520356178
0.0613613389432430267 0.0212771445512771606 0.0115177836269140244
0.0762576684355735779 0.0431352183222770691 0.0125799905508756638
0.0642009079456329346 0.0249178372323513031 0.0107635045424103737
0.0606325902044773102 0.0213394146412611008 0.0135243581607937813
0.0649744570255279541 0.0270527657121419907 0.0126375798135995865
0.0643097087740898132 0.0248046945780515671 0.0102640548720955849
0.0624047964811325073 0.0213617272675037384 0.00839484389871358871
0.071097642183303833 0.0337919630110263824 0.00843513291329145432
0.0643626004457473755 0.0238664373755455017 0.0076411152258515358
0.0625495985150337219 0.0214524436742067337 0.00809450633823871613
0.0660534277558326721 0.0272862669080495834 0.0102414935827255249
0.0646472424268722534 0.0245557632297277451 0.00837281160056591034
0.0618388354778289795 0.0205204468220472336 0.00830945558845996857
0.0665939673781394958 0.0273024085909128189 0.00828598998486995697
0.0651011466979980469 0.0250082928687334061 0.0078664831817150116
0.0747397169470787048 0.0395194292068481445 0.00979610625654459
0.0778944939374923706 0.0438997671008110046 0.0094723086804151535
0.0696710497140884399 0.0322221480309963226 0.00964483525604009628
0.0638821572065353394 0.0265871584415435791 0.0143857542425394058
0.0665872395038604736 0.0305905323475599289 0.0145797906443476677
0.0723913237452507019 0.0402106009423732758 0.0164228212088346481
0.0728447437286376953 0.0403774082660675049 0.0157571248710155487
0.063348330557346344 0.027389179915189743 0.0165520515292882919
0.077897585928440094 0.0482716262340545654 0.0166959892958402634
0.0765893086791038513 0.0459909737110137939 0.0161251462996006012
0.0729252547025680542 0.041118524968624115 0.01662416011095047
0.0717020481824874878 0.0391878075897693634 0.016369648277759552
0.0702964887022972107 0.036986086517572403 0.0161004960536956787
0.0763958171010017395 0.0458645597100257874 0.0163327492773532867
0.0752042233943939209 0.0439530089497566223 0.0160422641783952713
0.0735851898789405823 0.041737530380487442 0.0161762293428182602
0.0633357241749763489 0.0212376601994037628 0.00228653335943818092
0.0717498734593391418 0.0332044176757335663 0.00163108285050839186
0.066982954740524292 0.0265298560261726379 0.00338230072520673275
0.0697602853178977966 0.0304375700652599335 0.00261073047295212746
0.0635786429047584534 0.0215910337865352631 0.00237131631001830101
0.075536973774433136 0.0387400798499584198 0.00330112245865166187
0.0669980049133300781 0.026379631832242012 0.00112642976455390453
0.0662793815135955811 0.0254417508840560913 0.00228797551244497299
0.0797707214951515198 0.0447791628539562225 0.0032047969289124012
0.075684569776058197 0.0388992168009281158 0.00262252474203705788
0.0695612505078315735 0.0301771070808172226 0.00292330235242843628
0.069344058632850647 0.0297280587255954742 0.00109905749559402466
0.0440461188554763794 0.0428077057003974915 0.0380572974681854248
0.0440763719379901886 0.0438040830194950104 0.038229677826166153
0.0436406247317790985 0.0423139706254005432 0.0380727387964725494
0.0553252510726451874 0.0595980361104011536 0.0381806492805480957
0.0418789535760879517 0.0373291894793510437 0.0376262515783309937
0.0525421947240829468 0.0552402175962924957 0.0381113477051258087
0.045161861926317215 0.0437757633626461029 0.0379441976547241211
0.0498012416064739227 0.051534704864025116 0.0381491407752037048
0.046576671302318573 0.0457472503185272217 0.0379353240132331848
0.0435570031404495239 0.0393584296107292175 0.0375598296523094177
0.0514474138617515564 0.0550930462777614594 0.038367491215467453
0.0468733124434947968 0.0480767600238323212 0.038279995322227478
0.0492474325001239777 0.0502660125494003296 0.0380627363920211792
0.0378315672278404236 0.0430299416184425354 0.0392746478319168091
0.0433779731392860413 0.0543472170829772949 0.0395311042666435242
0.0346434488892555237 0.040180690586566925 0.0394033119082450867
0.038494303822517395 0.0444655865430831909 0.0393115878105163574
0.0451077334582805634 0.0562341175973415375 0.0394870452582836151
0.0342226773500442505 0.0411675870418548584 0.0395232103765010834
0.0367228463292121887 0.041054215282201767 0.0392450243234634399
0.0393794327974319458 0.0467240512371063232 0.0393866747617721558
0.0378728210926055908 0.0432737581431865692 0.0392886102199554443
0.0476094000041484833 0.0599857643246650696 0.0395005568861961365
0.0349612869322299957 0.0408162996172904968 0.0394170321524143219
0.0354992784559726715 0.0416316315531730652 0.0394205786287784576
0.0419957526028156281 0.0514082983136177063 0.0394582413136959076
0.0332526825368404388 0.0443653054535388947 0.0397217534482479095
0.0371359847486019135 0.0505953170359134674 0.0397388860583305359
0.0371939092874526978 0.0492384247481822968 0.0397028326988220215
0.0478606149554252625 0.0639748871326446533 0.0396903827786445618
0.0422319881618022919 0.055540475994348526 0.0396804660558700562
0.0325399264693260193 0.0408630482852458954 0.0396595373749732971
0.0388531461358070374 0.0521798878908157349 0.0397171527147293091
0.0319308340549468994 0.0434722676873207092 0.0397466644644737244
0.042750723659992218 0.0562116801738739014 0.039678722620010376
0.0358590558171272278 0.0468073263764381409 0.0396896935999393463
0.0420604869723320007 0.0541296079754829407 0.0396512709558010101
0.0388810932636260986 0.053006637841463089 0.0397368595004081726
0.0406404212117195129 0.0538091138005256653 0.0396940335631370544
0.0465570874512195587 0.0403680950403213501 0.0368319861590862274
0.0455788075923919678 0.039617437869310379 0.0369855761528015137
0.043332364410161972 0.0370384976267814636 0.0371350906789302826
0.0498087182641029358 0.044026203453540802 0.0365977995097637177
0.0474988371133804321 0.0400301218032836914 0.0364321507513523102
0.0429465398192405701 0.0362208932638168335 0.0370717532932758331
0.0548160485923290253 0.0538738109171390533 0.0372384153306484222
0.0503706187009811401 0.0469780229032039642 0.037108447402715683
0.0451240949332714081 0.0399261936545372009 0.0372132174670696259
0.042624257504940033 0.0339495465159416199 0.0366414710879325867
0.0518164932727813721 0.0498921759426593781 0.0373102091252803802
0.042420610785484314 0.0352774634957313538 0.0370260626077651978
0.0562913417816162109 0.0562173612415790558 0.037294633686542511
0.0616896897554397583 0.042598772794008255 0.0300151631236076355
0.0587648674845695496 0.0393007248640060425 0.0304771643131971359
0.0539441667497158051 0.0291889775544404984 0.028781060129404068
0.0577094182372093201 0.034833662211894989 0.0289215799421072006
0.0553084388375282288 0.0309844128787517548 0.0287006702274084091
0.0537923574447631836 0.0307519882917404175 0.0297165066003799438
0.0634177029132843018 0.0457749776542186737 0.0303874537348747253
0.0535045675933361053 0.0277098417282104492 0.028333619236946106
0.0519835762679576874 0.0282413922250270844 0.0297546721994876862
0.0572915263473987579 0.0352699458599090576 0.0294645577669143677
0.0600445233285427094 0.0401048772037029266 0.0299392901360988617
0.0567949153482913971 0.0336087234318256378 0.0289642028510570526
0.0513051524758338928 0.0284091532230377197 0.0303520802408456802
0.0568985827267169952 0.0453324355185031891 0.0340174213051795959
0.0508551113307476044 0.0338303148746490479 0.032968275249004364
0.0535773821175098419 0.0401670336723327637 0.0338631309568881989
0.0474084913730621338 0.0306495260447263718 0.0336046330630779266
0.0522289685904979706 0.0394475795328617096 0.0343039147555828094
0.0474977493286132812 0.0307488515973091125 0.0335943475365638733
0.0579314641654491425 0.0479568168520927429 0.0344373732805252075
0.0544311441481113434 0.0415486618876457214 0.0339224487543106079
0.0651600956916809082 0.0578311607241630554 0.0342732295393943787
0.0623675398528575897 0.0529270991683006287 0.0339385569095611572
0.0575833730399608612 0.0474631451070308685 0.0344386324286460876
0.0544376559555530548 0.0397327020764350891 0.0332554839551448822
0.064564146101474762 0.0510894954204559326 0.0320223197340965271
0.0573939010500907898 0.0400521419942378998 0.0316714644432067871
0.0609767921268939972 0.0465650707483291626 0.032285887748003006
0.0662254169583320618 0.0546169020235538483 0.0325306020677089691
0.0622354522347450256 0.0470538511872291565 0.031709868460893631
0.0639558807015419006 0.0513890311121940613 0.0325364843010902405
0.0535566024482250214 0.0345929265022277832 0.0316807106137275696
0.0665502622723579407 0.0541704669594764709 0.0321299321949481964
0.0617976114153862 0.0480054989457130432 0.0324039161205291748
0.0500129982829093933 0.0298895202577114105 0.0318380072712898254
0.0496159344911575317 0.0289357006549835205 0.0316677838563919067
0.0623770952224731445 0.0490389131009578705 0.0324945002794265747
0.0626076310873031616 0.047593139111995697 0.0317132808268070221
0.0548721328377723694 0.046650569885969162 0.0353574864566326141
0.0544151291251182556 0.0471270233392715454 0.0356946252286434174
0.0470751002430915833 0.0340891331434249878 0.034931667149066925
0.0482752881944179535 0.0367087759077548981 0.0352020636200904846
0.0514948815107345581 0.0426020175218582153 0.0355887897312641144
0.0595971830189228058 0.0553981438279151917 0.0359545089304447174
0.049642655998468399 0.0386909842491149902 0.0352108441293239594
0.0511576086282730103 0.0406343713402748108 0.035145096480846405
0.0580863542854785919 0.0526189208030700684 0.0357689261436462402
0.047314472496509552 0.0343526899814605713 0.0349082872271537781
0.0643882453441619873 0.0621684715151786804 0.0359330028295516968
0.0588977858424186707 0.0534817613661289215 0.0356805436313152313
0.0510291606187820435 0.0418244078755378723 0.0355551987886428833
0.0542733334004878998 0.0276303552091121674 0.0276330523192882538
0.0602976381778717041 0.0363141670823097229 0.0276832655072212219
0.0712463855743408203 0.0518977455794811249 0.0276501867920160294
0.0621688142418861389 0.0380006134510040283 0.0270661637187004089
0.0664666593074798584 0.0446779094636440277 0.0274037644267082214
0.0673248171806335449 0.0460363849997520447 0.0274869464337825775
0.0548492111265659332 0.0272533092647790909 0.0268822368234395981
0.0567523986101150513 0.0319377705454826355 0.0281131211668252945
0.054820869117975235 0.0260052289813756943 0.0261263437569141388
0.057250387966632843 0.0296784732490777969 0.0262537393718957901
0.0658557787537574768 0.0448396429419517517 0.0280510894954204559
0.0542489998042583466 0.0283427145332098007 0.0281007047742605209
0.0572806298732757568 0.0306684710085391998 0.026846395805478096
0.0522346422076225281 0.0570557042956352234 0.0384967662394046783
0.0385061949491500854 0.0371566377580165863 0.0384595319628715515
0.0414906814694404602 0.0448398441076278687 0.0388945303857326508
0.0483889207243919373 0.0517852231860160828 0.038524966686964035
0.038280583918094635 0.0401771143078804016 0.0388845838606357574
0.0390464141964912415 0.0386936739087104797 0.0385568737983703613
0.0383961871266365051 0.0392950363457202911 0.0387514233589172363
0.0411998778581619263 0.0435532480478286743 0.0387837402522563934
0.0456933528184890747 0.0485928729176521301 0.038608551025390625
0.0411169975996017456 0.0434362031519412994 0.0387839078903198242
0.0400970093905925751 0.0397549420595169067 0.0385010354220867157
0.0562361292541027069 0.0628593415021896362 0.0385080724954605103
0.0416025370359420776 0.042684800922870636 0.038600187748670578
0.0515121147036552429 0.0693193674087524414 0.0396936275064945221
0.0342373475432395935 0.0488837584853172302 0.0397996902465820312
0.0495909564197063446 0.0670331493020057678 0.0397050827741622925
0.0314827002584934235 0.0446781590580940247 0.0397928953170776367
0.0453168004751205444 0.0627033337950706482 0.0397495217621326447
0.0426235310733318329 0.0593539513647556305 0.0397619642317295074
0.0409309975802898407 0.0567183643579483032 0.0397564955055713654
0.0373998135328292847 0.0528785586357116699 0.0397866293787956238
0.0426130294799804688 0.060513671487569809 0.0397913828492164612
0.0521665923297405243 0.0726388841867446899 0.0397533513605594635
0.035876147449016571 0.0500865206122398376 0.039771202951669693
0.0412829294800758362 0.0578920207917690277 0.0397733002901077271
0.0478985607624053955 0.067574821412563324 0.0397791787981987
0.0258543491363525391 0.0695299133658409119 0.0350914113223552704
0.0264478288590908051 0.0706130415201187134 0.0350210778415203094
0.0320305153727531433 0.0797059834003448486 0.034686654806137085
0.0365565717220306396 0.0824775993824005127 0.0357891060411930084
0.023868754506111145 0.0683471113443374634 0.0345978774130344391
0.0360275618731975555 0.0821318924427032471 0.0356667488813400269
0.0358506031334400177 0.0816622450947761536 0.0357315205037593842
0.0350174494087696075 0.0817247852683067322 0.0353575684130191803
0.0357666537165641785 0.0832587182521820068 0.0352190360426902771
0.0324256829917430878 0.0806724056601524353 0.0345666036009788513
0.0270409472286701202 0.0707785636186599731 0.03522457554936409
0.0221922099590301514 0.0663082227110862732 0.0344917364418506622
0.0276060216128826141 0.0736446157097816467 0.0346097759902477264
0.0152264852076768875 0.0613000206649303436 0.0326920151710510254
0.0297308098524808884 0.0806668177247047424 0.0331844128668308258
0.0175888184458017349 0.0645146071910858154 0.0327501781284809113
0.0274899937212467194 0.078961886465549469 0.0326380208134651184
0.0310135204344987869 0.0804817229509353638 0.0339214429259300232
0.0238381512463092804 0.0736147090792655945 0.0326861850917339325
0.032181859016418457 0.0816914290189743042 0.034089110791683197
0.0252317450940608978 0.0730627626180648804 0.0336151272058486938
0.0164280049502849579 0.0628443807363510132 0.0327547155320644379
0.0319478847086429596 0.084013916552066803 0.0331183485686779022
0.0289431847631931305 0.0778039693832397461 0.033819492906332016
0.0344245545566082001 0.0858226120471954346 0.0337499082088470459
0.0341901816427707672 0.0883550047874450684 0.0327022410929203033
0.0174390990287065506 0.0686120614409446716 0.0308829415589570999
0.0208607912063598633 0.0731781348586082458 0.0310240481048822403
0.0325151681900024414 0.0880178362131118774 0.0318182371556758881
0.0291887819766998291 0.0828728079795837402 0.0319918431341648102
0.0208052061498165131 0.0726427286863327026 0.0312247555702924728
0.0288300178945064545 0.0820480436086654663 0.0321293361485004425
0.0233675427734851837 0.0766114518046379089 0.0310886148363351822
0.0323566235601902008 0.0880603119730949402 0.0316998884081840515
0.0327735431492328644 0.0879428386688232422 0.0320136509835720062
0.0229241251945495605 0.0756923109292984009 0.0312144309282302856
0.0310342609882354736 0.0864851996302604675 0.0315619483590126038
0.0241430532187223434 0.0783788636326789856 0.0307981912046670914
0.0284570064395666122 0.0832695364952087402 0.0313572734594345093
0.0481194667518138885 0.0768977701663970947 0.0394878275692462921
0.0462477393448352814 0.0737554952502250671 0.0395232588052749634
0.0433829575777053833 0.0715312734246253967 0.0393822677433490753
0.0393306352198123932 0.0660031288862228394 0.0393626950681209564
0.041446637362241745 0.0696003362536430359 0.039319254457950592
0.0468275919556617737 0.0773807018995285034 0.0393120422959327698
0.0361234657466411591 0.0624178946018218994 0.0392875522375106812
0.0410268791019916534 0.0667250081896781921 0.0394911132752895355
0.0375820957124233246 0.0646628960967063904 0.0392753295600414276
0.0329254716634750366 0.0585800334811210632 0.0392324775457382202
0.038182821124792099 0.0664642304182052612 0.0392040945589542389
0.0415128171443939209 0.0677983909845352173 0.0394624620676040649
0.0477838031947612762 0.0779887661337852478 0.0393692441284656525
0.0328348726034164429 0.0676978528499603271 0.037929236888885498
0.0368157327175140381 0.0755411610007286072 0.0375389568507671356
0.0306194499135017395 0.0666566640138626099 0.0375453345477581024
0.0368746928870677948 0.0728855952620506287 0.038034435361623764
0.0417493171989917755 0.0805647820234298706 0.0379046797752380371
0.040365561842918396 0.0800092220306396484 0.0376477576792240143
0.0298135466873645782 0.0645652040839195251 0.0377154238522052765
0.0299422144889831543 0.0663670673966407776 0.0374227948486804962
0.0326639264822006226 0.0692320987582206726 0.0376076176762580872
0.0328119546175003052 0.0694706737995147705 0.0376027040183544159
0.0371065177023410797 0.0732382312417030334 0.0380305387079715729
0.0351840034127235413 0.0715909004211425781 0.0378319136798381805
0.0340427681803703308 0.0712118297815322876 0.0376057103276252747
0.0380969271063804626 0.0690101608633995056 0.0388707369565963745
0.0451117977499961853 0.0806250199675559998 0.0386677198112010956
0.039365425705909729 0.0722638517618179321 0.0386873632669448853
0.0321194492280483246 0.0633305907249450684 0.0385074242949485779
0.0362340882420539856 0.0675485879182815552 0.0387182943522930145
0.0303220842033624649 0.0607229173183441162 0.0385126098990440369
0.0367837622761726379 0.0688377544283866882 0.0386541858315467834
0.0366332903504371643 0.0682481676340103149 0.0387018322944641113
0.028258180245757103 0.0580690652132034302 0.0384752601385116577
0.0360679104924201965 0.0662052780389785767 0.0388589277863502502
0.0271166302263736725 0.0555702522397041321 0.0385857000946998596
0.0375536605715751648 0.0713345929980278015 0.0384765081107616425
0.0375689417123794556 0.0703854337334632874 0.0385999754071235657
0.0380923710763454437 0.0827325060963630676 0.0363072492182254791
0.0381977856159210205 0.0806530043482780457 0.0368370711803436279
0.0305789299309253693 0.0710377693176269531 0.0365363806486129761
0.0385798104107379913 0.0807579085230827332 0.0369417667388916016
0.0249563418328762054 0.0633510425686836243 0.0364548526704311371
0.0391456261277198792 0.0818040966987609863 0.0368851944804191589
0.0276374146342277527 0.0666642412543296814 0.0365773923695087433
0.0405813492834568024 0.083779655396938324 0.0369029827415943146
0.0223555639386177063 0.0611404143273830414 0.0360976047813892365
0.039483536034822464 0.0815866664052009583 0.0370515063405036926
0.029373951256275177 0.0700816363096237183 0.0363546907901763916
0.0306411758065223694 0.0723929479718208313 0.0362355373799800873
0.0387109890580177307 0.0816915854811668396 0.0367644540965557098
0.0268412064760923386 0.0861492007970809937 0.0287996102124452591
0.0257032178342342377 0.0852671340107917786 0.0284090247005224228
0.0284594595432281494 0.0885825678706169128 0.0287353508174419403
0.0284171123057603836 0.087683849036693573 0.0291759185492992401
0.029029136523604393 0.0872038379311561584 0.0298875980079174042
0.027986457571387291 0.0863612145185470581 0.0295478198677301407
0.0171273835003376007 0.072690919041633606 0.0285817552357912064
0.0278321914374828339 0.0864615887403488159 0.0293792728334665298
0.0239860489964485168 0.0811317712068557739 0.029293576255440712
0.0239564739167690277 0.082764260470867157 0.0284133646637201309
0.0244327113032341003 0.0810297876596450806 0.029682449996471405
0.014596274122595787 0.069131314754486084 0.0285527464002370834
0.0278594270348548889 0.0882148072123527527 0.0284782480448484421
0.0187413077801465988 0.0924511551856994629 0.0127368606626987457
0.00738121010363101959 0.0770956426858901978 0.0111571233719587326
0.0108713218942284584 0.0821752846240997314 0.0109838675707578659
0.0161486826837062836 0.0893269926309585571 0.0116845034062862396
0.00142694893293082714 0.0690082460641860962 0.010400054045021534
0.015316912904381752 0.0885644108057022095 0.0109107978641986847
0.0204006005078554153 0.0948424115777015686 0.0126976799219846725
0.0196472890675067902 0.0940155163407325745 0.0122448112815618515
0.0172056145966053009 0.0907271653413772583 0.0118832960724830627
0.013597121462225914 0.085833430290222168 0.0114108296111226082
0.0158397108316421509 0.0890129208564758301 0.0114531274884939194
0.011021382175385952 0.0827142447233200073 0.0103932684287428856
0.0203808341175317764 0.0955250486731529236 0.0114044938236474991
0.0177391283214092255 0.0927804931998252869 0.0092102494090795517
0.0108229164034128189 0.0836933404207229614 0.00716575654223561287
0.00970189645886421204 0.0818371772766113281 0.00782597064971923828
0.010945446789264679 0.0838060155510902405 0.00732697313651442528
0.0167078599333763123 0.0919940397143363953 0.00743449106812477112
0.0119430916383862495 0.0847198888659477234 0.00864882208406925201
0.00698811560869216919 0.0779510363936424255 0.00785302184522151947
0.0148327620700001717 0.0885763168334960938 0.00934854336082935333
0.00257278792560100555 0.0718291625380516052 0.00737732602283358574
0.0173881649971008301 0.0926319211721420288 0.0082978270947933197
0.0106021221727132797 0.0828062519431114197 0.00864504184573888779
0.00129045662470161915 0.0700010731816291809 0.00736885890364646912
0.0141714941710233688 0.0882313922047615051 0.00779758207499980927
0.0203340984880924225 0.0976897552609443665 0.00554037280380725861
0.0113645754754543304 0.0852412432432174683 0.0039662923663854599
0.0115065965801477432 0.0851221084594726562 0.00536898896098136902
0.0172299817204475403 0.093239806592464447 0.00561360036954283714
0.0175470132380723953 0.0941484272480010986 0.00362756126560270786
0.0132899899035692215 0.0876979529857635498 0.00524309789761900902
0.0159955881536006927 0.0913947597146034241 0.00597148295491933823
0.0184251442551612854 0.0952767282724380493 0.00417564064264297485
0.00682042539119720459 0.0786332637071609497 0.00448150001466274261
0.0181000493466854095 0.0948693305253982544 0.00392780080437660217
0.0104066431522369385 0.0839152038097381592 0.00378319621086120605
-0.000703707162756472826 0.0680789574980735779 0.00364821287803351879
0.0144026819616556168 0.0768402367830276489 0.0232538264244794846
0.0230916477739810944 0.0893712490797042847 0.0231627263128757477
0.0235782545059919357 0.0896936506032943726 0.0234412048012018204
0.0211281087249517441 0.0870077908039093018 0.0228332560509443283
0.0130628310143947601 0.0750404074788093567 0.0231688600033521652
0.0239686593413352966 0.0904109105467796326 0.0233218260109424591
0.01692931167781353 0.0798667147755622864 0.0236888136714696884
0.0170920249074697495 0.0810194388031959534 0.0230008605867624283
0.0204846635460853577 0.0842577889561653137 0.0242019724100828171
0.0261064507067203522 0.0923818424344062805 0.0241307318210601807
0.024259861558675766 0.0897802785038948059 0.0241040904074907303
0.0223934613168239594 0.087108902633190155 0.0241084843873977661
0.0222489647567272186 0.0863362103700637817 0.0245318170636892319
0.00540815480053424835 0.0700713694095611572 0.0174154527485370636
0.0145835764706134796 0.0832445397973060608 0.0173390880227088928
0.021010521799325943 0.0905959829688072205 0.0193523317575454712
0.00984603632241487503 0.0767150893807411194 0.017078544944524765
0.00487280730158090591 0.0695673078298568726 0.01712842658162117
0.0224084854125976562 0.0925469323992729187 0.019402526319026947
0.0229769553989171982 0.093449614942073822 0.0193024426698684692
0.021753702312707901 0.0934014320373535156 0.0174306593835353851
0.0229899697005748749 0.0939941629767417908 0.0187229178845882416
0.0172670651227235794 0.0868062600493431091 0.0176373440772294998
0.0229887980967760086 0.0944432541728019714 0.01822626031935215
0.0194315426051616669 0.0901828482747077942 0.0173228904604911804
0.0230094082653522491 0.0952303037047386169 0.0173914935439825058
0.015721270814538002 0.0814898386597633362 0.0208500884473323822
0.0167244467884302139 0.0822401940822601318 0.0214644111692905426
0.0102256126701831818 0.0738073065876960754 0.0207005534321069717
0.0035143562126904726 0.0650283694267272949 0.019975125789642334
0.0219274722039699554 0.0897959768772125244 0.021351788192987442
0.0113612823188304901 0.0760984867811203003 0.0200979858636856079
0.018326079472899437 0.0841184109449386597 0.0218327827751636505
0.00600762339308857918 0.0681953653693199158 0.0203296411782503128
0.024480799213051796 0.0928728505969047546 0.0218646656721830368
0.0237400680780410767 0.0913387909531593323 0.0222933962941169739
0.0150525551289319992 0.0804495513439178467 0.0209268480539321899
0.0218914784491062164 0.0892626643180847168 0.021785663440823555
0.0203541219234466553 0.0871633291244506836 0.0216990169137716293
0.0214855391532182693 0.0940176919102668762 0.0162037182599306107
0.0208477228879928589 0.0932474806904792786 0.0160089042037725449
0.0211206581443548203 0.0932555124163627625 0.0165375471115112305
0.0135172754526138306 0.0840661302208900452 0.0142258992418646812
