ply
format ascii 1.0
element vertex 705
property float x
property float y
property float z
end_header
9.99200722162640886e-16 0.086353890597820282 0.0656177401542663574
9.99200722162640886e-16 0.0359382107853889465 0.036616988480091095
9.99200722162640886e-16 0.0707365348935127258 0.107688821852207184
9.99200722162640886e-16 0.118011891841888428 0.113811828196048737
9.99200722162640886e-16 0.0300644580274820328 0.0310728028416633606
9.99200722162640886e-16 0.0879423394799232483 0.102022565901279449
9.99200722162640886e-16 0.143615961074829102 0.112251751124858856
9.99200722162640886e-16 0.000880809326190501451 0.0246246904134750366
9.99200722162640886e-16 0.0707800984382629395 0.0843610018491744995
9.99200722162640886e-16 0.0111048677936196327 0.0743841230869293213
9.99200722162640886e-16 0.0286437422037124634 0.117335803806781769
9.99200722162640886e-16 0.0829026177525520325 0.0694672763347625732
9.99200722162640886e-16 0.00145995058119297028 0.0633749216794967651
9.99200722162640886e-16 0.00673092156648635864 0.0225651413202285767
9.99200722162640886e-16 0.00537292473018169403 0.0337315276265144348
9.99200722162640886e-16 0.120891198515892029 0.101528927683830261
9.99200722162640886e-16 0.0107825882732868195 0.0539557114243507385
9.99200722162640886e-16 0.0578646250069141388 0.0422829464077949524
9.99200722162640886e-16 0.0591596737504005432 0.101520076394081116
9.99200722162640886e-16 0.0228324700146913528 0.0318916365504264832
9.99200722162640886e-16 0.109853588044643402 0.114032469689846039
9.99200722162640886e-16 0.0267984941601753235 0.0356029868125915527
9.99200722162640886e-16 0.0246961340308189392 0.0696191936731338501
9.99200722162640886e-16 0.0130634214729070663 0.0150205716490745544
9.99200722162640886e-16 0.0640116855502128601 0.0618077963590621948
9.99200722162640886e-16 0.0373837314546108246 0.054524935781955719
9.99200722162640886e-16 0.0087393689900636673 0.101049132645130157
9.99200722162640886e-16 0.0497149601578712463 0.0793131142854690552
9.99200722162640886e-16 0.0727502927184104919 0.0933812409639358521
9.99200722162640886e-16 0.0887433812022209167 0.0899948999285697937
9.99200722162640886e-16 0.0449991784989833832 0.101571455597877502
9.99200722162640886e-16 0.0444954633712768555 0.0981787890195846558
9.99200722162640886e-16 0.0507985129952430725 0.0658137798309326172
9.99200722162640886e-16 0.0104317525401711464 0.0384269207715988159
9.99200722162640886e-16 0.160740673542022705 0.118336156010627747
9.99200722162640886e-16 0.0177190341055393219 0.0176702141761779785
9.99200722162640886e-16 0.0947570055723190308 0.101970940828323364
9.99200722162640886e-16 0.0142011595889925957 0.107129916548728943
9.99200722162640886e-16 0.00386698683723807335 0.0644680336117744446
9.99200722162640886e-16 0.0623848065733909607 0.0854295492172241211
9.99200722162640886e-16 0.103209562599658966 0.0884565114974975586
9.99200722162640886e-16 0.0194194819778203964 0.111196823418140411
9.99200722162640886e-16 0.0476226620376110077 0.111063100397586823
9.99200722162640886e-16 0.0219564549624919891 0.0572254657745361328
9.99200722162640886e-16 0.0681292414665222168 0.112070530652999878
9.99200722162640886e-16 0.109146974980831146 0.10214107483625412
9.99200722162640886e-16 0.0230502914637327194 0.0482521876692771912
9.99200722162640886e-16 0.0536758005619049072 0.0784280598163604736
9.99200722162640886e-16 0.115462891757488251 0.0961033403873443604
9.99200722162640886e-16 0.0398309342563152313 0.11244790256023407
9.99200722162640886e-16 0.0588491111993789673 0.0639259666204452515
9.99200722162640886e-16 0.0999626144766807556 0.077691987156867981
9.99200722162640886e-16 0.08522816002368927 0.105921916663646698
9.99200722162640886e-16 0.0564033873379230499 0.10475844144821167
9.99200722162640886e-16 0.0686170607805252075 0.0697719305753707886
9.99200722162640886e-16 0.0626501068472862244 0.0905816406011581421
9.99200722162640886e-16 0.0669010430574417114 0.0721413940191268921
9.99200722162640886e-16 0.0038186204619705677 0.00767684727907180786
9.99200722162640886e-16 0.0305736996233463287 0.0561659038066864014
9.99200722162640886e-16 0.0773214101791381836 0.0905908569693565369
9.99200722162640886e-16 0.152030602097511292 0.107509665191173553
9.99200722162640886e-16 0.00803168211132287979 0.0644554197788238525
9.99200722162640886e-16 0.0600965693593025208 0.117868140339851379
9.99200722162640886e-16 0.04626508429646492 0.04412832111120224
9.99200722162640886e-16 0.0446749217808246613 0.0854816660284996033
9.99200722162640886e-16 0.098819345235824585 0.0708352476358413696
9.99200722162640886e-16 0.1084723100066185 0.0817790552973747253
9.99200722162640886e-16 0.0737231448292732239 0.07602643221616745
9.99200722162640886e-16 0.0933902785181999207 0.0877498388290405273
9.99200722162640886e-16 0.0234115030616521835 0.0170659869909286499
9.99200722162640886e-16 0.148418962955474854 0.103870339691638947
9.99200722162640886e-16 0.0618561767041683197 0.0738862380385398865
9.99200722162640886e-16 0.108350694179534912 0.0843462422490119934
9.99200722162640886e-16 0.00861251261085271835 0.0124173462390899658
9.99200722162640886e-16 0.0934117361903190613 0.0862724184989929199
9.99200722162640886e-16 0.0175774786621332169 0.0240991190075874329
9.99200722162640886e-16 0.104643754661083221 0.0937763899564743042
9.99200722162640886e-16 0.050400417298078537 0.0378897488117218018
9.99200722162640886e-16 0.0147341229021549225 0.0196932628750801086
9.99200722162640886e-16 0.100257456302642822 0.0966830551624298096
9.99200722162640886e-16 0.0239550694823265076 0.107587568461894989
9.99200722162640886e-16 0.018790416419506073 0.078681260347366333
9.99200722162640886e-16 0.00769189046695828438 0.0253855139017105103
9.99200722162640886e-16 0.119189567863941193 0.105503268539905548
9.99200722162640886e-16 0.0348862148821353912 0.0950763523578643799
9.99200722162640886e-16 0.0240768752992153168 0.0364995896816253662
9.99200722162640886e-16 0.0931101962924003601 0.0759812444448471069
9.99200722162640886e-16 0.0549551248550415039 0.0837464258074760437
9.99200722162640886e-16 0.00703285541385412216 0.0155074596405029297
9.99200722162640886e-16 0.0883829593658447266 0.116497650742530823
9.99200722162640886e-16 0.00608664145693182945 0.00724658370018005371
9.99200722162640886e-16 0.0454991087317466736 0.0832123905420303345
9.99200722162640886e-16 0.041517253965139389 0.109033107757568359
9.99200722162640886e-16 0.0257191359996795654 0.0683884173631668091
9.99200722162640886e-16 0.10450320690870285 0.0816777944564819336
9.99200722162640886e-16 0.060120902955532074 0.0849647969007492065
9.99200722162640886e-16 0.0986667349934577942 0.104320645332336426
9.99200722162640886e-16 0.0979681536555290222 0.0804181471467018127
9.99200722162640886e-16 0.038521643728017807 0.0787710919976234436
9.99200722162640886e-16 0.0550979785621166229 0.0427446886897087097
9.99200722162640886e-16 0.0104345036670565605 0.0653180480003356934
9.99200722162640886e-16 0.00779130682349205017 0.113712459802627563
9.99200722162640886e-16 0.038533281534910202 0.030611872673034668
9.99200722162640886e-16 0.0794656351208686829 0.103816449642181396
9.99200722162640886e-16 0.0217904727905988693 0.0678885951638221741
9.99200722162640886e-16 0.0604212023317813873 0.0548043027520179749
9.99200722162640886e-16 0.00665719900280237198 0.0227065011858940125
9.99200722162640886e-16 0.0727137327194213867 0.0639805197715759277
9.99200722162640886e-16 0.0584348104894161224 0.0590792149305343628
9.99200722162640886e-16 0.0106972837820649147 0.0595475509762763977
9.99200722162640886e-16 0.0979437977075576782 0.101369135081768036
9.99200722162640886e-16 0.00194350024685263634 0.045397832989692688
9.99200722162640886e-16 0.0581541173160076141 0.0862750113010406494
9.99200722162640886e-16 0.0490397587418556213 0.0431566685438156128
9.99200722162640886e-16 0.103737883269786835 0.110385388135910034
9.99200722162640886e-16 0.0664468705654144287 0.0538527593016624451
9.99200722162640886e-16 0.0626802816987037659 0.0825675129890441895
9.99200722162640886e-16 0.0252081733196973801 0.044029824435710907
9.99200722162640886e-16 0.0813909173011779785 0.115295320749282837
9.99200722162640886e-16 0.0242628362029790878 0.060710955411195755
9.99200722162640886e-16 0.0285225138068199158 0.027479708194732666
9.99200722162640886e-16 0.0650321915745735168 0.0958451554179191589
9.99200722162640886e-16 0.0534587837755680084 0.106240004301071167
9.99200722162640886e-16 0.120989814400672913 0.10318562388420105
9.99200722162640886e-16 0.0433920770883560181 0.0334047600626945496
9.99200722162640886e-16 0.102443158626556396 0.109477788209915161
9.99200722162640886e-16 0.0549375414848327637 0.0609341412782669067
9.99200722162640886e-16 0.120719365775585175 0.104684710502624512
9.99200722162640886e-16 0.0314761102199554443 0.0942890942096710205
9.99200722162640886e-16 0.0161981023848056793 0.0921065360307693481
9.99200722162640886e-16 0.0063210134394466877 0.0244534537196159363
9.99200722162640886e-16 0.0791345611214637756 0.0873236209154129028
9.99200722162640886e-16 0.111180022358894348 0.0900498852133750916
9.99200722162640886e-16 0.00706770177930593491 0.0660392865538597107
9.99200722162640886e-16 0.0520648583769798279 0.0883834958076477051
9.99200722162640886e-16 0.123032450675964355 0.101037658751010895
9.99200722162640886e-16 0.0327560901641845703 0.0403156206011772156
9.99200722162640886e-16 0.049899369478225708 0.0891364067792892456
9.99200722162640886e-16 0.0445909276604652405 0.0605125352740287781
9.99200722162640886e-16 0.0548750385642051697 0.0649997666478157043
9.99200722162640886e-16 0.0165436882525682449 0.0861048102378845215
9.99200722162640886e-16 0.00397337693721055984 0.104548349976539612
9.99200722162640886e-16 0.0690727457404136658 0.10468706488609314
9.99200722162640886e-16 0.0507237203419208527 0.0577872134745121002
9.99200722162640886e-16 0.080275118350982666 0.0941872745752334595
9.99200722162640886e-16 0.101385869085788727 0.11071179062128067
9.99200722162640886e-16 0.0168395619839429855 0.06925191730260849
9.99200722162640886e-16 0.0382135063409805298 0.0946411266922950745
9.99200722162640886e-16 0.00345789198763668537 0.032423362135887146
9.99200722162640886e-16 0.101524204015731812 0.0903636515140533447
9.99200722162640886e-16 0.136652633547782898 0.103628270328044891
9.99200722162640886e-16 0.0584778264164924622 0.117648392915725708
9.99200722162640886e-16 0.0770636871457099915 0.112616099417209625
9.99200722162640886e-16 0.15149843692779541 0.109554313123226166
9.99200722162640886e-16 0.0578021667897701263 0.106041416525840759
9.99200722162640886e-16 0.109874308109283447 0.1132856085896492
9.99200722162640886e-16 0.0710847601294517517 0.0490970015525817871
9.99200722162640886e-16 0.00545941246673464775 0.104028135538101196
9.99200722162640886e-16 0.0140260253101587296 0.10073389858007431
9.99200722162640886e-16 0.0489679053425788879 0.0796956717967987061
9.99200722162640886e-16 0.00192308973055332899 0.0978894010186195374
9.99200722162640886e-16 0.0384522303938865662 0.039409242570400238
9.99200722162640886e-16 0.0307055208832025528 0.0636566728353500366
9.99200722162640886e-16 0.120954498648643494 0.0910055190324783325
9.99200722162640886e-16 0.0462642088532447815 0.0684634149074554443
9.99200722162640886e-16 0.0902670323848724365 0.0920664221048355103
9.99200722162640886e-16 0.00987136084586381912 0.0851843655109405518
9.99200722162640886e-16 0.0475019887089729309 0.0884753912687301636
9.99200722162640886e-16 0.0300577543675899506 0.0260247886180877686
9.99200722162640886e-16 0.0743621513247489929 0.0965140536427497864
9.99200722162640886e-16 0.0441512539982795715 0.0993251726031303406
9.99200722162640886e-16 0.0281666964292526245 0.0539264678955078125
9.99200722162640886e-16 0.0321429222822189331 0.104806877672672272
9.99200722162640886e-16 0.0122660016641020775 0.115054070949554443
9.99200722162640886e-16 0.0524293780326843262 0.0836830586194992065
9.99200722162640886e-16 0.0569956190884113312 0.101509235799312592
9.99200722162640886e-16 0.0616033077239990234 0.0739068984985351562
9.99200722162640886e-16 0.00185300991870462894 0.066320665180683136
9.99200722162640886e-16 0.0566390976309776306 0.0717796087265014648
9.99200722162640886e-16 0.0812717005610466003 0.0744095146656036377
9.99200722162640886e-16 0.0267170406877994537 0.0209328606724739075
9.99200722162640886e-16 0.125405654311180115 0.0880887582898139954
9.99200722162640886e-16 0.00379997002892196178 0.0891185477375984192
9.99200722162640886e-16 0.112865276634693146 0.11592227965593338
9.99200722162640886e-16 0.0916728079319000244 0.0848760008811950684
9.99200722162640886e-16 0.0298465117812156677 0.110517062246799469
9.99200722162640886e-16 0.0200468637049198151 0.118140064179897308
9.99200722162640886e-16 0.0137973949313163757 0.0469378083944320679
9.99200722162640886e-16 0.112348712980747223 0.0795577540993690491
9.99200722162640886e-16 0.1176900714635849 0.0857336223125457764
9.99200722162640886e-16 0.0977217480540275574 0.10462382435798645
9.99200722162640886e-16 0.0203329138457775116 0.0908193737268447876
9.99200722162640886e-16 0.00350780785083770752 0.0183285847306251526
9.99200722162640886e-16 0.130170971155166626 0.119360059499740601
9.99200722162640886e-16 0.0870970264077186584 0.0656140595674514771
9.99200722162640886e-16 0.134435713291168213 0.105035409331321716
9.99200722162640886e-16 0.0423962026834487915 0.0735613256692886353
9.99200722162640886e-16 0.0282999575138092041 0.119394704699516296
9.99200722162640886e-16 0.0775818750262260437 0.0857942476868629456
9.99200722162640886e-16 0.133241087198257446 0.103193275630474091
9.99200722162640886e-16 0.0355787277221679688 0.073179200291633606
9.99200722162640886e-16 0.0592390671372413635 0.102971449494361877
9.99200722162640886e-16 0.00202921964228153229 0.00337074697017669678
9.99200722162640886e-16 0.0374953821301460266 0.0738242194056510925
9.99200722162640886e-16 0.0749958977103233337 0.0986029058694839478
9.99200722162640886e-16 0.0850159153342247009 0.10563216358423233
9.99200722162640886e-16 0.0382255017757415771 0.0269516780972480774
9.99200722162640886e-16 0.0708987563848495483 0.051581941545009613
9.99200722162640886e-16 0.0440337136387825012 0.0394610166549682617
9.99200722162640886e-16 0.034316282719373703 0.0774218291044235229
9.99200722162640886e-16 0.0340960510075092316 0.116447530686855316
9.99200722162640886e-16 0.0383722484111785889 0.0803913474082946777
9.99200722162640886e-16 0.0322579741477966309 0.0913705974817276001
9.99200722162640886e-16 0.0323322229087352753 0.0535240247845649719
9.99200722162640886e-16 0.00504400394856929779 0.0370757058262825012
9.99200722162640886e-16 0.0212382525205612183 0.108524121344089508
9.99200722162640886e-16 0.0574118681252002716 0.112068690359592438
9.99200722162640886e-16 0.00279378402046859264 0.0828563198447227478
9.99200722162640886e-16 0.0526959225535392761 0.0970989987254142761
9.99200722162640886e-16 0.0336729921400547028 0.0381191819906234741
9.99200722162640886e-16 0.0345562733709812164 0.106662660837173462
9.99200722162640886e-16 0.0391809903085231781 0.0305440798401832581
9.99200722162640886e-16 0.135293871164321899 0.0991364866495132446
9.99200722162640886e-16 0.0931669473648071289 0.0785882323980331421
9.99200722162640886e-16 0.0658961459994316101 0.0941178351640701294
9.99200722162640886e-16 0.0794614553451538086 0.0988814607262611389
9.99200722162640886e-16 0.0998993739485740662 0.117104426026344299
9.99200722162640886e-16 0.0230858065187931061 0.0860443562269210815
9.99200722162640886e-16 0.0649588778614997864 0.0766716897487640381
9.99200722162640886e-16 0.0307014752179384232 0.070239335298538208
9.99200722162640886e-16 0.089426770806312561 0.108130104839801788
9.99200722162640886e-16 0.0378956571221351624 0.0901159420609474182
9.99200722162640886e-16 0.105211310088634491 0.0981900840997695923
9.99200722162640886e-16 0.116589643061161041 0.10386185348033905
9.99200722162640886e-16 0.00752381002530455589 0.0827756375074386597
9.99200722162640886e-16 0.0932838544249534607 0.111897774040699005
9.99200722162640886e-16 0.063351064920425415 0.063269197940826416
9.99200722162640886e-16 0.112847216427326202 0.114202626049518585
9.99200722162640886e-16 0.0913142934441566467 0.109453454613685608
9.99200722162640886e-16 0.00887828785926103592 0.084745362401008606
9.99200722162640886e-16 0.0230075512081384659 0.0297818928956985474
9.99200722162640886e-16 0.0978401899337768555 0.0853484570980072021
9.99200722162640886e-16 0.0773614048957824707 0.0745865851640701294
9.99200722162640886e-16 0.0582162961363792419 0.065434187650680542
9.99200722162640886e-16 0.0975748077034950256 0.0942739024758338928
9.99200722162640886e-16 0.0813268348574638367 0.0647265613079071045
9.99200722162640886e-16 0.0527742244303226471 0.0579726994037628174
9.99200722162640886e-16 0.0881340578198432922 0.0677697062492370605
9.99200722162640886e-16 0.0533179603517055511 0.0861882567405700684
9.99200722162640886e-16 0.0564776100218296051 0.0927036330103874207
9.99200722162640886e-16 0.00335121084935963154 0.0280888974666595459
9.99200722162640886e-16 0.132988542318344116 0.0977143645286560059
9.99200722162640886e-16 0.0388571843504905701 0.0576762668788433075
9.99200722162640886e-16 0.0108755975961685181 0.0307688340544700623
9.99200722162640886e-16 0.105697914958000183 0.106891080737113953
9.99200722162640886e-16 0.170652091503143311 0.118607155978679657
9.99200722162640886e-16 0.0974729657173156738 0.108846947550773621
9.99200722162640886e-16 0.146514430642127991 0.115079119801521301
9.99200722162640886e-16 0.0498556718230247498 0.0413475707173347473
9.99200722162640886e-16 0.074731782078742981 0.107282720506191254
9.99200722162640886e-16 0.0715012550354003906 0.0885879993438720703
9.99200722162640886e-16 0.00905719399452209473 0.0467795729637145996
9.99200722162640886e-16 0.0106136836111545563 0.0932367891073226929
9.99200722162640886e-16 0.122187212109565735 0.0901031196117401123
9.99200722162640886e-16 0.0231043379753828049 0.0748915448784828186
9.99200722162640886e-16 0.0797550305724143982 0.104265116155147552
9.99200722162640886e-16 0.0460276007652282715 0.0830726996064186096
9.99200722162640886e-16 0.0351099707186222076 0.104183763265609741
9.99200722162640886e-16 0.0852437913417816162 0.0724425762891769409
9.99200722162640886e-16 0.0137109607458114624 0.0628248527646064758
9.99200722162640886e-16 0.0514848269522190094 0.0589940771460533142
9.99200722162640886e-16 0.098106682300567627 0.092817939817905426
9.99200722162640886e-16 0.139326170086860657 0.097549736499786377
9.99200722162640886e-16 0.0771517977118492126 0.116109557449817657
9.99200722162640886e-16 0.0119646266102790833 0.00862340629100799561
9.99200722162640886e-16 0.0635188743472099304 0.0574721843004226685
9.99200722162640886e-16 0.0398316644132137299 0.0872142314910888672
9.99200722162640886e-16 0.0913309380412101746 0.090453222393989563
9.99200722162640886e-16 0.0229044109582901001 0.0351425781846046448
9.99200722162640886e-16 0.0491209216415882111 0.0554386675357818604
9.99200722162640886e-16 0.107823699712753296 0.106183819472789764
9.99200722162640886e-16 0.0138126509264111519 0.119746245443820953
9.99200722162640886e-16 0.057470470666885376 0.0943421423435211182
9.99200722162640886e-16 0.0433758534491062164 0.0801046043634414673
9.99200722162640886e-16 0.0581172257661819458 0.112557709217071533
9.99200722162640886e-16 0.0643458142876625061 0.11278822273015976
9.99200722162640886e-16 0.00914515182375907898 0.0986365079879760742
9.99200722162640886e-16 0.109005451202392578 0.114607334136962891
9.99200722162640886e-16 0.0799673199653625488 0.0977296978235244751
9.99200722162640886e-16 0.011511877179145813 0.0739117488265037537
9.99200722162640886e-16 0.0188285782933235168 0.0845114216208457947
9.99200722162640886e-16 0.0433285385370254517 0.11549803614616394
9.99200722162640886e-16 0.0672166347503662109 0.0998441800475120544
9.99200722162640886e-16 0.0346938483417034149 0.0811417177319526672
9.99200722162640886e-16 0.12854805588722229 0.11068560928106308
9.99200722162640886e-16 0.0713271200656890869 0.111729107797145844
9.99200722162640886e-16 0.0838417783379554749 0.115697942674160004
9.99200722162640886e-16 0.0506479740142822266 0.0499683842062950134
9.99200722162640886e-16 0.0895140394568443298 0.100373193621635437
9.99200722162640886e-16 0.0453942269086837769 0.104360684752464294
9.99200722162640886e-16 0.0508922748267650604 0.0399076938629150391
9.99200722162640886e-16 0.031491447240114212 0.0342212691903114319
9.99200722162640886e-16 0.000348148925695568323 0.0391457602381706238
9.99200722162640886e-16 0.122166819870471954 0.108033455908298492
9.99200722162640886e-16 0.0887756124138832092 0.108073890209197998
9.99200722162640886e-16 0.0496209338307380676 0.0464184582233428955
9.99200722162640886e-16 0.0136152422055602074 0.119363769888877869
9.99200722162640886e-16 0.108920104801654816 0.0964789837598800659
9.99200722162640886e-16 0.0148726226761937141 0.114000812172889709
9.99200722162640886e-16 0.052684389054775238 0.0911175757646560669
9.99200722162640886e-16 0.0232777390629053116 0.0198851004242897034
9.99200722162640886e-16 0.000156814086949452758 0.0801929086446762085
9.99200722162640886e-16 0.0839072540402412415 0.0659040063619613647
9.99200722162640886e-16 0.0837552100419998169 0.0925094559788703918
9.99200722162640886e-16 0.0853137150406837463 0.114077858626842499
9.99200722162640886e-16 0.00819898489862680435 0.0488184615969657898
9.99200722162640886e-16 0.050237458199262619 0.0522714331746101379
9.99200722162640886e-16 0.095037020742893219 0.0687031075358390808
9.99200722162640886e-16 0.0106744766235351562 0.11560501903295517
9.99200722162640886e-16 0.123836718499660492 0.116866804659366608
9.99200722162640886e-16 0.0331961214542388916 0.0845350772142410278
9.99200722162640886e-16 0.0937599986791610718 0.0667860507965087891
9.99200722162640886e-16 0.0963105261325836182 0.0698725581169128418
9.99200722162640886e-16 0.0404100865125656128 0.101670950651168823
9.99200722162640886e-16 0.0513745024800300598 0.071555115282535553
9.99200722162640886e-16 0.0460811741650104523 0.105679966509342194
9.99200722162640886e-16 0.0628179088234901428 0.0857878178358078003
9.99200722162640886e-16 0.120634861290454865 0.08793678879737854
9.99200722162640886e-16 0.0435695499181747437 0.0589837059378623962
9.99200722162640886e-16 0.0488807521760463715 0.0642164871096611023
9.99200722162640886e-16 0.114485852420330048 0.0938533022999763489
9.99200722162640886e-16 0.0684643983840942383 0.106490775942802429
9.99200722162640886e-16 0.0977708771824836731 0.0919992029666900635
9.99200722162640886e-16 0.0934848934412002563 0.0965430736541748047
9.99200722162640886e-16 0.0445898845791816711 0.0863643139600753784
9.99200722162640886e-16 0.0469910800457000732 0.0898126214742660522
9.99200722162640886e-16 0.00780085381120443344 0.115708105266094208
9.99200722162640886e-16 0.127804785966873169 0.103537753224372864
9.99200722162640886e-16 0.0816004350781440735 0.0911024436354637146
9.99200722162640886e-16 0.0416996106505393982 0.0905850678682327271
9.99200722162640886e-16 0.0371537581086158752 0.0596186369657516479
9.99200722162640886e-16 0.0139370784163475037 0.0900053903460502625
9.99200722162640886e-16 0.0170588195323944092 0.0379064455628395081
9.99200722162640886e-16 0.16708962619304657 0.11627824604511261
9.99200722162640886e-16 0.0111530693247914314 0.046947181224822998
9.99200722162640886e-16 0.0298610702157020569 0.0291520506143569946
9.99200722162640886e-16 0.0512865297496318817 0.114212527871131897
9.99200722162640886e-16 0.111757978796958923 0.0843544527888298035
9.99200722162640886e-16 0.00445386720821261406 0.108479142189025879
9.99200722162640886e-16 0.0373979732394218445 0.0954364091157913208
9.99200722162640886e-16 0.0658896341919898987 0.0791734158992767334
9.99200722162640886e-16 5.00378264405298978e-05 0.0200486853718757629
9.99200722162640886e-16 0.0143848182633519173 0.0372785851359367371
9.99200722162640886e-16 0.0024993999395519495 0.100092574954032898
9.99200722162640886e-16 0.11862356960773468 0.114798799157142639
9.99200722162640886e-16 0.00788717996329069138 0.0934644788503646851
9.99200722162640886e-16 0.106304138898849487 0.113471075892448425
9.99200722162640886e-16 0.063480675220489502 0.0504936948418617249
9.99200722162640886e-16 0.040688689798116684 0.0808959752321243286
9.99200722162640886e-16 0.0981640368700027466 0.112807214260101318
9.99200722162640886e-16 0.12971457839012146 0.119880393147468567
9.99200722162640886e-16 0.128563955426216125 0.101943060755729675
9.99200722162640886e-16 0.00609346479177474976 0.0708223357796669006
9.99200722162640886e-16 0.0333860404789447784 0.0875284969806671143
9.99200722162640886e-16 0.084197118878364563 0.0860944688320159912
9.99200722162640886e-16 0.0686612650752067566 0.0862214639782905579
9.99200722162640886e-16 0.0542539767920970917 0.0615151263773441315
9.99200722162640886e-16 0.000695547496434301138 0.105694442987442017
9.99200722162640886e-16 0.154886454343795776 0.111933551728725433
9.99200722162640886e-16 0.0349455066025257111 0.0699185580015182495
9.99200722162640886e-16 0.112280569970607758 0.109420530498027802
9.99200722162640886e-16 0.0125540317967534065 0.0307657495141029358
9.99200722162640886e-16 0.0275432262569665909 0.103525079786777496
9.99200722162640886e-16 0.0579130686819553375 0.105225250124931335
9.99200722162640886e-16 0.10247860848903656 0.0934089869260787964
9.99200722162640886e-16 0.0366085469722747803 0.0861906707286834717
9.99200722162640886e-16 0.0966022387146949768 0.0722896754741668701
9.99200722162640886e-16 0.101422533392906189 0.105687625706195831
9.99200722162640886e-16 0.00328903249464929104 0.0644088983535766602
9.99200722162640886e-16 0.0620368309319019318 0.0674622729420661926
9.99200722162640886e-16 0.00563491368666291237 0.0391460135579109192
9.99200722162640886e-16 0.0384768322110176086 0.0412047281861305237
9.99200722162640886e-16 0.0434642843902111053 0.117523528635501862
9.99200722162640886e-16 0.0350227616727352142 0.046656094491481781
9.99200722162640886e-16 0.0683638006448745728 0.100924193859100342
9.99200722162640886e-16 0.0137793589383363724 0.0266336128115653992
9.99200722162640886e-16 0.0894010215997695923 0.0987071841955184937
9.99200722162640886e-16 0.131252959370613098 0.107461020350456238
9.99200722162640886e-16 0.0256947632879018784 0.0806425958871841431
9.99200722162640886e-16 0.0530625022947788239 0.0720383822917938232
9.99200722162640886e-16 0.0376819223165512085 0.0739363133907318115
9.99200722162640886e-16 0.0179448816925287247 0.102299422025680542
9.99200722162640886e-16 0.0221945159137248993 0.0932043194770812988
9.99200722162640886e-16 0.00772281643003225327 0.0234967693686485291
9.99200722162640886e-16 0.0195717420428991318 0.106752626597881317
9.99200722162640886e-16 0.0747658684849739075 0.0951628535985946655
9.99200722162640886e-16 0.00943729281425476074 0.0385693907737731934
9.99200722162640886e-16 0.101232364773750305 0.0698596388101577759
9.99200722162640886e-16 0.00133852404542267323 0.0639381334185600281
9.99200722162640886e-16 0.0988616272807121277 0.109953969717025757
9.99200722162640886e-16 0.0473848171532154083 0.0693294033408164978
9.99200722162640886e-16 0.0459306612610816956 0.0852979272603988647
9.99200722162640886e-16 0.0220523830503225327 0.0878186002373695374
9.99200722162640886e-16 0.0368241332471370697 0.117733754217624664
9.99200722162640886e-16 0.0702412500977516174 0.078806653618812561
9.99200722162640886e-16 0.0615320391952991486 0.0424040034413337708
9.99200722162640886e-16 0.0364310592412948608 0.0509570986032485962
9.99200722162640886e-16 0.124716430902481079 0.110459074378013611
9.99200722162640886e-16 0.0485733039677143097 0.104731440544128418
9.99200722162640886e-16 0.0796629935503005981 0.0733351558446884155
9.99200722162640886e-16 0.053711622953414917 0.0935193449258804321
9.99200722162640886e-16 0.0242574121803045273 0.088073432445526123
9.99200722162640886e-16 0.0112636527046561241 0.0120484679937362671
9.99200722162640886e-16 0.0702295228838920593 0.0770878121256828308
9.99200722162640886e-16 0.00857166014611721039 0.0093774944543838501
9.99200722162640886e-16 0.0912188068032264709 0.119489893317222595
9.99200722162640886e-16 0.0817741528153419495 0.10348791629076004
9.99200722162640886e-16 0.0731055662035942078 0.108646966516971588
9.99200722162640886e-16 0.0100068915635347366 0.0823793113231658936
9.99200722162640886e-16 0.0897420346736907959 0.112195797264575958
9.99200722162640886e-16 0.0189162101596593857 0.0509691983461380005
9.99200722162640886e-16 0.000773938198108226061 0.0453046858310699463
9.99200722162640886e-16 0.0215365961194038391 0.0720703005790710449
9.99200722162640886e-16 0.0935966148972511292 0.0913990288972854614
9.99200722162640886e-16 0.0255202166736125946 0.0730765312910079956
9.99200722162640886e-16 0.0201165508478879929 0.0205618366599082947
9.99200722162640886e-16 0.00954116601496934891 0.105002634227275848
9.99200722162640886e-16 0.0280111934989690781 0.110671907663345337
9.99200722162640886e-16 0.0143703119829297066 0.0365704596042633057
9.99200722162640886e-16 0.00808781944215297699 0.0350266769528388977
9.99200722162640886e-16 0.147986471652984619 0.108193635940551758
9.99200722162640886e-16 0.0752990767359733582 0.0598145201802253723
9.99200722162640886e-16 0.127568140625953674 0.110725179314613342
9.99200722162640886e-16 0.00807384122163057327 0.00756868720054626465
9.99200722162640886e-16 0.00269512436352670193 0.106139019131660461
9.99200722162640886e-16 0.0132179288193583488 0.0194485932588577271
9.99200722162640886e-16 0.0318146012723445892 0.0781492888927459717
9.99200722162640886e-16 0.0394686460494995117 0.0712929517030715942
9.99200722162640886e-16 0.0123565327376127243 0.0986668244004249573
9.99200722162640886e-16 0.0776785090565681458 0.105828158557415009
9.99200722162640886e-16 0.002273990074172616 0.00551310181617736816
9.99200722162640886e-16 0.053381260484457016 0.0629020407795906067
9.99200722162640886e-16 0.000494659529067575932 0.116339884698390961
9.99200722162640886e-16 0.00238762469962239265 0.0586996711790561676
9.99200722162640886e-16 0.0554243437945842743 0.114801391959190369
9.99200722162640886e-16 0.0170909296721220016 0.0781205669045448303
9.99200722162640886e-16 0.0129865976050496101 0.0877375155687332153
9.99200722162640886e-16 0.0574246831238269806 0.0578582659363746643
9.99200722162640886e-16 0.0365648195147514343 0.0523583516478538513
9.99200722162640886e-16 0.0649098232388496399 0.0667314529418945312
9.99200722162640886e-16 0.0315386354923248291 0.113395065069198608
9.99200722162640886e-16 0.0359894819557666779 0.107314884662628174
9.99200722162640886e-16 0.00519796879962086678 0.0258747786283493042
9.99200722162640886e-16 0.0374679230153560638 0.0377572178840637207
9.99200722162640886e-16 0.157332479953765869 0.112874224781990051
9.99200722162640886e-16 0.0502325892448425293 0.0563673824071884155
9.99200722162640886e-16 0.06409464031457901 0.0442144647240638733
9.99200722162640886e-16 0.0685925930738449097 0.0563999563455581665
9.99200722162640886e-16 0.0173625871539115906 0.0591146685183048248
9.99200722162640886e-16 0.146775886416435242 0.111043304204940796
9.99200722162640886e-16 0.135459065437316895 0.116294533014297485
9.99200722162640886e-16 0.0914412885904312134 0.0883767157793045044
9.99200722162640886e-16 0.0162740219384431839 0.0763780474662780762
9.99200722162640886e-16 0.0956121534109115601 0.0835415571928024292
9.99200722162640886e-16 0.113232731819152832 0.0831890702247619629
9.99200722162640886e-16 0.155097454786300659 0.110991567373275757
9.99200722162640886e-16 0.0502604022622108459 0.0401551425457000732
9.99200722162640886e-16 0.0420413091778755188 0.0719473809003829956
9.99200722162640886e-16 0.104549244046211243 0.0821820348501205444
9.99200722162640886e-16 0.116575151681900024 0.0805994570255279541
9.99200722162640886e-16 0.0645063742995262146 0.0970114767551422119
9.99200722162640886e-16 0.0155473798513412476 0.102781340479850769
9.99200722162640886e-16 0.0287851821631193161 0.118974819779396057
9.99200722162640886e-16 0.14485524594783783 0.1082724928855896
9.99200722162640886e-16 0.034539591521024704 0.0340881124138832092
9.99200722162640886e-16 0.0372593626379966736 0.0942361950874328613
9.99200722162640886e-16 0.0597143359482288361 0.116973876953125
9.99200722162640886e-16 0.050523124635219574 0.0693998485803604126
9.99200722162640886e-16 0.124760299921035767 0.0943104326725006104
9.99200722162640886e-16 0.0399223379790782928 0.059007301926612854
9.99200722162640886e-16 0.0887244939804077148 0.0952562093734741211
9.99200722162640886e-16 0.0462754629552364349 0.0467404797673225403
9.99200722162640886e-16 0.0214650556445121765 0.0476770848035812378
9.99200722162640886e-16 0.120118327438831329 0.0915149599313735962
9.99200722162640886e-16 0.133814290165901184 0.111829295754432678
9.99200722162640886e-16 0.0010642927372828126 0.0787717252969741821
9.99200722162640886e-16 0.0407777205109596252 0.0822134464979171753
9.99200722162640886e-16 0.00153197604231536388 0.110344573855400085
9.99200722162640886e-16 0.104041188955307007 0.0846768394112586975
9.99200722162640886e-16 0.0661244094371795654 0.0665434002876281738
9.99200722162640886e-16 0.109878510236740112 0.097519800066947937
9.99200722162640886e-16 0.025143822655081749 0.0215814858675003052
9.99200722162640886e-16 0.0850756168365478516 0.119177334010601044
9.99200722162640886e-16 0.115820311009883881 0.0868772566318511963
9.99200722162640886e-16 0.0154763776808977127 0.0741717591881752014
9.99200722162640886e-16 0.137039527297019958 0.118782117962837219
9.99200722162640886e-16 0.145386651158332825 0.10366540402173996
9.99200722162640886e-16 0.0553713031113147736 0.0440335646271705627
9.99200722162640886e-16 0.0386483334004878998 0.0974168628454208374
0.0100034940987825394 -8.79851747015436558e-15 0.0633289217948913574
0.0438241288065910339 -8.79851747015436558e-15 0.05399361252784729
0.146449580788612366 -8.79851747015436558e-15 0.00804650038480758667
0.033948943018913269 -8.79851747015436558e-15 0.0875459611415863037
0.0135508142411708832 -8.79851747015436558e-15 0.0693095847964286804
0.038294374942779541 -8.79851747015436558e-15 0.0123206600546836853
0.0719853267073631287 -8.79851747015436558e-15 0.0304629802703857422
0.0645002052187919617 -8.79851747015436558e-15 0.0125490948557853699
0.0839412659406661987 -8.79851747015436558e-15 0.0288267806172370911
0.0667149350047111511 -8.79851747015436558e-15 0.0479608997702598572
0.0580413267016410828 -8.79851747015436558e-15 0.0679308921098709106
0.118607349693775177 -8.79851747015436558e-15 0.00504758208990097046
0.0355208329856395721 -8.79851747015436558e-15 0.0193838309496641159
0.0291937105357646942 -8.79851747015436558e-15 0.00226616673171520233
0.0177386384457349777 -8.79851747015436558e-15 0.0280688274651765823
0.052364494651556015 -8.79851747015436558e-15 0.0800199434161186218
0.0796947106719017029 -8.79851747015436558e-15 0.0590266138315200806
0.0437426827847957611 -8.79851747015436558e-15 0.000715337693691253662
0.077549271285533905 -8.79851747015436558e-15 0.0332535095512866974
0.117733359336853027 -8.79851747015436558e-15 0.0115063562989234924
0.0436113812029361725 -8.79851747015436558e-15 0.0765958875417709351
0.0432944782078266144 -8.79851747015436558e-15 0.00746691599488258362
0.0667418241500854492 -8.79851747015436558e-15 0.0538597181439399719
0.0741295963525772095 -8.79851747015436558e-15 0.0473294928669929504
0.00302307028323411942 -8.79851747015436558e-15 0.0957635268568992615
0.0144173381850123405 -8.79851747015436558e-15 0.093669407069683075
0.00220607640221714973 -8.79851747015436558e-15 0.0339136645197868347
0.0392161421477794647 -8.79851747015436558e-15 0.0875506997108459473
0.0127365775406360626 -8.79851747015436558e-15 0.0686263516545295715
0.103917911648750305 -8.79851747015436558e-15 0.0175865814089775085
0.0745306611061096191 -8.79851747015436558e-15 0.0530652403831481934
0.00587198836728930473 -8.79851747015436558e-15 0.0163869131356477737
0.092198885977268219 -8.79851747015436558e-15 0.0264203548431396484
0.0253180898725986481 -8.79851747015436558e-15 0.0136695839464664459
0.000973637157585471869 -8.79851747015436558e-15 0.112537510693073273
0.0928862467408180237 -8.79851747015436558e-15 0.0427948087453842163
0.0417565591633319855 -8.79851747015436558e-15 0.0543825440108776093
0.057190384715795517 -8.79851747015436558e-15 0.0423526503145694733
0.00552440155297517776 -8.79851747015436558e-15 0.0797843635082244873
0.0639683976769447327 -8.79851747015436558e-15 0.0472973920404911041
0.00507508404552936554 -8.79851747015436558e-15 0.0983841419219970703
0.0319889448583126068 -8.79851747015436558e-15 0.0647253841161727905
0.035473991185426712 -8.79851747015436558e-15 0.073634609580039978
0.0698410272598266602 -8.79851747015436558e-15 0.0223291218280792236
0.0741470158100128174 -8.79851747015436558e-15 0.0500336028635501862
0.0129040190950036049 -8.79851747015436558e-15 0.0621034130454063416
0.0545993521809577942 -8.79851747015436558e-15 0.0744830667972564697
0.0291414167732000351 -8.79851747015436558e-15 0.0536603927612304688
0.00334120588377118111 -8.79851747015436558e-15 0.0589382238686084747
0.0480613894760608673 -8.79851747015436558e-15 0.0463670641183853149
0.0545268617570400238 -8.79851747015436558e-15 0.0110182054340839386
0.0565591640770435333 -8.79851747015436558e-15 0.0555704012513160706
0.034208986908197403 -8.79851747015436558e-15 0.0141021963208913803
0.0620341114699840546 -8.79851747015436558e-15 0.0250357091426849365
0.0486272908747196198 -8.79851747015436558e-15 0.0812532603740692139
0.0370457544922828674 -8.79851747015436558e-15 0.0612536817789077759
0.101366057991981506 -8.79851747015436558e-15 0.0434403195977210999
0.102990493178367615 -8.79851747015436558e-15 0.0424525067210197449
0.0819014608860015869 -8.79851747015436558e-15 0.0539049059152603149
0.112745203077793121 -8.79851747015436558e-15 0.00103655457496643066
0.0179984960705041885 -8.79851747015436558e-15 0.0471815280616283417
0.0238004010170698166 -8.79851747015436558e-15 0.0360096544027328491
0.0220109224319458008 -8.79851747015436558e-15 0.0228886380791664124
0.0865228027105331421 -8.79851747015436558e-15 0.0371092557907104492
0.060122959315776825 -8.79851747015436558e-15 0.0687697529792785645
0.0565642714500427246 -8.79851747015436558e-15 0.00825680792331695557
0.00875734630972146988 -8.79851747015436558e-15 0.0116237681359052658
0.0308973286300897598 -8.79851747015436558e-15 0.0156516879796981812
0.0982469841837882996 -8.79851747015436558e-15 0.0412370339035987854
0.0502212047576904297 -8.79851747015436558e-15 0.0504706799983978271
0.0420671552419662476 -8.79851747015436558e-15 0.0153291411697864532
0.0172453466802835464 -8.79851747015436558e-15 0.0483408384025096893
0.113182149827480316 -8.79851747015436558e-15 0.0298262089490890503
0.126326993107795715 -8.79851747015436558e-15 0.0243873521685600281
0.0486186891794204712 -8.79851747015436558e-15 0.0579266957938671112
0.00308919744566082954 -8.79851747015436558e-15 0.0993656069040298462
0.0482017658650875092 -8.79851747015436558e-15 0.0176906995475292206
0.116023518145084381 -8.79851747015436558e-15 0.0281800627708435059
0.042025003582239151 -8.79851747015436558e-15 0.0881320536136627197
0.134593978524208069 -8.79851747015436558e-15 0.0146951451897621155
0.0423398762941360474 -8.79851747015436558e-15 0.0600541345775127411
0.0359363555908203125 -8.79851747015436558e-15 0.030272824689745903
0.0270552579313516617 -8.79851747015436558e-15 0.0931184291839599609
0.0267301630228757858 -8.79851747015436558e-15 0.0401671454310417175
0.072571881115436554 -8.79851747015436558e-15 0.04470844566822052
0.0519996881484985352 -8.79851747015436558e-15 0.024126201868057251
0.0321997217833995819 -8.79851747015436558e-15 0.00327161513268947601
0.111313171684741974 -8.79851747015436558e-15 0.0226111412048339844
0.0656072646379470825 -8.79851747015436558e-15 0.069489017128944397
0.0673806145787239075 -8.79851747015436558e-15 0.0481644272804260254
0.0903443768620491028 -8.79851747015436558e-15 0.0351173281669616699
0.0830592215061187744 -8.79851747015436558e-15 0.021856263279914856
0.0673535317182540894 -8.79851747015436558e-15 0.033090934157371521
0.138586848974227905 -8.79851747015436558e-15 0.00589738786220550537
0.107396259903907776 -8.79851747015436558e-15 0.0340826809406280518
0.0143385455012321472 -8.79851747015436558e-15 0.0807954296469688416
0.0705478712916374207 -8.79851747015436558e-15 0.0155549570918083191
0.0805745571851730347 -8.79851747015436558e-15 0.0115024186670780182
0.00737429363653063774 -8.79851747015436558e-15 0.0255136508494615555
0.0126105733215808868 -8.79851747015436558e-15 0.0120003828778862953
0.0692818984389305115 -8.79851747015436558e-15 0.0231061428785324097
0.0130852200090885162 -8.79851747015436558e-15 0.0879903212189674377
0.0521051809191703796 -8.79851747015436558e-15 0.0442378558218479156
0.00402624811977148056 -8.79851747015436558e-15 0.0292158015072345734
0.0759313106536865234 -8.79851747015436558e-15 0.0612874403595924377
0.0385946705937385559 -8.79851747015436558e-15 0.0127094853669404984
0.106756940484046936 -8.79851747015436558e-15 0.00432692468166351318
0.0181623399257659912 -8.79851747015436558e-15 0.0278300568461418152
0.0721230208873748779 -8.79851747015436558e-15 0.0552154034376144409
0.0217654705047607422 -8.79851747015436558e-15 0.0330519974231719971
0.00667795026674866676 -8.79851747015436558e-15 0.0646295100450515747
0.0650339052081108093 -8.79851747015436558e-15 4.72031533718109131e-05
0.0166890285909175873 -8.79851747015436558e-15 0.0288414694368839264
0.116131901741027832 -8.79851747015436558e-15 0.0192309170961380005
0.0367512032389640808 -8.79851747015436558e-15 0.0229671113193035126
0.0895731598138809204 -8.79851747015436558e-15 0.0443632006645202637
0.0500541962683200836 -8.79851747015436558e-15 0.000372599810361862183
0.0244030486792325974 -8.79851747015436558e-15 0.0357955582439899445
0.121231868863105774 -8.79851747015436558e-15 0.00366170704364776611
0.0883503332734107971 -8.79851747015436558e-15 0.0132137686014175415
0.0979707911610603333 -8.79851747015436558e-15 0.0102033615112304688
0.00443058134987950325 -8.79851747015436558e-15 0.0955672785639762878
0.00984207354485988617 -8.79851747015436558e-15 0.0819174051284790039
0.0174614321440458298 -8.79851747015436558e-15 0.0748629793524742126
0.0701708272099494934 -8.79851747015436558e-15 0.0667898058891296387
0.0769824385643005371 -8.79851747015436558e-15 0.00841509550809860229
0.00283183739520609379 -8.79851747015436558e-15 0.0317543670535087585
0.0420651063323020935 -8.79851747015436558e-15 0.0614332333207130432
0.108788087964057922 -8.79851747015436558e-15 0.0278983563184738159
0.0105295274406671524 -8.79851747015436558e-15 0.104156471788883209
0.0109071647748351097 -8.79851747015436558e-15 0.0019250502809882164
0.126952722668647766 -8.79851747015436558e-15 0.0103754177689552307
0.0748792588710784912 -8.79851747015436558e-15 0.00889480859041213989
0.0166815817356109619 -8.79851747015436558e-15 0.00367693603038787842
0.0255046077072620392 -8.79851747015436558e-15 0.0743865221738815308
0.00315641332417726517 -8.79851747015436558e-15 0.0875669568777084351
0.00539085036143660545 -8.79851747015436558e-15 0.0672084316611289978
0.0569230541586875916 -8.79851747015436558e-15 0.0499434806406497955
0.0126236332580447197 -8.79851747015436558e-15 0.0111603774130344391
0.1031060591340065 -8.79851747015436558e-15 0.0267683640122413635
0.00204917066730558872 -8.79851747015436558e-15 0.11122981458902359
0.0277198348194360733 -8.79851747015436558e-15 0.0756558552384376526
0.123782344162464142 -8.79851747015436558e-15 0.000854268670082092285
0.0138106904923915863 -8.79851747015436558e-15 0.0492763221263885498
0.078587949275970459 -8.79851747015436558e-15 0.0536819472908973694
0.0927526950836181641 -8.79851747015436558e-15 0.0392607897520065308
0.0703580752015113831 -8.79851747015436558e-15 0.0614661537110805511
0.0918475314974784851 -8.79851747015436558e-15 0.0189965367317199707
0.05204005166888237 -8.79851747015436558e-15 0.0117937922477722168
0.0748653709888458252 -8.79851747015436558e-15 0.0280608795583248138
0.00345920468680560589 -8.79851747015436558e-15 0.0780358985066413879
0.0898680537939071655 -8.79851747015436558e-15 0.0425564423203468323
0.0415771156549453735 -8.79851747015436558e-15 0.0818699747323989868
0.0176931694149971008 -8.79851747015436558e-15 0.0287339556962251663
0.108913883566856384 -8.79851747015436558e-15 0.0146041586995124817
0.047652076929807663 -8.79851747015436558e-15 0.0253344327211380005
0.00756077980622649193 -8.79851747015436558e-15 0.0525591187179088593
0.0600266717374324799 -8.79851747015436558e-15 0.0332886688411235809
0.153550878167152405 -8.79851747015436558e-15 0.00333825498819351196
0.0978553146123886108 -8.79851747015436558e-15 0.01190967857837677
0.0502713397145271301 -8.79851747015436558e-15 0.0280106179416179657
0.107162684202194214 -8.79851747015436558e-15 0.0109839364886283875
0.0129963671788573265 -8.79851747015436558e-15 0.0772438719868659973
0.00848312582820653915 -8.79851747015436558e-15 0.0416604094207286835
0.00794082600623369217 -8.79851747015436558e-15 0.0151936803013086319
0.0896975770592689514 -8.79851747015436558e-15 0.000859320163726806641
0.0732370540499687195 -8.79851747015436558e-15 0.0514620654284954071
0.0999748706817626953 -8.79851747015436558e-15 0.015515252947807312
0.0497814342379570007 -8.79851747015436558e-15 0.0451914556324481964
0.0367200896143913269 -8.79851747015436558e-15 0.00429189763963222504
0.00412645051255822182 -8.79851747015436558e-15 0.000547706382349133492
0.00781578943133354187 -8.79851747015436558e-15 0.032313130795955658
0.0158879868686199188 -8.79851747015436558e-15 0.0999503657221794128
0.0391021706163883209 -8.79851747015436558e-15 0.00294591113924980164
0.0340787693858146667 -8.79851747015436558e-15 0.0148754622787237167
0.0323713906109333038 -8.79851747015436558e-15 0.0231880340725183487
0.0258073396980762482 -8.79851747015436558e-15 0.099895477294921875
0.00704954750835895538 -8.79851747015436558e-15 0.0923173204064369202
0.123082809150218964 -8.79851747015436558e-15 0.0038797035813331604
0.120337828993797302 -8.79851747015436558e-15 0.0247546583414077759
0.0669937059283256531 -8.79851747015436558e-15 0.0331791341304779053
0.063295610249042511 -8.79851747015436558e-15 0.0619535073637962341
0.00597130367532372475 -8.79851747015436558e-15 0.0129063874483108521
0.0764029026031494141 -8.79851747015436558e-15 0.0342219807207584381
0.102769352495670319 -8.79851747015436558e-15 0.02198810875415802
0.0601958967745304108 -8.79851747015436558e-15 0.034946586936712265
0.0720857828855514526 -8.79851747015436558e-15 0.0303775779902935028
0.136763900518417358 -8.79851747015436558e-15 0.00114385783672332764
0.116279333829879761 -8.79851747015436558e-15 0.0294260159134864807
0.0293908417224884033 -8.79851747015436558e-15 0.0173816531896591187
0.0939668193459510803 -8.79851747015436558e-15 0.042270466685295105
0.0773661583662033081 -8.79851747015436558e-15 0.0169074311852455139
0.0995593518018722534 -8.79851747015436558e-15 0.0388273522257804871
0.0182094648480415344 -8.79851747015436558e-15 0.0319008156657218933
0.0517196543514728546 -8.79851747015436558e-15 0.0179809853434562683
0.0937270298600196838 -8.79851747015436558e-15 0.0120337605476379395
0.0854890197515487671 -8.79851747015436558e-15 0.0333252027630805969
0.064248599112033844 -8.79851747015436558e-15 0.0686807334423065186
0.102323137223720551 -8.79851747015436558e-15 0.00591959059238433838
0.00325973751023411751 -8.79851747015436558e-15 0.054070688784122467
0.0674069076776504517 -8.79851747015436558e-15 0.0244230069220066071
0.0937396958470344543 -8.79851747015436558e-15 0.00625817477703094482
0.116570234298706055 -8.79851747015436558e-15 0.0269806087017059326
0.0209363698959350586 -8.79851747015436558e-15 0.103564649820327759
0.025953385978937149 -8.79851747015436558e-15 0.0365437418222427368
0.046966850757598877 -8.79851747015436558e-15 0.0713183358311653137
