ply
format ascii 1.0
element vertex 694
property float x
property float y
property float z
end_header
-0.0101172653958201408 -0.0155586516484618187 -0.0260958168655633926
-0.00937184412032365799 -0.0179071798920631409 -0.0263883471488952637
-0.00987983867526054382 -0.0128576438874006271 -0.0261638723313808441
-0.0104430066421627998 -0.00299167120829224586 -0.0258839353919029236
-0.0119555722922086716 -0.011146271601319313 -0.025384439155459404
-0.00942348409444093704 -0.00379277812317013741 -0.0262664780020713806
-0.00860293209552764893 -0.0168733522295951843 -0.02666492760181427
-0.0109362155199050903 -0.016520993784070015 -0.0258002262562513351
-0.0102258212864398956 -0.016469080001115799 -0.0260623358190059662
-0.00957331620156764984 -0.0191001147031784058 -0.0263225939124822617
-0.0110427271574735641 -0.0126676410436630249 -0.0257328078150749207
-0.0115103898569941521 -0.00938836205750703812 -0.0255361292511224747
-0.0096713285893201828 -0.0131365358829498291 -0.0262429472059011459
-0.0121187344193458557 -0.00397548731416463852 -0.0252719279378652573
-0.00964976847171783447 -0.0142887020483613014 -0.0262593049556016922
-0.0112243713811039925 -0.00642681308090686798 -0.0256202444434165955
-0.00758956372737884521 -0.00570537475869059563 -0.026958029717206955
-0.010032258927822113 -0.00709391525015234947 -0.0260655786842107773
-0.00879937969148159027 -0.019561251625418663 -0.0266119148582220078
-0.0112427202984690666 -0.014918917790055275 -0.025675307959318161
-0.0108715780079364777 -0.0196952894330024719 -0.0258472263813018799
-0.00854619499295949936 -0.0169593654572963715 -0.026686517521739006
-0.00919027160853147507 -0.00921761989593505859 -0.0263921543955802917
-0.0122923748567700386 -0.00461644679307937622 -0.0252124369144439697
-0.00987988896667957306 -0.0232657194137573242 -0.0262396521866321564
-0.00967185292392969131 -0.0186113975942134857 -0.0262826252728700638
-0.0103376405313611031 -0.0223078429698944092 -0.0260635409504175186
-0.0102488351985812187 -0.0162553340196609497 -0.0260522756725549698
-0.0107705965638160706 -0.0259935148060321808 -0.0258798040449619293
-0.0137370787560939789 -0.00766994059085845947 -0.0244803689420223236
-0.0134356003254652023 -0.00667182868346571922 -0.0246637258678674698
-0.0122199645265936852 -0.0140584288164973259 -0.0252389553934335709
-0.0124634867534041405 -0.0163675136864185333 -0.025069238618016243
-0.0119624063372612 -0.0161589365452528 -0.0253531318157911301
-0.0128059200942516327 -0.00821790099143981934 -0.0249944757670164108
-0.0124559178948402405 -0.0170078594237565994 -0.025064270943403244
-0.0155625771731138229 -0.0207885261625051498 -0.0233504455536603928
-0.0153800509870052338 -0.010293496772646904 -0.023436596617102623
-0.0158496759831905365 -0.0153257567435503006 -0.0231339316815137863
-0.0152754858136177063 -0.0145021397620439529 -0.0235236361622810364
-0.0161719508469104767 -0.0245809108018875122 -0.0229476224631071091
-0.0154485469684004784 -0.0161967482417821884 -0.0234115105122327805
-0.0166686605662107468 -0.0186359751969575882 -0.0225859601050615311
-0.0157128851860761642 -0.0169913806021213531 -0.0232336372137069702
-0.0155978426337242126 -0.0220002103596925735 -0.0233307909220457077
-0.0159330852329730988 -0.0141894044354557991 -0.0230726916342973709
-0.0084809325635433197 -0.000526612508110702038 -0.0266073364764451981
-0.0115391118451952934 -0.000870950345415621996 -0.0255133360624313354
-0.0117831286042928696 -0.000476551125757396221 -0.0254315268248319626
-0.0101036382839083672 -0.00223981169983744621 -0.0260069631040096283
-0.0203429181128740311 -0.0192213207483291626 -0.0193315651267766953
-0.0199702847748994827 -0.0196594782173633575 -0.0196579229086637497
-0.0204926580190658569 -0.0240638721734285355 -0.0191572569310665131
-0.018488757312297821 -0.0250438414514064789 -0.0209241285920143127
-0.0175629872828722 -0.0286643039435148239 -0.0217131506651639938
-0.0181995350867509842 -0.0264465063810348511 -0.021168295294046402
-0.0205871853977441788 -0.0211018156260251999 -0.0190989896655082703
-0.0177585817873477936 -0.0297322776168584824 -0.0215306840837001801
-0.0200352706015110016 -0.0289121326059103012 -0.0195207670331001282
-0.0201076306402683258 -0.0233130194246768951 -0.0195048190653324127
-0.0196716468781232834 -0.0285412725061178207 -0.0198461003601551056
-0.0183181948959827423 -0.0248517096042633057 -0.021076887845993042
-0.0206416212022304535 -0.0256466437131166458 -0.0190116744488477707
-0.0206821635365486145 -0.026002734899520874 -0.0189726930111646652
-0.0177921578288078308 -0.0165324825793504715 -0.0216219872236251831
-0.018076770007610321 -0.0163451489061117172 -0.0213709007948637009
-0.0194639135152101517 -0.0197928491979837418 -0.0201059281826019287
-0.0178919974714517593 -0.0163230970501899719 -0.021535264328122139
-0.0199351552873849869 -0.0171813610941171646 -0.0197119452059268951
-0.0169407222419977188 -0.0163665059953927994 -0.0223800018429756165
-0.0178847759962081909 -0.017451917752623558 -0.0215310137718915939
-0.0184928961098194122 -0.0210789069533348083 -0.0209564603865146637
-0.0177837405353784561 -0.0247890129685401917 -0.0215514339506626129
-0.0179523006081581116 -0.0221451893448829651 -0.0214266646653413773
-0.0180829335004091263 -0.0164675246924161911 -0.0213642660528421402
-0.0178610906004905701 -0.0205020550638437271 -0.0215232297778129578
-0.017274877056479454 -0.0183807294815778732 -0.0220640916377305984
-0.0212871842086315155 -0.0264999587088823318 -0.0182503368705511093
-0.0232825521379709244 -0.0214775633066892624 -0.0156373251229524612
-0.0227207895368337631 -0.0236209612339735031 -0.0163798462599515915
-0.0219005420804023743 -0.0274936296045780182 -0.0174710284918546677
-0.0216907411813735962 -0.0198066625744104385 -0.0176683757454156876
-0.0227106716483831406 -0.0222955197095870972 -0.0163803696632385254
-0.0211610794067382812 -0.0267671588808298111 -0.0184150077402591705
-0.0211338922381401062 -0.0260496903210878372 -0.0184432044625282288
-0.0228854045271873474 -0.0229211859405040741 -0.0161615889519453049
-0.0227764751762151718 -0.0217119548469781876 -0.0162902604788541794
-0.0236777123063802719 -0.0293839909136295319 -0.014835260808467865
-0.0230782702565193176 -0.0295945368707180023 -0.0156962238252162933
-0.0239338427782058716 -0.0252954978495836258 -0.0146094104275107384
-0.0230734460055828094 -0.0304628610610961914 -0.0156723707914352417
-0.0235188771039247513 -0.023701690137386322 -0.0152672054246068001
-0.0231849811971187592 -0.0231469776481389999 -0.0157706383615732193
-0.0234831813722848892 -0.0265384428203105927 -0.0152181582525372505
-0.0231482181698083878 -0.0249365568161010742 -0.0157603342086076736
-0.0236421208828687668 -0.0271266698837280273 -0.0149670019745826721
-0.0249390825629234314 -0.0251855384558439255 -0.0127338217571377754
-0.0250621084123849869 -0.026173347607254982 -0.0125281382352113724
-0.0250207185745239258 -0.0234619267284870148 -0.0125165311619639397
-0.0244108941406011581 -0.0262679532170295715 -0.0137977069243788719
-0.0242319852113723755 -0.0259745288640260696 -0.0141356475651264191
-0.0249823182821273804 -0.0292940400540828705 -0.0127892922610044479
-0.02628316730260849 -0.0261641331017017365 -0.00971253961324691772
-0.0264827832579612732 -0.0256775990128517151 -0.00922610796988010406
-0.0257895141839981079 -0.0287479162216186523 -0.0108038764446973801
-0.0253832172602415085 -0.0304200109094381332 -0.0117384027689695358
-0.0261823553591966629 -0.0300374478101730347 -0.00966254621744155884
-0.0268499664962291718 -0.0296806562691926956 -0.00793138705193996429
-0.0259038060903549194 -0.0299335196614265442 -0.0104055255651473999
-0.0267436783760786057 -0.0268676429986953735 -0.00844178162515163422
-0.0272154640406370163 -0.0299164950847625732 -0.00692825159057974815
-0.0277411956340074539 -0.0267609152942895889 -0.00406963936984539032
-0.0273596737533807755 -0.0297377444803714752 -0.00625500176101922989
-0.0279594883322715759 -0.029953422024846077 -0.00138788099866360426
-0.0278970804065465927 -0.0302411504089832306 -0.00179546081926673651
-0.028042919933795929 -0.0300402063876390457 -0.000668669352307915688
-0.0279879346489906311 -0.028903203085064888 -0.00154192221816629171
-0.0280435159802436829 -0.0278185382485389709 -0.00075927836587652564
0.0244977604597806931 -0.0307999998331069946 0.00888913683593273163
0.0251509323716163635 -0.0307999998331069946 0.00511424709111452103
0.0276037920266389847 -0.0307999998331069946 0.000475881504826247692
0.0262562688440084457 -0.0307999998331069946 0.00406817067414522171
0.0248108580708503723 -0.0307999998331069946 0.00473147816956043243
0.0263045169413089752 -0.0307999998331069946 -0.0017390144057571888
0.0226476825773715973 -0.0307999998331069946 0.0124212149530649185
0.0223700664937496185 -0.0307999998331069946 0.0139424335211515427
0.0264325663447380066 -0.0307999998331069946 0.000878702849149703979
0.0238713920116424561 -0.0307999998331069946 -0.00134742632508277893
0.0253040120005607605 -0.0307999998331069946 -3.52608039975166321e-05
0.0235899686813354492 -0.0307999998331069946 0.00703655742108821869
0.0260902941226959229 -0.0307999998331069946 -0.00474172364920377731
0.0249609183520078659 -0.0307999998331069946 -0.00817071832716464996
0.0245941616594791412 -0.0307999998331069946 -0.0051840534433722496
0.0250645913183689117 -0.0307999998331069946 -0.00470569264143705368
0.0249023810029029846 -0.0307999998331069946 -0.00428885407745838165
0.0243328958749771118 -0.0307999998331069946 -0.00528247235342860222
0.0253329500555992126 -0.0307999998331069946 -0.00167460786178708076
0.0246253218501806259 -0.0307999998331069946 -0.0102720530703663826
0.0241660606116056442 -0.0307999998331069946 -0.00680453237146139145
0.0257121212780475616 -0.0307999998331069946 -0.0107167493551969528
0.024572351947426796 -0.0307999998331069946 0.00278081465512514114
0.0265566557645797729 -0.0307999998331069946 -0.0046823723241686821
0.0216315556317567825 -0.0307999998331069946 0.00612792372703552246
0.0217546224594116211 -0.0307999998331069946 0.00716620683670043945
0.022398853674530983 -0.0307999998331069946 0.00179602392017841339
0.0219814646989107132 -0.0307999998331069946 -0.00342818628996610641
0.023404981940984726 -0.0307999998331069946 -0.010078849270939827
0.0220822840929031372 -0.0307999998331069946 0.00428909808397293091
0.0217313747853040695 -0.0307999998331069946 0.0124379470944404602
0.0235420782119035721 -0.0307999998331069946 -0.00624568015336990356
0.0211157482117414474 -0.0307999998331069946 -0.00838819704949855804
0.0244960207492113113 -0.0307999998331069946 -0.0132463732734322548
0.0215673800557851791 -0.0307999998331069946 -0.00500520970672369003
0.0219099018722772598 -0.0307999998331069946 -0.00822489429265260696
0.0216121543198823929 -0.0307999998331069946 0.00296557322144508362
0.0225660372525453568 -0.0307999998331069946 -0.0154129406437277794
0.0240846108645200729 -0.0307999998331069946 -0.0118969753384590149
0.0220414511859416962 -0.0307999998331069946 0.0098622981458902359
0.0238966550678014755 -0.0307999998331069946 -0.00638452824205160141
0.0218423586338758469 -0.0307999998331069946 0.000340336933732032776
0.0214226040989160538 -0.0307999998331069946 0.00999751314520835876
0.0221872925758361816 -0.0307999998331069946 0.00574663467705249786
0.023576829582452774 -0.0307999998331069946 -0.00391291361302137375
0.0210343915969133377 -0.0307999998331069946 -0.00518518686294555664
0.0198175031691789627 -0.0307999998331069946 -0.0187801830470561981
0.0185022205114364624 -0.0307999998331069946 -0.00710701476782560349
0.0206547044217586517 -0.0307999998331069946 -0.0168925970792770386
0.0197041835635900497 -0.0307999998331069946 -0.00391764193773269653
0.0187822170555591583 -0.0307999998331069946 -0.00593285076320171356
0.0189622435718774796 -0.0307999998331069946 -0.0105565367266535759
0.0194718651473522186 -0.0307999998331069946 -0.00503260642290115356
0.0171095691621303558 -0.0307999998331069946 -0.0177735686302185059
0.0200641490519046783 -0.0307999998331069946 -0.00455326959490776062
0.0175019800662994385 -0.0307999998331069946 -0.0112878363579511642
0.0201088972389698029 -0.0307999998331069946 -0.00845091976225376129
0.02054566890001297 -0.0307999998331069946 0.000186329707503318787
0.0176165848970413208 -0.0307999998331069946 -0.0180021785199642181
0.0207289978861808777 -0.0307999998331069946 -0.0157652292400598526
0.018360823392868042 -0.0307999998331069946 -0.00383539870381355286
0.0206057839095592499 -0.0307999998331069946 -0.0181960538029670715
0.020777801051735878 -0.0307999998331069946 -0.00982892420142889023
0.0195257272571325302 -0.0307999998331069946 -0.0141854649409651756
0.0173220057040452957 -0.0307999998331069946 -0.012799212709069252
0.0184141024947166443 -0.0307999998331069946 -0.0208310522139072418
0.0191295836120843887 -0.0307999998331069946 -0.00850100070238113403
0.0209118686616420746 -0.0307999998331069946 -0.00989646557718515396
0.0199838224798440933 -0.0307999998331069946 -0.00690754875540733337
0.0176787078380584717 -0.0307999998331069946 -0.0138771673664450645
0.0184518322348594666 -0.0307999998331069946 -0.00403089821338653564
0.0194631572812795639 -0.0307999998331069946 -0.00144286453723907471
0.0173347722738981247 -0.0307999998331069946 -0.0162366796284914017
0.0165913552045822144 -0.0307999998331069946 -0.0215606614947319031
0.0194834321737289429 -0.0307999998331069946 -0.0162464138120412827
0.0194663293659687042 -0.0307999998331069946 0.00869839638471603394
0.0163826458156108856 -0.0307999998331069946 -0.0167256742715835571
0.0191269312053918839 -0.0307999998331069946 0.00543765723705291748
0.0147888241335749626 -0.0307999998331069946 -0.00972281582653522491
0.016458854079246521 -0.0307999998331069946 -0.00348664075136184692
0.0144090792164206505 -0.0307999998331069946 -0.0145743526518344879
0.0120073026046156883 -0.0307999998331069946 -0.0217610187828540802
0.0113264136016368866 -0.0307999998331069946 -0.0232234317809343338
0.0160042792558670044 -0.0307999998331069946 -0.0109889619052410126
0.0153754306957125664 -0.0307999998331069946 -0.0188314653933048248
0.0155574604868888855 -0.0307999998331069946 -0.00413927063345909119
0.0139635931700468063 -0.0307999998331069946 -0.0117965629324316978
0.0121125346049666405 -0.0307999998331069946 -0.0230200886726379395
0.0166502464562654495 -0.0307999998331069946 -0.00817243568599224091
0.0108593767508864403 -0.0307999998331069946 -0.0235003009438514709
0.0158750042319297791 -0.0307999998331069946 -0.0206233412027359009
0.016119152307510376 -0.0307999998331069946 -0.00856692716479301453
0.0160703957080841064 -0.0307999998331069946 -0.00249802879989147186
0.0206595566123723984 -0.0307999998331069946 0.0166973229497671127
0.012550845742225647 -0.0307999998331069946 -0.0193842537701129913
0.0196333304047584534 -0.0307999998331069946 0.00820952095091342926
0.0164764970541000366 -0.0307999998331069946 -0.0109756039455533028
0.0176263507455587387 -0.0307999998331069946 -0.00921461824327707291
0.0138557124882936478 -0.0307999998331069946 -0.0197730995714664459
0.0152242695912718773 -0.0307999998331069946 -0.0215822607278823853
0.015087018720805645 -0.0307999998331069946 -0.00957166962325572968
0.0168779194355010986 -0.0307999998331069946 -0.0128176482394337654
0.0144149661064147949 -0.0307999998331069946 -0.00820898450911045074
0.0125102000311017036 -0.0307999998331069946 -0.0159469284117221832
0.0178776271641254425 -0.0307999998331069946 0.00429284200072288513
0.0120676029473543167 -0.0307999998331069946 -0.0211012009531259537
0.0133430659770965576 -0.0307999998331069946 -0.0176320895552635193
0.0127921905368566513 -0.0307999998331069946 -0.0151054766029119492
0.0179294832050800323 -0.0307999998331069946 -0.00281505286693572998
0.0156290233135223389 -0.0307999998331069946 -0.00831782072782516479
0.00771046942099928856 -0.0307999998331069946 -0.0189310554414987564
0.00594768859446048737 -0.0307999998331069946 -0.0247657839208841324
0.00861537735909223557 -0.0307999998331069946 -0.0264339074492454529
0.0115813314914703369 -0.0307999998331069946 -0.0145766464993357658
0.0100653357803821564 -0.0307999998331069946 -0.0132314562797546387
0.0117141762748360634 -0.0307999998331069946 -0.0114950407296419144
0.0125173367559909821 -0.0307999998331069946 -0.00887055695056915283
0.012968587689101696 -0.0307999998331069946 -0.00878818146884441376
0.0132563821971416473 -0.0307999998331069946 -0.00279444083571434021
0.00697320885956287384 -0.0307999998331069946 -0.0185710731893777847
0.0101465694606304169 -0.0307999998331069946 -0.0243853498250246048
0.0143570732325315475 -0.0307999998331069946 -0.000993818044662475586
0.0146049316972494125 -0.0307999998331069946 -0.0049431677907705307
0.00569059746339917183 -0.0307999998331069946 -0.0256361793726682663
0.0145384380593895912 -0.0307999998331069946 0.00112441740930080414
0.00782608240842819214 -0.0307999998331069946 -0.0211440045386552811
0.0126208439469337463 -0.0307999998331069946 -0.0130268698558211327
0.00521945208311080933 -0.0307999998331069946 -0.0241690706461668015
0.0130602847784757614 -0.0307999998331069946 -0.0036367662250995636
0.0168511122465133667 -0.0307999998331069946 0.00241462141275405884
0.0105835944414138794 -0.0307999998331069946 -0.0122717395424842834
0.0125943589955568314 -0.0307999998331069946 -0.0132929310202598572
0.0147708272561430931 -0.0307999998331069946 -0.00126016698777675629
0.00737280258908867836 -0.0307999998331069946 -0.0266887824982404709
0.0100754676386713982 -0.0307999998331069946 -0.0164573471993207932
0.0101697500795125961 -0.0307999998331069946 -0.0139060113579034805
0.0050623076967895031 -0.0307999998331069946 -0.0255877804011106491
0.0171889625489711761 -0.0307999998331069946 0.00741456262767314911
0.00945165101438760757 -0.0307999998331069946 -0.0244947504252195358
0.010469767265021801 -0.0307999998331069946 -0.0149359051138162613
0.0129253417253494263 -0.0307999998331069946 -0.00504793599247932434
0.00790634099394083023 -0.0307999998331069946 -0.0193579047918319702
0.0120767662301659584 -0.0307999998331069946 -0.0126555906608700752
0.0187991484999656677 -0.0307999998331069946 0.0124634616076946259
0.0122810229659080505 -0.0307999998331069946 -0.0121550336480140686
0.0076657487079501152 -0.0307999998331069946 -0.0206889677792787552
0.0200442299246788025 -0.0307999998331069946 0.0151180587708950043
0.0130775589495897293 -0.0307999998331069946 -0.00628756731748580933
0.0127933025360107422 -0.0307999998331069946 -0.00724733807146549225
0.00394516345113515854 -0.0307999998331069946 -0.0268798116594552994
0.010988844558596611 -0.0307999998331069946 -0.00926862470805644989
0.0105833224952220917 -0.0307999998331069946 -0.016271546483039856
0.0139996893703937531 -0.0307999998331069946 -0.00505151040852069855
-0.00118222797755151987 -0.0307999998331069946 -0.025147903710603714
-0.00156820740085095167 -0.0307999998331069946 -0.0252062026411294937
0.0190083757042884827 -0.0307999998331069946 0.0139237325638532639
0.00505281984806060791 -0.0307999998331069946 -0.0234187636524438858
0.0167672652751207352 -0.0307999998331069946 0.0076143946498632431
0.00281116529367864132 -0.0307999998331069946 -0.0265201982110738754
0.0102318460121750832 -0.0307999998331069946 -0.00937679596245288849
0.0105539970099925995 -0.0307999998331069946 -0.00168697349727153778
0.00405155029147863388 -0.0307999998331069946 -0.0174611154943704605
0.00912992749363183975 -0.0307999998331069946 -0.0117487534880638123
0.0189784746617078781 -0.0307999998331069946 0.0134776551276445389
0.00899715721607208252 -0.0307999998331069946 -0.00681770406663417816
0.00809022039175033569 -0.0307999998331069946 -0.0109359212219715118
0.0127343935891985893 -0.0307999998331069946 -0.0028108842670917511
0.00627802405506372452 -0.0307999998331069946 -0.0135535197332501411
0.01324506476521492 -0.0307999998331069946 0.000150468200445175171
0.00409717950969934464 -0.0307999998331069946 -0.018002685159444809
0.00697020813822746277 -0.0307999998331069946 -0.010491466149687767
0.00340889906510710716 -0.0307999998331069946 -0.026736769825220108
-0.000338071025907993317 -0.0307999998331069946 -0.0223384015262126923
0.0143722593784332275 -0.0307999998331069946 0.0050054546445608139
0.00194389501120895147 -0.0307999998331069946 -0.0205886848270893097
0.0045867525041103363 -0.0307999998331069946 -0.0142644047737121582
0.00214719516225159168 -0.0307999998331069946 -0.0251038335263729095
0.00886341743171215057 -0.0307999998331069946 -0.01157342828810215
0.00271848728880286217 -0.0307999998331069946 -0.0212875567376613617
0.00838629715144634247 -0.0307999998331069946 -0.00930732116103172302
0.00710226921364665031 -0.0307999998331069946 -0.0150215690955519676
0.00823829974979162216 -0.0307999998331069946 -0.01001768559217453
0.00431560352444648743 -0.0307999998331069946 -0.0213249530643224716
0.00378877925686538219 -0.0307999998331069946 -0.0226916372776031494
0.00310486461967229843 -0.0307999998331069946 -0.0265255104750394821
0.00556698720902204514 -0.0307999998331069946 -0.0123306047171354294
0.0110572511330246925 -0.0307999998331069946 -0.00208255648612976074
0.00159961124882102013 -0.0307999998331069946 -0.0231828503310680389
0.00919877737760543823 -0.0307999998331069946 -0.0101178307086229324
0.0128639312461018562 -0.0307999998331069946 -0.002001909539103508
0.00378954038023948669 -0.0307999998331069946 -0.0173298660665750504
0.0072201932780444622 -0.0307999998331069946 -0.00801218859851360321
0.0123071931302547455 -0.0307999998331069946 0.00141180306673049927
0.00624302681535482407 -0.0307999998331069946 -0.020293503999710083
0.00314436317421495914 -0.0307999998331069946 -0.0160426627844572067
0.004625723697245121 -0.0307999998331069946 -0.0144705651327967644
0.0147352786734700203 -0.0307999998331069946 0.0035645458847284317
0.00549934897571802139 -0.0307999998331069946 -0.0139834573492407799
0.00152438157238066196 -0.0307999998331069946 -0.0191326849162578583
0.0113362781703472137 -0.0307999998331069946 -0.00522730685770511627
0.014569602906703949 -0.0307999998331069946 0.00368397869169712067
0.00971403811126947403 -0.0307999998331069946 -0.00286133401095867157
-0.00394880864769220352 -0.0307999998331069946 -0.0240061357617378235
0.00365529255941510201 -0.0307999998331069946 -0.0135828778147697449
-0.00063537992537021637 -0.0307999998331069946 -0.0202844627201557159
-0.00219854572787880898 -0.0307999998331069946 -0.0249135755002498627
-0.00651007331907749176 -0.0307999998331069946 -0.0230764206498861313
0.0156208435073494911 -0.0307999998331069946 0.0100199878215789795
0.010440019890666008 -0.0307999998331069946 0.00125556066632270813
-0.00814835261553525925 -0.0307999998331069946 -0.025815153494477272
0.00110268173739314079 -0.0307999998331069946 -0.017384655773639679
0.00274336524307727814 -0.0307999998331069946 -0.00788147188723087311
0.00293737370520830154 -0.0307999998331069946 -0.0106319449841976166
-0.00267027644440531731 -0.0307999998331069946 -0.0214597620069980621
0.00169596262276172638 -0.0307999998331069946 -0.0122919837012887001
0.00134692573919892311 -0.0307999998331069946 -0.0167399309575557709
-0.000103157944977283478 -0.0307999998331069946 -0.016005445271730423
-0.00472558895125985146 -0.0307999998331069946 -0.0272933617234230042
0.00841335579752922058 -0.0307999998331069946 -0.00230330973863601685
-0.00409011309966444969 -0.0307999998331069946 -0.0210057124495506287
0.00206293258816003799 -0.0307999998331069946 -0.0154106216505169868
0.0162990577518939972 -0.0307999998331069946 0.0110471285879611969
0.00558342039585113525 -0.0307999998331069946 -0.00643200427293777466
0.007441679947078228 -0.0307999998331069946 -0.00657820329070091248
0.00532848574221134186 -0.0307999998331069946 -0.00515005923807621002
0.0145959071815013885 -0.0307999998331069946 0.0082225017249584198
-0.00516862049698829651 -0.0307999998331069946 -0.0220909807831048965
-0.00162729923613369465 -0.0307999998331069946 -0.0218168105930089951
0.00514271389693021774 -0.0307999998331069946 -0.00667280703783035278
0.0140159577131271362 -0.0307999998331069946 0.00688277557492256165
-0.00348589848726987839 -0.0307999998331069946 -0.0257658641785383224
0.00503491424024105072 -0.0307999998331069946 -0.00580698810517787933
-0.00064769526943564415 -0.0307999998331069946 -0.0188403502106666565
-0.00480397092178463936 -0.0307999998331069946 -0.0274413824081420898
0.0142153855413198471 -0.0307999998331069946 0.00721959583461284637
-0.00483580725267529488 -0.0307999998331069946 -0.0210038162767887115
0.00988136418163776398 -0.0307999998331069946 0.000225245952606201172
0.0114840883761644363 -0.0307999998331069946 0.000933429226279258728
0.00319170951843261719 -0.0307999998331069946 -0.00739561393857002258
0.0074369329959154129 -0.0307999998331069946 -0.00356621295213699341
0.00464344117790460587 -0.0307999998331069946 -0.00683595426380634308
0.00406388938426971436 -0.0307999998331069946 -0.00688282959163188934
-0.00188771123066544533 -0.0307999998331069946 -0.0239732116460800171
-0.00662379851564764977 -0.0307999998331069946 -0.0262058600783348083
0.00479102041572332382 -0.0307999998331069946 -0.00854524411261081696
0.00293034221976995468 -0.0307999998331069946 -0.0113605204969644547
-0.00320544233545660973 -0.0307999998331069946 -0.0192910041660070419
0.0100651364773511887 -0.0307999998331069946 -0.00196355022490024567
-0.00137416785582900047 -0.0307999998331069946 -0.015391509048640728
-0.00269714323803782463 -0.0307999998331069946 -0.0189298186451196671
-0.00374499056488275528 -0.0307999998331069946 -0.0203221980482339859
-0.000592774711549282074 -0.0307999998331069946 -0.0151999182999134064
-0.00267825881019234657 -0.0307999998331069946 -0.021533627063035965
0.00586703978478908539 -0.0307999998331069946 3.2164156436920166e-05
-0.0150710670277476311 -0.0307999998331069946 -0.0227344483137130737
-0.00669969525188207626 -0.0307999998331069946 -0.015720706433057785
-0.0045267036184668541 -0.0307999998331069946 -0.0137622607871890068
-0.00489466171711683273 -0.0307999998331069946 -0.0148947359994053841
-0.00461036711931228638 -0.0307999998331069946 -0.0108878910541534424
-0.0144909536466002464 -0.0307999998331069946 -0.0222523137927055359
-0.010581575334072113 -0.0307999998331069946 -0.0195758827030658722
0.000973082147538661957 -0.0307999998331069946 -0.00929088983684778214
0.0173266995698213577 -0.0307999998331069946 0.0140651818364858627
-0.00478971563279628754 -0.0307999998331069946 -0.0137247433885931969
-0.00479575339704751968 -0.0307999998331069946 -0.0130907269194722176
-0.0135022187605500221 -0.0307999998331069946 -0.0218742936849594116
-0.0105747636407613754 -0.0307999998331069946 -0.0255909711122512817
-0.0103967050090432167 -0.0307999998331069946 -0.0242863055318593979
-0.0107241813093423843 -0.0307999998331069946 -0.0241003315895795822
0.00309680681675672531 -0.0307999998331069946 -0.00279232114553451538
-0.00913265068084001541 -0.0307999998331069946 -0.0173317883163690567
0.00202362611889839172 -0.0307999998331069946 -0.00647857971489429474
-0.0084941517561674118 -0.0307999998331069946 -0.0147847365587949753
-0.0055965459905564785 -0.0307999998331069946 -0.0194322112947702408
0.00859718769788742065 -0.0307999998331069946 0.00252304039895534515
0.0121414810419082642 -0.0307999998331069946 0.0081644747406244278
-0.00539632327854633331 -0.0307999998331069946 -0.0134721780195832253
0.00600181147456169128 -0.0307999998331069946 -0.00107214227318763733
0.00156300049275159836 -0.0307999998331069946 -0.00590098276734352112
0.010580187663435936 -0.0307999998331069946 0.0066191013902425766
0.00802471023052930832 -0.0307999998331069946 0.001409163698554039
-0.00624123495072126389 -0.0307999998331069946 -0.0132742570713162422
0.00152881350368261337 -0.0307999998331069946 -0.0090061575174331665
0.000985949300229549408 -0.0307999998331069946 -0.00896240957081317902
-0.00524006132036447525 -0.0307999998331069946 -0.0147362556308507919
-0.00773134175688028336 -0.0307999998331069946 -0.0225957669317722321
-0.00901325978338718414 -0.0307999998331069946 -0.0195922572165727615
-0.00801908038556575775 -0.0307999998331069946 -0.0150680467486381531
-0.0029803914949297905 -0.0307999998331069946 -0.0161193404346704483
0.00347079895436763763 -0.0307999998331069946 -0.00640891306102275848
0.00025400891900062561 -0.0307999998331069946 -0.0108276912942528725
-0.0117265153676271439 -0.0307999998331069946 -0.021775437518954277
-0.000178092159330844879 -0.0307999998331069946 -0.0118050668388605118
-0.0119513813406229019 -0.0307999998331069946 -0.0187072865664958954
-0.0109686413779854774 -0.0307999998331069946 -0.0198862664401531219
0.0107529209926724434 -0.0307999998331069946 0.00647756829857826233
-0.00237665604799985886 -0.0307999998331069946 -0.0109636867418885231
-0.00501724239438772202 -0.0307999998331069946 -0.0132931480184197426
-0.00496320705860853195 -0.0307999998331069946 -0.0143420593813061714
-0.0097162444144487381 -0.0307999998331069946 -0.0181337427347898483
0.0141663961112499237 -0.0307999998331069946 0.00997699424624443054
0.00442714802920818329 -0.0307999998331069946 -0.000129682943224906921
-0.00116388220340013504 -0.0307999998331069946 -0.00862125679850578308
0.0134357176721096039 -0.0307999998331069946 0.00833887048065662384
-0.00732319243252277374 -0.0307999998331069946 -0.0222962666302919388
0.0155707588419318199 -0.0307999998331069946 0.0112989321351051331
0.00408569537103176117 -0.0307999998331069946 -0.000825721770524978638
0.00720494426786899567 -0.0307999998331069946 -4.47742640972137451e-05
-0.00670540938153862953 -0.0307999998331069946 -0.0158351603895425797
-0.00957645662128925323 -0.0307999998331069946 -0.0141739305108785629
0.00739763304591178894 -0.0307999998331069946 0.00469722598791122437
-0.0164656005799770355 -0.0307999998331069946 -0.0174259655177593231
-0.0144521826878190041 -0.0307999998331069946 -0.0209835916757583618
-0.00457112491130828857 -0.0307999998331069946 -0.00726780761033296585
-3.68095934391021729e-05 -0.0307999998331069946 -0.00181999988853931427
-0.0174629278481006622 -0.0307999998331069946 -0.0209163762629032135
-0.013491358608007431 -0.0307999998331069946 -0.0158468559384346008
-0.00243966653943061829 -0.0307999998331069946 -0.00734644941985607147
-0.0161967556923627853 -0.0307999998331069946 -0.0167366079986095428
0.015600716695189476 -0.0307999998331069946 0.0135307032614946365
-0.0104029402136802673 -0.0307999998331069946 -0.0111348126083612442
-0.0196286533027887344 -0.0307999998331069946 -0.0197751261293888092
-0.015753505751490593 -0.0307999998331069946 -0.0205855388194322586
-0.0107861217111349106 -0.0307999998331069946 -0.0136692095547914505
-0.0140570532530546188 -0.0307999998331069946 -0.0144613571465015411
-0.0188194438815116882 -0.0307999998331069946 -0.0199755262583494186
-0.0160681474953889847 -0.0307999998331069946 -0.0190168283879756927
-0.0137528460472822189 -0.0307999998331069946 -0.01370206568390131
-0.018457021564245224 -0.0307999998331069946 -0.0201816689223051071
-0.00334722362458705902 -0.0307999998331069946 -0.00501224864274263382
-0.015597490593791008 -0.0307999998331069946 -0.0215501673519611359
-0.00263608433306217194 -0.0307999998331069946 -0.00577881745994091034
-0.0146648669615387917 -0.0307999998331069946 -0.0196162555366754532
-0.0123668788000941277 -0.0307999998331069946 -0.0115810232236981392
-0.0154792200773954391 -0.0307999998331069946 -0.0166702326387166977
0.0128183402121067047 -0.0307999998331069946 0.0103857554495334625
0.00925741344690322876 -0.0307999998331069946 0.00582548603415489197
0.00685630179941654205 -0.0307999998331069946 0.00545222125947475433
0.00105032883584499359 -0.0307999998331069946 -0.00115100294351577759
-0.00691660400480031967 -0.0307999998331069946 -0.0113075990229845047
-0.0153974182903766632 -0.0307999998331069946 -0.0165740698575973511
-0.0120872277766466141 -0.0307999998331069946 -0.0121073490008711815
-0.00378328002989292145 -0.0307999998331069946 -0.00816634297370910645
-0.00389196909964084625 -0.0307999998331069946 -0.00602548569440841675
-0.0196321569383144379 -0.0307999998331069946 -0.0185429826378822327
-0.0109439566731452942 -0.0307999998331069946 -0.0106889484450221062
0.00251286663115024567 -0.0307999998331069946 0.00116964429616928101
-0.0180620551109313965 -0.0307999998331069946 -0.0188077967613935471
-0.00446225330233573914 -0.0307999998331069946 -0.00824225693941116333
0.00891963206231594086 -0.0307999998331069946 0.00665210559964179993
-0.0178814437240362167 -0.0307999998331069946 -0.0166281890124082565
0.00797516480088233948 -0.0307999998331069946 0.00539177469909191132
0.00532198883593082428 -0.0307999998331069946 0.00135049782693386078
-0.00206577219069004059 -0.0307999998331069946 -0.00370573438704013824
-0.0162854641675949097 -0.0307999998331069946 -0.0166608467698097229
-0.019274422898888588 -0.0307999998331069946 -0.0198521893471479416
-0.00507654529064893723 -0.0307999998331069946 -0.00890244636684656143
-0.0103732924908399582 -0.0307999998331069946 -0.0129530355334281921
-0.0110282516106963158 -0.0307999998331069946 -0.0155926961451768875
-0.0149167636409401894 -0.0307999998331069946 -0.018884751945734024
-0.00789914373308420181 -0.0307999998331069946 -0.0114773828536272049
0.00464538857340812683 -0.0307999998331069946 0.00286189094185829163
-0.0200516935437917709 -0.0307999998331069946 -0.0189685970544815063
-0.0106506394222378731 -0.0307999998331069946 -0.0098438262939453125
-0.0180022381246089935 -0.0307999998331069946 -0.0167061053216457367
0.0154095347970724106 -0.0307999998331069946 0.0136203430593013763
-0.013406350277364254 -0.0307999998331069946 -0.0148321092128753662
-0.0121557461097836494 -0.0307999998331069946 -0.0100060366094112396
-0.0166574232280254364 -0.0307999998331069946 -0.00807558745145797729
-0.00698533095419406891 -0.0307999998331069946 -0.00110760238021612167
-0.0163566377013921738 -0.0307999998331069946 -0.0124738514423370361
-0.0213846378028392792 -0.0307999998331069946 -0.0179870538413524628
-0.0175530891865491867 -0.0307999998331069946 -0.0149556826800107956
-0.0164327416568994522 -0.0307999998331069946 -0.0143754966557025909
-0.0116560682654380798 -0.0307999998331069946 -0.0102610308676958084
-0.0082890726625919342 -0.0307999998331069946 -0.00706958211958408356
-0.0120417755097150803 -0.0307999998331069946 -0.00485851988196372986
-0.0210583209991455078 -0.0307999998331069946 -0.0116021130234003067
0.00270424969494342804 -0.0307999998331069946 0.00372965820133686066
-0.0150077501311898232 -0.0307999998331069946 -0.00928571261465549469
-0.0105390734970569611 -0.0307999998331069946 -0.00398394186049699783
0.0102695859968662262 -0.0307999998331069946 0.0107399709522724152
-0.019360072910785675 -0.0307999998331069946 -0.0162190999835729599
-0.0198754444718360901 -0.0307999998331069946 -0.0130526982247829437
0.0131626855581998825 -0.0307999998331069946 0.0116631574928760529
-0.0214086584746837616 -0.0307999998331069946 -0.0147568546235561371
-0.0211172644048929214 -0.0307999998331069946 -0.0129312006756663322
0.00045943818986415863 -0.0307999998331069946 0.000715354457497596741
-0.0209194906055927277 -0.0307999998331069946 -0.0111010335385799408
-0.015978492796421051 -0.0307999998331069946 -0.00868960842490196228
0.00356087088584899902 -0.0307999998331069946 0.00583136174827814102
0.0141895432025194168 -0.0307999998331069946 0.0137902498245239258
0.00336657091975212097 -0.0307999998331069946 0.00487353838980197906
0.00382692739367485046 -0.0307999998331069946 0.00610001478344202042
-0.000801501795649528503 -0.0307999998331069946 -0.000337470322847366333
-0.0223745349794626236 -0.0307999998331069946 -0.0116923749446868896
-0.00740299373865127563 -0.0307999998331069946 -0.00471032131463289261
-0.00461310334503650665 -0.0307999998331069946 -0.000761334784328937531
0.00122926756739616394 -0.0307999998331069946 0.00321378745138645172
-0.00719694606959819794 -0.0307999998331069946 -0.00307235121726989746
0.0114181116223335266 -0.0307999998331069946 0.0117630837485194206
-0.014651050791144371 -0.0307999998331069946 -0.00983423367142677307
-0.018833555281162262 -0.0307999998331069946 -0.010015806183218956
0.00739706680178642273 -0.0307999998331069946 0.00770231802016496658
-0.0244288388639688492 -0.0307999998331069946 -0.0135594606399536133
0.00336112640798091888 -0.0307999998331069946 0.00558063574135303497
-0.0233886279165744781 -0.0307999998331069946 -0.0132982963696122169
-0.00721151940524578094 -0.0307999998331069946 -0.00328475236892700195
-0.011844349093735218 -0.0307999998331069946 -0.00968212448060512543
-0.0215539019554853439 -0.0307999998331069946 -0.0141778085380792618
-0.0183666795492172241 -0.0307999998331069946 -0.0107004325836896896
-0.0156533978879451752 -0.0307999998331069946 -0.011246582493185997
-0.0124364932999014854 -0.0307999998331069946 -0.00592885073274374008
-0.0137727698311209679 -0.0307999998331069946 -0.011116761714220047
-0.0119667490944266319 -0.0307999998331069946 -0.00861711334437131882
0.00126890465617179871 -0.0307999998331069946 0.00337980035692453384
-0.0110119609162211418 -0.0307999998331069946 -0.00679026450961828232
0.00917239859700202942 -0.0307999998331069946 0.00826975982636213303
-0.00476814992725849152 -0.0307999998331069946 -0.000884131528437137604
-0.0218682251870632172 -0.0307999998331069946 -0.0153992166742682457
-0.0167915374040603638 -0.0307999998331069946 -0.0113338623195886612
-0.00910992082208395004 -0.0307999998331069946 -0.00249712914228439331
0.0101408194750547409 -0.0307999998331069946 0.0102358860895037651
0.00681901723146438599 -0.0307999998331069946 0.00744458381086587906
-0.00671972893178462982 -0.0307999998331069946 0.00223744194954633713
-0.0190397612750530243 -0.0307999998331069946 -0.00516852643340826035
-0.0169991813600063324 -0.0307999998331069946 -0.00501037249341607094
-0.018057260662317276 -0.0307999998331069946 -0.00302820838987827301
-0.00810178369283676147 -0.0307999998331069946 0.00101071130484342575
-0.0103153809905052185 -0.0307999998331069946 0.000215949490666389465
-0.0190886780619621277 -0.0307999998331069946 -0.00900908000767230988
-0.0133411185815930367 -0.0307999998331069946 -0.00359464902430772781
0.00440655462443828583 -0.0307999998331069946 0.00873486697673797607
-0.0224876012653112411 -0.0307999998331069946 -0.00508353253826498985
-0.0141603993251919746 -0.0307999998331069946 -0.00230782059952616692
-0.0197559818625450134 -0.0307999998331069946 -0.00822086259722709656
-0.019987303763628006 -0.0307999998331069946 -0.00940545648336410522
-0.000535873696208000183 -0.0307999998331069946 0.00477731786668300629
0.0063744913786649704 -0.0307999998331069946 0.0100663378834724426
-0.0229269005358219147 -0.0307999998331069946 -0.0101061202585697174
-0.0211257413029670715 -0.0307999998331069946 -0.00361825269646942616
-0.0161088258028030396 -0.0307999998331069946 -0.00581345055252313614
-0.0229332279413938522 -0.0307999998331069946 -0.00936643593013286591
-0.0163321606814861298 -0.0307999998331069946 -0.00677727116271853447
0.00229386612772941589 -0.0307999998331069946 0.00667042285203933716
-0.0229176096618175507 -0.0307999998331069946 -0.00575175974518060684
-0.0241046510636806488 -0.0307999998331069946 -0.00650529563426971436
-0.0147018302232027054 -0.0307999998331069946 -0.0023008277639746666
-0.0123570505529642105 -0.0307999998331069946 -0.00266867177560925484
0.00995748862624168396 -0.0307999998331069946 0.0117414761334657669
-0.0255110785365104675 -0.0307999998331069946 -0.0105549683794379234
-0.00328188762068748474 -0.0307999998331069946 0.00436815246939659119
-0.0202623363584280014 -0.0307999998331069946 -0.00638307910412549973
-0.0261076707392930984 -0.0307999998331069946 -0.00771184125915169716
0.0075497068464756012 -0.0307999998331069946 0.00945720169693231583
-8.86805355548858643e-06 -0.0307999998331069946 0.0069781881757080555
-0.0219375286251306534 -0.0307999998331069946 -0.00680497568100690842
-0.00793367065489292145 -0.0307999998331069946 0.00277431076392531395
-0.0103371646255254745 -0.0307999998331069946 -0.000123918987810611725
-0.00211405940353870392 -0.0307999998331069946 0.00399318337440490723
0.000849582254886627197 -0.0307999998331069946 0.00764072174206376076
-0.00813359953463077545 -0.0307999998331069946 0.00175513327121734619
-0.0211402624845504761 -0.0307999998331069946 -0.0095841623842716217
-0.00783506967127323151 -0.0307999998331069946 -0.000254904851317405701
0.00218858197331428528 -0.0307999998331069946 0.00710776541382074356
0.0109538286924362183 -0.0307999998331069946 0.0124641833826899529
-0.0131293432787060738 -0.0307999998331069946 -0.00206551281735301018
-0.0236835982650518417 -0.0307999998331069946 -0.0102527905255556107
-0.0128236878663301468 -0.0307999998331069946 -0.00345707125961780548
-0.00843713991343975067 -0.0307999998331069946 0.00155474897474050522
-0.00701920501887798309 -0.0307999998331069946 0.00269340816885232925
-0.0148562118411064148 -0.0307999998331069946 -0.00133616290986537933
-0.0253702495247125626 -0.0307999998331069946 -0.00987302418798208237
-0.0184896215796470642 -0.0307999998331069946 -0.00232305377721786499
-0.0128974290564656258 -0.0307999998331069946 -0.000925390515476465225
-0.0165542773902416229 -0.0307999998331069946 -0.00331706088036298752
-0.00557853840291500092 -0.0307999998331069946 0.00383269507437944412
0.00345940142869949341 -0.0307999998331069946 0.0071482853963971138
-0.0189427118748426437 -0.0307999998331069946 -0.00265904003754258156
0.00315157882869243622 -0.0307999998331069946 0.0105633242055773735
0.00697327591478824615 -0.0307999998331069946 0.0126746352761983871
-0.0272578112781047821 -0.0307999998331069946 -0.000150178850162774324
-0.0018048454076051712 -0.0307999998331069946 0.00879493635147809982
0.0045331176370382309 -0.0307999998331069946 0.0118902605026960373
-0.0236426237970590591 -0.0307999998331069946 -0.00279746809974312782
0.00309787876904010773 -0.0307999998331069946 0.00988425314426422119
0.0106759369373321533 -0.0307999998331069946 0.0144891673699021339
-0.0251285117119550705 -0.0307999998331069946 -0.00103033194318413734
-0.0263716895133256912 -0.0307999998331069946 -0.00141340354457497597
-0.0225230250507593155 -0.0307999998331069946 0.000124683137983083725
-0.0230305492877960205 -0.0307999998331069946 0.000401493278332054615
-0.025256643071770668 -0.0307999998331069946 -0.00548111973330378532
-0.026227019727230072 -0.0307999998331069946 -0.00571683375164866447
-0.00189783796668052673 -0.0307999998331069946 0.00983566977083683014
-0.00623328983783721924 -0.0307999998331069946 0.00568542582914233208
0.0145585592836141586 -0.0307999998331069946 0.0152958240360021591
-0.0194597989320755005 -0.0307999998331069946 0.000613919692113995552
-0.010977577418088913 -0.0307999998331069946 0.00543997250497341156
-0.0134281590580940247 -0.0307999998331069946 0.00183935998938977718
-0.022520601749420166 -0.0307999998331069946 -0.0034624752588570118
-0.0167403332889080048 -0.0307999998331069946 0.000783562194555997849
-0.00936666689813137054 -0.0307999998331069946 0.00417377008125185966
-0.00562387332320213318 -0.0307999998331069946 0.00617000553756952286
-0.00997558049857616425 -0.0307999998331069946 0.00297249574214220047
-0.00733820907771587372 -0.0307999998331069946 0.00723139429464936256
0.00224941037595272064 -0.0307999998331069946 0.00946479383856058121
-0.0167134515941143036 -0.0307999998331069946 0.00249031931161880493
-0.00101371854543685913 -0.0307999998331069946 0.0101175606250762939
0.0137572009116411209 -0.0307999998331069946 0.0156748015433549881
0.00599848851561546326 -0.0307999998331069946 0.0115411095321178436
-0.0176938697695732117 -0.0307999998331069946 -0.0012844577431678772
0.00608924776315689087 -0.0307999998331069946 0.0109397964552044868
0.00751956552267074585 -0.0307999998331069946 0.0118009988218545914
0.00507616065442562103 -0.0307999998331069946 0.0111277336254715919
-0.0166030097752809525 -0.0307999998331069946 0.00387777131982147694
-0.0185432862490415573 -0.0307999998331069946 0.00254588061943650246
-0.0183525048196315765 -0.0307999998331069946 -0.00010107085108757019
0.0094839148223400116 -0.0307999998331069946 0.0134471189230680466
-0.0265485066920518875 -0.0307999998331069946 -0.00081255653640255332
-0.00827398896217346191 -0.0307999998331069946 0.0054917139932513237
-0.0128702931106090546 -0.0307999998331069946 0.00363739649765193462
-0.00510345213115215302 -0.0307999998331069946 0.00506037892773747444
0.00255366973578929901 -0.0307999998331069946 0.0113898320123553276
-0.0228363107889890671 -0.0307999998331069946 0.000262455316260457039
-0.026069004088640213 -0.0307999998331069946 -0.00388402608223259449
0.0044699348509311676 -0.0307999998331069946 0.0117229549214243889
-0.0245426986366510391 -0.0307999998331069946 0.000133278663270175457
-0.00681862793862819672 -0.0307999998331069946 0.00599770247936248779
-0.0108110159635543823 -0.0307999998331069946 0.00524228997528553009
-0.0156794954091310501 -0.0307999998331069946 0.00154872867278754711
-0.0269598737359046936 -0.0307999998331069946 -0.00120401801541447639
-0.00478023290634155273 -0.0307999998331069946 0.00785716529935598373
-0.0235673058778047562 -0.0307999998331069946 0.0019074117299169302
-0.0176109708845615387 -0.0307999998331069946 0.00585842505097389221
-0.0149185182526707649 -0.0307999998331069946 0.00777135696262121201
-0.00413807667791843414 -0.0307999998331069946 0.00952641665935516357
0.0173729527741670609 -0.0307999998331069946 0.0174734853208065033
-0.0137214893475174904 -0.0307999998331069946 0.0070519912987947464
-0.0151750007644295692 -0.0307999998331069946 0.00592407118529081345
-0.0187728926539421082 -0.0307999998331069946 0.00410978682339191437
-0.0147781288251280785 -0.0307999998331069946 0.0086060650646686554
0.000171355903148651123 -0.0307999998331069946 0.0121980812400579453
-0.00833039171993732452 -0.0307999998331069946 0.00750092510133981705
0.00621139071881771088 -0.0307999998331069946 0.0130992010235786438
-0.0218418575823307037 -0.0307999998331069946 0.00718051567673683167
-0.0152502031996846199 -0.0307999998331069946 0.00898523442447185516
-0.00045435689389705658 -0.0307999998331069946 0.0105111300945281982
-0.0037503466010093689 -0.0307999998331069946 0.0102424528449773788
-0.0270114149898290634 -0.0307999998331069946 0.002501689363270998
0.0086673051118850708 -0.0307999998331069946 0.0141463587060570717
-0.0123161040246486664 -0.0307999998331069946 0.00665601156651973724
-0.00597672536969184875 -0.0307999998331069946 0.00892264582216739655
-0.0265243034809827805 -0.0307999998331069946 0.00345887243747711182
-0.00360999442636966705 -0.0307999998331069946 0.0117030106484889984
-0.0263611543923616409 -0.0307999998331069946 0.00264711142517626286
-0.0188862700015306473 -0.0307999998331069946 0.00687992572784423828
0.00145275145769119263 -0.0307999998331069946 0.0130072552710771561
-0.0204557813704013824 -0.0307999998331069946 0.00814829859882593155
-8.27014446258544922e-06 -0.0307999998331069946 0.0123818889260292053
-0.0213648062199354172 -0.0307999998331069946 0.00679627293720841408
-0.0228439848870038986 -0.0307999998331069946 0.00478440616279840469
-0.0203160159289836884 -0.0307999998331069946 0.00429530348628759384
-0.0158871840685606003 -0.0307999998331069946 0.00628755753859877586
-0.00785392336547374725 -0.0307999998331069946 0.00772772403433918953
-0.000406045466661453247 -0.0307999998331069946 0.0105175720527768135
-0.0230790302157402039 -0.0307999998331069946 0.0055392775684595108
-0.0055622737854719162 -0.0307999998331069946 0.010945810005068779
-0.0188152752816677094 -0.0307999998331069946 0.00550540536642074585
-0.027097310870885849 -0.0307999998331069946 0.00153933628462255001
-0.021297801285982132 -0.0307999998331069946 0.00748107954859733582
-0.0191563963890075684 -0.0307999998331069946 0.00622369814664125443
0.00850503332912921906 -0.0307999998331069946 0.0139786358922719955
-0.0273842830210924149 -0.0307999998331069946 0.00262865517288446426
-0.00939943455159664154 -0.0307999998331069946 0.00997214950621128082
0.00193078815937042236 -0.0307999998331069946 0.013330116868019104
-0.0255006514489650726 -0.0307999998331069946 0.00170004577375948429
