ply
format ascii 1.0
element vertex 709
property float x
property float y
property float z
end_header
-0.129999995231628418 -0.0159268416464328766 -0.0151440724730491638
-0.129999995231628418 -0.0178242269903421402 -0.0226751156151294708
-0.129999995231628418 0.0217374656349420547 0.015363757498562336
-0.129999995231628418 -0.0255435369908809662 -0.0341126620769500732
-0.129999995231628418 -0.00336623005568981171 -0.0123840440064668655
-0.129999995231628418 -0.0199779681861400604 -0.0231961328536272049
-0.129999995231628418 -0.0028331466019153595 -0.00466880202293395996
-0.129999995231628418 -0.0177022404968738556 -0.0258330367505550385
-0.129999995231628418 -0.00264494121074676514 -0.00799205899238586426
-0.129999995231628418 -0.0165955796837806702 -0.0278565045446157455
-0.129999995231628418 -0.0250640809535980225 -0.0314164534211158752
-0.129999995231628418 -0.0293639078736305237 -0.0429296791553497314
-0.129999995231628418 -0.0178821608424186707 -0.0190465711057186127
-0.129999995231628418 -0.013146841898560524 -0.00488658621907234192
-0.129999995231628418 -0.0370881371200084686 -0.0248086117208003998
-0.129999995231628418 -0.0364292114973068237 -0.0267726238816976547
-0.129999995231628418 0.00473024323582649231 0.0100666061043739319
-0.129999995231628418 -0.0274578388780355453 -0.0228524226695299149
-0.129999995231628418 -0.0423357263207435608 -0.0256534218788146973
-0.129999995231628418 -0.0214587673544883728 -0.0168673582375049591
-0.129999995231628418 -0.0303800888359546661 -0.0235985312610864639
-0.129999995231628418 -0.0353546515107154846 -0.0281470082700252533
-0.129999995231628418 0.00632995599880814552 0.00655556097626686096
-0.129999995231628418 0.00174536975100636482 0.00240166625007987022
-0.129999995231628418 -0.0300053209066390991 -0.0201057903468608856
-0.129999995231628418 0.00899951905012130737 0.0145410392433404922
-0.129999995231628418 -0.0435227192938327789 -0.0324663259088993073
-0.129999995231628418 -0.00200427323579788208 0.00181191787123680115
-0.129999995231628418 -0.0432943180203437805 -0.0258474145084619522
-0.129999995231628418 -0.0441771410405635834 -0.0305944569408893585
-0.129999995231628418 -0.0209694765508174896 -0.0123865976929664612
-0.129999995231628418 0.000816490501165390015 0.00648083724081516266
-0.129999995231628418 -0.0384116098284721375 -0.0294547080993652344
-0.129999995231628418 -0.0327315628528594971 -0.0151994191110134125
-0.129999995231628418 -0.023657018318772316 -0.0171552598476409912
-0.129999995231628418 -0.0298146102577447891 -0.0222094431519508362
-0.129999995231628418 0.0256758946925401688 0.0230423528701066971
-0.129999995231628418 -0.0366243831813335419 -0.0239260401576757431
-0.129999995231628418 -0.0484352484345436096 -0.0255157612264156342
-0.129999995231628418 -0.0264834817498922348 -0.0190487988293170929
-0.129999995231628418 -0.0444488488137722015 -0.025090780109167099
-0.129999995231628418 -0.0401075407862663269 -0.0227938387542963028
-0.129999995231628418 0.0320655182003974915 0.0300861038267612457
-0.129999995231628418 -0.0350581854581832886 -0.0211045108735561371
-0.129999995231628418 -0.0447993800044059753 -0.0267900433391332626
-0.129999995231628418 0.0256757196038961411 0.0250206161290407181
-0.129999995231628418 -0.00875318422913551331 5.35957515239715576e-05
-0.129999995231628418 -0.0260256975889205933 -0.0179833639413118362
-0.129999995231628418 -0.00313469953835010529 0.00324236974120140076
-0.129999995231628418 -0.0477759689092636108 -0.0255110375583171844
-0.129999995231628418 -0.042516171932220459 -0.0360088460147380829
-0.129999995231628418 -0.0148225277662277222 -0.00444897450506687164
-0.129999995231628418 -0.0256960857659578323 -0.0143100414425134659
-0.129999995231628418 0.0113362288102507591 0.0127504598349332809
-0.129999995231628418 -0.00409401766955852509 0.00129276327788829803
-0.129999995231628418 -0.0215399358421564102 -0.0118378642946481705
-0.129999995231628418 -0.0397348999977111816 -0.0312653407454490662
-0.129999995231628418 -0.0403222106397151947 -0.0338939502835273743
-0.129999995231628418 0.0342895574867725372 0.0312849469482898712
-0.129999995231628418 -0.0369978174567222595 -0.0188539698719978333
-0.129999995231628418 -0.0391522422432899475 -0.0306613259017467499
-0.129999995231628418 0.000776931643486022949 0.00717634148895740509
-0.129999995231628418 -0.0136821139603853226 -0.0107792448252439499
-0.129999995231628418 -0.00092479214072227478 0.00550299324095249176
-0.129999995231628418 0.0148500772193074226 0.0160854421555995941
-0.129999995231628418 -0.0018914761021733284 0.000486387871205806732
-0.129999995231628418 -0.0384162068367004395 -0.0199609920382499695
-0.129999995231628418 -0.0357886403799057007 -0.017331201583147049
-0.129999995231628418 -0.0095012858510017395 0.00103643909096717834
-0.129999995231628418 0.0138316173106431961 0.0164240002632141113
-0.129999995231628418 0.00091986730694770813 0.00759332440793514252
-0.129999995231628418 -0.0258119702339172363 -0.0179680418223142624
-0.129999995231628418 0.00890132226049900055 0.0134474709630012512
-0.129999995231628418 0.00380853144451975822 0.00377356773242354393
-0.129999995231628418 -0.0292523298412561417 -0.0155224502086639404
-0.129999995231628418 0.0265654828399419785 0.0242041647434234619
-0.129999995231628418 -0.0152446068823337555 -0.00776731781661510468
-0.129999995231628418 -0.0322634577751159668 -0.0262615624815225601
-0.129999995231628418 -0.0233660414814949036 -0.0115745943039655685
-0.129999995231628418 -0.0527088120579719543 -0.0152690410614013672
-0.129999995231628418 -0.0438681617379188538 -0.0120043624192476273
-0.129999995231628418 -0.024463927373290062 -0.00747125223278999329
-0.129999995231628418 -0.00281154364347457886 0.0105624021962285042
-0.129999995231628418 -0.0227856505662202835 -0.00134053640067577362
-0.129999995231628418 -0.0416256189346313477 -0.00830947235226631165
-0.129999995231628418 0.0196099765598773956 0.0249945409595966339
-0.129999995231628418 -0.0292269997298717499 -0.00557384639978408813
-0.129999995231628418 -0.0119972843676805496 0.00574870780110359192
-0.129999995231628418 -0.0108165647834539413 0.0053934222087264061
-0.129999995231628418 0.00465983478352427483 0.0124947642907500267
-0.129999995231628418 -0.0220352336764335632 -0.00219934806227684021
-0.129999995231628418 -0.0532161891460418701 -0.0139757450670003891
-0.129999995231628418 -0.0468355603516101837 -0.0195493772625923157
-0.129999995231628418 -0.0241238847374916077 0.00147580727934837341
-0.129999995231628418 0.0378846116364002228 0.0349565967917442322
-0.129999995231628418 0.0073230937123298645 0.0195366982370615005
-0.129999995231628418 0.0265336297452449799 0.026987006887793541
-0.129999995231628418 -0.0364895910024642944 -0.0105638038367033005
-0.129999995231628418 -0.0274280086159706116 0.000203020870685577393
-0.129999995231628418 -0.0466168448328971863 -0.0220867358148097992
-0.129999995231628418 -0.0256930571049451828 -0.00124455243349075317
-0.129999995231628418 -0.0359532386064529419 -0.00687693431973457336
-0.129999995231628418 -0.0247103609144687653 -0.00229037180542945862
-0.129999995231628418 -0.00732379406690597534 0.0104161500930786133
-0.129999995231628418 -0.00714657828211784363 0.00663292687386274338
-0.129999995231628418 -0.0367533490061759949 -0.00422238558530807495
-0.129999995231628418 -0.0142939630895853043 0.00163794402033090591
-0.129999995231628418 -0.0413635037839412689 -0.0114134661853313446
-0.129999995231628418 0.0190576650202274323 0.0217324439436197281
-0.129999995231628418 -0.038331102579832077 -0.0124648492783308029
-0.129999995231628418 -0.015476057305932045 0.00242940802127122879
-0.129999995231628418 -0.0389550812542438507 -0.0106545519083738327
-0.129999995231628418 -0.0406017191708087921 -0.0145513340830802917
-0.129999995231628418 0.0373248793184757233 0.0345082767307758331
-0.129999995231628418 -0.0184209570288658142 0.00188876502215862274
-0.129999995231628418 -0.0475865676999092102 -0.0181362312287092209
-0.129999995231628418 -0.0307344235479831696 -0.00804835651069879532
-0.129999995231628418 0.0350732766091823578 0.0329559817910194397
-0.129999995231628418 -0.0367106646299362183 -0.006055489182472229
-0.129999995231628418 -0.023959524929523468 -0.00444268528372049332
-0.129999995231628418 -0.040675092488527298 -0.00815608538687229156
-0.129999995231628418 -0.0216212943196296692 0.000518236309289932251
-0.129999995231628418 0.000973289832472801208 0.0108952280133962631
-0.129999995231628418 -0.0158682502806186676 0.00571772083640098572
-0.129999995231628418 -0.0536479204893112183 -0.0129888616502285004
-0.129999995231628418 -0.0287164598703384399 -0.00453770719468593597
-0.129999995231628418 -0.0247048307210206985 -0.00841123517602682114
-0.129999995231628418 -0.00396888237446546555 0.00773994578048586845
-0.129999995231628418 -0.0388479121029376984 -0.00538394227623939514
-0.129999995231628418 -0.0223509594798088074 0.00306731835007667542
-0.129999995231628418 -0.048238169401884079 -0.0240727700293064117
-0.129999995231628418 -0.0259932782500982285 -0.00542139727622270584
-0.129999995231628418 -0.00478475354611873627 0.00925630237907171249
-0.129999995231628418 -0.0334099531173706055 -0.00973464734852313995
-0.129999995231628418 -0.0330812782049179077 -0.00653000548481941223
-0.129999995231628418 -0.0450786501169204712 -0.0143087543547153473
-0.129999995231628418 0.015728432685136795 0.0219116434454917908
-0.129999995231628418 -0.0530803166329860687 -0.0141658354550600052
-0.129999995231628418 -0.0246777795255184174 -0.00729461060836911201
-0.129999995231628418 -0.0384477302432060242 -0.0134889548644423485
-0.129999995231628418 -0.0105523504316806793 0.00467636249959468842
-0.129999995231628418 -0.0503150969743728638 -0.0252292212098836899
-0.129999995231628418 0.0238473247736692429 0.0276139527559280396
-0.129999995231628418 -0.0425023585557937622 -0.0117369815707206726
-0.129999995231628418 -0.0258731599897146225 0.00493274908512830734
-0.129999995231628418 -0.0504460446536540985 -0.00321530364453792572
-0.129999995231628418 -0.0385520756244659424 0.00656166486442089081
-0.129999995231628418 -0.00352035998366773129 0.0140172978863120079
-0.129999995231628418 -0.0551050305366516113 -0.00616111792623996735
-0.129999995231628418 -0.0420887507498264313 0.00173909403383731842
-0.129999995231628418 -0.0487728938460350037 -0.00845636613667011261
-0.129999995231628418 0.0081869661808013916 0.0238141082227230072
-0.129999995231628418 -0.0231148693710565567 0.00700919702649116516
-0.129999995231628418 -0.0506621375679969788 -0.000307457521557807922
-0.129999995231628418 0.0302966665476560593 0.0333296768367290497
-0.129999995231628418 -0.00665193796157836914 0.0188326872885227203
-0.129999995231628418 -0.0401561371982097626 0.00068892352283000946
-0.129999995231628418 -0.0362555459141731262 0.00677715055644512177
-0.129999995231628418 -0.0515011288225650787 -0.00422116369009017944
-0.129999995231628418 -0.0490171313285827637 -0.00558897387236356735
-0.129999995231628418 0.0249905884265899658 0.0310005676001310349
-0.129999995231628418 0.0230217333883047104 0.0286021754145622253
-0.129999995231628418 -0.0533325411379337311 0.00126105174422264099
-0.129999995231628418 -0.00361680798232555389 0.0179089419543743134
-0.129999995231628418 0.0108952363952994347 0.0215316284447908401
-0.129999995231628418 -0.0452402308583259583 -0.00528328865766525269
-0.129999995231628418 -0.0530658848583698273 -0.0058091040700674057
-0.129999995231628418 -0.0561904236674308777 -0.00996042322367429733
-0.129999995231628418 -0.0206648781895637512 0.00627643987536430359
-0.129999995231628418 0.014323837123811245 0.0253241434693336487
-0.129999995231628418 -0.0190580785274505615 0.0102870408445596695
-0.129999995231628418 -0.0141154918819665909 0.00925317127257585526
-0.129999995231628418 -0.029549403116106987 0.000569299736525863409
-0.129999995231628418 -0.0536504387855529785 -0.0110497036948800087
-0.129999995231628418 -0.021481076255440712 0.00879236683249473572
-0.129999995231628418 -0.0392262712121009827 0.00144024752080440521
-0.129999995231628418 -0.0255439691245555878 0.0045018601231276989
-0.129999995231628418 -0.0481696799397468567 -0.00555533170700073242
-0.129999995231628418 0.0076359827071428299 0.0227997787296772003
-0.129999995231628418 -0.0343156605958938599 0.000804243609309196472
-0.129999995231628418 -0.0535670220851898193 -0.0110820895060896873
-0.129999995231628418 0.01863827183842659 0.0276566669344902039
-0.129999995231628418 -0.0334841571748256683 0.00123590137809514999
-0.129999995231628418 -0.0559709593653678894 -0.00405937619507312775
-0.129999995231628418 -0.0553206875920295715 -0.00925583019852638245
-0.129999995231628418 -0.0110489167273044586 0.0165772438049316406
-0.129999995231628418 -0.0280688125640153885 0.00483542867004871368
-0.129999995231628418 -0.0297065787017345428 0.00550588220357894897
-0.129999995231628418 -0.00382063910365104675 0.019199201837182045
-0.129999995231628418 -0.0488632805645465851 0.00145419128239154816
-0.129999995231628418 -0.0369693264365196228 -0.00171943753957748413
-0.129999995231628418 0.0383255369961261749 0.0364846028387546539
-0.129999995231628418 -0.0251273233443498611 0.0106472261250019073
-0.129999995231628418 -0.0365027859807014465 0.00573432259261608124
-0.129999995231628418 -0.0261400826275348663 0.0036936318501830101
-0.129999995231628418 -0.0251015461981296539 0.00917584635317325592
-0.129999995231628418 -0.0519501268863677979 0.00118312612175941467
-0.129999995231628418 -0.050701625645160675 -0.00316803716123104095
-0.129999995231628418 -0.0408676564693450928 0.0030129849910736084
-0.129999995231628418 -0.0115608610212802887 0.0176336802542209625
-0.129999995231628418 -0.0562020465731620789 -0.0105794221162796021
-0.129999995231628418 -0.0507399477064609528 -0.00204153358936309814
-0.129999995231628418 -0.0505547523498535156 -0.00557962618768215179
-0.129999995231628418 -0.000718180090188980103 0.0217300970107316971
-0.0799999982118606567 0.0347436852753162384 -0.0439828075468540192
-0.0799999982118606567 0.0342087782919406891 -0.0437243729829788208
-0.0799999982118606567 0.0371147692203521729 -0.0404642187058925629
-0.0799999982118606567 0.0428496561944484711 -0.0379996784031391144
-0.0799999982118606567 0.0488279126584529877 -0.0281145200133323669
-0.0799999982118606567 0.0472754314541816711 -0.0331484302878379822
-0.0799999982118606567 0.044408261775970459 -0.0340674817562103271
-0.0799999982118606567 0.0296642892062664032 -0.0491546578705310822
-0.0799999982118606567 0.0211806483566761017 -0.0536217242479324341
-0.0799999982118606567 0.0269177127629518509 -0.0482344739139080048
-0.0799999982118606567 0.0325371958315372467 -0.0474508777260780334
-0.0799999982118606567 0.0525736585259437561 -0.0206821411848068237
-0.0799999982118606567 0.0536414645612239838 -0.0210237205028533936
-0.0799999982118606567 0.0502527542412281036 -0.0247251372784376144
-0.0799999982118606567 0.0521313324570655823 -0.0216123238205909729
-0.0799999982118606567 0.00829342752695083618 -0.0566849634051322937
-0.0799999982118606567 0.00702391797676682472 -0.0577083192765712738
-0.0799999982118606567 0.0154351461678743362 -0.0538123846054077148
-0.0799999982118606567 0.014492405578494072 -0.0540729202330112457
-0.0799999982118606567 0.0571466386318206787 -0.00207466445863246918
-0.0799999982118606567 0.0574402511119842529 -0.000955924973823130131
-0.0799999982118606567 0.0547461099922657013 -0.00479127885773777962
-0.0799999982118606567 0.0547063127160072327 -0.00400025397539138794
-0.0799999982118606567 0.00623161718249320984 -0.057650931179523468
-0.0799999982118606567 -0.00154892029240727425 -0.0564778782427310944
-0.0799999982118606567 0.00239748600870370865 -0.0556939952075481415
-0.0799999982118606567 0.00475534005090594292 -0.0570848919451236725
-0.0799999982118606567 0.0560178756713867188 0.00876310188323259354
-0.0799999982118606567 0.0555438175797462463 0.012150714173913002
-0.0799999982118606567 0.0546788014471530914 0.00619744975119829178
-0.0799999982118606567 0.0562944523990154266 0.00197381619364023209
-0.0799999982118606567 -0.0127350734546780586 -0.0549670755863189697
-0.0799999982118606567 -0.017644733190536499 -0.0535668507218360901
-0.0799999982118606567 -0.0124495299533009529 -0.0546492934226989746
-0.0799999982118606567 -0.00910156220197677612 -0.0547874756157398224
-0.0799999982118606567 0.0504527129232883453 0.0240886453539133072
-0.0799999982118606567 0.0501112379133701324 0.0219853930175304413
-0.0799999982118606567 0.0546281933784484863 0.0160487741231918335
-0.0799999982118606567 -0.0319432206451892853 -0.0480838529765605927
-0.0799999982118606567 -0.0254897382110357285 -0.0505627430975437164
-0.0799999982118606567 -0.0200421586632728577 -0.0524467043578624725
-0.0799999982118606567 -0.0248413700610399246 -0.0488626882433891296
-0.0799999982118606567 0.0443174876272678375 0.0367708653211593628
-0.0799999982118606567 0.0442415289580821991 0.0364448279142379761
-0.0799999982118606567 0.0446963608264923096 0.0320053324103355408
-0.0799999982118606567 0.0492156855762004852 0.0287105776369571686
-0.0799999982118606567 -0.0381157845258712769 -0.0392832010984420776
-0.0799999982118606567 -0.0343912430107593536 -0.0433090105652809143
-0.0799999982118606567 -0.0374309271574020386 -0.0427158921957015991
-0.0799999982118606567 -0.0354238115251064301 -0.0444619134068489075
-0.0799999982118606567 0.0402912981808185577 0.0376403108239173889
-0.0799999982118606567 0.0385879278182983398 0.0394771620631217957
-0.0799999982118606567 0.0349116697907447815 0.0454113706946372986
-0.0799999982118606567 0.0379552803933620453 0.0429924316704273224
-0.0799999982118606567 -0.0447811335325241089 -0.0338851995766162872
-0.0799999982118606567 -0.0420885384082794189 -0.0357287637889385223
-0.0799999982118606567 -0.0482536032795906067 -0.0292032342404127121
-0.0799999982118606567 0.0272013358771800995 0.0491310320794582367
-0.0799999982118606567 0.0202454626560211182 0.053117167204618454
-0.0799999982118606567 0.0203315038233995438 0.0525855459272861481
-0.0799999982118606567 -0.0509035326540470123 -0.0252183005213737488
-0.0799999982118606567 -0.0534813441336154938 -0.0179426539689302444
-0.0799999982118606567 0.0191128980368375778 0.0537790991365909576
-0.0799999982118606567 0.0197602994740009308 0.0532290711998939514
-0.0799999982118606567 0.0127359023317694664 0.0545092523097991943
-0.0799999982118606567 -0.0569404512643814087 -0.00586344953626394272
-0.0799999982118606567 -0.0568458959460258484 -0.0109106898307800293
-0.0799999982118606567 -0.057881280779838562 -0.000591228133998811245
-0.0799999982118606567 -0.056709781289100647 -0.000802725437097251415
-0.0799999982118606567 0.00271620694547891617 0.0570636950433254242
-0.0799999982118606567 -0.00571405189111828804 0.0549146868288516998
-0.0799999982118606567 0.0021615256555378437 0.0549159273505210876
-0.0799999982118606567 -0.0544736050069332123 0.00778424320742487907
-0.0799999982118606567 -0.0562487579882144928 0.00836552493274211884
-0.0799999982118606567 -0.0190106146037578583 0.0516121983528137207
-0.0799999982118606567 -0.008511323481798172 0.0549001842737197876
-0.0799999982118606567 -0.0101613812148571014 0.0556953549385070801
-0.0799999982118606567 -0.0533429086208343506 0.0145260030403733253
-0.0799999982118606567 -0.0544106997549533844 0.015667993575334549
-0.0799999982118606567 -0.0501824468374252319 0.0228446666151285172
-0.0799999982118606567 -0.0498481318354606628 0.0240325480699539185
-0.0799999982118606567 -0.0248524602502584457 0.0516137257218360901
-0.0799999982118606567 -0.021737879142165184 0.0509284920990467072
-0.0799999982118606567 -0.0300608761608600616 0.0462951287627220154
-0.0799999982118606567 -0.0278260409832000732 0.0474351830780506134
-0.0799999982118606567 -0.0450928322970867157 0.0340187884867191315
-0.0799999982118606567 -0.0339784398674964905 0.0434358566999435425
-0.0799999982118606567 -0.0476679317653179169 0.0310254432260990143
-0.0799999982118606567 -0.0354608036577701569 0.0436268821358680725
-0.0799999982118606567 -0.0325502343475818634 0.0454911999404430389
-0.129699677228927612 -0.0578902624547481537 0.00255094445310533047
-0.115880005061626434 -0.0577061586081981659 0.00406714621931314468
-0.111702993512153625 -0.0577293038368225098 0.00387654872611165047
-0.116193473339080811 -0.0572458021342754364 0.00785851012915372849
-0.128412798047065735 -0.0565918534994125366 0.0132442805916070938
-0.10115380585193634 -0.0576043687760829926 0.00490547902882099152
-0.114459991455078125 -0.0573937371373176575 0.00664017302915453911
-0.101824663579463959 -0.0576823465526103973 0.00426325574517250061
-0.107782453298568726 -0.0579308122396469116 0.00221696123480796814
-0.119445718824863434 -0.0571178644895553589 0.00891219079494476318
-0.127805739641189575 -0.0566962957382202148 0.0123841166496276855
-0.122858352959156036 -0.057621445506811142 0.00476484932005405426
-0.105636931955814362 -0.0574663281440734863 0.00604232586920261383
-0.0834966972470283508 -0.058155745267868042 0.000364492647349834442
-0.128600820899009705 -0.0577398985624313354 0.00378929544240236282
-0.117540165781974792 -0.0578717999160289764 0.00270297075621783733
-0.102550551295280457 -0.0577147491276264191 0.00399640761315822601
-0.127886727452278137 -0.0572039000689983368 0.00820359960198402405
-0.115131720900535583 -0.0578987859189510345 0.00248070573434233665
-0.0926373600959777832 -0.0580739527940750122 0.0010380912572145462
-0.123325347900390625 -0.0567933395504951477 0.011584889143705368
-0.125611454248428345 -0.0577425099909305573 0.00376779004000127316
-0.0955616310238838196 -0.0581765994429588318 0.00019273906946182251
-0.106369592249393463 -0.0581306256353855133 0.000571361742913722992
-0.101359724998474121 -0.0579574480652809143 0.00199760124087333679
-0.113942384719848633 -0.0581794232130050659 0.000169463455677032471
-0.109577074646949768 -0.0573085099458694458 0.00734209921211004257
-0.125734180212020874 -0.0578411556780338287 0.00295535149052739143
-0.0868191495537757874 -0.0570647753775119781 0.0093494318425655365
-0.107094623148441315 -0.0570727773010730743 0.00928350817412137985
-0.0804611966013908386 -0.0575371347367763519 0.00545919593423604965
-0.101312063634395599 -0.0567397251725196838 0.0120264552533626556
-0.0858081504702568054 -0.05668625608086586 0.0124667836353182793
-0.117274440824985504 -0.0567563287913799286 0.0118897100910544395
-0.0913377627730369568 -0.0567028038203716278 0.0123305069282650948
-0.0883922427892684937 -0.0571443475782871246 0.00869407784193754196
-0.0857826769351959229 -0.0566388778388500214 0.0128569789230823517
-0.0922659337520599365 -0.0576011762022972107 0.00493177119642496109
-0.0874021947383880615 -0.0570196583867073059 0.00972099695354700089
-0.0862985551357269287 -0.0571936145424842834 0.00828834157437086105
-0.108740761876106262 -0.0572268925607204437 0.00801425985991954803
-0.0917809456586837769 -0.0565743334591388702 0.0133885694667696953
-0.0954820066690444946 -0.056616615504026413 0.0130403274670243263
-0.105583056807518005 -0.0567100830376148224 0.0122705632820725441
-0.0883074402809143066 -0.0573977269232273102 0.00660732807591557503
-0.120699591934680939 -0.0567578859627246857 0.011876862496137619
-0.112657442688941956 -0.0567023567855358124 0.0123341875150799751
-0.100042752921581268 -0.0567759089171886444 0.0117284366860985756
-0.0940703079104423523 -0.0576744228601455688 0.00432852096855640411
-0.111249774694442749 -0.0570602938532829285 0.00938633084297180176
-0.0981685370206832886 -0.0568830519914627075 0.0108460551127791405
-0.0986915379762649536 -0.0571171827614307404 0.00891779735684394836
-0.0861704722046852112 -0.0570805743336677551 0.00921930931508541107
-0.0888414233922958374 -0.0572641491889953613 0.00770743517205119133
-0.107077360153198242 -0.0568352006375789642 0.0112401247024536133
-0.0938786119222640991 -0.0565537624061107635 0.0135579751804471016
-0.0934568643569946289 -0.0565501376986503601 0.0135878399014472961
-0.0829628780484199524 -0.0558906123042106628 0.0155582316219806671
-0.10696372389793396 -0.053225591778755188 0.0225853081792593002
-0.105160050094127655 -0.0533662736415863037 0.0222143642604351044
-0.0976206958293914795 -0.0522683039307594299 0.0251094717532396317
-0.091939881443977356 -0.0527954921126365662 0.0237193889915943146
-0.0934874862432479858 -0.0517910346388816833 0.0263679306954145432
-0.111045703291893005 -0.0520911216735839844 0.0255766604095697403
-0.101025387644767761 -0.0517807155847549438 0.026395132765173912
-0.0878283530473709106 -0.0543150082230567932 0.0197127535939216614
-0.0806829184293746948 -0.0556136742234230042 0.0162884555757045746
-0.112187288701534271 -0.0527116432785987854 0.0239404812455177307
-0.0935288593173027039 -0.0537431240081787109 0.0212206952273845673
-0.087979048490524292 -0.0527761131525039673 0.0237704850733280182
-0.0837664306163787842 -0.0516654402017593384 0.0266990922391414642
-0.0855436846613883972 -0.052463095635175705 0.0245958492159843445
-0.0962873995304107666 -0.054850459098815918 0.0183008909225463867
-0.0876567661762237549 -0.0541652701795101166 0.0201075822114944458
-0.0829501897096633911 -0.0557688511908054352 0.0158792901784181595
-0.109044529497623444 -0.0522993281483650208 0.025027664378285408
-0.0864515900611877441 -0.055048283189535141 0.0177792683243751526
-0.0825096368789672852 -0.055209871381521225 0.0173531994223594666
-0.0812778249382972717 -0.05280303955078125 0.023699488490819931
-0.0940249711275100708 -0.0524238348007202148 0.0246993731707334518
-0.0821589529514312744 -0.054296981543302536 0.0197602882981300354
-0.0912984311580657959 -0.051797959953546524 0.0263496674597263336
-0.109125338494777679 -0.0526188388466835022 0.0241851881146430969
-0.0892643928527832031 -0.0523986481130123138 0.0247657857835292816
-0.0863340422511100769 -0.0549244657158851624 0.018105747178196907
-0.0840047672390937805 -0.0522595047950744629 0.0251326728612184525
-0.116663016378879547 -0.0557928308844566345 0.0158160589635372162
-0.127809181809425354 -0.0526872202754020691 0.0240048859268426895
-0.113869726657867432 -0.0552528202533721924 0.0172399543225765228
-0.126254677772521973 -0.0558245182037353516 0.0157325007021427155
-0.10953909158706665 -0.0560680180788040161 0.0150904534384608269
-0.117118589580059052 -0.0548845268785953522 0.0182110629975795746
-0.115864962339401245 -0.0533412434160709381 0.0222803670912981033
-0.100337520241737366 -0.0560207441449165344 0.0152151007205247879
-0.119864873588085175 -0.0561050362884998322 0.0149928368628025055
-0.126876339316368103 -0.0540694296360015869 0.0203602965921163559
-0.128390759229660034 -0.0561119765043258667 0.0149745410308241844
-0.110406860709190369 -0.056174594908952713 0.0148094315081834793
-0.122528292238712311 -0.0563178397715091705 0.014431721530854702
-0.120005644857883453 -0.0554873272776603699 0.0166216045618057251
-0.113286763429641724 -0.0532767400145530701 0.0224504470825195312
-0.0943550765514373779 -0.0555166490375995636 0.0165442861616611481
-0.109171390533447266 -0.0556467249989509583 0.016201317310333252
-0.116388887166976929 -0.0535237155854701996 0.0217992328107357025
-0.0925216749310493469 -0.056060153990983963 0.0151111874729394913
-0.126419320702552795 -0.0553217381238937378 0.0170582365244626999
-0.106796860694885254 -0.0538614317774772644 0.020908743143081665
-0.114993453025817871 -0.0558731816709041595 0.0156041961163282394
-0.112366750836372375 -0.0545519404113292694 0.0190880149602890015
-0.108214512467384338 -0.0541455261409282684 0.0201596468687057495
-0.124811187386512756 -0.0532343126833438873 0.0225623194128274918
-0.106096051633358002 -0.0554746761918067932 0.0166549608111381531
-0.101123683154582977 -0.0546520613133907318 0.0188240204006433487
-0.109959587454795837 -0.055996868759393692 0.0152780488133430481
-0.0919034481048583984 -0.0557263009250164032 0.0159914828836917877
-0.0997554212808609009 -0.0471122078597545624 0.0334522947669029236
-0.081985771656036377 -0.0482356846332550049 0.0318246595561504364
-0.0995246320962905884 -0.0472420193254947662 0.0332642272114753723
-0.0920684784650802612 -0.0442882329225540161 0.0375435277819633484
-0.0865721553564071655 -0.0482229031622409821 0.0318431705236434937
-0.116790354251861572 -0.04539455845952034 0.0359407365322113037
-0.119103886187076569 -0.0442193858325481415 0.0376432724297046661
-0.0986465662717819214 -0.0477689355611801147 0.0325008556246757507
-0.0963991507887840271 -0.0483086742460727692 0.0317189134657382965
-0.108979567885398865 -0.044030897319316864 0.0379163399338722229
-0.0814586058259010315 -0.0463792569935321808 0.034514155238866806
-0.09485606849193573 -0.0452302657067775726 0.0361787602305412292
-0.0821104943752288818 -0.0448696613311767578 0.0367011800408363342
-0.109493039548397064 -0.0458976216614246368 0.0352119244635105133
-0.091334126889705658 -0.0435971356928348541 0.0385447554290294647
-0.100924789905548096 -0.0465391352772712708 0.0342825315892696381
-0.128699019551277161 -0.0436697788536548615 0.0384395122528076172
-0.120320670306682587 -0.0438618361949920654 0.0381612703204154968
-0.0931885465979576111 -0.048987366259098053 0.0307356566190719604
-0.0892198085784912109 -0.0478231236338615417 0.0324223525822162628
-0.0879384428262710571 -0.0471394509077072144 0.0334128253161907196
-0.0885101109743118286 -0.0438147597014904022 0.038229476660490036
-0.093787848949432373 -0.0464678853750228882 0.0343857556581497192
-0.11104215681552887 -0.0440973155200481415 0.0378201194107532501
-0.114951059222221375 -0.0436224006116390228 0.038508150726556778
-0.0954959690570831299 -0.0470006205141544342 0.0336139537394046783
-0.0986759290099143982 -0.0468348152935504913 0.0338541679084300995
-0.102234117686748505 -0.0453376360237598419 0.0360232070088386536
-0.0838273093104362488 -0.0455686300992965698 0.035688549280166626
-0.11280803382396698 -0.0491842962801456451 0.030450357124209404
-0.129658982157707214 -0.0475582778453826904 0.0328060463070869446
-0.111413769423961639 -0.048863489180803299 0.0309151206165552139
-0.126365646719932556 -0.0513865984976291656 0.0272597651928663254
-0.10070965439081192 -0.0504399798810482025 0.0286311805248260498
-0.125989764928817749 -0.0507196374237537384 0.0282260347157716751
-0.127115532755851746 -0.047537732869386673 0.0328358113765716553
-0.113631568849086761 -0.0477915965020656586 0.0324680283665657043
-0.125105485320091248 -0.0476530902087688446 0.0326686911284923553
-0.10497090220451355 -0.0478578172624111176 0.0323720909655094147
-0.126467019319534302 -0.0487251132726669312 0.0311155971139669418
-0.119446180760860443 -0.051203995943069458 0.027524314820766449
-0.0989502370357513428 -0.0485804863274097443 0.031325124204158783
-0.0935709923505783081 -0.0497941486537456512 0.0295668281614780426
-0.127224981784820557 -0.0445278249680995941 0.0371964164078235626
-0.123381331562995911 -0.0513653457164764404 0.0272905565798282623
-0.111190661787986755 -0.050340607762336731 0.0287751480937004089
-0.126237049698829651 -0.0464593023061752319 0.0343981906771659851
-0.124715276062488556 -0.0492493174970149994 0.0303561538457870483
-0.127513259649276733 -0.0497573502361774445 0.0296201426535844803
-0.1178913414478302 -0.0513452440500259399 0.0273196771740913391
-0.116614930331707001 -0.0491638593375682831 0.0304799638688564301
-0.102574020624160767 -0.0489668548107147217 0.0307653751224279404
-0.116949737071990967 -0.0472260601818561554 0.0332873500883579254
-0.117558591067790985 -0.0506933853030204773 0.0282640624791383743
-0.111129239201545715 -0.04790540412068367 0.0323031507432460785
-0.102822616696357727 -0.0502518117427825928 0.028903791680932045
-0.122595421969890594 -0.0512827262282371521 0.0274102538824081421
-0.0891170874238014221 -0.0356617756187915802 0.045593898743391037
-0.0825551524758338928 -0.0406168028712272644 0.0412041284143924713
-0.0915555357933044434 -0.0350034348666667938 0.0461771376430988312
-0.101719215512275696 -0.0332064628601074219 0.0477691181004047394
-0.0811159089207649231 -0.0409530624747276306 0.0409062281250953674
-0.0926277115941047668 -0.039706256240606308 0.0420108027756214142
-0.083985842764377594 -0.0425810888409614563 0.0394639261066913605
-0.117488272488117218 -0.0337820425629615784 0.0472591966390609741
-0.0945778042078018188 -0.0359098650515079498 0.0453741103410720825
-0.080290377140045166 -0.0381710454821586609 0.0433708801865577698
-0.095965459942817688 -0.0377861969172954559 0.0437118262052536011
-0.0940183848142623901 -0.0335520915687084198 0.0474629141390323639
-0.105961039662361145 -0.0341227166354656219 0.0469573847949504852
-0.119610309600830078 -0.0331585519015789032 0.047811560332775116
-0.0968364700675010681 -0.0397255867719650269 0.0419936776161193848
-0.0823952704668045044 -0.0347334146499633789 0.046416357159614563
-0.100543111562728882 -0.0338534079492092133 0.0471959710121154785
-0.0933799594640731812 -0.0394093543291091919 0.0422738343477249146
-0.0871097445487976074 -0.0352739952504634857 0.0459374412894248962
-0.105078786611557007 -0.0354878716170787811 0.0457479655742645264
-0.118731603026390076 -0.0343312695622444153 0.0467726252973079681
-0.0939372405409812927 -0.0385605394840240479 0.0430258214473724365
-0.103499509394168854 -0.0350543893873691559 0.0461319945752620697
-0.0865049362182617188 -0.0418066680431365967 0.0401499979197978973
-0.0826135724782943726 -0.0343743376433849335 0.0467344708740711212
-0.104707933962345123 -0.0353545509278774261 0.0458660759031772614
-0.105654805898666382 -0.0346673429012298584 0.0464748889207839966
-0.09030190110206604 -0.0342697799205780029 0.0468271002173423767
-0.11528855562210083 -0.0361892841756343842 0.0451265685260295868
-0.124255180358886719 -0.0352759137749671936 0.0459357425570487976
-0.129153549671173096 -0.041098620742559433 0.0407772734761238098
-0.120043843984603882 -0.041590668261051178 0.0403413623571395874
-0.105995804071426392 -0.0413766726851463318 0.0405309423804283142
-0.128928795456886292 -0.0429252870380878448 0.0391589924693107605
-0.119422562420368195 -0.0409906134009361267 0.0408729612827301025
-0.120372548699378967 -0.0403278730809688568 0.0414601005613803864
-0.102272234857082367 -0.0430724099278450012 0.039028652012348175
-0.123513050377368927 -0.0388450026512145996 0.0427738092839717865
-0.125758156180381775 -0.0430270358920097351 0.0390688478946685791
-0.124743759632110596 -0.0371657311916351318 0.0442615114152431488
-0.124875225126743317 -0.0361260287463665009 0.0451826080679893494
-0.124605387449264526 -0.0381599403917789459 0.0433807186782360077
-0.11805146187543869 -0.0380902588367462158 0.0434424504637718201
-0.120267465710639954 -0.0407309979200363159 0.0411029644310474396
-0.0964049920439720154 -0.0427648946642875671 0.0393010862171649933
-0.12630753219127655 -0.037379339337348938 0.044072270393371582
-0.103924460709095001 -0.0424968264997005463 0.0395385734736919403
-0.11610102653503418 -0.0376233495771884918 0.0438560955226421356
-0.122259385883808136 -0.0399109683930873871 0.0418294444680213928
-0.101974964141845703 -0.0411797836422920227 0.0407053679227828979
-0.116332650184631348 -0.0416257306933403015 0.040310300886631012
-0.109001398086547852 -0.0386484675109386444 0.0429479219019412994
-0.10848400741815567 -0.0382995754480361938 0.0432570129632949829
-0.125288188457489014 -0.0433991923928260803 0.0387391485273838043
-0.121091410517692566 -0.0417467206716537476 0.0402031131088733673
-0.109569728374481201 -0.0405238829553127289 0.0412864498794078827
-0.11136607825756073 -0.0414899326860904694 0.040430605411529541
-0.112615384161472321 -0.0223470721393823624 0.0535209551453590393
-0.0836105644702911377 -0.0295844990760087967 0.0497224628925323486
-0.0988541245460510254 -0.0254713743925094604 0.0518811941146850586
-0.0821272283792495728 -0.0242984648793935776 0.0524967871606349945
-0.121860764920711517 -0.0207405779510736465 0.0543641112744808197
-0.111883074045181274 -0.0227862522006034851 0.0532904565334320068
-0.0942764356732368469 -0.0284942090511322021 0.0502946898341178894
-0.0931679382920265198 -0.0270483233034610748 0.0510535500943660736
-0.108131706714630127 -0.0258768294006586075 0.0516683980822563171
-0.0873124152421951294 -0.0292910449206829071 0.0498764775693416595
-0.0882979631423950195 -0.0235978811979293823 0.0528644807636737823
-0.105834454298019409 -0.0248056184500455856 0.0522306114435195923
-0.105294600129127502 -0.0263041779398918152 0.0514441058039665222
-0.090071357786655426 -0.0270606782287359238 0.0510470643639564514
-0.0844050198793411255 -0.023290097713470459 0.0530260205268859863
-0.116412132978439331 -0.0228203460574150085 0.0532725639641284943
-0.123315669596195221 -0.0214849449694156647 0.0539734363555908203
-0.110822618007659912 -0.0219188034534454346 0.0537457279860973358
-0.0929798781871795654 -0.0233818776905536652 0.0529778487980365753
-0.0912236869335174561 -0.022364126518368721 0.0535120069980621338
-0.102466680109500885 -0.0273181870579719543 0.0509119145572185516
-0.0876139551401138306 -0.0222563333809375763 0.0535685792565345764
-0.100479908287525177 -0.0228313468396663666 0.0532667897641658783
-0.089382663369178772 -0.0232915803790092468 0.0530252419412136078
-0.0922694355249404907 -0.0224175751209259033 0.0534839555621147156
-0.0831369161605834961 -0.0308262892067432404 0.0490707196295261383
-0.104601241648197174 -0.0225362572818994522 0.0534216649830341339
-0.0868609398603439331 -0.0304961837828159332 0.0492439717054367065
-0.0808016136288642883 -0.0308499857783317566 0.049058280885219574
-0.0950714796781539917 -0.031160503625869751 0.0488953106105327606
-0.112282238900661469 -0.0315312705934047699 0.0487007163465023041
-0.106622755527496338 -0.0269237607717514038 0.0511189252138137817
-0.125232845544815063 -0.0292357690632343292 0.0499054864048957825
-0.128215700387954712 -0.0226582121104001999 0.0533576570451259613
-0.101865008473396301 -0.0277292467653751373 0.0506961718201637268
-0.120843783020973206 -0.0285917222499847412 0.0502435117959976196
-0.114097952842712402 -0.0251122359186410904 0.0520696863532066345
-0.113788142800331116 -0.0313606895506381989 0.0487902425229549408
-0.092678949236869812 -0.0315057262778282166 0.04871411994099617
-0.129448831081390381 -0.0283447485417127609 0.0503731332719326019
-0.11618378758430481 -0.0244476087391376495 0.0524185076355934143
-0.114057868719100952 -0.0310818720608949661 0.0489365793764591217
-0.0998397171497344971 -0.0292649827897548676 0.0498901568353176117
-0.123774535953998566 -0.0275291372090578079 0.0508011952042579651
-0.112758584320545197 -0.0289875008165836334 0.0500357896089553833
-0.125877454876899719 -0.0243411865085363388 0.0524743646383285522
-0.0957601368427276611 -0.0310734976083040237 0.0489409752190113068
-0.0964954197406768799 -0.0300037022680044174 0.049502447247505188
-0.0988652631640434265 -0.028668724000453949 0.0502030961215496063
-0.102072983980178833 -0.0327451713383197784 0.0480636097490787506
-0.096585690975189209 -0.0308347679674625397 0.0490662716329097748
-0.125363051891326904 -0.0267092287540435791 0.0512315221130847931
-0.101625241339206696 -0.0279254857450723648 0.0505931787192821503
-0.116473071277141571 -0.0256007947027683258 0.0518132708966732025
-0.129890918731689453 -0.0313260406255722046 0.0488084293901920319
-0.102450698614120483 -0.0292631834745407104 0.0498910993337631226
-0.122658297419548035 -0.0274551939219236374 0.0508400090038776398
-0.0876900702714920044 -0.0152381276711821556 0.0557488948106765747
-0.100221253931522369 -0.0111708622425794601 0.0567513853311538696
-0.0992259010672569275 -0.0132688190788030624 0.0562342852354049683
-0.0876038968563079834 -0.0104718897491693497 0.0569236688315868378
-0.110138528048992157 -0.0104334093630313873 0.0569331534206867218
-0.082585558295249939 -0.0143636558204889297 0.0559644326567649841
-0.0982921794056892395 -0.0149451745674014091 0.055821102112531662
-0.106346376240253448 -0.00822655670344829559 0.0574770942330360413
-0.120583444833755493 -0.00805804133415222168 0.0575186274945735931
-0.0920380353927612305 -0.00806297454982995987 0.0575174130499362946
-0.0814306586980819702 -0.0192436054348945618 0.0547616332769393921
-0.0882951542735099792 -0.0137785654515028 0.0561086460947990417
-0.0876769721508026123 -0.0126208672299981117 0.056393992155790329
-0.0881735756993293762 -0.0178550183773040771 0.055103890597820282
-0.0943552032113075256 -0.0134269576519727707 0.0561953112483024597
-0.116003409028053284 -0.00723947491496801376 0.0577203892171382904
-0.086266443133354187 -0.00974792707711458206 0.0571021102368831635
-0.0998750030994415283 -0.0131959877908229828 0.0562522374093532562
-0.0824419856071472168 -0.0104377055540680885 0.0569320954382419586
-0.108451277017593384 -0.00987024605274200439 0.0570719614624977112
-0.105670541524887085 -0.00704795587807893753 0.0577675923705101013
-0.109211206436157227 -0.00955053232610225677 0.057150762528181076
-0.08017711341381073 -0.0077229929156601429 0.0576012097299098969
-0.081941559910774231 -0.0191163923591375351 0.054792989045381546
-0.0953779369592666626 -0.00909790117293596268 0.0572623275220394135
-0.0832611247897148132 -0.0133551005274057388 0.0562130212783813477
-0.0926469266414642334 -0.0171050615608692169 0.0552887395024299622
-0.10016120970249176 -0.00805659592151641846 0.0575189851224422455
-0.0914963483810424805 -0.0168090388178825378 0.0553617030382156372
-0.101341493427753448 -0.0158319007605314255 0.0556025430560112
-0.11785212904214859 -0.0121452938765287399 0.0565112084150314331
-0.0971032977104187012 -0.0200816988945007324 0.0545550622045993805
-0.122748814523220062 -0.00983652379363775253 0.0570802725851535797
-0.0958647429943084717 -0.0173244252800941467 0.0552346706390380859
-0.128992363810539246 -0.00828758720308542252 0.0574620515108108521
-0.10608181357383728 -0.0172308459877967834 0.0552577339112758636
-0.0919526666402816772 -0.0197783857583999634 0.0546298213303089142
-0.127964198589324951 -0.020329006016254425 0.0544941090047359467
-0.113227076828479767 -0.011606873944401741 0.0566439218819141388
-0.11483938992023468 -0.0181086491793394089 0.0550413765013217926
-0.103021137416362762 -0.0151835959404706955 0.0557623356580734253
-0.0916930511593818665 -0.0175268128514289856 0.0551847852766513824
-0.12432696670293808 -0.0104435151442885399 0.0569306649267673492
-0.104885473847389221 -0.0140732871368527412 0.0560360029339790344
-0.119211271405220032 -0.0203806497156620026 0.0544813759624958038
-0.0993862003087997437 -0.015930788591504097 0.0555781722068786621
-0.125755339860916138 -0.0130985034629702568 0.0562762655317783356
-0.124520875513553619 -0.00959003996104001999 0.0571410246193408966
-0.111187681555747986 -0.0127476397901773453 0.0563627444207668304
-0.122250676155090332 -0.00944574177265167236 0.0571765899658203125
-0.12236698716878891 -0.00959600135684013367 0.0571395568549633026
-0.103325687348842621 -0.0160702746361494064 0.0555437877774238586
-0.118479333817958832 -0.012564443051815033 0.0564079023897647858
-0.120007894933223724 -0.0159277711063623428 0.055578913539648056
-0.0955670773983001709 -0.0194319151341915131 0.0547152198851108551
-0.0838432759046554565 -0.0199584029614925385 0.0545854531228542328
-0.125911533832550049 -0.0179793033748865128 0.0550732575356960297
-0.093297712504863739 -0.0189494341611862183 0.0548341386020183563
-0.0880233123898506165 -0.00322677753865718842 0.0577756576240062714
-0.0810637921094894409 0.00299366982653737068 0.0577756576240062714
-0.0993639677762985229 0.00646233325824141502 0.0577756576240062714
-0.0870079398155212402 -0.00194477103650569916 0.0577756576240062714
-0.115286082029342651 0.00681654689833521843 0.0577756576240062714
-0.0807490348815917969 -0.00114881154149770737 0.0577756576240062714
-0.125285372138023376 0.00574688659980893135 0.0577756576240062714
-0.0881169289350509644 0.00384545046836137772 0.0577756576240062714
-0.0858143046498298645 0.0014653070829808712 0.0577756576240062714
-0.10768359899520874 0.000802763737738132477 0.0577756576240062714
-0.0901834592223167419 -0.00254894886165857315 0.0577756576240062714
-0.0880918130278587341 0.00642685266211628914 0.0577756576240062714
-0.102761887013912201 0.00390566862188279629 0.0577756576240062714
-0.0838922113180160522 0.00345429684966802597 0.0577756576240062714
-0.100043043494224548 -0.000606263056397438049 0.0577756576240062714
-0.0935149714350700378 0.0030680396594107151 0.0577756576240062714
-0.0859131515026092529 0.00618420820683240891 0.0577756576240062714
-0.105494320392608643 0.00567251024767756462 0.0577756576240062714
-0.0889266282320022583 0.00590308941900730133 0.0577756576240062714
-0.0807742401957511902 -0.00519234407693147659 0.0577756576240062714
-0.10275617241859436 0.00461053755134344101 0.0577756576240062714
-0.0901208221912384033 0.00607296312227845192 0.0577756576240062714
-0.0950418710708618164 0.00346383755095303059 0.0577756576240062714
-0.0906520634889602661 0.00341645139269530773 0.0577756576240062714
-0.0891284942626953125 -0.00423962436616420746 0.0577756576240062714
-0.098101787269115448 0.00166089925915002823 0.0577756576240062714
-0.108550079166889191 0.00260404776781797409 0.0577756576240062714
-0.108719363808631897 0.00450016558170318604 0.0577756576240062714
-0.120522066950798035 0.00260618911124765873 0.0577756576240062714
-0.114599578082561493 0.00149541767314076424 0.0577756576240062714
-0.121597670018672943 0.00180416950024664402 0.0577756576240062714
-0.118169702589511871 -0.0011300528421998024 0.0577756576240062714
-0.121909797191619873 -0.00216475874185562134 0.0577756576240062714
-0.103377953171730042 -0.00297127896919846535 0.0577756576240062714
-0.126976817846298218 -0.00241444725543260574 0.0577756576240062714
-0.113713920116424561 -0.00248633511364459991 0.0577756576240062714
-0.103952035307884216 -0.00130818504840135574 0.0577756576240062714
-0.10174936056137085 -0.00188841763883829117 0.0577756576240062714
-0.105431690812110901 -0.00486065074801445007 0.0577756576240062714
-0.0980295687913894653 -0.00383145734667778015 0.0577756576240062714
-0.111742377281188965 -0.00644884305074810982 0.0577756576240062714
-0.110329553484916687 -0.0068022613413631916 0.0577756576240062714
-0.0972789973020553589 -0.0029912940226495266 0.0577756576240062714
-0.109541982412338257 -0.00177978910505771637 0.0577756576240062714
-0.11659877747297287 -0.0022102289367467165 0.0577756576240062714
-0.127104759216308594 0.00217981170862913132 0.0577756576240062714
-0.113110624253749847 -0.00552832009270787239 0.0577756576240062714
-0.105771243572235107 -0.00543390028178691864 0.0577756576240062714
-0.0950491204857826233 -0.00656551960855722427 0.0577756576240062714
-0.118374660611152649 0.00225655618123710155 0.0577756576240062714
-0.120215244591236115 -0.00553410500288009644 0.0577756576240062714
-0.128040090203285217 -0.00279240612871944904 0.0577756576240062714
-0.0995726138353347778 -0.00203394843265414238 0.0577756576240062714
-0.0983375310897827148 -0.00685083400458097458 0.0577756576240062714
-0.129572078585624695 0.000630935304798185825 0.0577756576240062714
-0.0859213173389434814 -0.00588200660422444344 0.0577756576240062714
-0.0921151190996170044 -0.00699141295626759529 0.0577756576240062714
-0.0879982635378837585 0.00965768191963434219 0.0571243539452552795
-0.0884128659963607788 0.012763630598783493 0.0563588030636310577
-0.0863538235425949097 0.0119863720610737801 0.0565503835678100586
-0.0850095748901367188 0.0125391222536563873 0.0564141422510147095
-0.108559593558311462 0.0194780156016349792 0.0547038577497005463
-0.0925547182559967041 0.0109905237331986427 0.0567958354949951172
-0.08043690025806427 0.0110145378857851028 0.0567899160087108612
-0.0866651386022567749 0.0191788580268621445 0.0547775924205780029
-0.088364526629447937 0.016315016895532608 0.0554834678769111633
-0.0965967029333114624 0.0120856491848826408 0.0565259121358394623
-0.104136765003204346 0.0152554530650377274 0.0557446256279945374
-0.0923337861895561218 0.0105440653860569 0.0569058805704116821
-0.111074134707450867 0.0194843411445617676 0.0547022968530654907
-0.0938316583633422852 0.0130271725356578827 0.0562938489019870758
