ply
format ascii 1.0
element vertex 711
property float x
property float y
property float z
end_header
-0.065823681652545929 -0.0618959628045558929 0.0115632917732000351
-0.0335352495312690735 -0.0618975125253200531 0.0115505214780569077
-0.0336185507476329803 -0.0623050034046173096 0.00819453317672014236
-0.0388448648154735565 -0.0618395954370498657 0.0120275095105171204
-0.0414474532008171082 -0.0581646449863910675 0.0238394401967525482
-0.0358973927795886993 -0.0602738633751869202 0.0182778928428888321
-0.0587023720145225525 -0.056476447731256485 0.0282908566296100616
-0.0642642155289649963 -0.0569812916219234467 0.0269596874713897705
-0.0431395880877971649 -0.0590493306517601013 0.0215067155659198761
-0.0410386919975280762 -0.0590445920825004578 0.0215192120522260666
-0.0362569987773895264 -0.0594251006841659546 0.0205158926546573639
-0.0650927945971488953 -0.0562850646674633026 0.0287954919040203094
-0.0473502203822135925 -0.0564666800200939178 0.0283166076987981796
-0.0372476093471050262 -0.0565990880131721497 0.027967473492026329
-0.0473783649504184723 -0.0592055469751358032 0.02109481580555439
-0.032773926854133606 -0.058089427649974823 0.0240377802401781082
-0.0366523116827011108 -0.056784261018037796 0.0274792220443487167
-0.0436938032507896423 -0.0560746006667613983 0.0293504390865564346
-0.0560183040797710419 -0.0569321960210800171 0.0270891487598419189
-0.040949549525976181 -0.056497473269701004 0.028235413134098053
-0.0449272021651268005 -0.0589682683348655701 0.0217204689979553223
-0.0494641512632369995 -0.0579304806888103485 0.0244568884372711182
-0.0316255427896976471 -0.0560938902199268341 0.0292995758354663849
-0.0421849898993968964 -0.0599630102515220642 0.019097544252872467
-0.0582710616290569305 -0.0577969104051589966 0.024809081107378006
-0.0341347008943557739 -0.0568345189094543457 0.0273466967046260834
-0.0473585240542888641 -0.0585578717291355133 0.0228025950491428375
-0.0418977998197078705 -0.0573709309101104736 0.0259322971105575562
-0.0366438440978527069 -0.0584550350904464722 0.0230737552046775818
-0.0422740355134010315 -0.0582029148936271667 0.0237385332584381104
-0.0619887039065361023 -0.0563560090959072113 0.028608422726392746
-0.029563557356595993 -0.0587831065058708191 0.022208699956536293
-0.0330292321741580963 -0.060383819043636322 0.0179879628121852875
-0.0357815995812416077 -0.0591849274933338165 0.0211491789668798447
-0.0358834192156791687 -0.0602127201855182648 0.018439117819070816
-0.0417598336935043335 -0.05687762051820755 0.0272330455482006073
-0.050709892064332962 -0.0590266883373260498 0.0215664245188236237
-0.0297705773264169693 -0.0589416883885860443 0.0217905491590499878
-0.0753679350018501282 -0.0601598471403121948 0.0185785237699747086
-0.0743187591433525085 -0.0613031312823295593 0.0155639471486210823
-0.0765522494912147522 -0.0584914945065975189 0.0229776091873645782
-0.0573498979210853577 -0.0592716224491596222 0.0209205895662307739
-0.0707880780100822449 -0.0577323436737060547 0.0249793305993080139
-0.0659753382205963135 -0.0577885247766971588 0.0248311925679445267
-0.0343548022210597992 -0.0613561421632766724 0.0154241612181067467
-0.0649022087454795837 -0.0590382590889930725 0.0215359199792146683
-0.0542727559804916382 -0.0594533607363700867 0.0204413793981075287
-0.06981639564037323 -0.0571626946330070496 0.0264813676476478577
-0.0361886508762836456 -0.0610813945531845093 0.0161486156284809113
-0.0761257931590080261 -0.0569353699684143066 0.0270807761698961258
-0.0564251504838466644 -0.0586411319673061371 0.02258305624127388
-0.0652905702590942383 -0.057994350790977478 0.0242884736508131027
-0.0658321082592010498 -0.0597401373088359833 0.0196852181106805801
-0.0550321862101554871 -0.059469267725944519 0.0203994475305080414
-0.0530158206820487976 -0.0611096061766147614 0.0160742215812206268
-0.0760596394538879395 -0.0600561276078224182 0.0188520178198814392
-0.074270494282245636 -0.0595399215817451477 0.0202131364494562149
-0.064958721399307251 -0.0612291842699050903 0.0157589204609394073
-0.0536357127130031586 -0.0594189800322055817 0.0205320324748754501
-0.0609117075800895691 -0.0600085444748401642 0.0189774874597787857
-0.0719325095415115356 -0.0581128820776939392 0.0239759329706430435
-0.0538453459739685059 -0.0588828101754188538 0.0219457969069480896
-0.0652335807681083679 -0.0584614500403404236 0.0230568349361419678
-0.0633053109049797058 -0.0611708313226699829 0.0159127917140722275
-0.0769871175289154053 -0.0580182820558547974 0.0242253765463829041
-0.0532461553812026978 -0.0612034760415554047 0.0158267077058553696
-0.0482212826609611511 -0.0610573813319206238 0.0162119269371032715
-0.0723667964339256287 -0.0613674521446228027 0.0153943449258804321
-0.0486108139157295227 -0.0593263767659664154 0.0207762140780687332
-0.0425332337617874146 -0.0610326789319515228 0.0162770692259073257
-0.0621044784784317017 -0.0580099634826183319 0.0242473036050796509
-0.0713822394609451294 -0.0603841990232467651 0.0179869569838047028
-0.0497902929782867432 -0.0480284392833709717 0.0410372987389564514
-0.054812312126159668 -0.0479089617729187012 0.0412103906273841858
-0.0466829612851142883 -0.0499806590378284454 0.0382090173661708832
-0.0686337798833847046 -0.0474398545920848846 0.0418900102376937866
-0.0433360747992992401 -0.0520785674452781677 0.0351696722209453583
-0.0382772572338581085 -0.0538717284798622131 0.0325718261301517487
-0.031351529061794281 -0.0506461821496486664 0.037244841456413269
-0.0602026879787445068 -0.0492125824093818665 0.0393217690289020538
-0.0526187494397163391 -0.04982728511095047 0.038431219756603241
-0.0442448481917381287 -0.0519485697150230408 0.0353580042719841003
-0.0484610795974731445 -0.0488231293857097626 0.0398859903216362
-0.0360387936234474182 -0.0520349219441413879 0.0352329052984714508
-0.0339283384382724762 -0.0489227958023548126 0.0397415943443775177
-0.0575604662299156189 -0.0486819185316562653 0.0400905683636665344
-0.0296502597630023956 -0.0480652675032615662 0.0409839414060115814
-0.0531281940639019012 -0.0506258457899093628 0.0372743047773838043
-0.0639421343803405762 -0.0488458201289176941 0.039853118360042572
-0.0458413287997245789 -0.0505220890045166016 0.0374246202409267426
-0.0301056690514087677 -0.0495437867939472198 0.0388419367372989655
-0.0467386357486248016 -0.0491020791232585907 0.0394818596541881561
-0.043580424040555954 -0.0482517220079898834 0.0407138131558895111
-0.0570394359529018402 -0.047587566077709198 0.0416760146617889404
-0.0477229282259941101 -0.0506987683475017548 0.0371686592698097229
-0.0344934836030006409 -0.0476871132850646973 0.0415317937731742859
-0.0299442950636148453 -0.0546436458826065063 0.0314535126090049744
-0.0317622572183609009 -0.048716321587562561 0.0400407277047634125
-0.0367130264639854431 -0.0502554327249526978 0.0378109365701675415
-0.0368540659546852112 -0.0535045117139816284 0.0331038348376750946
-0.0445102527737617493 -0.04762239009141922 0.0416255630552768707
-0.0459125898778438568 -0.0474810488522052765 0.0418303273618221283
-0.0321395173668861389 -0.0535915978252887726 0.032977670431137085
-0.0398093611001968384 -0.0506182648241519928 0.03728528693318367
-0.0373262465000152588 -0.0510186776518821716 0.0367051847279071808
-0.0730912685394287109 -0.0497912764549255371 0.0384833924472332001
-0.0628019347786903381 -0.0556776747107505798 0.0299554597586393356
-0.0447753109037876129 -0.053285796195268631 0.0334206968545913696
-0.0581169947981834412 -0.0551321730017662048 0.0307457577437162399
-0.0762053430080413818 -0.04863777756690979 0.0401545204222202301
-0.0634393766522407532 -0.0511680468916893005 0.0364887863397598267
-0.0732425600290298462 -0.0534291565418243408 0.0332130081951618195
-0.0694218873977661133 -0.0524789281189441681 0.0345896482467651367
-0.071644708514213562 -0.0543676279485225677 0.0318533927202224731
-0.076237700879573822 -0.0508297421038150787 0.0369789078831672668
-0.0739313587546348572 -0.0527955740690231323 0.0341309085488319397
-0.0475678034126758575 -0.0560460425913333893 0.0294217895716428757
-0.0706758648157119751 -0.0554641894996166229 0.030264751985669136
-0.0556733869016170502 -0.0528040006756782532 0.0341187044978141785
-0.0625134333968162537 -0.0530641637742519379 0.0337417870759963989
-0.0514257252216339111 -0.0541011914610862732 0.0322393961250782013
-0.0764017850160598755 -0.0560365580022335052 0.0294355284422636032
-0.0675530359148979187 -0.0555402860045433044 0.0301545076072216034
-0.0455747842788696289 -0.0541177317500114441 0.0322154276072978973
-0.0627960264682769775 -0.0538805387914180756 0.0325590595602989197
-0.0743836462497711182 -0.0533246807754039764 0.0333643592894077301
-0.0702121183276176453 -0.0544037856161594391 0.0318010151386260986
-0.0772440508008003235 -0.0476514697074890137 0.0415834374725818634
-0.0693490505218505859 -0.0541318096220493317 0.0321950353682041168
-0.0419392324984073639 -0.054197162389755249 0.0321003571152687073
-0.0716724768280982971 -0.050513923168182373 0.0374364517629146576
-0.0662042275071144104 -0.0536186955869197845 0.0329384095966815948
-0.0529107935726642609 -0.052630893886089325 0.0343694873154163361
-0.0429204963147640228 -0.0538023002445697784 0.0326724201440811157
-0.0453686341643333435 -0.0542321987450122833 0.0320495963096618652
-0.060591377317905426 -0.0544830933213233948 0.0316861122846603394
-0.050473436713218689 -0.0533443093299865723 0.0333359278738498688
-0.0722320973873138428 -0.0538919605314731598 0.0325425229966640472
-0.0647549852728843689 -0.0499664396047592163 0.0382296144962310791
-0.0293880272656679153 -0.0470131561160087585 0.0423013083636760712
-0.0353081561625003815 -0.0449853800237178802 0.0440977588295936584
-0.0368882864713668823 -0.0424074940383434296 0.0463815666735172272
-0.059774443507194519 -0.0369792208075523376 0.051190599799156189
-0.0379981659352779388 -0.0396263934671878815 0.0488454066216945648
-0.0681054592132568359 -0.0363540127873420715 0.0517444834113121033
-0.0416068695485591888 -0.0366037115454673767 0.0515232719480991364
-0.0621137768030166626 -0.0386729240417480469 0.0496901087462902069
-0.0614305473864078522 -0.03688763827085495 0.051271732896566391
-0.0450927466154098511 -0.0420758426189422607 0.0466753877699375153
-0.0492985919117927551 -0.0415461622178554535 0.0471446439623832703
-0.0349516794085502625 -0.0432179495692253113 0.0456635653972625732
-0.0424757525324821472 -0.0385268144309520721 0.049819551408290863
-0.0420771613717079163 -0.0405259467661380768 0.0480484738945960999
-0.0515511669218540192 -0.0415329523384571075 0.0471563450992107391
-0.036075737327337265 -0.0361388251185417175 0.0519351251423358917
-0.0484366081655025482 -0.0400825850665569305 0.0484412573277950287
-0.0514811873435974121 -0.0365135855972766876 0.0516031160950660706
-0.0431698337197303772 -0.037820279598236084 0.0504454858601093292
-0.0568137094378471375 -0.039467204362154007 0.048986438661813736
-0.0352487601339817047 -0.0455974191427230835 0.0435555428266525269
-0.0522822849452495575 -0.040237821638584137 0.0483037307858467102
-0.0514167360961437225 -0.040639098733663559 0.0479482300579547882
-0.0495329797267913818 -0.0405904650688171387 0.0479913167655467987
-0.0502527989447116852 -0.0407689623534679413 0.0478331819176673889
-0.0468459427356719971 -0.0368716120719909668 0.0512859299778938293
-0.0595018863677978516 -0.0391114428639411926 0.0493016168475151062
-0.0313535965979099274 -0.0417097285389900208 0.0469997338950634003
-0.0449066497385501862 -0.0410812757909297943 0.0475564971566200256
-0.0606711134314537048 -0.0359709113836288452 0.0520838834345340729
-0.0499201267957687378 -0.038461003452539444 0.049877852201461792
-0.02957182377576828 -0.0368181467056274414 0.051333300769329071
-0.0408445484936237335 -0.0384180694818496704 0.0499158911406993866
-0.0616491064429283142 -0.0376727581024169922 0.0505761802196502686
-0.0555471889674663544 -0.0413429737091064453 0.0473246537148952484
-0.0657262653112411499 -0.0394213497638702393 0.0490270629525184631
-0.055192798376083374 -0.0436641573905944824 0.0452682636678218842
-0.070693284273147583 -0.0421271510422229767 0.046629931777715683
-0.0352607518434524536 -0.0467400699853897095 0.0425432398915290833
-0.0583976916968822479 -0.0420379638671875 0.0467089451849460602
-0.0743144974112510681 -0.0430977717041969299 0.0457700379192829132
-0.0405800715088844299 -0.0463897846639156342 0.0428535677492618561
-0.0734141245484352112 -0.0389222167432308197 0.0494692586362361908
-0.0683708041906356812 -0.0461347363889217377 0.043079521507024765
-0.0632591545581817627 -0.0412319526076316833 0.0474230088293552399
-0.0727041065692901611 -0.0458919033408164978 0.0432946532964706421
-0.0534069612622261047 -0.0461556501686573029 0.0430609956383705139
-0.0590238794684410095 -0.0459951385855674744 0.0432031936943531036
-0.0758688151836395264 -0.0468444228172302246 0.0424507893621921539
-0.0721214115619659424 -0.041665542870759964 0.0470388792455196381
-0.064693935215473175 -0.0434307754039764404 0.0454750210046768188
-0.0629874542355537415 -0.0443912148475646973 0.0446241460740566254
-0.0569176152348518372 -0.0452671609818935394 0.0438481271266937256
-0.0568638071417808533 -0.0452448762953281403 0.0438678674399852753
-0.0612113326787948608 -0.0412331856787204742 0.0474219135940074921
-0.0542007982730865479 -0.0465472042560577393 0.0427141040563583374
-0.0701145455241203308 -0.0408852063119411469 0.0477301962673664093
-0.0497467480599880219 -0.0448464863002300262 0.0442208126187324524
-0.0587628111243247986 -0.0413852222263813019 0.0472872257232666016
-0.0556815415620803833 -0.0418854542076587677 0.0468440577387809753
-0.0431709103286266327 -0.0469847731292247772 0.0423264540731906891
-0.0724932178854942322 -0.0395563133060932159 0.0489074960350990295
-0.0751020908355712891 -0.0421103797852993011 0.0466447882354259491
-0.0552537739276885986 -0.0431352630257606506 0.0457368195056915283
-0.0720103532075881958 -0.0461578816175460815 0.0430590137839317322
-0.07588166743516922 -0.0403216816484928131 0.0482294373214244843
-0.0643574073910713196 -0.0410631150007247925 0.0475725866854190826
-0.0426460988819599152 -0.0449018366634845734 0.0441717766225337982
-0.0736117959022521973 -0.0226612631231546402 0.0590738058090209961
-0.0446067415177822113 -0.0307891946285963058 0.0548079386353492737
-0.0491099990904331207 -0.028723428025841713 0.0558921396732330322
-0.0628859624266624451 -0.02634468674659729 0.0571405962109565735
-0.0455368496477603912 -0.0274077057838439941 0.0565826818346977234
-0.0487324707210063934 -0.028277616947889328 0.0561261177062988281
-0.0552435927093029022 -0.0245213005691766739 0.0580975860357284546
-0.0322578884661197662 -0.0341181159019470215 0.0530607886612415314
-0.0483177155256271362 -0.0289269201457500458 0.0557853393256664276
-0.0459661707282066345 -0.0307806637138128281 0.0548124164342880249
-0.0527442432940006256 -0.0240956377238035202 0.0583209879696369171
-0.0485540367662906647 -0.0257693510502576828 0.0574425570666790009
-0.0325149558484554291 -0.0343617089092731476 0.0529329404234886169
-0.0352373644709587097 -0.0277526583522558212 0.0564016364514827728
-0.0363020040094852448 -0.0254300870001316071 0.0576206184923648834
-0.0294515807181596756 -0.0272663421928882599 0.0566568747162818909
-0.0369475148618221283 -0.0292062871158123016 0.0556387118995189667
-0.0355880707502365112 -0.031865924596786499 0.0542428269982337952
-0.0486502870917320251 -0.0229891277849674225 0.0589017309248447418
-0.0399195179343223572 -0.0304195042699575424 0.055001966655254364
-0.0648024007678031921 -0.024075804278254509 0.0583314001560211182
-0.0592992939054965973 -0.0267066396772861481 0.0569506287574768066
-0.0301162227988243103 -0.0348290354013442993 0.0526876673102378845
-0.0405108816921710968 -0.024994533509016037 0.0578492134809494019
-0.03778805211186409 -0.0308613311499357224 0.0547700785100460052
-0.0459430404007434845 -0.0283171124756336212 0.056105390191078186
-0.0484118424355983734 -0.0271276365965604782 0.0567296743392944336
-0.0415868461132049561 -0.0270028300583362579 0.0567951798439025879
-0.0605032742023468018 -0.0234295111149549484 0.0586705990135669708
-0.0293296985328197479 -0.0282632149755954742 0.0561336763203144073
-0.0730165392160415649 -0.0225755013525485992 0.0591188184916973114
-0.038508441299200058 -0.0304708927869796753 0.0549749955534934998
-0.0553193949162960052 -0.0251676514744758606 0.0577583536505699158
-0.0350966118276119232 -0.0303795412182807922 0.0550229437649250031
-0.0470023602247238159 -0.0339993014931678772 0.0531231462955474854
-0.0745149552822113037 -0.025053633376955986 0.057818196713924408
-0.0436087325215339661 -0.0330544188618659973 0.0536190569400787354
-0.072004370391368866 -0.0290159247815608978 0.0557386241853237152
-0.0477501377463340759 -0.0313727110624313354 0.0545016899704933167
-0.0728591382503509521 -0.0359532833099365234 0.052097618579864502
-0.070574343204498291 -0.0290876589715480804 0.0557009726762771606
-0.0759091824293136597 -0.024383867159485817 0.0581697151064872742
-0.0687967166304588318 -0.0260668322443962097 0.0572864264249801636
-0.0379366949200630188 -0.0359453223645687103 0.0521017983555793762
-0.0679731070995330811 -0.0303845126181840897 0.0550203323364257812
-0.0547510832548141479 -0.0291010290384292603 0.0556939542293548584
-0.0531667172908782959 -0.0352936796844005585 0.0524438023567199707
-0.0488641746342182159 -0.0353574976325035095 0.0524103119969367981
-0.0477504953742027283 -0.0329592935740947723 0.0536689832806587219
-0.0669124200940132141 -0.0343472808599472046 0.05294051393866539
-0.0686495229601860046 -0.0331683345139026642 0.0535592734813690186
-0.0452233552932739258 -0.0339415781199932098 0.0531534403562545776
-0.0738475397229194641 -0.0249041952192783356 0.0578966252505779266
-0.0532542318105697632 -0.031218409538269043 0.0545826703310012817
-0.0760927572846412659 -0.0234555136412382126 0.0586569532752037048
-0.0551404505968093872 -0.0316639728844165802 0.054348822683095932
-0.0651048123836517334 -0.0283357258886098862 0.0560956187546253204
-0.069283604621887207 -0.0335866212844848633 0.0533397383987903595
-0.0606221593916416168 -0.0317342579364776611 0.0543119311332702637
-0.0667041242122650146 -0.0297000501304864883 0.0553795695304870605
-0.0744243785738945007 -0.0339820645749568939 0.0531321950256824493
-0.0553667545318603516 -0.0300936456769704819 0.0551729947328567505
-0.0580447465181350708 -0.0341572128236293793 0.0530402660369873047
-0.0676903277635574341 -0.0337773114442825317 0.0532396584749221802
-0.0575096383690834045 -0.0308495312929153442 0.054776269942522049
-0.0459973886609077454 -0.0358235426247119904 0.0521657094359397888
-0.0363301411271095276 -0.0350316688418388367 0.0525813177227973938
-0.0723921582102775574 -0.0308919083327054977 0.0547540336847305298
-0.0511718764901161194 -0.0129698226228356361 0.061522316187620163
-0.0372152179479598999 -0.0102991238236427307 0.0621805861592292786
-0.0432807654142379761 -0.0128831127658486366 0.061543688178062439
-0.0530894696712493896 -0.0141013916581869125 0.0612434111535549164
-0.0325199365615844727 -0.0146094830706715584 0.0611181780695915222
-0.0352999381721019745 -0.0163011327385902405 0.0607012249529361725
-0.0355270542204380035 -0.0192967653274536133 0.0599628649652004242
-0.0690550878643989563 -0.00872687343508005142 0.0625681132078170776
-0.0621475875377655029 -0.0113892834633588791 0.0619118846952915192
-0.0466768108308315277 -0.017026187852025032 0.0605225116014480591
-0.0484919734299182892 -0.0124130416661500931 0.0616595521569252014
-0.0493514426052570343 -0.0113721359521150589 0.0619161128997802734
-0.0523146092891693115 -0.00775254517793655396 0.0628082603216171265
-0.05001821368932724 -0.0146985761821269989 0.0610962174832820892
-0.0315624140202999115 -0.0212418027222156525 0.0594834573566913605
-0.0331073924899101257 -0.00924805458635091782 0.062439650297164917
-0.0360875651240348816 -0.00864173658192157745 0.0625890940427780151
-0.0465837456285953522 -0.0127901351079344749 0.0615666061639785767
-0.029244985431432724 -0.0176377184689044952 0.06037178635597229
-0.031247604638338089 -0.0177578721195459366 0.0603421702980995178
-0.0301777999848127365 -0.0209758654236793518 0.0595490038394927979
-0.0567985698580741882 -0.00766824325546622276 0.062829039990901947
-0.0457481332123279572 -0.010695217177271843 0.0620829574763774872
-0.0555994696915149689 -0.0127853322774171829 0.0615677908062934875
-0.0303388219326734543 -0.0134726064279675484 0.0613983944058418274
-0.0430457890033721924 -0.00988566875457763672 0.0622824914753437042
-0.0535913035273551941 -0.0079924827441573143 0.062749125063419342
-0.061702776700258255 -0.00974915921688079834 0.0623161382973194122
-0.0441339872777462006 -0.0119609786197543144 0.0617709755897521973
-0.0461807027459144592 -0.0103458529338240623 0.0621690675616264343
-0.065523393452167511 -0.0109919384121894836 0.0620098225772380829
-0.0646954402327537537 -0.00987092871218919754 0.0622861273586750031
-0.0453468635678291321 -0.0132621591910719872 0.0614502616226673126
-0.0433201752603054047 -0.0155554730445146561 0.060885012149810791
-0.0644435733556747437 -0.0185086615383625031 0.0601571165025234222
-0.0675582513213157654 -0.0210969261825084686 0.0595191679894924164
-0.068263225257396698 -0.0207395963370800018 0.0596072375774383545
-0.0657631158828735352 -0.0192636922001838684 0.0599710159003734589
-0.0528748556971549988 -0.0157652106136083603 0.060833316296339035
-0.0613090768456459045 -0.0223622266203165054 0.0592072978615760803
-0.0657514035701751709 -0.0203301012516021729 0.0597081743180751801
-0.0475236997008323669 -0.0193093232810497284 0.0599597729742527008
-0.0670307576656341553 -0.0222371071577072144 0.0592381395399570465
-0.0501993782818317413 -0.0212512947618961334 0.0594811178743839264
-0.0749315321445465088 -0.00934645161032676697 0.0624153949320316315
-0.0769703462719917297 -0.0186967328190803528 0.0601107627153396606
-0.0637475103139877319 -0.014506584033370018 0.0611435398459434509
-0.0618132799863815308 -0.0211404003202915192 0.0595084503293037415
-0.036763310432434082 -0.0219605006277561188 0.0593063123524188995
-0.0653202459216117859 -0.0136024784296751022 0.0613663792610168457
-0.0727805271744728088 -0.0167354848235845566 0.0605941638350486755
-0.0745007023215293884 -0.0106011154130101204 0.0621061511337757111
-0.0523718409240245819 -0.0222108922898769379 0.0592445991933345795
-0.0731282010674476624 -0.0106958895921707153 0.0620827935636043549
-0.0642271041870117188 -0.0132144894450902939 0.06146201491355896
-0.0612160526216030121 -0.0217456761747598648 0.0593592636287212372
-0.0521497204899787903 -0.0210288353264331818 0.0595359504222869873
-0.0632990673184394836 -0.0173094253987073898 0.0604526996612548828
-0.0644962415099143982 -0.0158882644027471542 0.0608029887080192566
-0.0765381976962089539 -0.0157596617937088013 0.0608346834778785706
-0.0494497530162334442 -0.0179034285247325897 0.0603062920272350311
-0.0675640404224395752 -0.0186708159744739532 0.0601171515882015228
-0.0689582675695419312 -0.0118021545931696892 0.0618101209402084351
-0.0637707412242889404 -0.0164416655898094177 0.0606665834784507751
-0.0560480430722236633 -0.0142109347507357597 0.0612164102494716644
-0.0562017858028411865 -0.0200536753982305527 0.05977630615234375
-0.0687447860836982727 -0.0184846743941307068 0.0601630285382270813
-0.0619267895817756653 -0.0211508776992559433 0.0595058687031269073
-0.0696083977818489075 0.00621329993009567261 0.0628384724259376526
-0.0573119819164276123 0.0037630035076290369 0.0628384724259376526
-0.0354141667485237122 0.000502466224133968353 0.0628384724259376526
-0.0593670755624771118 0.00322788674384355545 0.0628384724259376526
-0.0329333804547786713 0.00690113799646496773 0.0628384724259376526
-0.036775689572095871 0.00669487519189715385 0.0628384724259376526
-0.0309364087879657745 0.0067309071309864521 0.0628384724259376526
-0.0459278896450996399 -0.000998856499791145325 0.0628384724259376526
-0.0310033541172742844 -0.0015717754140496254 0.0628384724259376526
-0.0328338146209716797 0.0034267413429915905 0.0628384724259376526
-0.031009964644908905 0.00647009024396538734 0.0628384724259376526
-0.055192161351442337 0.00329945283010601997 0.0628384724259376526
-0.0615872032940387726 0.00705529376864433289 0.0628384724259376526
-0.0494199991226196289 0.000398561824113130569 0.0628384724259376526
-0.0646105632185935974 0.00744630070403218269 0.0628384724259376526
-0.0459546297788619995 0.00218099774792790413 0.0628384724259376526
-0.0481418929994106293 -0.00057497899979352951 0.0628384724259376526
-0.0560973212122917175 0.0076293284073472023 0.0628384724259376526
-0.0580483749508857727 0.00415629660710692406 0.0628384724259376526
-0.0582522377371788025 0.00619035959243774414 0.0628384724259376526
-0.0388941317796707153 -0.00111962296068668365 0.0628384724259376526
-0.0355808623135089874 -0.00211675278842449188 0.0628384724259376526
-0.0329383388161659241 -0.0051519414409995079 0.0628384724259376526
-0.0621177852153778076 0.0046021975576877594 0.0628384724259376526
-0.0382424145936965942 -0.0020079445093870163 0.0628384724259376526
-0.0427951142191886902 0.00138285569846630096 0.0628384724259376526
-0.0356297679245471954 0.00256427191197872162 0.0628384724259376526
-0.0561467260122299194 0.00706513971090316772 0.0628384724259376526
-0.039132334291934967 0.00396911567077040672 0.0628384724259376526
-0.0462230667471885681 0.00518920272588729858 0.0628384724259376526
-0.0308620184659957886 0.00468573393300175667 0.0628384724259376526
-0.0449976250529289246 0.00438770558685064316 0.0628384724259376526
-0.0621681138873100281 0.00356366904452443123 0.0628384724259376526
-0.039269614964723587 0.00245752651244401932 0.0628384724259376526
-0.0522225499153137207 -0.00348252803087234497 0.0628384724259376526
-0.0604491382837295532 -0.00417983625084161758 0.0628384724259376526
-0.073844321072101593 0.00197729375213384628 0.0628384724259376526
-0.0629412084817886353 -0.000265950337052345276 0.0628384724259376526
-0.0653586164116859436 -0.000543534755706787109 0.0628384724259376526
-0.0383359044790267944 -0.00685842148959636688 0.0628384724259376526
-0.0705977007746696472 0.00464067608118057251 0.0628384724259376526
-0.0569194033741950989 -0.00221651326864957809 0.0628384724259376526
-0.0758302286267280579 -0.00102048972621560097 0.0628384724259376526
-0.069697551429271698 -0.00066745351068675518 0.0628384724259376526
-0.0546661838889122009 -0.00139994407072663307 0.0628384724259376526
-0.0569754019379615784 -0.00285562500357627869 0.0628384724259376526
-0.061784498393535614 0.00203482666984200478 0.0628384724259376526
-0.0703838467597961426 0.00274733523838222027 0.0628384724259376526
-0.0493397563695907593 -0.00733948173001408577 0.0628384724259376526
-0.0611646100878715515 -0.00333150755614042282 0.0628384724259376526
-0.0664053335785865784 -0.00167113705538213253 0.0628384724259376526
-0.0598428845405578613 -0.00525373406708240509 0.0628384724259376526
-0.0542568936944007874 -0.00677340105175971985 0.0628384724259376526
-0.0706898272037506104 -0.00487209483981132507 0.0628384724259376526
-0.0526045188307762146 -0.00299827102571725845 0.0628384724259376526
-0.0493744164705276489 -0.0047422521747648716 0.0628384724259376526
-0.0737323835492134094 0.00507053500041365623 0.0628384724259376526
-0.0449016131460666656 -0.00526297558099031448 0.0628384724259376526
-0.0592748261988162994 -0.00019871443510055542 0.0628384724259376526
-0.0339938737452030182 -0.00672153197228908539 0.0628384724259376526
-0.0677682459354400635 -0.000621522543951869011 0.0628384724259376526
-0.0464009754359722137 -0.00668371561914682388 0.0628384724259376526
-0.0694236680865287781 0.0040745055302977562 0.0628384724259376526
-0.0700353384017944336 3.95250972360372543e-05 0.0628384724259376526
-0.0694219544529914856 -0.00340837007388472557 0.0628384724259376526
-0.0515269823372364044 -0.00580385280773043633 0.0628384724259376526
-0.0723477974534034729 -0.000233844155445694923 0.0628384724259376526
-0.0740430951118469238 0.00211805501021444798 0.0628384724259376526
-0.0567869208753108978 0.0209365487098693848 0.0595586970448493958
-0.0301070660352706909 0.0195463020354509354 0.059901360422372818
-0.0463557280600070953 0.0148749016225337982 0.0610527582466602325
-0.0510426685214042664 0.0159068368375301361 0.0607984103262424469
-0.0369695723056793213 0.0202560946345329285 0.0597264133393764496
-0.0341628268361091614 0.0119918948039412498 0.0617633536458015442
-0.0610048621892929077 0.0186757501214742661 0.0601159334182739258
-0.0308899693191051483 0.0223685912787914276 0.0592057295143604279
-0.0330647453665733337 0.0218959618359804153 0.0593222230672836304
-0.0331358984112739563 0.0201184637844562531 0.0597603358328342438
-0.0404124483466148376 0.0114647848531603813 0.0618932768702507019
-0.0322553105652332306 0.0210125911980867386 0.0595399551093578339
-0.0435706488788127899 0.0143453879281878471 0.0611832700669765472
-0.0368422344326972961 0.0167409200221300125 0.0605928264558315277
-0.0364280343055725098 0.0120908627286553383 0.0617389604449272156
-0.0295900367200374603 0.00995828583836555481 0.0622645951807498932
-0.0328096523880958557 0.0167453587055206299 0.0605917312204837799
-0.0299498327076435089 0.0182808302342891693 0.0602132715284824371
-0.0454393178224563599 0.0168110895901918411 0.060575529932975769
-0.0371067412197589874 0.0135093098506331444 0.0613893456757068634
-0.0440864823758602142 0.0202071629464626312 0.0597384721040725708
-0.0320932641625404358 0.0139679806306958199 0.0612762942910194397
-0.0671372562646865845 0.0195943489670753479 0.0598895177245140076
-0.0322288647294044495 0.00869467109441757202 0.0625760480761528015
-0.0467148125171661377 0.0176403261721134186 0.0603711418807506561
-0.0394111275672912598 0.0143757574260234833 0.0611757859587669373
-0.038569282740354538 0.0211886391043663025 0.0594965629279613495
-0.0407249927520751953 0.0219488199800252914 0.0593091920018196106
-0.0309231281280517578 0.013955569826066494 0.0612793527543544769
-0.0612359903752803802 0.0208919905126094818 0.0595696792006492615
-0.0296161714941263199 0.0161246303468942642 0.0607447288930416107
-0.0577552616596221924 0.0219951719045639038 0.0592977702617645264
-0.0309719201177358627 0.0147684868425130844 0.0610789880156517029
-0.0511588715016841888 0.0191187988966703415 0.0600067302584648132
-0.0401866361498832703 0.00930363312363624573 0.0624259524047374725
-0.0401403531432151794 0.0106306839734315872 0.0620988644659519196
-0.041270185261964798 0.0106274960562586784 0.0620996467769145966
-0.072983965277671814 0.0204621758311986923 0.0596756190061569214
-0.0559714809060096741 0.00931350328028202057 0.0624235197901725769
-0.0679077878594398499 0.0149916689842939377 0.0610239766538143158
-0.0697161778807640076 0.0175347253680229187 0.0603971704840660095
-0.0508284643292427063 0.00832003820687532425 0.0626683905720710754
-0.0613113716244697571 0.0106276068836450577 0.0620996206998825073
-0.0755434855818748474 0.0209347307682037354 0.0595591440796852112
-0.0510001182556152344 0.0116967400535941124 0.0618361048400402069
-0.0730023309588432312 0.00959011446684598923 0.062355339527130127
-0.051765836775302887 0.0116911688819527626 0.0618374794721603394
-0.055515926331281662 0.0137754660099744797 0.0613237433135509491
-0.0425179377198219299 0.0088284611701965332 0.0625430718064308167
-0.0506323985755443573 0.00915918592363595963 0.062461555004119873
-0.0695544183254241943 0.0126496106386184692 0.0616012401878833771
-0.0530628487467765808 0.01003289595246315 0.0622462071478366852
-0.0614895373582839966 0.0125531740486621857 0.0616250112652778625
-0.057107139378786087 0.0153714325278997421 0.0609303712844848633
-0.0771258994936943054 0.0176137462258338928 0.0603776909410953522
-0.0373380109667778015 0.00959139782935380936 0.0623550266027450562
-0.0673560202121734619 0.0116340341046452522 0.0618515610694885254
-0.0769036337733268738 0.0214175619184970856 0.0594401359558105469
-0.0689752921462059021 0.011034221388399601 0.0619993992149829865
-0.0543821081519126892 0.0089371800422668457 0.0625162720680236816
-0.0756759494543075562 0.021851150318980217 0.0593332648277282715
-0.0756682753562927246 0.0106556396931409836 0.0620927140116691589
-0.0679088234901428223 0.00942416395992040634 0.0623962469398975372
-0.0657349824905395508 0.0123939113691449165 0.0616642683744430542
-0.0475391075015068054 0.0126463910564780235 0.0616020336747169495
-0.0499650612473487854 0.0116439294070005417 0.0618491210043430328
-0.0710015073418617249 0.0158427730202674866 0.060814201831817627
-0.0441701300442218781 0.00804482400417327881 0.06273622065782547
-0.0363482609391212463 0.0331739224493503571 0.0535563379526138306
-0.0358143709599971771 0.0274937059730291367 0.0565375462174415588
-0.042604982852935791 0.0307060219347476959 0.0548515915870666504
-0.0583307817578315735 0.034042850136756897 0.053100287914276123
-0.03625517338514328 0.0314095988869667053 0.0544823259115219116
-0.0493397451937198639 0.0306515935808420181 0.0548801571130752563
-0.0473824739456176758 0.0357204452157020569 0.0522198192775249481
-0.0315923355519771576 0.0345514938235282898 0.0528333336114883423
-0.0525721274316310883 0.0340870879590511322 0.0530770719051361084
-0.0353485718369483948 0.0261780768632888794 0.05722803995013237
-0.0629104673862457275 0.0356106460094451904 0.0522774457931518555
-0.0558358728885650635 0.0350260324776172638 0.0525842756032943726
-0.0301320385187864304 0.0299038887023925781 0.0552725829184055328
-0.0653481706976890564 0.0334504283964633942 0.0534112192690372467
-0.0309825427830219269 0.0353637039661407471 0.0524070523679256439
-0.0309940967708826065 0.0251284763216972351 0.0577789135277271271
-0.030333787202835083 0.0346227549016475677 0.0527959316968917847
-0.0338107533752918243 0.0276252366602420807 0.0564685128629207611
-0.0465520694851875305 0.0307576339691877365 0.0548245050013065338
-0.0405866093933582306 0.0349020548164844513 0.0526493452489376068
-0.0310312826186418533 0.0242488980293273926 0.0582405515015125275
-0.0649444013833999634 0.0358783677220344543 0.052136935293674469
-0.0323659367859363556 0.0327652581036090851 0.0537708215415477753
-0.0343496352434158325 0.0276860110461711884 0.0564366169273853302
-0.0474519841372966766 0.0348367169499397278 0.0526836365461349487
-0.062119603157043457 0.0357467271387577057 0.0522060245275497437
-0.0357964858412742615 0.0307886656373739243 0.0548082180321216583
-0.0392962656915187836 0.0260255094617605209 0.0573081150650978088
-0.0720552951097488403 0.0350410006940364838 0.0525764189660549164
-0.0519405156373977661 0.0351191423833370209 0.0525354072451591492
-0.0390705950558185577 0.0346770435571670532 0.0527674406766891479
-0.0499710924923419952 0.0299465283751487732 0.0552502050995826721
-0.0605039410293102264 0.0322866551578044891 0.0540220104157924652
-0.0438338369131088257 0.0267703160643577576 0.0569172091782093048
-0.0754896700382232666 0.0244205072522163391 0.0581504851579666138
-0.0585132315754890442 0.0283569209277629852 0.0560844950377941132
-0.0584326088428497314 0.0269826129078865051 0.056805785745382309
-0.0660874173045158386 0.0281058792024850845 0.0562162548303604126
-0.076233789324760437 0.0323340632021427155 0.0539971292018890381
-0.066682375967502594 0.0283463001251220703 0.0560900680720806122
-0.0477314703166484833 0.0251010768115520477 0.0577932968735694885
-0.057068459689617157 0.0259101632982492447 0.0573686510324478149
-0.0560426972806453705 0.0248230844736099243 0.0579391978681087494
-0.0448150411248207092 0.0263511613011360168 0.0571371987462043762
-0.0647765100002288818 0.0273849349468946457 0.0565946325659751892
-0.0696625486016273499 0.0243859775364398956 0.058168608695268631
-0.0715695992112159729 0.0252684634178876877 0.0577054433524608612
-0.0664312839508056641 0.0232812222093343735 0.0587484277784824371
-0.050469033420085907 0.0246846899390220642 0.0580118298530578613
-0.0714468285441398621 0.0243476983159780502 0.0581886991858482361
-0.0520879998803138733 0.0284856408834457397 0.0560169368982315063
-0.0586600713431835175 0.0224718302488327026 0.0591732300817966461
-0.0496839545667171478 0.0238132886588573456 0.0584691762924194336
-0.0542181693017482758 0.0284536592662334442 0.0560337230563163757
-0.0705209001898765564 0.0269894041121006012 0.0568022243678569794
-0.0627005100250244141 0.0240138564258813858 0.0583639107644557953
-0.067239716649055481 0.0324859209358692169 0.0539174303412437439
-0.0640583783388137817 0.0237068310379981995 0.0585250519216060638
-0.0600553452968597412 0.027892041951417923 0.0563284829258918762
-0.0751309171319007874 0.0352622382342815399 0.0524603091180324554
-0.0739412158727645874 0.0330698005855083466 0.0536109842360019684
-0.0757914409041404724 0.0277859549969434738 0.056384161114692688
-0.0581216923892498016 0.0284327603876590729 0.0560446903109550476
-0.076325543224811554 0.0334237515926361084 0.0534252189099788666
-0.0667836591601371765 0.027542702853679657 0.0565118305385112762
-0.0735259354114532471 0.0321901068091392517 0.0540726855397224426
-0.0735965818166732788 0.0292656663805246353 0.0556075498461723328
-0.0754239410161972046 0.0279429033398628235 0.0563017912209033966
-0.0386592335999011993 0.0465462394058704376 0.0427149608731269836
-0.0322223491966724396 0.0449291840195655823 0.0441475473344326019
-0.038132835179567337 0.0390698760747909546 0.0493384413421154022
-0.0339427031576633453 0.0415034070611000061 0.0471825189888477325
-0.0404198914766311646 0.0459899157285690308 0.0432078205049037933
-0.0293528828769922256 0.0396462380886077881 0.0488278307020664215
-0.0408468730747699738 0.0450298041105270386 0.0440584048628807068
-0.0673798322677612305 0.0465618595480918884 0.0427011214196681976
-0.0643573105335235596 0.0455092489719390869 0.0436336547136306763
-0.0524393394589424133 0.0446540005505084991 0.0443913377821445465
-0.0324732363224029541 0.0402594767510890961 0.0482845455408096313
-0.0505269765853881836 0.0456353351473808289 0.0435219518840312958
-0.0586298108100891113 0.0456585921347141266 0.0435013473033905029
-0.0646779388189315796 0.0471103489398956299 0.0422152020037174225
-0.0430616289377212524 0.0465219020843505859 0.0427365191280841827
-0.0391658954322338104 0.0404072031378746033 0.0481536723673343658
-0.0364069975912570953 0.044804837554693222 0.0442577078938484192
-0.0507355742156505585 0.0446291342377662659 0.0444133691489696503
-0.0379044301807880402 0.0430228374898433685 0.0458364225924015045
-0.0297442954033613205 0.0369451902806758881 0.0512207448482513428
-0.0501853637397289276 0.0413015633821487427 0.0473613366484642029
-0.066473349928855896 0.045268375426530838 0.0438470505177974701
-0.0405989661812782288 0.0392908081412315369 0.0491427145898342133
-0.063071034848690033 0.0450530946254730225 0.0440377742052078247
-0.0385240726172924042 0.0389295667409896851 0.0494627431035041809
-0.0683073848485946655 0.0459281951189041138 0.0432624965906143188
-0.0409509241580963135 0.0427725128829479218 0.0460581891238689423
-0.046522580087184906 0.0448776818811893463 0.0441931746900081635
-0.0402563884854316711 0.0413459837436676025 0.0473219864070415497
-0.0340155139565467834 0.0427129082381725311 0.0461109951138496399
-0.0563084222376346588 0.0448917597532272339 0.044180702418088913
-0.0653449222445487976 0.0454790852963924408 0.0436603762209415436
-0.0486759468913078308 0.0421231947839260101 0.0466334372758865356
-0.0572711080312728882 0.0406829118728637695 0.0479094162583351135
-0.0741120800375938416 0.0463542304933071136 0.0428850650787353516
-0.0751151666045188904 0.0378052182495594025 0.0504588261246681213
-0.0754871144890785217 0.0382490158081054688 0.0500656589865684509
-0.0483160018920898438 0.0389531180262565613 0.0494418777525424957
-0.0389078631997108459 0.0365556031465530396 0.0515658929944038391
-0.0482386760413646698 0.039864860475063324 0.0486341454088687897
-0.0710508972406387329 0.0455600321292877197 0.0435886606574058533
-0.0772796943783760071 0.0400724485516548157 0.0484502390027046204
-0.0466192141175270081 0.0382593236863613129 0.0500565245747566223
-0.0756466463208198547 0.0422090776264667511 0.0465573519468307495
-0.0663078054785728455 0.0433525294065475464 0.0455443374812602997
-0.0519901737570762634 0.0375011228024959564 0.05072823166847229
-0.0672597289085388184 0.0432284846901893616 0.0456542335450649261
-0.0740852877497673035 0.0372601114213466644 0.0509417504072189331
-0.0604306422173976898 0.0414396002888679504 0.0472390502691268921
-0.0691594108939170837 0.0382713638246059418 0.0500458590686321259
-0.0687017142772674561 0.0432075038552284241 0.0456728264689445496
-0.0625288411974906921 0.0427781566977500916 0.0460531897842884064
-0.0534905940294265747 0.0389314219355583191 0.0494611002504825592
-0.0670731291174888611 0.0368665792047977448 0.0512903928756713867
-0.0768761187791824341 0.0447886325418949127 0.0442720651626586914
-0.0565980896353721619 0.0360145196318626404 0.0520452521741390228
-0.0770864412188529968 0.0368021056056022644 0.0513475090265274048
-0.0618778504431247711 0.0435121841728687286 0.0454028993844985962
-0.063173249363899231 0.0425465069711208344 0.0462584123015403748
-0.062057003378868103 0.0380405895411968231 0.0502503067255020142
-0.0723877623677253723 0.0373095385730266571 0.0508979633450508118
-0.0660811886191368103 0.0421631336212158203 0.0465980507433414459
-0.0686260908842086792 0.0386664122343063354 0.0496958792209625244
-0.0746946036815643311 0.0394544713199138641 0.0489977188408374786
-0.0619624070823192596 0.0401833876967430115 0.0483519509434700012
-0.0675959661602973938 0.0405457392334938049 0.0480309426784515381
-0.0458225086331367493 0.0381023995578289032 0.0501955524086952209
-0.0479517169296741486 0.0534277372062206268 0.033215060830116272
-0.0434702411293983459 0.0548895075917243958 0.0310973227024078369
-0.0481011718511581421 0.0547912642359733582 0.0312396511435508728
-0.0293911397457122803 0.0551089048385620117 0.0307794678956270218
-0.0329605750739574432 0.0502957850694656372 0.0377524793148040771
-0.05847950279712677 0.0531411506235599518 0.0336302518844604492
-0.0331143215298652649 0.0558159388601779938 0.0297551564872264862
-0.0541732907295227051 0.0543142892420291901 0.0319306701421737671
-0.0637703463435173035 0.0553260631859302521 0.0304648596793413162
-0.043999694287776947 0.0558439753949642181 0.0297145359218120575
-0.0347359329462051392 0.050545278936624527 0.037391025573015213
-0.0345701351761817932 0.0557098165154457092 0.0299088954925537109
-0.0424078889191150665 0.0537688471376895905 0.0327208787202835083
-0.0341490283608436584 0.0557964406907558441 0.0297834035009145737
-0.0410601198673248291 0.052924666553735733 0.0339438877999782562
-0.0384422950446605682 0.0519930683076381683 0.0352935381233692169
-0.057845626026391983 0.0527963116765022278 0.0341298393905162811
-0.055652182549238205 0.0555145740509033203 0.0301917549222707748
-0.034867309033870697 0.0491770282387733459 0.0393732786178588867
-0.0326422750949859619 0.0509335584938526154 0.0368285030126571655
-0.0475975126028060913 0.0559044629335403442 0.0296269040554761887
-0.0503249876201152802 0.0517108291387557983 0.0357024297118186951
-0.0334616303443908691 0.0509690195322036743 0.0367771312594413757
-0.0531913489103317261 0.0532074719667434692 0.0335341691970825195
-0.0689025372266769409 0.0559137538075447083 0.0296134445816278458
-0.0310507901012897491 0.0505470111966133118 0.0373885147273540497
-0.0382538698613643646 0.0559458844363689423 0.0295668914914131165
-0.0549951642751693726 0.0530611239373683929 0.0337461940944194794
-0.035269811749458313 0.0521290004253387451 0.0350966081023216248
-0.0362144261598587036 0.052878059446811676 0.0340114086866378784
-0.0341750159859657288 0.0554248727858066559 0.0303217098116874695
-0.0376408100128173828 0.0504938811063766479 0.0374654866755008698
-0.0381522662937641144 0.0494732558727264404 0.0389441177248954773
-0.0356115773320198059 0.0522339455783367157 0.0349445678293704987
-0.0431280732154846191 0.0474690943956375122 0.0418476499617099762
-0.0730949863791465759 0.050461936742067337 0.0375117696821689606
-0.0735835358500480652 0.0548075065016746521 0.0312161203473806381
-0.0709582343697547913 0.049512915313243866 0.0388866625726222992
-0.0645237043499946594 0.0486685559153556824 0.040109928697347641
-0.0705823004245758057 0.0537232384085655212 0.0327869579195976257
-0.0513350889086723328 0.0509293004870414734 0.03683466836810112
-0.0660600662231445312 0.0522224307060241699 0.0349612496793270111
-0.07453126460313797 0.0522480085492134094 0.0349241979420185089
-0.0400117523968219757 0.0489565841853618622 0.0396926477551460266
-0.0414731055498123169 0.0494816228747367859 0.0389319956302642822
-0.0708341673016548157 0.0475779734551906586 0.0416899062693119049
-0.0446709692478179932 0.0481236539781093597 0.0408993512392044067
-0.033719528466463089 0.0477212518453598022 0.0414823330938816071
-0.0579385757446289062 0.0488760285079479218 0.039809349924325943
-0.0713326409459114075 0.0521252341568470001 0.0351020656526088715
-0.0402924790978431702 0.0491198711097240448 0.0394560880959033966
-0.0681739673018455505 0.0520044565200805664 0.0352770425379276276
-0.0661573708057403564 0.0528482198715209961 0.0340546369552612305
-0.0698228403925895691 0.050950855016708374 0.0368034467101097107
-0.0770507976412773132 0.0553547777235507965 0.030423259362578392
-0.0503151416778564453 0.0511215031147003174 0.0365562215447425842
-0.0547131039202213287 0.0518402047455310822 0.0355149991810321808
-0.0753590613603591919 0.0481866076588630676 0.0408081524074077606
-0.0747733712196350098 0.0493186451494693756 0.0391681119799613953
-0.074860304594039917 0.0475754812359809875 0.041693519800901413
-0.0506816953420639038 0.0482001937925815582 0.0407884679734706879
-0.0755977481603622437 0.0549944192171096802 0.0309453327208757401
-0.0720289126038551331 0.0538712255656719208 0.0325725600123405457
-0.061698470264673233 0.0496899448335170746 0.0386301875114440918
-0.0573746748268604279 0.0475829429924488068 0.041682712733745575
-0.0508661344647407532 0.0496569685637950897 0.0386779606342315674
-0.0389000885188579559 0.0487749725580215454 0.0399557538330554962
-0.0675133690237998962 0.0479480177164077759 0.0411538071930408478
-0.0421044826507568359 0.0588256530463695526 0.0220965128391981125
-0.0378070846199989319 0.0592472627758979797 0.0209848135709762573
-0.0385742858052253723 0.0588784553110599518 0.0219572801142930984
-0.0397805385291576385 0.0597117207944393158 0.0197601392865180969
-0.0530433356761932373 0.0594480670988559723 0.0204553399235010147
-0.0435932651162147522 0.0590770915150642395 0.0214335173368453979
-0.0387541390955448151 0.0607023090124130249 0.0171481799334287643
-0.0431255437433719635 0.0589657910168170929 0.0217269975692033768
-0.035536009818315506 0.0568411462008953094 0.0273292269557714462
-0.0680163279175758362 0.0610427111387252808 0.0162506159394979477
-0.0304219312965869904 0.0601188540458679199 0.0186866205185651779
-0.0403373166918754578 0.058413773775100708 0.023182552307844162
-0.0348572582006454468 0.0592123046517372131 0.0210769940167665482
-0.0556948333978652954 0.0599724613130092621 0.0190726295113563538
-0.0404614247381687164 0.0593468621373176575 0.0207221955060958862
-0.0445358231663703918 0.0590774603188037872 0.0214325524866580963
-0.0550898686051368713 0.0613207817077636719 0.0155174005776643753
-0.0545100793242454529 0.060802854597568512 0.0168830603361129761
-0.0550302863121032715 0.0612742193043231964 0.0156401786953210831
-0.056399613618850708 0.0600443035364151001 0.018883194774389267
-0.0699089840054512024 0.0607285834848880768 0.0170788951218128204
-0.0340496338903903961 0.0568567141890525818 0.0272881761193275452
-0.0414392650127410889 0.0600537732243537903 0.0188582222908735275
-0.0517709106206893921 0.0608469061553478241 0.0167669039219617844
-0.0355618670582771301 0.0578149259090423584 0.0247615743428468704
-0.0601297914981842041 0.0611607916653156281 0.0159392599016427994
-0.0369469709694385529 0.0585487894713878632 0.0228265374898910522
-0.0335473902523517609 0.0607162602245807648 0.0171113908290863037
-0.0393318533897399902 0.0585389696061611176 0.022852431982755661
