ply
format ascii 1.0
element vertex 735
property float x
property float y
property float z
end_header
0.450074493885040283 1.29060769081115723 0.0895444899797439575
0.0792019367218017578 1.29060769081115723 0.0208458155393600464
0.396697044372558594 1.29060769081115723 0.101147949695587158
0.468721896409988403 1.29060769081115723 0.145255714654922485
0.293420374393463135 1.29060769081115723 0.0411527827382087708
0.472863197326660156 1.29060769081115723 0.167109325528144836
0.314173668622970581 1.29060769081115723 0.0978858694434165955
0.243481963872909546 1.29060769081115723 0.0894337818026542664
0.35845494270324707 1.29060769081115723 0.00107196345925331116
0.194056928157806396 1.29060769081115723 0.0589597821235656738
0.144599288702011108 1.29060769081115723 0.0190307646989822388
0.480552136898040771 1.29060769081115723 0.144355475902557373
0.349793016910552979 1.29060769081115723 0.0990279838442802429
0.396178305149078369 1.29060769081115723 0.0644917935132980347
0.291599810123443604 1.29060769081115723 0.0269171521067619324
0.250854313373565674 1.29060769081115723 0.0357063785195350647
0.491512715816497803 1.29060769081115723 0.179642274975776672
0.282477676868438721 1.29060769081115723 0.0444506332278251648
0.472707808017730713 1.29060769081115723 0.110678546130657196
0.370281338691711426 1.29060769081115723 0.0960669517517089844
0.382343649864196777 1.29060769081115723 0.0167379751801490784
0.438450783491134644 1.29060769081115723 0.0958840996026992798
0.341124057769775391 1.29060769081115723 0.0929956212639808655
0.273245751857757568 1.29060769081115723 0.0779138877987861633
0.433098644018173218 1.29060769081115723 0.0153958108276128769
0.299453496932983398 1.29060769081115723 0.0706101879477500916
0.20749431848526001 1.29060769081115723 0.0664036795496940613
0.412638604640960693 1.29060769081115723 0.0788649469614028931
0.465624988079071045 1.29060769081115723 0.0711177438497543335
0.407822906970977783 1.29060769081115723 0.147674500942230225
0.218175888061523438 1.29060769081115723 0.0466749295592308044
0.300270557403564453 1.29060769081115723 0.0333477109670639038
0.290678203105926514 1.29060769081115723 0.0594291239976882935
0.339017927646636963 1.29060769081115723 0.0760078728199005127
0.391572773456573486 1.29060769081115723 0.123765707015991211
0.404722213745117188 1.29060769081115723 0.0790985226631164551
0.203952431678771973 1.29060769081115723 0.0303471609950065613
0.374913334846496582 1.29060769081115723 0.0421207211911678314
0.470585048198699951 1.29060769081115723 0.0912118777632713318
0.43581855297088623 1.29060769081115723 0.0542650893330574036
0.143092483282089233 1.29060769081115723 0.0270140320062637329
0.388083219528198242 1.29060769081115723 0.0871688574552536011
0.0723806321620941162 1.29060769081115723 0.0190891623497009277
0.319455832242965698 1.29060769081115723 0.11969592422246933
0.319462686777114868 1.29060769081115723 0.112406425178050995
0.478436857461929321 1.29060769081115723 0.15565916895866394
0.467540860176086426 1.29060769081115723 0.113704144954681396
0.437063157558441162 1.29060769081115723 0.0604663044214248657
0.236994892358779907 1.29060769081115723 0.029170505702495575
0.422014921903610229 1.29060769081115723 0.0612969547510147095
0.401835054159164429 1.29060769081115723 0.071599714457988739
0.388089656829833984 1.29060769081115723 0.131436407566070557
0.376164168119430542 1.29060769081115723 0.00569221749901771545
0.430560320615768433 1.29060769081115723 0.00420704483985900879
0.176189720630645752 1.29060769081115723 0.0557897984981536865
0.470798313617706299 1.29060769081115723 0.123567245900630951
0.447158932685852051 1.29060769081115723 0.109518140554428101
0.478505551815032959 1.29060769081115723 0.128409400582313538
0.494294464588165283 1.29060769081115723 0.0163608361035585403
0.439440339803695679 1.29060769081115723 0.0831832513213157654
0.270514637231826782 1.29060769081115723 0.0706547796726226807
0.361183822154998779 1.29060769081115723 0.0672559216618537903
0.297574549913406372 1.29060769081115723 0.0598010420799255371
0.170654714107513428 1.29060769081115723 0.0253603905439376831
0.460004806518554688 1.29060769081115723 0.0266808103770017624
0.158502280712127686 1.29060769081115723 0.0403547585010528564
0.287655651569366455 1.29060769081115723 0.0875923037528991699
0.202177852392196655 1.29060769081115723 0.0374848917126655579
0.219329953193664551 1.29060769081115723 0.0491990521550178528
0.305023431777954102 1.29060769081115723 0.0350787192583084106
0.269148826599121094 1.29060769081115723 0.101960994303226471
0.111774355173110962 1.29060769081115723 0.011301770806312561
0.161757707595825195 1.29060769081115723 0.0478020161390304565
0.450674831867218018 1.29060769081115723 0.154556795954704285
0.135462149977684021 1.29060769081115723 0.0871584191918373108
0.257901936769485474 1.29060769081115723 0.138081997632980347
0.067160286009311676 1.29060769081115723 0.0389041602611541748
0.0921638235449790955 1.29060769081115723 0.177900150418281555
0.102348938584327698 1.29060769081115723 0.13341987133026123
0.215822100639343262 1.29060769081115723 0.192671522498130798
0.0887038186192512512 1.29060769081115723 0.0944156870245933533
0.0381250493228435516 1.29060769081115723 0.0225501805543899536
0.151533395051956177 1.29060769081115723 0.172569319605827332
0.133275553584098816 1.29060769081115723 0.155718713998794556
0.30357050895690918 1.29060769081115723 0.175161480903625488
0.174803316593170166 1.29060769081115723 0.17520672082901001
0.00198442628607153893 1.29060769081115723 0.0730740725994110107
0.0588282011449337006 1.29060769081115723 0.0849378332495689392
0.115399278700351715 1.29060769081115723 0.0606441348791122437
0.160208597779273987 1.29060769081115723 0.13505101203918457
0.110393278300762177 1.29060769081115723 0.182709559798240662
0.0912837386131286621 1.29060769081115723 0.0506168752908706665
0.304341018199920654 1.29060769081115723 0.151563599705696106
0.407966762781143188 1.29060769081115723 0.196280598640441895
0.0681475400924682617 1.29060769081115723 0.0580028295516967773
0.14322449266910553 1.29060769081115723 0.06961783766746521
0.318066000938415527 1.29060769081115723 0.190683752298355103
0.305601775646209717 1.29060769081115723 0.192960083484649658
0.0235387682914733887 1.29060769081115723 0.0975892692804336548
0.255207836627960205 1.29060769081115723 0.136864915490150452
0.239427626132965088 1.29060769081115723 0.151166856288909912
0.176126405596733093 1.29060769081115723 0.197728946805000305
0.00783039815723896027 1.29060769081115723 0.195402070879936218
0.236760467290878296 1.29060769081115723 0.197540611028671265
0.0864145010709762573 1.29060769081115723 0.18733900785446167
0.0992688164114952087 1.29060769081115723 0.102454833686351776
0.154259592294692993 1.29060769081115723 0.194389835000038147
0.15160854160785675 1.29060769081115723 0.0834018364548683167
0.019897066056728363 1.29060769081115723 0.193386748433113098
0.179607480764389038 1.29060769081115723 0.192377328872680664
0.293024539947509766 1.29060769081115723 0.137700334191322327
0.225596234202384949 1.29060769081115723 0.152097314596176147
0.154575899243354797 1.29060769081115723 0.128105401992797852
0.267388761043548584 1.29060769081115723 0.160659909248352051
0.351871967315673828 1.29060769081115723 0.158306673169136047
0.348446965217590332 1.29060769081115723 0.177758604288101196
0.260672301054000854 1.29060769081115723 0.162443116307258606
0.0453057698905467987 1.29060769081115723 0.19198097288608551
0.286473900079727173 1.29060769081115723 0.117089487612247467
0.269248396158218384 1.29060769081115723 0.184957593679428101
0.310799926519393921 1.29060769081115723 0.137642800807952881
0.196450531482696533 1.29060769081115723 0.186002403497695923
0.287335813045501709 1.29060769081115723 0.155629903078079224
0.15845942497253418 1.29060769081115723 0.067235991358757019
0.0106768440455198288 1.29060769081115723 0.196596980094909668
0.359766721725463867 1.29060769081115723 0.193410962820053101
0.352044045925140381 1.29060769081115723 0.156295657157897949
0.326429903507232666 1.29060769081115723 0.188001573085784912
0.00357452942989766598 1.29060769081115723 0.0258279740810394287
0.1744423508644104 1.29060769081115723 0.179277405142784119
0.445769280195236206 1.29060769081115723 0.190101444721221924
0.0203299820423126221 1.29060769081115723 0.177168071269989014
0.225343838334083557 1.29060769081115723 0.145789787173271179
0.109121069312095642 1.29060769081115723 0.143391668796539307
0.058122977614402771 1.29060769081115723 0.096496880054473877
0.00587998935952782631 1.29060769081115723 0.196149766445159912
0.128430694341659546 1.29060769081115723 0.168012320995330811
0.109167471528053284 1.29060769081115723 0.137494787573814392
0.211448192596435547 1.29060769081115723 0.178960606455802917
0.0195549745112657547 1.29060769081115723 0.0996471792459487915
0.16803857684135437 1.29060769081115723 0.130538254976272583
0.116520576179027557 1.29060769081115723 0.112510897219181061
0.0802588239312171936 1.29060769081115723 0.035426795482635498
0.465430736541748047 1.29060769081115723 0.189343467354774475
0.148845195770263672 1.29060769081115723 0.129305869340896606
0.122496962547302246 1.29060769081115723 0.142653346061706543
0.10831083357334137 1.29060769081115723 0.14807245135307312
0.108192503452301025 1.29060769081115723 0.112266629934310913
0.121671006083488464 1.29060769081115723 0.135603159666061401
0.223977282643318176 1.29060769081115723 0.157157689332962036
0.309137850999832153 1.29060769081115723 0.134480863809585571
0.0588157549500465393 1.29060769081115723 0.199427306652069092
0.111875608563423157 1.29060769081115723 0.157326638698577881
0.375951439142227173 1.29060769081115723 0.153998538851737976
0.0277165863662958145 1.29060769081115723 0.184323027729988098
0.211498335003852844 1.29060769081115723 0.0876641795039176941
0.414121806621551514 1.29060769081115723 0.191750794649124146
0.186355069279670715 1.29060769081115723 0.105023354291915894
0.00902038812637329102 1.29060769081115723 0.162684142589569092
0.216485306620597839 1.29060769081115723 0.102714814245700836
0.394791126251220703 1.29060769081115723 0.16124977171421051
0.0113834217190742493 1.29060769081115723 0.0417540967464447021
0.0373856835067272186 1.29060769081115723 0.142035335302352905
0.0129376668483018875 1.29060769081115723 0.0829706788063049316
0.0249627772718667984 1.29060769081115723 0.0934351012110710144
0.341939032077789307 1.29060769081115723 0.189690783619880676
0.256991475820541382 1.29060769081115723 0.16908678412437439
0.161496818065643311 1.29060769081115723 0.133002936840057373
0.27826961874961853 1.29060769081115723 0.175262317061424255
0.073225654661655426 1.29060769081115723 0.0393350124359130859
0.0103856930509209633 1.29060769081115723 0.0978472977876663208
0.252385735511779785 1.29060769081115723 0.147697180509567261
0.168653488159179688 1.29060769081115723 0.174474745988845825
0.335000187158584595 1.29060769081115723 0.139578476548194885
0.124647147953510284 1.29060769081115723 0.0787753388285636902
0.0350780971348285675 1.29060769081115723 0.0925140157341957092
0.418550103902816772 1.29060769081115723 0.177786782383918762
0.120612502098083496 1.29060769081115723 0.155589491128921509
0.16470065712928772 1.29060769081115723 0.0690397173166275024
0.123310841619968414 1.29060769081115723 0.192453384399414062
0.164530634880065918 1.29060769081115723 0.141341686248779297
0.379287928342819214 1.29060769081115723 0.180174261331558228
0.10629601776599884 1.29060769081115723 0.126698762178421021
0.227613449096679688 1.29060769081115723 0.109832733869552612
0.0638576894998550415 1.29060769081115723 0.177795484662055969
0.254268735647201538 1.29060769081115723 0.140177056193351746
0.0280643422156572342 1.29060769081115723 0.096705995500087738
0.0407119579613208771 1.29060769081115723 0.0623816847801208496
0.268217384815216064 1.29060769081115723 0.173992246389389038
0.117929667234420776 1.29060769081115723 0.0800109431147575378
0.11743367463350296 1.29060769081115723 0.142296522855758667
0.164854511618614197 1.29060769081115723 0.13145776093006134
0.0295972265303134918 1.29060769081115723 0.0338138788938522339
0.263476252555847168 1.29060769081115723 0.199798181653022766
0.0173729285597801208 1.29060769081115723 0.0564300119876861572
0.0707649216055870056 1.29060769081115723 0.057190433144569397
0.0395101159811019897 1.29060769081115723 0.172486871480941772
0.220433056354522705 1.29060769081115723 0.18704107403755188
0.14604620635509491 1.29060769081115723 0.177272453904151917
0.0136901112273335457 1.29060769081115723 0.035764545202255249
0.168411493301391602 1.29060769081115723 0.0692686140537261963
0.234734013676643372 1.29060769081115723 0.125608965754508972
0.0718232244253158569 1.29060769081115723 0.165105819702148438
0.111393272876739502 1.29060769081115723 0.173692643642425537
0.213037282228469849 1.29060769081115723 0.166675150394439697
0.0582881271839141846 1.29060769081115723 0.0260420143604278564
0.158763185143470764 1.29060769081115723 0.136594697833061218
0.00574004976078867912 1.29060769081115723 0.06678047776222229
0.261219203472137451 1.29060769081115723 0.113230422139167786
0.475283116102218628 1.29060769081115723 0.194285959005355835
0.00960490293800830841 1.29060769081115723 0.0796106830239295959
0.391012370586395264 1.29060769081115723 0.197188198566436768
0.0673248767852783203 1.29060769081115723 0.103094764053821564
0.0178191140294075012 1.29060769081115723 0.0629223287105560303
0.0499032996594905853 1.29060769081115723 0.072682604193687439
0.155398428440093994 1.29060769081115723 0.191137731075286865
0.297972530126571655 1.29060769081115723 0.144332617521286011
0.0678437203168869019 1.29060769081115723 0.141514837741851807
0.0321362912654876709 1.29060769081115723 0.0175954848527908325
0.0224197488278150558 1.29060769081115723 0.0138912796974182129
0.221514403820037842 1.29060769081115723 0.088781014084815979
0.259230881929397583 1.29060769081115723 0.116293944418430328
0.347171038389205933 1.29060769081115723 0.181218713521957397
0.0017896133940666914 1.29060769081115723 0.0830392614006996155
0.0728429630398750305 1.29060769081115723 0.198659747838973999
0.185643211007118225 1.29060769081115723 0.14878527820110321
0.262747645378112793 1.29060769081115723 0.179181471467018127
0.00298189884051680565 1.29060769081115723 0.0521263778209686279
0.01405301783233881 1.29060769081115723 0.143423318862915039
0.218062609434127808 1.29060769081115723 0.125848323106765747
0.470971971750259399 1.29060769081115723 0.1891927570104599
0.23379458487033844 1.29060769081115723 0.138411179184913635
0.025121079757809639 1.29060769081115723 0.191026866436004639
0.0917577445507049561 1.29060769081115723 0.184055894613265991
0.0498843193054199219 1.29060769081115723 0.19029514491558075
0.235318586230278015 1.29060769081115723 0.170178249478340149
0.246458664536476135 1.29060769081115723 0.151481062173843384
0.338695138692855835 1.29060769081115723 0.19881536066532135
0.275053232908248901 1.29060769081115723 0.156599760055541992
0.061166711151599884 1.29060769081115723 0.0489755123853683472
0.249290823936462402 1.29060769081115723 0.124299444258213043
0.32556578516960144 1.29060769081115723 0.164721757173538208
0.241130083799362183 1.29060769081115723 0.175517350435256958
0.113195203244686127 1.29060769081115723 0.114385560154914856
0.122177965939044952 1.29060769081115723 0.104142121970653534
0.0506937876343727112 1.29060769081115723 0.179747387766838074
0.0833183825016021729 1.29060769081115723 0.0508830845355987549
0.0975144505500793457 1.29060769081115723 0.0653012692928314209
0.0481815002858638763 1.29060769081115723 0.022832527756690979
0.227889195084571838 1.29060769081115723 0.151546210050582886
0.0282889846712350845 1.29060769081115723 0.168603390455245972
0.255385607481002808 1.29060769081115723 0.167261645197868347
0.0335875898599624634 1.29060769081115723 0.160543724894523621
0.201849326491355896 1.29060769081115723 0.105687990784645081
0.299012035131454468 1.29060769081115723 0.169992908835411072
0.0235148835927248001 1.29060769081115723 0.0743826031684875488
0.160869136452674866 1.29060769081115723 0.163819283246994019
0.182626008987426758 1.29060769081115723 0.155869752168655396
0.133149325847625732 1.29060769081115723 0.167190238833427429
0.141470640897750854 1.29060769081115723 0.180229350924491882
0.41812598705291748 1.29060769081115723 0.181918442249298096
0.164868995547294617 1.29060769081115723 0.181267827749252319
0.210035279393196106 1.29060769081115723 0.183386579155921936
0.320075243711471558 1.29060769081115723 0.175368800759315491
0.144633516669273376 1.29060769081115723 0.152135521173477173
0.119021289050579071 1.29060769081115723 0.186428040266036987
0.0277935098856687546 1.29060769081115723 0.065590783953666687
0.33477175235748291 1.29060769081115723 0.147128120064735413
0.0105205103754997253 1.29060769081115723 0.0216457992792129517
0.0124225253239274025 1.29060769081115723 0.190149411559104919
0.415828317403793335 1.29060769081115723 0.171424850821495056
0.23383784294128418 1.29060769081115723 0.112533420324325562
0.085478655993938446 1.29060769081115723 0.181057527661323547
0.219992384314537048 1.29060769081115723 0.0886389017105102539
0.0502884648740291595 1.29060769081115723 0.170164197683334351
0.0419734418392181396 1.29060769081115723 0.0902220234274864197
0.372301459312438965 1.29060769081115723 0.181626826524734497
0.476165324449539185 1.29060769081115723 0.194171696901321411
0.0658026412129402161 1.29060769081115723 0.149683684110641479
0.014583817683160305 1.29060769081115723 0.159526020288467407
0.30366244912147522 1.29060769081115723 0.170038685202598572
0.0061808326281607151 1.29060769081115723 0.0630860626697540283
0.123910114169120789 1.29060769081115723 0.123875647783279419
0.0739802494645118713 1.29060769081115723 0.135944515466690063
0.0598382987082004547 1.29060769081115723 0.0492376834154129028
0.415662020444869995 1.29060769081115723 0.184206336736679077
0.0910668596625328064 1.29060769081115723 0.110150724649429321
0.167545780539512634 1.29060769081115723 0.0738318860530853271
0.0603010989725589752 1.29060769081115723 0.164401024580001831
0.457347720861434937 1.29060769081115723 0.192569047212600708
0.342953741550445557 1.29060769081115723 0.191367700695991516
0.0302955880761146545 1.29060769081115723 0.0512631237506866455
0.0628692135214805603 1.29060769081115723 0.125207036733627319
0.109387069940567017 1.29060769081115723 0.197415396571159363
0.0496559999883174896 1.29060769081115723 0.164396986365318298
0.0479911640286445618 1.29060769081115723 0.199994117021560669
0.141582965850830078 1.29060769081115723 0.19131004810333252
0.13825535774230957 1.29060769081115723 0.150102853775024414
0.22304399311542511 1.29060769081115723 0.152135401964187622
0.12220580130815506 1.29060769081115723 0.0647542178630828857
0.00495150638744235039 1.29060769081115723 0.117207370698451996
0.106191441416740417 1.29060769081115723 0.118577584624290466
0.325673848390579224 1.29060769081115723 0.172638997435569763
0.132448181509971619 1.29060769081115723 0.190549105405807495
0.00115649471990764141 1.29060769081115723 0.0717506706714630127
0.0106757935136556625 1.29060769081115723 0.0204096585512161255
0.136433601379394531 1.29060769081115723 0.110230803489685059
0.238929420709609985 1.29060769081115723 0.159485667943954468
0.248564675450325012 1.29060769081115723 0.1454477459192276
0.0618742778897285461 1.29060769081115723 0.165658846497535706
0.0822707489132881165 1.29060769081115723 0.0706628710031509399
0.00759476888924837112 1.29060769081115723 0.12248317152261734
0.0604091919958591461 1.29060769081115723 0.172309473156929016
0.208153396844863892 1.29060769081115723 0.174539238214492798
0.151560619473457336 1.29060769081115723 0.0715999901294708252
0.0545811690390110016 1.29060769081115723 0.118935219943523407
0.0610305219888687134 1.29060769081115723 0.14716319739818573
0.0973389372229576111 1.29060769081115723 0.130379319190979004
0.101104810833930969 1.29060769081115723 0.0472932755947113037
0.0090670362114906311 1.29060769081115723 0.0385211557149887085
0.197155535221099854 1.29060769081115723 0.119600437581539154
0.0651189982891082764 1.29060769081115723 0.170138165354728699
0.0252653229981660843 1.29060769081115723 0.160465434193611145
-4.99600361081320443e-16 1.15711867809295654 0.135395556688308716
-4.99600361081320443e-16 0.965886592864990234 0.0200842022895812988
-4.99600361081320443e-16 1.16194641590118408 0.129763960838317871
-4.99600361081320443e-16 1.25211501121520996 0.175891309976577759
-4.99600361081320443e-16 0.140184164047241211 0.00126735866069793701
-4.99600361081320443e-16 0.541398465633392334 0.0304964706301689148
-4.99600361081320443e-16 1.01602792739868164 0.139318406581878662
-4.99600361081320443e-16 1.26824188232421875 0.0928103327751159668
-4.99600361081320443e-16 0.276018738746643066 0.0221556574106216431
-4.99600361081320443e-16 1.13081181049346924 0.171639367938041687
-4.99600361081320443e-16 1.21599912643432617 0.180402278900146484
-4.99600361081320443e-16 0.786772549152374268 0.04145088791847229
-4.99600361081320443e-16 1.13240015506744385 0.0227867718786001205
-4.99600361081320443e-16 0.83130878210067749 0.0823583751916885376
-4.99600361081320443e-16 0.705929219722747803 0.0567016303539276123
-4.99600361081320443e-16 0.642130851745605469 0.0149223282933235168
-4.99600361081320443e-16 0.522804141044616699 0.0302231088280677795
-4.99600361081320443e-16 0.271767258644104004 3.02046537399291992e-05
-4.99600361081320443e-16 0.902274191379547119 0.0998168885707855225
-4.99600361081320443e-16 1.21748220920562744 0.0705067887902259827
-4.99600361081320443e-16 1.027008056640625 0.115829639136791229
-4.99600361081320443e-16 1.22983849048614502 0.171626895666122437
-4.99600361081320443e-16 1.16544628143310547 0.10162624716758728
-4.99600361081320443e-16 1.19874465465545654 0.0452102012932300568
-4.99600361081320443e-16 1.11599314212799072 0.0588613972067832947
-4.99600361081320443e-16 0.576397061347961426 0.06565055251121521
-4.99600361081320443e-16 0.360980033874511719 0.0353986918926239014
-4.99600361081320443e-16 1.27561163902282715 0.0646390318870544434
-4.99600361081320443e-16 0.945023596286773682 0.0112550258636474609
-4.99600361081320443e-16 0.94026482105255127 0.0158479772508144379
-4.99600361081320443e-16 1.13709092140197754 0.133221253752708435
-4.99600361081320443e-16 1.08719742298126221 0.0372550748288631439
-4.99600361081320443e-16 0.900464057922363281 0.0488541722297668457
-4.99600361081320443e-16 1.19147717952728271 0.0393590666353702545
-4.99600361081320443e-16 1.15352964401245117 0.165523439645767212
-4.99600361081320443e-16 0.180261850357055664 0.0210823267698287964
-4.99600361081320443e-16 1.11892473697662354 0.0652907490730285645
-4.99600361081320443e-16 0.963630437850952148 0.0245015658438205719
-4.99600361081320443e-16 0.635618686676025391 0.0182426795363426208
-4.99600361081320443e-16 0.723307013511657715 0.0211028233170509338
-4.99600361081320443e-16 0.898443818092346191 0.0833816975355148315
-4.99600361081320443e-16 0.373976528644561768 0.00471015274524688721
-4.99600361081320443e-16 0.404125630855560303 0.0556235909461975098
-4.99600361081320443e-16 0.812860369682312012 0.114011049270629883
-4.99600361081320443e-16 0.780219674110412598 0.0559674873948097229
-4.99600361081320443e-16 0.94852912425994873 0.111868761479854584
-4.99600361081320443e-16 1.26925146579742432 0.00402715522795915604
-4.99600361081320443e-16 1.12796604633331299 0.13915880024433136
-4.99600361081320443e-16 1.22304666042327881 0.13469928503036499
-4.99600361081320443e-16 1.18591892719268799 0.173010468482971191
-4.99600361081320443e-16 1.26242172718048096 0.169077128171920776
-4.99600361081320443e-16 0.557172894477844238 0.060608692467212677
-4.99600361081320443e-16 0.798719167709350586 0.0106278285384178162
-4.99600361081320443e-16 1.10207247734069824 0.162096321582794189
-4.99600361081320443e-16 1.26105988025665283 0.0684272274374961853
-4.99600361081320443e-16 0.568010568618774414 0.0565380901098251343
-4.99600361081320443e-16 0.661528229713439941 0.0905311480164527893
-4.99600361081320443e-16 0.999150872230529785 0.0061945691704750061
-4.99600361081320443e-16 0.33243870735168457 0.0487697720527648926
-4.99600361081320443e-16 1.27330684661865234 0.0839615315198898315
-4.99600361081320443e-16 0.778980135917663574 0.0537707880139350891
-4.99600361081320443e-16 1.02828645706176758 0.0960589349269866943
-4.99600361081320443e-16 1.05085813999176025 0.0642455220222473145
-4.99600361081320443e-16 0.505349278450012207 0.0250703766942024231
-4.99600361081320443e-16 1.02411675453186035 0.144752457737922668
-4.99600361081320443e-16 0.803128421306610107 0.117052845656871796
-4.99600361081320443e-16 0.711838662624359131 0.0935590043663978577
-4.99600361081320443e-16 0.84686201810836792 0.0782352536916732788
-4.99600361081320443e-16 1.01130878925323486 0.0258484818041324615
-4.99600361081320443e-16 0.681248247623443604 0.089635014533996582
-4.99600361081320443e-16 0.522311925888061523 0.0308570489287376404
-4.99600361081320443e-16 1.20029246807098389 0.119810432195663452
-4.99600361081320443e-16 0.937286138534545898 0.127960413694381714
-4.99600361081320443e-16 0.497435569763183594 0.00282192975282669067
-4.99600361081320443e-16 1.10919380187988281 0.0837919265031814575
-4.99600361081320443e-16 1.04332005977630615 0.0905322283506393433
-4.99600361081320443e-16 0.929983556270599365 0.143044412136077881
-4.99600361081320443e-16 1.26499688625335693 0.0127386841922998428
-4.99600361081320443e-16 1.18457186222076416 0.0777563154697418213
-4.99600361081320443e-16 0.184727907180786133 2.98023223876953125e-07
-4.99600361081320443e-16 1.13211238384246826 0.112018793821334839
-4.99600361081320443e-16 1.22512555122375488 0.0132862748578190804
-4.99600361081320443e-16 0.505417227745056152 0.0360790491104125977
-4.99600361081320443e-16 0.523977518081665039 0.0351168662309646606
-4.99600361081320443e-16 0.60127723217010498 0.0843116194009780884
-4.99600361081320443e-16 0.452794849872589111 0.0534656643867492676
-4.99600361081320443e-16 0.109353423118591309 0.00678680837154388428
-4.99600361081320443e-16 1.15642631053924561 0.0922417640686035156
-4.99600361081320443e-16 1.29048049449920654 0.182949721813201904
-4.99600361081320443e-16 1.14963066577911377 0.0799598842859268188
-4.99600361081320443e-16 1.21026086807250977 0.1011209636926651
-4.99600361081320443e-16 1.25944697856903076 0.0331032462418079376
-4.99600361081320443e-16 1.27449440956115723 0.141562655568122864
-4.99600361081320443e-16 1.09474718570709229 0.058631308376789093
-4.99600361081320443e-16 0.699300885200500488 0.0796596705913543701
-4.99600361081320443e-16 1.25536465644836426 0.0898238420486450195
-4.99600361081320443e-16 1.28592443466186523 0.0844422876834869385
-4.99600361081320443e-16 0.753985404968261719 0.105572551488876343
-4.99600361081320443e-16 0.361495554447174072 0.0323430150747299194
-4.99600361081320443e-16 1.26087820529937744 0.105281263589859009
-4.99600361081320443e-16 0.564849495887756348 0.00408405065536499023
-4.99600361081320443e-16 0.431890428066253662 0.0364222824573516846
-4.99600361081320443e-16 0.663465619087219238 0.0321769788861274719
-4.99600361081320443e-16 1.25829589366912842 0.126091510057449341
-4.99600361081320443e-16 1.20016384124755859 0.00807089172303676605
-4.99600361081320443e-16 1.22546660900115967 0.01061979029327631
-4.99600361081320443e-16 1.03928256034851074 0.107043638825416565
-4.99600361081320443e-16 0.615998446941375732 0.0673200115561485291
-4.99600361081320443e-16 1.04823899269104004 0.0846675336360931396
-4.99600361081320443e-16 0.824439346790313721 0.032151639461517334
-4.99600361081320443e-16 1.16681528091430664 0.0815756246447563171
-4.99600361081320443e-16 1.13917815685272217 0.0629586875438690186
-4.99600361081320443e-16 0.844094991683959961 0.020859837532043457
-4.99600361081320443e-16 0.785523474216461182 0.0781224966049194336
-4.99600361081320443e-16 0.121460676193237305 0.00500839948654174805
-4.99600361081320443e-16 0.692569732666015625 0.0249117165803909302
-4.99600361081320443e-16 0.382536530494689941 0.0282285213470458984
-4.99600361081320443e-16 1.01829588413238525 0.0282222367823123932
-4.99600361081320443e-16 0.511613607406616211 0.0477714240550994873
-4.99600361081320443e-16 0.850079476833343506 0.0758378356695175171
-4.99600361081320443e-16 1.24572503566741943 0.185999602079391479
-4.99600361081320443e-16 0.612424492835998535 0.0700356438755989075
-4.99600361081320443e-16 0.348243415355682373 0.0501278489828109741
-4.99600361081320443e-16 0.239974260330200195 0.0290798693895339966
-4.99600361081320443e-16 0.292822837829589844 0.0320760905742645264
-4.99600361081320443e-16 1.20862078666687012 0.174613669514656067
-4.99600361081320443e-16 0.945217430591583252 0.0337638407945632935
-4.99600361081320443e-16 0.977033615112304688 0.150244981050491333
-4.99600361081320443e-16 0.837402105331420898 0.096920602023601532
-4.99600361081320443e-16 0.962995707988739014 0.0526217333972454071
-4.99600361081320443e-16 0.719859182834625244 0.103080421686172485
-4.99600361081320443e-16 0.944389700889587402 0.0917291939258575439
-4.99600361081320443e-16 1.04956424236297607 0.145371705293655396
-4.99600361081320443e-16 1.10849511623382568 0.123851127922534943
-4.99600361081320443e-16 0.788134217262268066 0.069090232253074646
-4.99600361081320443e-16 1.03611874580383301 0.110833033919334412
-4.99600361081320443e-16 0.895563423633575439 0.0264708437025547028
-4.99600361081320443e-16 1.20454740524291992 0.0179966427385807037
-4.99600361081320443e-16 0.917586565017700195 0.132697805762290955
-4.99600361081320443e-16 0.706112146377563477 0.106115162372589111
-4.99600361081320443e-16 0.995489716529846191 0.00107087194919586182
-4.99600361081320443e-16 0.797199487686157227 0.0551544055342674255
-4.99600361081320443e-16 1.22666037082672119 0.154666140675544739
-4.99600361081320443e-16 1.26240372657775879 0.00079904729500412941
-4.99600361081320443e-16 1.13417160511016846 0.169451743364334106
-4.99600361081320443e-16 1.14225852489471436 0.0680124163627624512
-4.99600361081320443e-16 1.07054531574249268 0.0838471502065658569
-4.99600361081320443e-16 0.939334750175476074 0.010303303599357605
-4.99600361081320443e-16 1.03278207778930664 0.0643755495548248291
-4.99600361081320443e-16 0.920226693153381348 0.0102039538323879242
-4.99600361081320443e-16 1.03902816772460938 0.00309245660901069641
-4.99600361081320443e-16 0.940441489219665527 0.0502016283571720123
-4.99600361081320443e-16 0.898743033409118652 0.00459773093461990356
-4.99600361081320443e-16 1.13313007354736328 0.123639300465583801
-4.99600361081320443e-16 0.8235321044921875 0.0320991724729537964
-4.99600361081320443e-16 0.912495672702789307 0.0893376320600509644
-4.99600361081320443e-16 0.906324028968811035 0.0632312595844268799
-4.99600361081320443e-16 0.919804930686950684 0.0996430814266204834
-4.99600361081320443e-16 1.26338446140289307 0.170877218246459961
-4.99600361081320443e-16 0.797633051872253418 0.0256642997264862061
-4.99600361081320443e-16 0.850197315216064453 0.0416223257780075073
-4.99600361081320443e-16 0.463741660118103027 0.0703442543745040894
-4.99600361081320443e-16 1.00535869598388672 0.0268263407051563263
-4.99600361081320443e-16 0.347483336925506592 0.0382602214813232422
-4.99600361081320443e-16 0.949457287788391113 0.0415347963571548462
-4.99600361081320443e-16 0.734674155712127686 0.0526874810457229614
-4.99600361081320443e-16 1.2901986837387085 0.187522709369659424
-4.99600361081320443e-16 1.19264757633209229 0.0203833878040313721
-4.99600361081320443e-16 1.10604417324066162 0.0958299636840820312
-4.99600361081320443e-16 1.07779455184936523 0.120838969945907593
-4.99600361081320443e-16 0.947096884250640869 0.135691195726394653
-4.99600361081320443e-16 1.24324452877044678 0.0253625623881816864
-4.99600361081320443e-16 1.1251366138458252 0.16620151698589325
-4.99600361081320443e-16 0.713610827922821045 0.0968035310506820679
-4.99600361081320443e-16 0.467797398567199707 0.0311786681413650513
-4.99600361081320443e-16 0.292145371437072754 0.0405094325542449951
-4.99600361081320443e-16 1.16521501541137695 0.131461724638938904
-4.99600361081320443e-16 1.2687528133392334 0.0268352050334215164
-4.99600361081320443e-16 1.19766592979431152 0.17236560583114624
-4.99600361081320443e-16 1.2066580057144165 0.134142562747001648
-4.99600361081320443e-16 0.832378745079040527 0.122267372906208038
-4.99600361081320443e-16 1.0554434061050415 0.0290351547300815582
-4.99600361081320443e-16 0.841625034809112549 0.07710237056016922
-4.99600361081320443e-16 0.817970573902130127 0.0475242286920547485
-4.99600361081320443e-16 0.936441421508789062 0.117219805717468262
-4.99600361081320443e-16 0.801009654998779297 0.0169060230255126953
-4.99600361081320443e-16 1.14369380474090576 0.144892975687980652
-4.99600361081320443e-16 1.12859344482421875 0.0696056634187698364
-4.99600361081320443e-16 0.33339923620223999 0.032273903489112854
-4.99600361081320443e-16 0.924241423606872559 0.138164952397346497
-4.99600361081320443e-16 0.56369626522064209 0.0254586115479469299
-4.99600361081320443e-16 1.1599355936050415 0.0198403839021921158
-4.99600361081320443e-16 0.577136993408203125 0.0786639153957366943
-4.99600361081320443e-16 1.09781873226165771 0.100740708410739899
-4.99600361081320443e-16 1.10627925395965576 0.124626033008098602
-4.99600361081320443e-16 0.991443753242492676 0.12441408634185791
-4.99600361081320443e-16 0.945036113262176514 0.0676443055272102356
-4.99600361081320443e-16 0.731846630573272705 0.028613559901714325
-4.99600361081320443e-16 1.09584939479827881 0.0948286727070808411
-4.99600361081320443e-16 0.831109762191772461 0.0563665255904197693
-4.99600361081320443e-16 0.973842084407806396 0.142405420541763306
-4.99600361081320443e-16 1.0181117057800293 0.0114552229642868042
-4.99600361081320443e-16 0.832762598991394043 0.0776277929544448853
-4.99600361081320443e-16 1.10720646381378174 0.140291467308998108
-4.99600361081320443e-16 0.212312102317810059 0.00354373455047607422
-4.99600361081320443e-16 0.669194579124450684 0.0222362056374549866
-4.99600361081320443e-16 0.422520935535430908 0.0225570648908615112
-4.99600361081320443e-16 0.137047767639160156 0.0174050182104110718
-4.99600361081320443e-16 0.61753380298614502 0.0951204672455787659
-4.99600361081320443e-16 1.03630936145782471 0.041907433420419693
-4.99600361081320443e-16 0.400727391242980957 0.0289037078619003296
-4.99600361081320443e-16 0.921677827835083008 0.0249561890959739685
-4.99600361081320443e-16 0.51261591911315918 0.0621781796216964722
-4.99600361081320443e-16 0.764383494853973389 0.00632219016551971436
-4.99600361081320443e-16 1.08826172351837158 0.147416532039642334
-4.99600361081320443e-16 1.10564994812011719 0.0195983890444040298
-4.99600361081320443e-16 1.11967909336090088 0.054448254406452179
-4.99600361081320443e-16 0.72830510139465332 0.0712936073541641235
-4.99600361081320443e-16 1.11247003078460693 0.0426055565476417542
-4.99600361081320443e-16 0.193116068840026855 0.000214532017707824707
-4.99600361081320443e-16 1.23709321022033691 0.0750283226370811462
-4.99600361081320443e-16 1.26102161407470703 0.174196437001228333
-4.99600361081320443e-16 0.908819913864135742 0.078574255108833313
-4.99600361081320443e-16 1.0624011754989624 0.11286810040473938
-4.99600361081320443e-16 1.06062567234039307 0.124467805027961731
-4.99600361081320443e-16 0.920280218124389648 0.0659253746271133423
-4.99600361081320443e-16 0.878222465515136719 0.100195340812206268
-4.99600361081320443e-16 0.509986817836761475 0.0673153772950172424
-4.99600361081320443e-16 1.24622452259063721 0.109004311263561249
-4.99600361081320443e-16 1.0159982442855835 0.113652527332305908
-4.99600361081320443e-16 0.0462145805358886719 0.00663781166076660156
-4.99600361081320443e-16 0.730347931385040283 0.0592208504676818848
-4.99600361081320443e-16 1.05349361896514893 0.0184392072260379791
-4.99600361081320443e-16 1.13078844547271729 0.129418417811393738
-4.99600361081320443e-16 1.18253850936889648 0.172797560691833496
-4.99600361081320443e-16 1.21024572849273682 0.185268387198448181
-4.99600361081320443e-16 0.663446903228759766 0.0107890516519546509
-4.99600361081320443e-16 1.13248264789581299 0.0740097910165786743
-4.99600361081320443e-16 1.02441966533660889 0.0987976938486099243
-4.99600361081320443e-16 0.924306869506835938 0.123908773064613342
-4.99600361081320443e-16 0.963109850883483887 0.0305328965187072754
-4.99600361081320443e-16 0.928563475608825684 0.12330067902803421
-4.99600361081320443e-16 0.479682266712188721 0.0498370081186294556
-4.99600361081320443e-16 0.59860539436340332 0.0382131561636924744
-4.99600361081320443e-16 1.24056756496429443 0.0972758010029792786
-4.99600361081320443e-16 0.950150251388549805 0.104359224438667297
-4.99600361081320443e-16 1.19312763214111328 0.0528587698936462402
-4.99600361081320443e-16 0.336479783058166504 0.0437886416912078857
-4.99600361081320443e-16 0.591913521289825439 0.00626049190759658813
-4.99600361081320443e-16 1.03904664516448975 0.0637854337692260742
-4.99600361081320443e-16 0.815940260887145996 0.115839295089244843
-4.99600361081320443e-16 0.83399808406829834 0.060184970498085022
-4.99600361081320443e-16 0.9240913987159729 0.12999098002910614
-4.99600361081320443e-16 0.996769309043884277 0.138719692826271057
-4.99600361081320443e-16 0.932999193668365479 0.0522624887526035309
-4.99600361081320443e-16 0.442460179328918457 0.0100837498903274536
-4.99600361081320443e-16 0.893870055675506592 0.132387369871139526
-4.99600361081320443e-16 1.13376796245574951 0.129459753632545471
-4.99600361081320443e-16 1.22004258632659912 0.0257017295807600021
-4.99600361081320443e-16 1.2552635669708252 0.0405966341495513916
-4.99600361081320443e-16 0.848324954509735107 0.0835604369640350342
-4.99600361081320443e-16 0.269700407981872559 0.00782953202724456787
-4.99600361081320443e-16 0.419104695320129395 0.013889119029045105
-4.99600361081320443e-16 0.306240200996398926 0.00212228298187255859
-4.99600361081320443e-16 0.561812341213226318 0.0842192694544792175
-4.99600361081320443e-16 0.954579353332519531 0.125451713800430298
-4.99600361081320443e-16 1.05629932880401611 0.141619428992271423
-4.99600361081320443e-16 1.25651919841766357 0.0911602899432182312
-4.99600361081320443e-16 0.971911311149597168 0.0405908897519111633
-4.99600361081320443e-16 1.21398305892944336 0.00799169950187206268
-4.99600361081320443e-16 1.03139138221740723 0.143585860729217529
-4.99600361081320443e-16 0.905674338340759277 0.00979843735694885254
-4.99600361081320443e-16 1.10275781154632568 0.0338802710175514221
-4.99600361081320443e-16 1.1932380199432373 0.164251476526260376
-4.99600361081320443e-16 0.788913071155548096 0.120275579392910004
-4.99600361081320443e-16 1.13673245906829834 0.136427819728851318
-4.99600361081320443e-16 0.403016030788421631 0.0435446649789810181
-4.99600361081320443e-16 1.02605056762695312 0.0497269816696643829
-4.99600361081320443e-16 1.06549656391143799 0.0217955745756626129
-4.99600361081320443e-16 0.363608837127685547 0.0325732827186584473
-4.99600361081320443e-16 1.00848281383514404 0.00449310243129730225
-4.99600361081320443e-16 0.480521440505981445 0.0557927042245864868
-4.99600361081320443e-16 0.774788916110992432 0.0633920580148696899
-4.99600361081320443e-16 1.057037353515625 0.0294902287423610687
-4.99600361081320443e-16 1.12305760383605957 0.146107420325279236
-4.99600361081320443e-16 0.411887109279632568 0.0113998949527740479
-4.99600361081320443e-16 0.512880623340606689 0.0664599686861038208
-4.99600361081320443e-16 1.18409585952758789 0.048138149082660675
-4.99600361081320443e-16 0.676154851913452148 0.0353613272309303284
-4.99600361081320443e-16 1.14399456977844238 0.0785519927740097046
-4.99600361081320443e-16 0.771813452243804932 0.0594808980822563171
-4.99600361081320443e-16 1.01879692077636719 0.0119529217481613159
-4.99600361081320443e-16 1.05899131298065186 0.0946689844131469727
-4.99600361081320443e-16 0.301509857177734375 0.00511606037616729736
-4.99600361081320443e-16 0.813671469688415527 0.0221574679017066956
-4.99600361081320443e-16 0.75016409158706665 0.0603158324956893921
-4.99600361081320443e-16 0.584018111228942871 0.0693620592355728149
-4.99600361081320443e-16 0.835300981998443604 0.0356803238391876221
-4.99600361081320443e-16 0.792548179626464844 0.0155245214700698853
-4.99600361081320443e-16 1.24807476997375488 0.142419174313545227
-4.99600361081320443e-16 0.98646998405456543 0.00148572400212287903
-4.99600361081320443e-16 0.914875447750091553 0.0232326015830039978
-4.99600361081320443e-16 1.10932838916778564 0.148819625377655029
-4.99600361081320443e-16 1.07220137119293213 0.0336646661162376404
-4.99600361081320443e-16 0.959601879119873047 0.104908458888530731
-4.99600361081320443e-16 0.0756343603134155273 0.00894913077354431152
-4.99600361081320443e-16 0.785078227519989014 0.121306568384170532
-4.99600361081320443e-16 0.979460358619689941 0.14559820294380188
-4.99600361081320443e-16 1.25028800964355469 0.0977703630924224854
-4.99600361081320443e-16 0.749467313289642334 0.0526114627718925476
-4.99600361081320443e-16 0.661427676677703857 0.0453422442078590393
-4.99600361081320443e-16 0.383471488952636719 0.0580120384693145752
-4.99600361081320443e-16 0.401403129100799561 0.0618280768394470215
-4.99600361081320443e-16 0.213517665863037109 0.0292616784572601318
-4.99600361081320443e-16 1.17733776569366455 0.0840029865503311157
-4.99600361081320443e-16 0.891661643981933594 0.0912520289421081543
-4.99600361081320443e-16 1.20665895938873291 0.108402445912361145
-4.99600361081320443e-16 1.00718152523040771 0.0356375724077224731
-4.99600361081320443e-16 0.863247573375701904 0.026856541633605957
-4.99600361081320443e-16 0.652572810649871826 0.0879098400473594666
-4.99600361081320443e-16 0.912635684013366699 0.0126266218721866608
-4.99600361081320443e-16 1.08572375774383545 0.0518663786351680756
-4.99600361081320443e-16 1.21723437309265137 0.131839558482170105
-4.99600361081320443e-16 0.886766910552978516 0.01103239506483078
-4.99600361081320443e-16 0.193866491317749023 0.00999844074249267578
-4.99600361081320443e-16 1.25810861587524414 0.112311907112598419
-4.99600361081320443e-16 0.140596151351928711 0.014559134840965271
-4.99600361081320443e-16 1.24726521968841553 0.0702664777636528015
-4.99600361081320443e-16 0.566704094409942627 0.0178250297904014587
-4.99600361081320443e-16 0.304352164268493652 0.0215028375387191772
-4.99600361081320443e-16 0.549046874046325684 0.060811944305896759
-4.99600361081320443e-16 1.0976564884185791 0.0941230356693267822
-4.99600361081320443e-16 0.878563165664672852 0.090228639543056488
-4.99600361081320443e-16 1.03771758079528809 0.129147559404373169
-4.99600361081320443e-16 1.26382863521575928 0.0878546386957168579
-4.99600361081320443e-16 1.08948004245758057 0.128333106637001038
-4.99600361081320443e-16 0.949331045150756836 0.00111368298530578613
-4.99600361081320443e-16 1.25164031982421875 0.0203601587563753128
-4.99600361081320443e-16 0.412065088748931885 0.0461140573024749756
-4.99600361081320443e-16 0.494978785514831543 0.0262714102864265442
-4.99600361081320443e-16 1.03940463066101074 0.0737647265195846558
-4.99600361081320443e-16 0.849943399429321289 0.106823518872261047
-4.99600361081320443e-16 1.18374085426330566 0.102874785661697388
-4.99600361081320443e-16 0.155081987380981445 0.0138294249773025513
-4.99600361081320443e-16 0.69089818000793457 0.0318903177976608276
-4.99600361081320443e-16 1.04947757720947266 0.0686982795596122742
-4.99600361081320443e-16 0.687470316886901855 0.0707599595189094543
-4.99600361081320443e-16 0.648669123649597168 0.0612033829092979431
-4.99600361081320443e-16 0.592417776584625244 0.07500486820936203
-4.99600361081320443e-16 0.841490745544433594 0.00611051172018051147
-4.99600361081320443e-16 0.486387491226196289 0.0537105202674865723
-4.99600361081320443e-16 1.26205670833587646 0.0587565153837203979
-4.99600361081320443e-16 1.1856839656829834 0.0386694446206092834
-4.99600361081320443e-16 0.515514492988586426 0.0371096134185791016
-4.99600361081320443e-16 1.2754133939743042 0.143571734428405762
-4.99600361081320443e-16 0.965461969375610352 0.0214297622442245483
-4.99600361081320443e-16 1.10945355892181396 0.0461824797093868256
-4.99600361081320443e-16 0.11597907543182373 0.00208547711372375488
-4.99600361081320443e-16 0.345230281352996826 0.0330567061901092529
-4.99600361081320443e-16 1.26991176605224609 0.0468531139194965363
-4.99600361081320443e-16 1.01408064365386963 0.108783915638923645
-4.99600361081320443e-16 0.692646265029907227 0.05557221919298172
-4.99600361081320443e-16 0.448414742946624756 0.0510607361793518066
-4.99600361081320443e-16 0.877640485763549805 0.120598219335079193
-4.99600361081320443e-16 0.761402428150177002 0.0227184668183326721
-4.99600361081320443e-16 0.525099873542785645 0.0767473131418228149
-4.99600361081320443e-16 1.28384256362915039 0.0603626817464828491
-4.99600361081320443e-16 0.779713273048400879 0.0681976601481437683
-4.99600361081320443e-16 0.988896727561950684 0.0477526076138019562
-4.99600361081320443e-16 1.25591409206390381 0.143602728843688965
-4.99600361081320443e-16 0.811756134033203125 0.0980524942278862
-4.99600361081320443e-16 1.09503817558288574 0.123287685215473175
-4.99600361081320443e-16 1.24091148376464844 0.0856920555233955383
-4.99600361081320443e-16 1.02985012531280518 0.154444321990013123
-4.99600361081320443e-16 0.473673999309539795 0.0690757930278778076
-4.99600361081320443e-16 0.836597442626953125 0.0258356481790542603
-4.99600361081320443e-16 1.26156818866729736 0.0675988048315048218
-4.99600361081320443e-16 1.04318594932556152 0.0951313450932502747
-4.99600361081320443e-16 0.940861940383911133 0.0753103792667388916
-4.99600361081320443e-16 1.02519476413726807 0.0395491458475589752
-4.99600361081320443e-16 0.556077659130096436 0.0295855253934860229
-4.99600361081320443e-16 0.704867362976074219 0.033304363489151001
-4.99600361081320443e-16 1.18459320068359375 0.021584581583738327
-4.99600361081320443e-16 1.06292331218719482 0.043382745236158371
-4.99600361081320443e-16 0.267969846725463867 0.0183709859848022461
-4.99600361081320443e-16 0.918579995632171631 0.0369144082069396973
-4.99600361081320443e-16 0.850660920143127441 0.108359768986701965
-4.99600361081320443e-16 1.25909018516540527 0.168641805648803711
-4.99600361081320443e-16 0.983877778053283691 0.117516502737998962
-4.99600361081320443e-16 1.21464037895202637 0.0589725039899349213
-4.99600361081320443e-16 0.915980339050292969 0.0800596177577972412
-4.99600361081320443e-16 0.980652391910552979 0.099749445915222168
-4.99600361081320443e-16 0.391070663928985596 0.0599887818098068237
-4.99600361081320443e-16 0.734748363494873047 0.10712403804063797
-4.99600361081320443e-16 1.18560302257537842 0.165965527296066284
-4.99600361081320443e-16 1.03776884078979492 0.0678037330508232117
-4.99600361081320443e-16 0.885155916213989258 0.0845906287431716919
-4.99600361081320443e-16 1.02486371994018555 0.0109740607440471649
-4.99600361081320443e-16 0.280292630195617676 0.0225491970777511597
-4.99600361081320443e-16 0.362021267414093018 0.00577406585216522217
-4.99600361081320443e-16 0.889219522476196289 0.071314588189125061
-4.99600361081320443e-16 0.823246479034423828 0.00338964164257049561
-4.99600361081320443e-16 0.608844101428985596 0.0924618393182754517
-4.99600361081320443e-16 0.525951385498046875 0.0106005743145942688
-4.99600361081320443e-16 1.05474615097045898 0.0144463144242763519
-4.99600361081320443e-16 0.838211894035339355 0.018325313925743103
-4.99600361081320443e-16 0.83797842264175415 0.080330975353717804
-4.99600361081320443e-16 1.03033995628356934 0.0691158771514892578
-4.99600361081320443e-16 0.64141923189163208 0.000988580286502838135
-4.99600361081320443e-16 0.898365557193756104 0.107492461800575256
-4.99600361081320443e-16 0.961122751235961914 0.0147066563367843628
-4.99600361081320443e-16 0.911634624004364014 0.136531710624694824
