ply
format ascii 1.0
element vertex 1050
property float x
property float y
property float z
end_header
1 19.4954967498779297 0.122386857867240906
1 8.76275539398193359 0.169140249490737915
1 15.4475107192993164 0.0265259742736816406
1 17.0767669677734375 0.238564342260360718
1 2.09028291702270508 0.316595196723937988
1 17.1392879486083984 0.0890895575284957886
1 35.9016647338867188 0.0866377353668212891
1 7.63301181793212891 0.324437856674194336
1 8.30318546295166016 0.194407045841217041
1 34.8606529235839844 0.000551342964172363281
1 4.81936883926391602 0.0385614223778247833
1 15.6685066223144531 0.198065906763076782
1 28.5294933319091797 0.145329713821411133
1 27.6714096069335938 0.0800266563892364502
1 37.2562751770019531 0.0112572610378265381
1 19.3057575225830078 0.100317820906639099
1 11.2736616134643555 0.182374060153961182
1 11.8080329895019531 0.158692628145217896
1 7.43716812133789062 0.0583647489547729492
1 3.00125885009765625 0.371227115392684937
1 26.8647594451904297 0.00345905125141143799
1 0.282817482948303223 0.160261809825897217
1 5.48541498184204102 0.254367351531982422
1 0.00996295828372240067 0.112144745886325836
1 5.38014650344848633 0.0580820739269256592
1 8.04778099060058594 0.243073135614395142
1 23.80499267578125 0.0709771066904067993
1 14.3097505569458008 0.0863315016031265259
1 21.1983833312988281 0.0306124389171600342
1 7.60401201248168945 0.222713276743888855
1 19.4282608032226562 0.17075328528881073
1 2.73116326332092285 0.264185667037963867
1 7.23339128494262695 0.173227503895759583
1 39.5588226318359375 0.0248377323150634766
1 2.49393820762634277 0.128791436553001404
1 13.4093685150146484 0.108805142343044281
1 44.2090110778808594 0.000651091337203979492
1 14.9160652160644531 0.104500472545623779
1 27.2432174682617188 0.135922342538833618
1 8.05010128021240234 0.289416015148162842
1 31.9228668212890625 0.0876297950744628906
1 13.2986593246459961 0.267504602670669556
1 30.7630710601806641 0.00156271457672119141
1 22.5479850769042969 0.134233370423316956
1 1.39102184772491455 0.132380500435829163
1 1.67977941036224365 0.0250507630407810211
1 6.22986268997192383 0.0743986964225769043
1 17.4163074493408203 0.182259514927864075
1 30.0527667999267578 0.0671909451484680176
1 13.5234251022338867 0.00163433700799942017
1 1.94937801361083984 0.173302322626113892
1 37.2067146301269531 0.0534922778606414795
1 9.28728485107421875 0.131959185004234314
1 5.808990478515625 0.283403724431991577
1 7.28954696655273438 0.19774162769317627
1 13.6699533462524414 0.277240931987762451
1 7.57803821563720703 0.226453423500061035
1 11.344935417175293 0.0344881266355514526
1 5.80904054641723633 0.338013023138046265
1 30.4716682434082031 0.0767880678176879883
1 1.1889498233795166 0.336700797080993652
1 7.11399126052856445 0.211620256304740906
1 19.8192729949951172 0.155790135264396667
1 41.8892250061035156 0.000566422939300537109
1 0.34408298134803772 0.31086421012878418
1 5.2224268913269043 0.263549476861953735
1 8.60764884948730469 0.213161364197731018
1 30.2047080993652344 0.112716585397720337
1 12.2717113494873047 0.103854522109031677
1 8.44780349731445312 0.27139127254486084
1 27.3612136840820312 0.0634478479623794556
1 3.16964387893676758 0.209684237837791443
1 12.6069068908691406 0.259656786918640137
1 8.96865272521972656 0.296837717294692993
1 21.9835605621337891 0.117814764380455017
1 4.09196567535400391 0.22964400053024292
1 4.9660496711730957 0.132817491888999939
1 22.2681121826171875 0.0592093318700790405
1 2.63664960861206055 0.265814036130905151
1 9.53241539001464844 0.00325530767440795898
1 3.67924213409423828 0.0235278196632862091
1 6.43836641311645508 0.326347559690475464
1 9.35969066619873047 0.155746325850486755
1 15.8524150848388672 0.155441701412200928
1 8.02986240386962891 0.117902308702468872
1 10.3758201599121094 0.115581825375556946
1 20.8311100006103516 0.194607183337211609
1 20.1935234069824219 0.0491423755884170532
1 9.317169189453125 0.0306639447808265686
1 11.6345376968383789 0.174889743328094482
1 3.09772396087646484 0.206397548317909241
1 5.95400428771972656 0.20073603093624115
1 9.81886482238769531 0.233154535293579102
1 6.13385725021362305 0.20441889762878418
1 21.2557945251464844 0.179498359560966492
1 9.09891891479492188 0.171078190207481384
1 20.9603157043457031 0.176773980259895325
1 11.7043514251708984 0.253952115774154663
1 17.2884654998779297 0.0296616256237030029
1 12.4004983901977539 0.238311588764190674
1 11.1897478103637695 0.27187010645866394
1 9.18018817901611328 0.226498961448669434
1 31.1214637756347656 0.0493384599685668945
1 5.90469455718994141 0.174690455198287964
1 22.3609371185302734 0.152808651328086853
1 13.2184410095214844 0.124700002372264862
1 18.0955429077148438 0.12059842050075531
1 6.63708639144897461 0.00474712252616882324
1 30.1388664245605469 0.0806181132793426514
1 32.5343894958496094 0.0167696177959442139
1 1.51711046695709229 0.0607150532305240631
1 3.98038363456726074 0.283870071172714233
1 17.6226959228515625 0.215547278523445129
1 18.2911148071289062 0.200960502028465271
1 3.8577268123626709 0.19667409360408783
1 7.11895370483398438 0.297167778015136719
1 6.54815864562988281 0.0207341238856315613
1 10.8605060577392578 0.153205662965774536
1 6.79098415374755859 0.242158487439155579
1 23.1063194274902344 0.110232755541801453
1 1.19807517528533936 0.323323816061019897
1 19.8882408142089844 0.0895031094551086426
1 35.0932464599609375 0.0226665735244750977
1 11.5511608123779297 0.184580013155937195
1 13.0769529342651367 0.153102964162826538
1 3.49499106407165527 0.294817447662353516
1 21.605438232421875 0.196606114506721497
1 4.64972400665283203 0.0404301322996616364
1 9.07092857360839844 0.0459248200058937073
1 28.0303382873535156 0.0882706195116043091
1 14.959869384765625 0.0666816681623458862
1 10.633936882019043 0.0253475680947303772
1 7.55532360076904297 0.0578477904200553894
1 25.1973648071289062 0.0139209479093551636
1 43.011474609375 0.0218871831893920898
1 25.3401432037353516 0.0998628884553909302
1 2.24703669548034668 0.159655451774597168
1 2.26684951782226562 0.101685859262943268
1 35.80059814453125 0.00133430957794189453
1 27.7768955230712891 0.129196003079414368
1 1.1585310697555542 0.0483271181583404541
1 1.31221556663513184 0.233381509780883789
1 8.70074844360351562 0.0886118635535240173
1 25.9605064392089844 0.12022756040096283
1 8.93502902984619141 0.198943585157394409
1 1.86465156078338623 0.226621627807617188
1 14.8578319549560547 0.178156986832618713
1 23.0579910278320312 0.0606485158205032349
1 32.4337921142578125 0.0667996108531951904
1 8.64623355865478516 0.20633995532989502
1 41.0862579345703125 0.00423768162727355957
1 1.33230710029602051 0.253901749849319458
1 5.46810579299926758 0.20147252082824707
1 2.23213338851928711 0.156140595674514771
1 4.14664936065673828 0.258413553237915039
1 16.2571468353271484 0.0688336491584777832
1 4.88126230239868164 0.227409511804580688
1 18.8296661376953125 0.219188287854194641
1 24.6424388885498047 0.00775592029094696045
1 26.1293907165527344 0.068041190505027771
1 42.1186714172363281 0.00726154446601867676
1 17.0584487915039062 0.195347324013710022
1 41.3356895446777344 0.0313365161418914795
1 29.0822715759277344 0.0156258046627044678
1 0.094223611056804657 0.358979344367980957
1 9.41986656188964844 0.093668133020401001
1 27.9442825317382812 0.0478783994913101196
1 7.72992229461669922 0.0185781717300415039
1 21.0038909912109375 0.0241933166980743408
1 12.1060819625854492 0.27967911958694458
1 23.0265026092529297 0.151588752865791321
1 19.7990093231201172 0.0970156639814376831
1 13.0136775970458984 0.0272181704640388489
1 15.3788814544677734 0.13297666609287262
1 14.3335933685302734 0.00127093493938446045
1 12.1943330764770508 0.0219555646181106567
1 23.6553096771240234 0.054874032735824585
1 4.00812101364135742 0.332760930061340332
1 1.14564383029937744 0.386571258306503296
1 24.2409915924072266 0.111144930124282837
1 38.2369270324707031 0.015405118465423584
1 3.97293806076049805 0.310263127088546753
1 22.3141746520996094 0.203342899680137634
1 26.9396953582763672 0.0373627990484237671
1 1.78701639175415039 0.191041797399520874
1 8.871429443359375 0.268073558807373047
1 27.3509807586669922 0.100044786930084229
1 29.0860443115234375 0.0818633437156677246
1 19.9777374267578125 0.0609991550445556641
1 41.9766960144042969 0.00336688756942749023
1 0.033189188688993454 0.399041056632995605
1 17.5853500366210938 0.0493546575307846069
1 7.72589969635009766 0.117626205086708069
1 36.5331192016601562 0.0375377535820007324
1 14.4012289047241211 0.170489370822906494
1 26.0076713562011719 0.165096491575241089
1 10.9730815887451172 0.0546395108103752136
1 4.91486835479736328 0.355160355567932129
1 6.01196384429931641 0.183175355195999146
1 10.8273725509643555 0.0631957054138183594
1 9.00437545776367188 0.266888141632080078
1 11.4459590911865234 0.242767259478569031
1 4.71334028244018555 0.119020119309425354
1 18.5034446716308594 0.203344076871871948
1 17.564300537109375 0.0378872007131576538
1 4.53067207336425781 0.190459996461868286
1 10.1699285507202148 0.189356774091720581
1 34.6647796630859375 0.302063047885894775
1 28.2004795074462891 0.369997620582580566
1 36.9980659484863281 0.0818459391593933105
1 35.8199195861816406 0.106781631708145142
1 44.08221435546875 0.382407218217849731
1 41.4687423706054688 0.0598119497299194336
1 42.7061538696289062 0.384191274642944336
1 45.2188835144042969 0.217366695404052734
1 34.7009773254394531 0.166829824447631836
1 37.0819091796875 0.18172919750213623
1 6.41158676147460938 0.347847551107406616
1 11.2809677124023438 0.330414295196533203
1 22.0781517028808594 0.346813112497329712
1 12.7476425170898438 0.349757164716720581
1 29.1358547210693359 0.256585121154785156
1 18.7677955627441406 0.382177650928497314
1 26.5809917449951172 0.241835474967956543
1 12.8272476196289062 0.289949417114257812
1 32.8838310241699219 0.243434950709342957
1 44.36431884765625 0.387754857540130615
1 32.2904472351074219 0.342431187629699707
1 41.4437370300292969 0.358562618494033813
1 44.2317352294921875 0.337626814842224121
1 15.4858531951904297 0.31061890721321106
1 41.1496467590332031 0.219012245535850525
1 38.8055648803710938 0.216077551245689392
1 3.86442184448242188 0.377490013837814331
1 45.0378646850585938 0.38549494743347168
1 18.2741374969482422 0.36121794581413269
1 24.482330322265625 0.297115623950958252
1 33.476409912109375 0.116359531879425049
1 12.2854766845703125 0.350725054740905762
1 20.5390644073486328 0.29999813437461853
1 35.8560943603515625 0.372842133045196533
1 41.1086273193359375 0.353660047054290771
1 43.6045722961425781 0.286380231380462646
1 7.80374908447265625 0.367939621210098267
1 35.7723541259765625 0.325382828712463379
1 31.1089019775390625 0.366285562515258789
1 19.7610549926757812 0.231132641434669495
1 41.468719482421875 0.0751687288284301758
1 30.3054847717285156 0.319297671318054199
1 23.6252479553222656 0.221820786595344543
1 20.1167316436767578 0.250988960266113281
1 29.8386669158935547 0.265727013349533081
1 44.6243209838867188 0.0980924367904663086
1 28.8294773101806641 0.165947392582893372
1 23.3947200775146484 0.321585357189178467
1 21.0957698822021484 0.31076812744140625
1 31.6452503204345703 0.353640764951705933
1 7.16455841064453125 0.372444450855255127
1 39.9020614624023438 0.290492385625839233
1 23.4949893951416016 0.354547768831253052
1 42.485809326171875 0.346830189228057861
1 44.2787666320800781 0.34006422758102417
1 39.8256301879882812 0.328690052032470703
1 25.8473415374755859 0.294648170471191406
1 19.584228515625 0.233525469899177551
1 39.0978507995605469 0.208770200610160828
1 23.9188899993896484 0.348358899354934692
1 43.7574005126953125 0.0802932083606719971
1 34.5989227294921875 0.189812302589416504
1 11.7778854370117188 0.378005892038345337
1 42.1845016479492188 0.355298072099685669
1 18.5816841125488281 0.359434515237808228
1 37.757965087890625 0.160748839378356934
1 35.0923805236816406 0.333260804414749146
1 43.4048233032226562 0.154621869325637817
1 28.93212890625 0.319801360368728638
1 23.3023719787597656 0.374360173940658569
1 24.826934814453125 0.382382601499557495
1 34.1228675842285156 0.162131056189537048
1 40.2617454528808594 0.34508928656578064
1 32.384033203125 0.14671170711517334
1 31.2625770568847656 0.143657952547073364
1 37.1474227905273438 0.397543251514434814
1 45.9983940124511719 0.00323146581649780273
1 18.0506763458251953 0.290402233600616455
1 23.0597496032714844 0.23587644100189209
1 15.9197311401367188 0.389187604188919067
1 20.9050617218017578 0.261235415935516357
1 16.8937911987304688 0.324181348085403442
1 45.6875686645507812 0.221468076109886169
1 29.1572971343994141 0.180073291063308716
1 34.0066986083984375 0.287717550992965698
1 35.4212188720703125 0.132168471813201904
1 33.9396438598632812 0.152940750122070312
1 39.3077888488769531 0.350153535604476929
1 35.8915557861328125 0.152457982301712036
1 21.6902503967285156 0.304770082235336304
1 23.3182277679443359 0.310061514377593994
1 9.40592575073242188 0.344852954149246216
1 36.011474609375 0.199513822793960571
1 7.99922943115234375 0.336036711931228638
1 19.2960720062255859 0.301614940166473389
1 34.6164207458496094 0.207521125674247742
1 44.0030097961425781 0.232455655932426453
1 43.528411865234375 0.0278388857841491699
1 40.5617294311523438 0.255455553531646729
1 40.2124519348144531 0.178743124008178711
1 37.4969367980957031 0.312806665897369385
1 16.6650047302246094 0.275223970413208008
1 23.6043777465820312 0.28405347466468811
1 38.3021125793457031 0.345790356397628784
1 40.5040359497070312 0.320239424705505371
1 31.6182384490966797 0.283874332904815674
1 45.7421646118164062 0.00903344154357910156
1 10.17156982421875 0.331633865833282471
1 16.163787841796875 0.383220970630645752
1 45.9443817138671875 0.206866607069969177
1 24.9163227081298828 0.256635993719100952
1 4.34347915649414062 0.39059150218963623
1 30.3937149047851562 0.377940446138381958
1 2.49019622802734375 0.399953395128250122
1 45.4540061950683594 0.0893510878086090088
1 40.1882286071777344 0.0772339403629302979
1 7.90395355224609375 0.343644976615905762
1 12.1551895141601562 0.303420990705490112
1 40.2360000610351562 0.231432124972343445
1 12.6502952575683594 0.394928634166717529
1 29.8103866577148438 0.222758740186691284
1 11.1302413940429688 0.357761919498443604
1 17.1919460296630859 0.383827090263366699
1 9.51242446899414062 0.367077052593231201
1 44.4352149963378906 0.168650791049003601
1 43.7781982421875 0.270775675773620605
1 19.7007884979248047 0.297820389270782471
1 41.3913993835449219 0.318628430366516113
1 39.9877395629882812 0.357409447431564331
1 38.4258346557617188 0.318523824214935303
1 20.0847206115722656 0.314885079860687256
1 32.749542236328125 0.358168125152587891
1 42.6197891235351562 0.368183374404907227
1 44.0650787353515625 0.315388739109039307
1 32.0932464599609375 0.305502831935882568
1 27.6341495513916016 0.355771154165267944
1 12.9983139038085938 0.390733689069747925
1 25.8406620025634766 0.21343386173248291
1 31.1813373565673828 0.226402446627616882
1 44.9598846435546875 0.0938168168067932129
1 43.6377716064453125 0.168853998184204102
1 42.4846076965332031 0.155315041542053223
1 19.1351547241210938 0.256759107112884521
1 27.8756580352783203 0.221670970320701599
1 31.9471817016601562 0.340861529111862183
1 39.3854103088378906 0.291426241397857666
1 36.4872665405273438 0.265423059463500977
1 37.31549072265625 0.125387817621231079
1 28.7498226165771484 0.376682817935943604
1 7.25238800048828125 0.355710059404373169
1 35.0265121459960938 0.289446413516998291
1 28.5810699462890625 0.182376176118850708
1 36.1385421752929688 0.099383622407913208
1 45.9805526733398438 0.20655880868434906
1 42.2161636352539062 0.343264579772949219
1 40.2287063598632812 0.252884000539779663
1 18.8694324493408203 0.292463719844818115
1 16.4823112487792969 0.308589965105056763
1 45.1508407592773438 0.0597163140773773193
1 37.7028236389160156 0.262826740741729736
1 18.7214431762695312 0.326563596725463867
1 37.087249755859375 0.181015282869338989
1 10.2971267700195312 0.385066747665405273
1 10.3451576232910156 0.380872517824172974
1 36.03485107421875 0.299438357353210449
1 44.8598289489746094 0.347747355699539185
1 29.0386638641357422 0.234302178025245667
1 29.4691581726074219 0.222147077322006226
1 30.9967155456542969 0.23142455518245697
1 37.7773818969726562 0.397484809160232544
1 25.5543270111083984 0.327566534280776978
1 16.9439830780029297 0.342140316963195801
1 40.0436668395996094 0.0678145885467529297
1 6.55719375610351562 0.363111585378646851
1 39.3621749877929688 0.168376922607421875
1 39.0671615600585938 0.332458764314651489
1 26.8903312683105469 0.180027708411216736
1 33.7114410400390625 0.242648661136627197
1 40.7675209045410156 0.0484878122806549072
1 35.2297897338867188 0.293849349021911621
1 25.0846920013427734 0.275233477354049683
1 18.7287883758544922 0.321395814418792725
1 37.9413909912109375 0.275136440992355347
1 19.5503215789794922 0.255330502986907959
1 13.8539810180664062 0.368029534816741943
1 26.7502861022949219 0.381780862808227539
1 31.6643581390380859 0.34437146782875061
1 22.3878746032714844 0.345295965671539307
1 34.1948471069335938 0.121155381202697754
1 18.4732627868652344 0.310141533613204956
1 28.1129722595214844 0.213038638234138489
1 45.1584243774414062 0.358088076114654541
1 42.2348289489746094 0.235298559069633484
1 21.9709339141845703 0.287683039903640747
1 22.0057086944580078 0.235194981098175049
1 32.134857177734375 0.344786703586578369
1 33.4491119384765625 0.233395308256149292
1 30.475555419921875 0.216711908578872681
1 35.2840576171875 0.390607774257659912
1 25.4343090057373047 0.313188493251800537
1 8.9738922119140625 0.34458431601524353
1 45.5781517028808594 0.0172812044620513916
1 37.8654327392578125 0.338499695062637329
1 29.4299144744873047 0.325018703937530518
1 37.0919189453125 0.294436663389205933
1 39.6627273559570312 0.209295421838760376
1 5.12212371826171875 0.376067817211151123
1 26.1427288055419922 0.332786142826080322
1 33.221588134765625 0.349893897771835327
1 23.7858238220214844 0.268715381622314453
1 20.1763801574707031 0.232846707105636597
1 39.8443679809570312 0.249251231551170349
1 11.6506500244140625 0.30918535590171814
1 39.2039413452148438 0.0820917487144470215
1 42.7747001647949219 0.221836909651756287
1 34.2321243286132812 0.158568546175956726
1 26.441497802734375 0.236594170331954956
1 27.5630855560302734 0.268516600131988525
1 25.1043605804443359 0.281142503023147583
1 31.8288841247558594 0.352237880229949951
1 38.3194656372070312 0.230460658669471741
1 45.2621269226074219 0.0130833685398101807
1 40.0444488525390625 0.109703123569488525
1 43.0552291870117188 0.383800268173217773
1 30.5743560791015625 0.370411664247512817
1 27.4962272644042969 0.257765710353851318
1 21.4634723663330078 0.228826060891151428
1 23.1306285858154297 0.210831090807914734
1 28.385223388671875 0.187249287962913513
1 19.8512363433837891 0.246471971273422241
1 18.2955341339111328 0.268464386463165283
1 10.1593818664550781 0.337406009435653687
1 20.308746337890625 0.389384210109710693
1 37.9928665161132812 0.167745828628540039
1 23.9403572082519531 0.225010722875595093
1 32.9696846008300781 0.370363831520080566
1 30.7176055908203125 0.335695356130599976
1 27.8186588287353516 0.325037658214569092
1 18.6097316741943359 0.279589205980300903
1 25.6573219299316406 0.200849622488021851
1 40.3343238830566406 0.262163907289505005
1 11.1951255798339844 0.324188709259033203
1 37.0562667846679688 0.287082701921463013
1 40.3573455810546875 0.357501983642578125
1 24.6600856781005859 0.250550448894500732
1 28.5727958679199219 0.183117419481277466
1 17.169281005859375 0.300057917833328247
1 25.4318008422851562 0.257238686084747314
1 24.2542343139648438 0.258733570575714111
1 15.9421291351318359 0.368518263101577759
1 45.2116813659667969 0.141821444034576416
1 39.6177978515625 0.0594287514686584473
1 39.6893386840820312 0.184104353189468384
1 42.7311363220214844 0.361067593097686768
1 25.4905815124511719 0.199350357055664062
1 39.1818389892578125 0.296623975038528442
1 10.6675682067871094 0.330495655536651611
1 28.5200881958007812 0.159190207719802856
1 26.3029499053955078 0.242665544152259827
1 25.9676170349121094 0.231745705008506775
1 16.2504119873046875 0.28548470139503479
1 42.0179672241210938 0.211436107754707336
1 34.912841796875 0.145524591207504272
1 33.6134109497070312 0.325111538171768188
1 24.8528022766113281 0.286511898040771484
1 17.4898529052734375 0.399831801652908325
1 42.9932785034179688 0.0846991539001464844
1 33.7145576477050781 0.237374603748321533
1 7.74837875366210938 0.386371344327926636
1 4.97085189819335938 0.379583895206451416
1 41.764984130859375 0.3085193932056427
1 28.4613685607910156 0.217355415225028992
1 32.1851043701171875 0.358455687761306763
1 44.9200363159179688 0.300906240940093994
1 20.9484157562255859 0.235514625906944275
1 30.1877479553222656 0.311930477619171143
1 45.7029533386230469 0.0468500256538391113
1 45.0847129821777344 0.185322359204292297
1 10.1454505920410156 0.314229816198348999
1 37.9499282836914062 0.167580440640449524
1 11.2169952392578125 0.320537209510803223
1 39.600433349609375 0.26344791054725647
1 29.2427787780761719 0.345394611358642578
1 27.3192462921142578 0.343499302864074707
1 41.4495315551757812 0.135841548442840576
1 38.6744232177734375 0.233095824718475342
1 30.3965072631835938 0.255685210227966309
1 37.2573280334472656 0.279751628637313843
1 36.245513916015625 0.104253053665161133
1 43.8536643981933594 0.296532630920410156
1 28.4456939697265625 0.346417278051376343
1 26.3750152587890625 0.370626270771026611
1 41.4677581787109375 0.280775696039199829
1 24.9895553588867188 0.199535652995109558
1 24.7037868499755859 0.368017464876174927
1 28.9963760375976562 0.302064836025238037
1 32.7158279418945312 0.250520020723342896
1 45.6655616760253906 0.0916388332843780518
1 43.7285842895507812 0.369115918874740601
1 44.2955131530761719 0.0230890214443206787
1 38.8343620300292969 0.187197074294090271
1 29.7102813720703125 0.388399094343185425
1 27.4881973266601562 0.290796101093292236
1 41.3962898254394531 0.283088356256484985
1 8.43980026245117188 0.363479644060134888
1 41.6369171142578125 0.300662696361541748
1 20.6799774169921875 0.262588322162628174
1 10.3732566833496094 0.362976014614105225
1 26.7002506256103516 0.339304417371749878
1 28.0616493225097656 0.36492273211479187
1 24.5575180053710938 0.302360087633132935
1 8.41451263427734375 0.341209888458251953
1 45.0558815002441406 0.384297430515289307
1 22.5089683532714844 0.288334846496582031
1 35.3473625183105469 0.105382859706878662
1 10.8038902282714844 0.398415297269821167
1 24.9972591400146484 0.366089910268783569
1 4.1161041259765625 0.366524785757064819
1 20.8144645690917969 0.298262178897857666
1 17.8199405670166016 0.279287636280059814
1 41.8351860046386719 0.303521126508712769
1 21.5154743194580078 0.395081043243408203
1 30.6533737182617188 0.35138276219367981
1 42.6088600158691406 0.106466293334960938
1 32.0191574096679688 0.133767277002334595
1 38.9922904968261719 0.311478316783905029
1 23.1281566619873047 0.389562845230102539
1 15.3689079284667969 0.283918559551239014
1 18.4858551025390625 0.39853215217590332
1 36.9883346557617188 0.0992422699928283691
1 39.6049041748046875 0.108800143003463745
1 22.6395339965820312 0.299656957387924194
1 23.3014717102050781 0.25838083028793335
1 39.5858001708984375 0.370200514793395996
1 43.0309524536132812 0.214033931493759155
1 19.8225288391113281 0.231009885668754578
1 10.41064453125 0.343369364738464355
1 40.832763671875 0.179564163088798523
1 33.4234657287597656 0.249559178948402405
1 10.1643486022949219 0.351613163948059082
1 15.0260581970214844 0.336855292320251465
1 33.4252357482910156 0.206478208303451538
1 26.5715236663818359 0.381465524435043335
1 37.9891891479492188 0.224854052066802979
1 31.978515625 0.246203526854515076
1 40.8974494934082031 0.125999242067337036
1 33.923370361328125 0.314440488815307617
1 26.1386127471923828 0.369703680276870728
1 34.7139244079589844 0.147733390331268311
1 27.9938278198242188 0.341154366731643677
1 25.2837581634521484 0.195886000990867615
1 37.2065887451171875 0.322415590286254883
1 43.8722038269042969 0.166937872767448425
1 22.3196907043457031 0.220629572868347168
1 25.9832115173339844 0.262995779514312744
1 43.0886039733886719 0.255774378776550293
1 26.4067192077636719 0.365990340709686279
1 42.8412208557128906 0.121407538652420044
1 45.0088233947753906 0.195051074028015137
1 37.4753036499023438 0.296039164066314697
1 36.183563232421875 0.269538998603820801
1 35.9221916198730469 0.320465952157974243
1 36.440765380859375 0.194084405899047852
1 34.3953857421875 0.249791666865348816
1 23.9874916076660156 0.208953171968460083
1 16.2742347717285156 0.345816433429718018
1 45.0348052978515625 0.284250617027282715
1 40.5913810729980469 0.210906431078910828
1 37.803314208984375 0.367666333913803101
1 43.1861228942871094 0.357534110546112061
1 31.7846279144287109 0.18581843376159668
1 25.7704353332519531 0.335140883922576904
1 23.6493282318115234 0.249635234475135803
1 43.7736129760742188 0.262904584407806396
1 14.2962703704833984 0.365715622901916504
1 31.3549365997314453 0.336104810237884521
1 8.68682479858398438 0.367350250482559204
1 36.9911346435546875 0.0816692709922790527
1 36.5310897827148438 0.374196410179138184
1 34.9615516662597656 0.104049414396286011
1 11.9991950988769531 0.388999491930007935
1 28.5290565490722656 0.314148277044296265
1 28.1450748443603516 0.189819008111953735
1 28.4256381988525391 0.278225511312484741
1 32.4451713562011719 0.376096785068511963
1 41.914154052734375 0.0853588581085205078
1 6.70464706420898438 0.385020196437835693
1 24.6759052276611328 0.191358074545860291
1 37.6640853881835938 0.0917489230632781982
1 28.8380584716796875 0.194353625178337097
1 44.6230354309082031 0.284467875957489014
1 31.1181869506835938 0.305367529392242432
1 23.3261814117431641 0.272907614707946777
1 4.55677413940429688 0.369292289018630981
1 27.5776424407958984 0.327497810125350952
1 10.6396560668945312 0.357193291187286377
1 42.6660270690917969 0.339372873306274414
1 36.1089935302734375 0.386125326156616211
1 42.6373252868652344 0.217101424932479858
1 4.17920303344726562 0.377547174692153931
1 39.62591552734375 0.153912469744682312
1 26.8428668975830078 0.241510853171348572
1 43.824676513671875 0.266758203506469727
1 20.0306549072265625 0.370870351791381836
1 31.8432235717773438 0.391361713409423828
1 42.8244667053222656 0.257060527801513672
1 16.8676357269287109 0.360148251056671143
1 25.2020111083984375 0.350217312574386597
1 6.92026901245117188 0.353234678506851196
1 31.2058296203613281 0.304116129875183105
1 39.2111968994140625 0.181119546294212341
1 32.5694732666015625 0.166499421000480652
1 41.0080375671386719 0.382217258214950562
1 42.2669601440429688 0.398551344871520996
1 41.9800453186035156 0.176979765295982361
1 43.1291770935058594 0.379250794649124146
1 39.416778564453125 0.288876920938491821
1 32.0981864929199219 0.233521685004234314
1 30.5414485931396484 0.13745582103729248
1 8.11603164672851562 0.388327032327651978
1 20.7818565368652344 0.370510727167129517
1 1.72322463989257812 0.395090430974960327
1 36.5586929321289062 0.359949678182601929
1 29.4794216156005859 0.21972048282623291
1 36.5219039916992188 0.219346195459365845
1 41.7219619750976562 0.223208948969841003
1 34.9166259765625 0.364480853080749512
1 38.0803413391113281 0.0796324610710144043
1 45.1684417724609375 0.324258506298065186
1 36.0086822509765625 0.320695161819458008
1 25.4809246063232422 0.377803206443786621
1 44.024627685546875 0.285203844308853149
1 4.301422119140625 0.372742652893066406
1 39.1297569274902344 0.282226055860519409
1 38.1765670776367188 0.238747403025627136
1 43.5469017028808594 0.25984722375869751
1 28.8885517120361328 0.219096377491950989
1 1.36359405517578125 0.394932389259338379
1 38.026336669921875 0.27808225154876709
1 40.2100410461425781 0.154964238405227661
1 36.7567253112792969 0.39039185643196106
1 31.0520133972167969 0.160985231399536133
1 28.6352577209472656 0.166258290410041809
1 28.8551387786865234 0.210820719599723816
1 44.9574775695800781 0.109511375427246094
1 29.0713844299316406 0.369759619235992432
1 34.0681991577148438 0.392365932464599609
1 17.6408157348632812 0.343005746603012085
1 22.312103271484375 0.233741000294685364
1 38.0788803100585938 0.312584847211837769
1 17.5350666046142578 0.256396889686584473
1 41.2761306762695312 0.128014028072357178
1 35.5432586669921875 0.398429751396179199
1 20.5183181762695312 0.367985188961029053
1 40.5550079345703125 0.0777480006217956543
1 11.1106338500976562 0.387416243553161621
1 25.3006305694580078 0.385690957307815552
1 42.1720848083496094 0.208754464983940125
1 30.3004188537597656 0.29209524393081665
1 25.7995815277099609 0.245299786329269409
1 28.7601413726806641 0.18878491222858429
1 40.308563232421875 0.0643108189105987549
1 16.60711669921875 0.3212432861328125
1 32.8045425415039062 0.313442111015319824
1 33.7625007629394531 0.265003859996795654
1 27.1156425476074219 0.258350551128387451
1 23.1028919219970703 0.201486453413963318
1 34.6331748962402344 0.295118063688278198
1 34.8388252258300781 0.166378125548362732
1 29.2134799957275391 0.252664327621459961
1 35.2982864379882812 0.168673872947692871
1 39.1499862670898438 0.191538557410240173
1 29.7117824554443359 0.238319799304008484
1 44.9375953674316406 0.114548981189727783
1 24.7185344696044922 0.221264243125915527
1 32.5894622802734375 0.30521664023399353
1 40.1333427429199219 0.335656195878982544
1 20.3556289672851562 0.240302681922912598
1 37.9699172973632812 0.224681034684181213
1 15.4891376495361328 0.28227531909942627
1 24.1184463500976562 0.337518483400344849
1 26.9740943908691406 0.357006251811981201
1 39.3425369262695312 0.146497607231140137
1 29.7417392730712891 0.338949829339981079
1 16.9603729248046875 0.390166759490966797
1 35.4401664733886719 0.379664063453674316
1 37.7399063110351562 0.23857562243938446
1 7.863861083984375 0.368894904851913452
1 21.8142566680908203 0.341141581535339355
1 44.9111213684082031 0.365427076816558838
1 29.7108116149902344 0.180051565170288086
1 31.1400966644287109 0.376541644334793091
1 8.21982192993164062 0.361993789672851562
1 24.5633964538574219 0.234150215983390808
1 15.6158084869384766 0.36115226149559021
1 36.8794288635253906 0.193439513444900513
1 28.7805500030517578 0.340354591608047485
1 45.9031181335449219 0.285508304834365845
1 38.1197586059570312 0.335765451192855835
1 20.4041481018066406 0.397523820400238037
1 30.517547607421875 0.396880120038986206
1 35.498809814453125 0.226779386401176453
1 13.5590591430664062 0.286304116249084473
1 23.3997917175292969 0.263002842664718628
1 7.39601898193359375 0.347679972648620605
1 41.3073196411132812 0.371694952249526978
1 36.7708320617675781 0.285208821296691895
1 29.1458377838134766 0.174766421318054199
1 43.7809524536132812 0.300677835941314697
1 15.5962123870849609 0.280420035123825073
1 28.7914161682128906 0.311224818229675293
1 42.0379295349121094 0.273752808570861816
1 43.0303268432617188 0.274584740400314331
1 11.6595382690429688 0.372535765171051025
1 45.5981025695800781 0.153422504663467407
1 35.049896240234375 0.172232747077941895
1 44.9719085693359375 0.162291154265403748
1 26.6122589111328125 0.369627147912979126
1 20.461212158203125 0.226583406329154968
1 8.78066253662109375 0.361040890216827393
1 31.8725318908691406 0.149200260639190674
1 13.6470184326171875 0.350568383932113647
1 27.72967529296875 0.37556988000869751
1 39.5142784118652344 0.347981542348861694
1 20.5794143676757812 0.255697518587112427
1 23.9010658264160156 0.344212770462036133
1 28.9862403869628906 0.257177233695983887
1 43.4824676513671875 0.153668269515037537
1 35.1681404113769531 0.375154197216033936
1 26.8365154266357422 0.3923816978931427
1 41.9328117370605469 0.154134631156921387
1 29.15252685546875 0.366889208555221558
1 38.3143959045410156 0.302380472421646118
1 38.4230155944824219 0.29217955470085144
1 44.2316207885742188 0.381109714508056641
1 25.6590480804443359 0.378441452980041504
1 21.0886344909667969 0.271721243858337402
1 33.5496253967285156 0.374768048524856567
1 30.8978023529052734 0.161841616034507751
1 16.5529098510742188 0.375640839338302612
1 29.1144351959228516 0.166465669870376587
1 18.4972152709960938 0.325067043304443359
1 37.043914794921875 0.201175317168235779
1 45.5807228088378906 0.322450906038284302
1 30.7863025665283203 0.304736524820327759
1 32.9898834228515625 0.31833222508430481
1 13.5653419494628906 0.291444778442382812
1 42.6461029052734375 0.178367018699645996
1 37.5764541625976562 0.273125022649765015
1 30.0373458862304688 0.390039712190628052
1 25.6037120819091797 0.367681741714477539
1 34.8319549560546875 0.210158094763755798
1 42.3898658752441406 0.104546934366226196
1 38.6195755004882812 0.246526569128036499
1 45.9633216857910156 0.348823398351669312
1 26.4227390289306641 0.387422084808349609
1 12.9970817565917969 0.384328186511993408
1 21.4276351928710938 0.251200437545776367
1 30.0957412719726562 0.223951593041419983
1 30.0320167541503906 0.146400660276412964
1 41.6776847839355469 0.359713554382324219
1 34.9687004089355469 0.313561767339706421
1 44.9448318481445312 0.379875272512435913
1 40.8761825561523438 0.129289686679840088
1 22.3044261932373047 0.323795676231384277
1 37.4689254760742188 0.105458736419677734
1 44.1423492431640625 0.346981555223464966
1 31.595733642578125 0.285953134298324585
1 24.8504543304443359 0.309826970100402832
1 16.0508804321289062 0.279749453067779541
1 15.9801273345947266 0.329445749521255493
1 29.9419975280761719 0.186670303344726562
1 19.687286376953125 0.259279727935791016
1 27.1538124084472656 0.177501365542411804
1 44.7463264465332031 0.218100801110267639
1 18.9555778503417969 0.246884658932685852
1 31.0261077880859375 0.288958907127380371
1 35.0612983703613281 0.152957320213317871
1 20.5242748260498047 0.265844345092773438
1 15.5433330535888672 0.374123513698577881
1 14.8574886322021484 0.307232290506362915
1 39.9279212951660156 0.0786600410938262939
1 36.51141357421875 0.31557503342628479
1 23.6247444152832031 0.209553882479667664
1 24.0831413269042969 0.316663801670074463
1 32.0671310424804688 0.392148971557617188
1 30.2339115142822266 0.28697735071182251
1 34.0521469116210938 0.125363349914550781
1 38.8851127624511719 0.10560724139213562
1 36.988555908203125 0.140664041042327881
1 12.67230224609375 0.375122576951980591
1 32.7982254028320312 0.244861766695976257
1 14.5427818298339844 0.280172258615493774
1 44.8286552429199219 0.138722717761993408
1 41.0009498596191406 0.31213262677192688
1 17.7199306488037109 0.288679599761962891
1 29.9931659698486328 0.183326557278633118
1 33.0447616577148438 0.242228522896766663
1 38.103851318359375 0.174431324005126953
1 16.5248889923095703 0.294248402118682861
1 20.0497169494628906 0.388454943895339966
1 20.3381462097167969 0.274129331111907959
1 43.192626953125 0.125876724720001221
1 16.6298103332519531 0.387366980314254761
1 35.4580802917480469 0.195191130042076111
1 43.5968170166015625 0.224705696105957031
1 6.29821014404296875 0.38897550106048584
1 19.2283992767333984 0.396821171045303345
1 45.3177299499511719 0.145400345325469971
1 28.3818645477294922 0.306915611028671265
1 35.8029022216796875 0.37765076756477356
1 11.18377685546875 0.34403875470161438
1 36.5845375061035156 0.204087331891059875
1 18.8482799530029297 0.310313820838928223
1 39.6865463256835938 0.397703409194946289
1 33.5443496704101562 0.169951960444450378
1 37.6817207336425781 0.156934931874275208
1 18.7764720916748047 0.373458504676818848
1 15.0738029479980469 0.328553527593612671
1 35.1121292114257812 0.206244587898254395
1 19.0368633270263672 0.282290011644363403
1 16.2086143493652344 0.32031482458114624
1 40.933807373046875 0.250140011310577393
1 36.4502105712890625 0.162321329116821289
1 28.4747486114501953 0.395607888698577881
1 39.6696510314941406 0.292453080415725708
1 32.2248382568359375 0.335626453161239624
1 19.3907680511474609 0.354351133108139038
1 42.8360786437988281 0.05973052978515625
1 24.2280464172363281 0.341800779104232788
1 37.2551193237304688 0.08367958664894104
1 37.186798095703125 0.160391166806221008
1 20.2032051086425781 0.352330386638641357
1 15.1619834899902344 0.332817286252975464
1 23.5494232177734375 0.307376593351364136
1 16.0472640991210938 0.344561189413070679
1 34.8194656372070312 0.391517311334609985
1 41.5054283142089844 0.0963069796562194824
1 40.5110244750976562 0.212920278310775757
1 22.6056938171386719 0.218493059277534485
1 21.7676105499267578 0.24141402542591095
1 10.9387245178222656 0.346453756093978882
1 35.806793212890625 0.205384567379951477
1 20.0710296630859375 0.246417760848999023
1 44.273590087890625 0.0236679911613464355
1 13.8348197937011719 0.351278215646743774
1 3.376007080078125 0.373819023370742798
1 40.9975357055664062 0.130443155765533447
1 15.5038280487060547 0.273927062749862671
1 20.1703510284423828 0.360068351030349731
1 39.557769775390625 0.172761827707290649
1 42.6137809753417969 0.0779114365577697754
1 27.9505119323730469 0.317158669233322144
1 18.8770999908447266 0.305789858102798462
1 31.8469734191894531 0.211211308836936951
1 29.7928123474121094 0.219646960496902466
1 45.2595329284667969 0.199191376566886902
1 43.7572555541992188 0.300247073173522949
1 35.9211006164550781 0.2261686772108078
1 27.3285770416259766 0.247023209929466248
1 38.9523887634277344 0.23651731014251709
1 32.4056854248046875 0.166083797812461853
1 41.9112586975097656 0.347101181745529175
1 17.6641788482666016 0.355838805437088013
1 42.0356864929199219 0.0911649167537689209
1 39.0536651611328125 0.351130634546279907
1 22.6793441772460938 0.243100553750991821
1 42.6668357849121094 0.188643127679824829
1 6.95885086059570312 0.344800710678100586
1 35.4520606994628906 0.248859986662864685
1 32.3990440368652344 0.14925307035446167
1 31.98248291015625 0.164728447794914246
1 13.0977821350097656 0.343270480632781982
1 22.8890647888183594 0.386413484811782837
1 38.3686981201171875 0.358346223831176758
1 41.4894485473632812 0.305312395095825195
1 33.3564872741699219 0.270186305046081543
1 27.6603908538818359 0.163880094885826111
1 32.9668121337890625 0.386442124843597412
1 38.808013916015625 0.21761004626750946
1 29.1368389129638672 0.351336956024169922
1 26.069366455078125 0.237572625279426575
1 45.3725166320800781 0.316582351922988892
1 11.993988037109375 0.397378146648406982
1 34.8498153686523438 0.371752947568893433
1 31.7186851501464844 0.217448294162750244
1 33.9847412109375 0.210053488612174988
1 23.9591922760009766 0.300203591585159302
1 31.88623046875 0.13051190972328186
1 19.3348426818847656 0.318295001983642578
1 34.330657958984375 0.25600665807723999
1 33.59979248046875 0.28996729850769043
1 41.0179862976074219 0.137975066900253296
1 23.2835159301757812 0.356203228235244751
1 16.3560333251953125 0.318013668060302734
1 38.7390327453613281 0.106371253728866577
1 25.0578975677490234 0.206937506794929504
1 10.161376953125 0.380672097206115723
1 44.0469512939453125 0.0423802733421325684
1 45.1377601623535156 0.148065000772476196
1 13.9972801208496094 0.33575141429901123
1 37.8936538696289062 0.214297756552696228
1 24.3942852020263672 0.385915666818618774
1 39.0944404602050781 0.101062417030334473
1 13.8729133605957031 0.332945853471755981
1 31.5719337463378906 0.320137977600097656
1 29.7889328002929688 0.154416546225547791
1 20.6053409576416016 0.296729922294616699
1 40.9322357177734375 0.123579680919647217
1 23.6798686981201172 0.311838865280151367
0.521943807601928711 46.0680732727050781 0.0684979557991027832
0.602045774459838867 46.0680732727050781 0.0120012164115905762
0.907905638217926025 46.0680732727050781 0.253605663776397705
0.707198023796081543 46.0680732727050781 0.260175555944442749
0.380040109157562256 46.0680732727050781 0.0017954409122467041
0.905022203922271729 46.0680732727050781 0.342556983232498169
0.839806735515594482 46.0680732727050781 0.309860587120056152
0.914437770843505859 46.0680732727050781 0.1292305588722229
0.572932422161102295 46.0680732727050781 0.0306300371885299683
0.940048098564147949 46.0680732727050781 0.248876750469207764
0.547963738441467285 46.0680732727050781 0.164465859532356262
0.136297106742858887 46.0680732727050781 0.00369524955749511719
0.428697347640991211 46.0680732727050781 0.047475084662437439
0.463461220264434814 46.0680732727050781 0.135872736573219299
0.26456063985824585 46.0680732727050781 0.100796729326248169
0.729281246662139893 46.0680732727050781 0.394397616386413574
0.198908507823944092 46.0680732727050781 0.168550163507461548
0.0779361128807067871 46.0680732727050781 0.109042853116989136
0.689278781414031982 46.0680732727050781 0.370556920766830444
0.465752661228179932 46.0680732727050781 0.389509439468383789
0.360791683197021484 46.0680732727050781 0.229604601860046387
0.239380434155464172 46.0680732727050781 0.199249699711799622
0.60343092679977417 46.0680732727050781 0.252586066722869873
0.303156614303588867 46.0680732727050781 0.25073617696762085
0.273418933153152466 46.0680732727050781 0.300793677568435669
0.0289282053709030151 46.0680732727050781 0.0838811993598937988
0.058925919234752655 46.0680732727050781 0.196695789694786072
0.00687971897423267365 46.0680732727050781 0.153568506240844727
0.0812391489744186401 46.0680732727050781 0.311427503824234009
0.223146632313728333 46.0680732727050781 0.233433425426483154
9.99200722162640886e-16 41.8749732971191406 0.109740391373634338
9.99200722162640886e-16 26.9480361938476562 0.20653851330280304
9.99200722162640886e-16 12.5891914367675781 0.0368166565895080566
9.99200722162640886e-16 22.0662136077880859 0.0254118740558624268
9.99200722162640886e-16 24.3369617462158203 0.126276805996894836
9.99200722162640886e-16 32.4214210510253906 0.240777537226676941
9.99200722162640886e-16 22.5678615570068359 0.182328134775161743
9.99200722162640886e-16 38.7828254699707031 0.0886665359139442444
9.99200722162640886e-16 29.0202827453613281 0.185658618807792664
9.99200722162640886e-16 6.74945449829101562 0.037712782621383667
9.99200722162640886e-16 11.7538337707519531 0.0350690782070159912
9.99200722162640886e-16 42.6840400695800781 0.365706712007522583
9.99200722162640886e-16 18.0625934600830078 0.0264566689729690552
9.99200722162640886e-16 23.8870391845703125 0.197491630911827087
9.99200722162640886e-16 34.8737564086914062 0.0796813368797302246
9.99200722162640886e-16 45.6006736755371094 0.368356853723526001
9.99200722162640886e-16 7.83673477172851562 0.0548155009746551514
9.99200722162640886e-16 44.8655357360839844 0.0283223725855350494
9.99200722162640886e-16 45.9190330505371094 0.293335378170013428
9.99200722162640886e-16 37.4954032897949219 0.208878844976425171
9.99200722162640886e-16 41.7742881774902344 0.261602401733398438
9.99200722162640886e-16 38.8700752258300781 0.333392143249511719
9.99200722162640886e-16 33.3392105102539062 0.169753193855285645
9.99200722162640886e-16 8.97468185424804688 0.0602945089340209961
9.99200722162640886e-16 25.5904197692871094 0.138565152883529663
9.99200722162640886e-16 35.2403945922851562 0.240919321775436401
9.99200722162640886e-16 6.29665374755859375 0.0132018327713012695
9.99200722162640886e-16 44.68603515625 0.157193869352340698
9.99200722162640886e-16 33.588104248046875 0.0388156101107597351
9.99200722162640886e-16 21.8410739898681641 0.0137743949890136719
9.99200722162640886e-16 42.7549705505371094 0.362872421741485596
9.99200722162640886e-16 40.8781051635742188 0.0528975389897823334
9.99200722162640886e-16 42.6979827880859375 0.0491057112812995911
9.99200722162640886e-16 28.7725811004638672 0.222261741757392883
9.99200722162640886e-16 2.21813201904296875 0.00422108173370361328
9.99200722162640886e-16 41.61895751953125 0.0465828478336334229
9.99200722162640886e-16 21.6570034027099609 0.109646439552307129
9.99200722162640886e-16 41.9496383666992188 0.127723380923271179
9.99200722162640886e-16 15.0493297576904297 0.0309235155582427979
9.99200722162640886e-16 38.1844406127929688 0.222975760698318481
9.99200722162640886e-16 11.3482246398925781 0.0830621421337127686
9.99200722162640886e-16 36.4454193115234375 0.00672701746225357056
9.99200722162640886e-16 22.2725925445556641 0.0650712102651596069
9.99200722162640886e-16 29.8753623962402344 0.126031875610351562
9.99200722162640886e-16 35.6629409790039062 0.256757855415344238
9.99200722162640886e-16 29.4399127960205078 0.0654038339853286743
9.99200722162640886e-16 17.6845226287841797 0.0030924379825592041
9.99200722162640886e-16 45.7560348510742188 0.370899945497512817
9.99200722162640886e-16 40.1247596740722656 0.138073891401290894
9.99200722162640886e-16 17.5189876556396484 0.142195403575897217
9.99200722162640886e-16 28.4917335510253906 0.19881691038608551
9.99200722162640886e-16 36.503143310546875 0.217547044157981873
9.99200722162640886e-16 27.7515869140625 0.117631718516349792
9.99200722162640886e-16 44.23260498046875 0.111369244754314423
9.99200722162640886e-16 40.2765998840332031 0.0766908973455429077
9.99200722162640886e-16 28.0061206817626953 0.0268200188875198364
9.99200722162640886e-16 2.48237228393554688 0.0125564038753509521
9.99200722162640886e-16 36.4649696350097656 0.187900036573410034
9.99200722162640886e-16 37.9880523681640625 0.008841685950756073
9.99200722162640886e-16 12.2677078247070312 0.100595444440841675
9.99200722162640886e-16 41.1202125549316406 0.177223920822143555
9.99200722162640886e-16 33.3266868591308594 0.106328926980495453
9.99200722162640886e-16 34.1721878051757812 0.079284176230430603
9.99200722162640886e-16 7.49189376831054688 0.0204994082450866699
9.99200722162640886e-16 40.7775535583496094 0.283515006303787231
9.99200722162640886e-16 40.1915359497070312 0.271763801574707031
9.99200722162640886e-16 35.0736007690429688 0.235018700361251831
9.99200722162640886e-16 31.7794876098632812 0.164959162473678589
9.99200722162640886e-16 31.7739372253417969 0.045138917863368988
9.99200722162640886e-16 41.3918991088867188 0.158525943756103516
9.99200722162640886e-16 25.7852611541748047 0.0296951532363891602
9.99200722162640886e-16 20.7641677856445312 0.176482051610946655
9.99200722162640886e-16 35.9970283508300781 0.303024381399154663
9.99200722162640886e-16 38.9160842895507812 0.00226302817463874817
9.99200722162640886e-16 17.5064659118652344 0.0834841132164001465
9.99200722162640886e-16 30.9384002685546875 0.123314633965492249
9.99200722162640886e-16 41.1249580383300781 0.249251604080200195
9.99200722162640886e-16 40.0865287780761719 0.223029822111129761
9.99200722162640886e-16 42.23828125 0.356331557035446167
9.99200722162640886e-16 23.5220603942871094 0.157734349370002747
9.99200722162640886e-16 20.2931709289550781 0.00216786563396453857
9.99200722162640886e-16 15.3765716552734375 0.106397360563278198
9.99200722162640886e-16 34.851531982421875 0.156759843230247498
9.99200722162640886e-16 45.8542404174804688 0.354606002569198608
9.99200722162640886e-16 28.0927867889404297 0.0629287213087081909
9.99200722162640886e-16 35.7354736328125 0.169883549213409424
9.99200722162640886e-16 45.5674552917480469 0.040315873920917511
9.99200722162640886e-16 13.9916877746582031 0.0390220582485198975
9.99200722162640886e-16 39.3980979919433594 0.250486254692077637
9.99200722162640886e-16 27.0212345123291016 0.0460482537746429443
9.99200722162640886e-16 41.190765380859375 0.0194692946970462799
9.99200722162640886e-16 15.8421611785888672 0.0943892002105712891
9.99200722162640886e-16 40.4995765686035156 0.219861969351768494
9.99200722162640886e-16 36.9570693969726562 0.104828007519245148
9.99200722162640886e-16 28.7825965881347656 0.169585630297660828
9.99200722162640886e-16 22.4622821807861328 0.129491418600082397
9.99200722162640886e-16 32.3729515075683594 0.0965887606143951416
9.99200722162640886e-16 17.8871364593505859 0.0865017324686050415
9.99200722162640886e-16 16.0663776397705078 0.0492188334465026855
9.99200722162640886e-16 41.3107376098632812 0.175420284271240234
9.99200722162640886e-16 35.589691162109375 0.171725839376449585
9.99200722162640886e-16 33.6526603698730469 0.222857117652893066
9.99200722162640886e-16 44.8372077941894531 0.335258692502975464
