ply
format ascii 1.0
element vertex 760
property float x
property float y
property float z
end_header
0.319999992847442627 0.44555211067199707 0.00614809244871139526
0.319999992847442627 0.474902898073196411 0.0607730671763420105
0.319999992847442627 0.141114130616188049 0.0909591689705848694
0.319999992847442627 0.374836891889572144 0.107777878642082214
0.319999992847442627 1.00456416606903076 0.0417906530201435089
0.319999992847442627 0.277542620897293091 0.00488136895000934601
0.319999992847442627 0.872720301151275635 0.0553317554295063019
0.319999992847442627 1.009185791015625 0.0084967389702796936
0.319999992847442627 0.426795929670333862 0.0679508298635482788
0.319999992847442627 0.694240987300872803 0.00428168848156929016
0.319999992847442627 0.209787607192993164 0.0877421349287033081
0.319999992847442627 0.538855791091918945 0.0716195777058601379
0.319999992847442627 0.563446104526519775 0.00931289792060852051
0.319999992847442627 0.645142734050750732 0.0511402301490306854
0.319999992847442627 1.72727179527282715 0.014663010835647583
0.319999992847442627 0.593827486038208008 0.0607133209705352783
0.319999992847442627 0.989691972732543945 0.0465485528111457825
0.319999992847442627 0.783328413963317871 0.0112611204385757446
0.319999992847442627 0.405328065156936646 0.0311403237283229828
0.319999992847442627 1.77577114105224609 0.00325612723827362061
0.319999992847442627 0.960052013397216797 0.0643127858638763428
0.319999992847442627 1.96876108646392822 0.00853928923606872559
0.319999992847442627 0.248096153140068054 0.0109267076477408409
0.319999992847442627 0.250825971364974976 0.0232626404613256454
0.319999992847442627 0.0631003007292747498 0.042332042008638382
0.319999992847442627 1.67215144634246826 0.0266153663396835327
0.319999992847442627 2.36767768859863281 0.00358191132545471191
0.319999992847442627 0.198163196444511414 0.0111733106896281242
0.319999992847442627 0.0558892786502838135 0.0690502375364303589
0.319999992847442627 1.4679025411605835 0.0351174101233482361
0.319999992847442627 1.21513879299163818 0.0329362601041793823
0.319999992847442627 0.772425532341003418 0.053919374942779541
0.319999992847442627 1.79330813884735107 0.0183221474289894104
0.319999992847442627 0.269502937793731689 0.0844039618968963623
0.319999992847442627 1.28753817081451416 0.0471357628703117371
0.319999992847442627 2.12840747833251953 0.0112885534763336182
0.319999992847442627 0.248559907078742981 0.0772794261574745178
0.319999992847442627 1.54851686954498291 0.00200583785772323608
0.319999992847442627 0.990425348281860352 0.0550198480486869812
0.319999992847442627 0.0869606137275695801 0.11268654465675354
0.319999992847442627 0.477206945419311523 0.0881749615073204041
0.319999992847442627 0.93636322021484375 0.0459900349378585815
0.319999992847442627 1.31430625915527344 0.00565390288829803467
0.319999992847442627 1.56678175926208496 0.0412447303533554077
0.319999992847442627 0.277818113565444946 0.0437802150845527649
0.319999992847442627 0.163070380687713623 0.074494481086730957
0.319999992847442627 0.941522181034088135 0.0476509332656860352
0.319999992847442627 0.466657966375350952 0.0329519622027873993
0.319999992847442627 0.634466648101806641 0.038702450692653656
0.319999992847442627 0.755260884761810303 0.0645592287182807922
0.319999992847442627 1.12568366527557373 0.025229625403881073
0.319999992847442627 0.20460665225982666 0.0204381607472896576
0.319999992847442627 1.21477150917053223 0.026744455099105835
0.319999992847442627 0.13013884425163269 0.0170675721019506454
0.319999992847442627 1.17670965194702148 0.0025227963924407959
0.319999992847442627 0.0158095359802246094 0.107353530824184418
0.319999992847442627 0.326039314270019531 0.0132423005998134613
0.319999992847442627 0.16560111939907074 0.040002133697271347
0.319999992847442627 0.726534843444824219 0.0189447365701198578
0.319999992847442627 0.38394397497177124 0.0575330853462219238
0.319999992847442627 1.27818286418914795 0.00469050556421279907
0.319999992847442627 0.692003071308135986 0.0484876669943332672
0.319999992847442627 1.48182618618011475 0.00224347412586212158
0.319999992847442627 0.277601808309555054 0.0826783105731010437
0.319999992847442627 0.742305278778076172 0.0637481659650802612
0.319999992847442627 0.160351499915122986 0.0340078473091125488
0.319999992847442627 2.20267772674560547 0.00348717719316482544
0.319999992847442627 0.207491323351860046 0.0468340441584587097
0.319999992847442627 0.76784360408782959 0.00713535398244857788
0.319999992847442627 1.03893733024597168 0.0482016950845718384
0.319999992847442627 0.573137819766998291 0.0962915346026420593
0.319999992847442627 1.03160226345062256 0.0289136618375778198
0.319999992847442627 1.37727200984954834 0.0316743925213813782
0.319999992847442627 0.30245169997215271 0.00735967978835105896
0.319999992847442627 0.636895596981048584 0.0205043144524097443
0.319999992847442627 0.0331345200538635254 0.0813696160912513733
0.319999992847442627 0.467620968818664551 0.0469232909381389618
0.319999992847442627 0.0131230205297470093 0.0811047479510307312
0.319999992847442627 1.25031554698944092 0.0477610602974891663
0.319999992847442627 0.893338203430175781 0.0579976178705692291
0.319999992847442627 0.461075454950332642 0.0798954293131828308
0.319999992847442627 1.40294969081878662 0.00637567788362503052
0.319999992847442627 2.1291201114654541 0.0112933069467544556
0.319999992847442627 0.0456293374300003052 0.1079229936003685
0.319999992847442627 0.889037132263183594 0.0403984226286411285
0.319999992847442627 1.05093288421630859 0.0598496198654174805
0.319999992847442627 0.0619375742971897125 0.0671072974801063538
0.319999992847442627 1.06801128387451172 0.0179163627326488495
0.319999992847442627 0.317905157804489136 0.110714063048362732
0.319999992847442627 1.5607837438583374 0.0247541666030883789
0.319999992847442627 0.406122207641601562 0.00992695614695549011
0.319999992847442627 1.30981504917144775 0.0334493666887283325
0.319999992847442627 1.01663017272949219 0.00982613489031791687
0.319999992847442627 0.828880548477172852 0.0582658275961875916
0.319999992847442627 1.30489790439605713 0.0425891727209091187
0.319999992847442627 0.906111299991607666 0.0641798526048660278
0.319999992847442627 0.849905312061309814 0.00956105440855026245
0.319999992847442627 0.726704895496368408 0.0284063071012496948
0.319999992847442627 1.73992693424224854 0.00867145508527755737
0.319999992847442627 1.05954873561859131 0.0676071047782897949
0.319999992847442627 0.358073532581329346 0.00501411221921443939
0.319999992847442627 0.712654650211334229 0.0581457130610942841
0.319999992847442627 0.184508100152015686 0.0256016235798597336
0.319999992847442627 0.723752140998840332 0.00435804203152656555
0.319999992847442627 1.95557045936584473 0.0124631673097610474
0.319999992847442627 1.06521141529083252 0.00543782487511634827
0.319999992847442627 0.0196773596107959747 0.0823785066604614258
0.319999992847442627 1.00842022895812988 0.0169806405901908875
0.319999992847442627 1.37630069255828857 0.0316035598516464233
0.319999992847442627 0.872753381729125977 0.0529734566807746887
0.319999992847442627 0.368885248899459839 0.018871799111366272
0.319999992847442627 0.0224021691828966141 0.0916400328278541565
0.319999992847442627 0.21990610659122467 0.0617126449942588806
0.319999992847442627 0.041065603494644165 0.0463584810495376587
0.319999992847442627 0.7946014404296875 0.0842474102973937988
0.319999992847442627 1.96092712879180908 0.0121620446443557739
0.319999992847442627 1.77490293979644775 0.00647676736116409302
0.319999992847442627 0.900031328201293945 0.000374898314476013184
0.319999992847442627 0.582144320011138916 0.0929083600640296936
0.319999992847442627 1.82877898216247559 0.0174977406859397888
0.319999992847442627 1.14348483085632324 0.0310027450323104858
0.319999992847442627 1.25530314445495605 0.0418251752853393555
0.319999992847442627 1.8029172420501709 0.0235575959086418152
0.319999992847442627 0.775596857070922852 0.0541638508439064026
0.319999992847442627 0.0775801539421081543 0.047964971512556076
0.319999992847442627 0.0644557774066925049 0.0871634334325790405
0.319999992847442627 0.898430168628692627 0.0540507771074771881
0.319999992847442627 1.71626937389373779 0.00628497451543807983
0.319999992847442627 1.24764847755432129 0.0628910884261131287
0.319999992847442627 0.51260828971862793 0.0727657899260520935
0.319999992847442627 1.32530093193054199 0.0279995426535606384
0.319999992847442627 1.75435543060302734 0.00677749514579772949
0.319999992847442627 1.15593445301055908 0.00275529548525810242
0.319999992847442627 0.61274266242980957 0.0794045478105545044
0.319999992847442627 1.86140751838684082 0.0182121247053146362
0.319999992847442627 0.0830821096897125244 0.102006405591964722
0.319999992847442627 0.548817753791809082 0.0526811666786670685
0.319999992847442627 1.38579893112182617 0.0233309566974639893
0.319999992847442627 0.936362802982330322 0.0028046146035194397
0.319999992847442627 0.245803922414779663 0.0587007999420166016
0.319999992847442627 0.523963689804077148 0.0829912871122360229
0.319999992847442627 0.553246080875396729 0.00805856101214885712
0.319999992847442627 0.470566511154174805 0.082191959023475647
0.319999992847442627 0.459641188383102417 0.0279404670000076294
0.319999992847442627 1.60473537445068359 0.00804789364337921143
0.319999992847442627 0.0692626312375068665 0.112638741731643677
0.319999992847442627 0.108180440962314606 0.049868948757648468
0.319999992847442627 1.18534386157989502 0.032558247447013855
0.319999992847442627 0.506675362586975098 0.0692594125866889954
0.319999992847442627 0.50823599100112915 0.0384781062602996826
0.319999992847442627 0.644197523593902588 0.0341569595038890839
0.319999992847442627 0.39956548810005188 0.0737480893731117249
0.319999992847442627 1.06660377979278564 0.00977989286184310913
0.319999992847442627 0.22681659460067749 0.0453880652785301208
0.319999992847442627 0.973692595958709717 0.0171977803111076355
0.319999992847442627 0.735326707363128662 0.0452815443277359009
0.319999992847442627 1.42551064491271973 0.0220955163240432739
0.319999992847442627 0.0585933811962604523 0.0520616695284843445
0.319999992847442627 0.278896212577819824 0.102113053202629089
0.319999992847442627 0.0522341132164001465 0.0615287944674491882
0.319999992847442627 0.391486197710037231 0.0270334631204605103
0.319999992847442627 0.968355000019073486 0.0754916518926620483
0.319999992847442627 0.435304999351501465 0.00940307974815368652
0.319999992847442627 1.99067091941833496 0.0202916115522384644
0.319999992847442627 0.901407122611999512 0.0624529533088207245
0.319999992847442627 0.0566143542528152466 0.067796654999256134
0.319999992847442627 1.01228833198547363 0.00879352912306785583
0.319999992847442627 0.115412972867488861 0.0233685262501239777
0.319999992847442627 0.666133999824523926 0.0839397609233856201
0.319999992847442627 0.864409148693084717 0.0626998245716094971
0.319999992847442627 0.645516276359558105 0.0136240087449550629
0.319999992847442627 0.281285405158996582 0.0773175284266471863
0.319999992847442627 1.31107020378112793 0.0528816133737564087
0.319999992847442627 1.52068793773651123 0.012178666889667511
0.319999992847442627 0.212382957339286804 0.0390857160091400146
0.319999992847442627 0.957596957683563232 0.0465030930936336517
0.319999992847442627 0.485454261302947998 0.100825563073158264
0.319999992847442627 0.632064700126647949 0.0122042335569858551
0.319999992847442627 1.10837984085083008 0.0257311873137950897
0.319999992847442627 0.110624164342880249 0.0738449841737747192
0.319999992847442627 0.819185137748718262 0.063535735011100769
0.319999992847442627 0.649667024612426758 0.0383896753191947937
0.319999992847442627 0.344379276037216187 0.0897183418273925781
0.319999992847442627 2.35655307769775391 0.00199347734451293945
0.319999992847442627 0.818038105964660645 0.0828697755932807922
0.319999992847442627 0.858860969543457031 0.0489084720611572266
0.319999992847442627 0.397567689418792725 0.0787865892052650452
0.319999992847442627 0.708317935466766357 0.088552035391330719
0.319999992847442627 1.35927736759185791 0.0433698147535324097
0.319999992847442627 0.081638142466545105 0.00613266322761774063
0.319999992847442627 0.131121277809143066 0.0417614802718162537
0.319999992847442627 0.539322495460510254 0.0645973384380340576
0.319999992847442627 2.28815889358520508 0.0028942599892616272
0.319999992847442627 1.57335162162780762 0.0177267789840698242
0.319999992847442627 1.47630822658538818 0.0325457602739334106
0.319999992847442627 0.992815673351287842 0.0601419061422348022
0.319999992847442627 0.575816154479980469 0.03134918212890625
0.319999992847442627 2.23230338096618652 0.000292375683784484863
0.319999992847442627 0.254411160945892334 0.062019646167755127
0.319999992847442627 0.770271420478820801 0.0601835288107395172
0.319999992847442627 1.13002645969390869 0.00506896898150444031
0.319999992847442627 1.27088665962219238 0.0498985350131988525
0.319999992847442627 0.0832397639751434326 0.0736582428216934204
0.319999992847442627 0.503927171230316162 0.0744821503758430481
0.319999992847442627 0.969939827919006348 1.92672014236450195e-05
0.319999992847442627 1.29214334487915039 0.0221847072243690491
0.319999992847442627 0.487463057041168213 0.0511244162917137146
0.319999992847442627 0.521924138069152832 0.0965246930718421936
0.319999992847442627 1.19463157653808594 0.0488253310322761536
0.319999992847442627 0.0772443339228630066 0.0595696084201335907
0.319999992847442627 0.358610779047012329 0.0229967273771762848
0.319999992847442627 0.175296396017074585 0.0172778740525245667
0.319999992847442627 0.395786195993423462 0.0824242904782295227
0.319999992847442627 1.12705230712890625 0.0422995612025260925
0.319999992847442627 1.50482749938964844 0.0195275768637657166
0.319999992847442627 0.986762166023254395 0.0657791644334793091
0.319999992847442627 0.462354212999343872 0.0356810614466667175
0.319999992847442627 0.443462014198303223 0.0938842371106147766
0.319999992847442627 0.827629327774047852 0.0271320492029190063
0.319999992847442627 1.123291015625 0.0156126804649829865
0.319999992847442627 0.163108393549919128 0.113431356847286224
0.319999992847442627 0.0536625348031520844 0.0410294309258460999
0.319999992847442627 0.867087125778198242 0.0233203694224357605
0.319999992847442627 1.34338593482971191 0.0145645737648010254
0.319999992847442627 0.128038138151168823 0.027212170884013176
0.319999992847442627 0.518393337726593018 0.0679756924510002136
0.319999992847442627 0.870353579521179199 0.00337769091129302979
0.319999992847442627 0.652911484241485596 0.071841701865196228
0.319999992847442627 1.46008586883544922 0.0187815502285957336
0.319999992847442627 0.0541372336447238922 0.00728337466716766357
0.319999992847442627 0.861069321632385254 0.0570900216698646545
0.319999992847442627 0.0200291704386472702 0.00328756123781204224
0.319999992847442627 0.987458705902099609 0.0724843144416809082
0.319999992847442627 0.746355891227722168 0.0641068816184997559
0.319999992847442627 0.45153006911277771 0.00719190016388893127
0.319999992847442627 1.12011051177978516 0.019423317164182663
0.319999992847442627 0.223612383008003235 0.0702841803431510925
0.319999992847442627 0.0325949341058731079 0.000483344192616641521
0.319999992847442627 2.19828200340270996 0.00330808758735656738
0.319999992847442627 0.183823287487030029 0.00241648592054843903
0.319999992847442627 0.737104713916778564 0.0144918039441108704
0.319999992847442627 0.506045699119567871 0.10269898921251297
0.319999992847442627 0.712539792060852051 0.0777805671095848083
0.319999992847442627 0.896973788738250732 0.0775874704122543335
0.319999992847442627 0.889087259769439697 0.0679016336798667908
0.319999992847442627 0.864551544189453125 0.0695066377520561218
0.319999992847442627 0.386006206274032593 0.0653487667441368103
0.319999992847442627 1.09282433986663818 0.0654081776738166809
0.319999992847442627 0.938800990581512451 0.00405823811888694763
0.319999992847442627 1.41683793067932129 0.0451067686080932617
0.319999992847442627 0.0724630206823348999 0.00978948362171649933
0.319999992847442627 0.8329811692237854 0.0723301172256469727
0.319999992847442627 1.40387141704559326 0.00905208289623260498
0.319999992847442627 0.180136427283287048 0.0830750241875648499
0.319999992847442627 0.00427378248423337936 0.108761779963970184
0.319999992847442627 1.52363908290863037 0.0199296846985816956
0.319999992847442627 0.347170591354370117 0.0592380315065383911
0.319999992847442627 2.08972382545471191 0.0168119892477989197
0.319999992847442627 1.19101738929748535 0.0291800051927566528
0.319999992847442627 0.155092298984527588 0.0893820971250534058
0.319999992847442627 2.17439484596252441 0.00912176817655563354
0.319999992847442627 1.20298349857330322 0.00827731937170028687
0.319999992847442627 0.293062001466751099 0.0582017078995704651
0.319999992847442627 1.47813749313354492 0.0112372264266014099
0.319999992847442627 0.972545504570007324 0.0448318980634212494
0.319999992847442627 1.26525044441223145 0.017183937132358551
0.319999992847442627 0.903522610664367676 0.0719564184546470642
0.319999992847442627 1.52210402488708496 0.0191179215908050537
0.319999992847442627 0.989237487316131592 0.0617747791111469269
0.319999992847442627 0.0495423451066017151 0.0841194987297058105
0.319999992847442627 1.9942474365234375 0.0234348326921463013
0.319999992847442627 0.0876351520419120789 0.0576554946601390839
0.319999992847442627 0.120713502168655396 0.067288227379322052
0.319999992847442627 0.473097145557403564 0.0178674925118684769
0.319999992847442627 0.0181202124804258347 0.0250597484409809113
0.319999992847442627 0.57576751708984375 0.0502864271402359009
0.319999992847442627 0.258326947689056396 0.0459149032831192017
0.319999992847442627 0.447083055973052979 0.0577209033071994781
0.319999992847442627 0.0830494016408920288 0.0138860400766134262
0.319999992847442627 0.311482220888137817 0.0991804301738739014
0.319999992847442627 0.400445729494094849 0.0605515502393245697
0.319999992847442627 0.713772416114807129 0.0249885097146034241
0.319999992847442627 0.650933444499969482 0.0303684435784816742
0.319999992847442627 0.273831367492675781 0.110757879912853241
0.319999992847442627 1.79773211479187012 0.0156456753611564636
0.319999992847442627 0.608940243721008301 0.0440415292978286743
0.319999992847442627 0.20620274543762207 0.0910934209823608398
0.319999992847442627 1.12455809116363525 0.0319141335785388947
0.319999992847442627 0.816766321659088135 0.041444338858127594
0.319999992847442627 0.80886387825012207 0.0257565565407276154
0.319999992847442627 0.122612990438938141 0.016068384051322937
0.319999992847442627 1.26583468914031982 0.0553492382168769836
0.319999992847442627 0.236103281378746033 0.0671926289796829224
0.319999992847442627 0.636756777763366699 0.0367322526872158051
0.319999992847442627 1.26946079730987549 0.051987379789352417
0.319999992847442627 0.524436712265014648 0.00688251480460166931
0.319999992847442627 0.764156579971313477 0.0490634739398956299
0.319999992847442627 1.09154701232910156 0.0446019358932971954
0.319999992847442627 0.931675136089324951 0.0703447312116622925
0.319999992847442627 0.0272418763488531113 0.0355666652321815491
0.319999992847442627 0.201050296425819397 0.0819914042949676514
0.319999992847442627 0.390573590993881226 0.0844407081604003906
0.319999992847442627 1.42142021656036377 0.0448963642120361328
0.319999992847442627 1.37485551834106445 0.0210027620196342468
0.319999992847442627 1.04337620735168457 0.0704405680298805237
0.319999992847442627 0.520691633224487305 0.0532825775444507599
0.319999992847442627 0.265128433704376221 0.0185307487845420837
0.319999992847442627 0.606445968151092529 0.0250073857605457306
0.319999992847442627 0.252880603075027466 0.0352475456893444061
0.319999992847442627 0.488698661327362061 0.087603449821472168
0.319999992847442627 0.635879337787628174 0.0262481793761253357
0.319999992847442627 1.23387157917022705 0.0950322747230529785
0.319999992847442627 1.22705292701721191 0.100366257131099701
0.319999992847442627 2.16869163513183594 0.0343448817729949951
0.319999992847442627 1.76708221435546875 0.0436895415186882019
0.319999992847442627 1.94593465328216553 0.118902310729026794
0.319999992847442627 0.982938051223754883 0.108852952718734741
0.319999992847442627 0.950291752815246582 0.10970759391784668
0.319999992847442627 1.82405650615692139 0.0386840179562568665
0.319999992847442627 2.40909504890441895 0.107572220265865326
0.319999992847442627 2.14966416358947754 0.0636075064539909363
0.319999992847442627 1.09835338592529297 0.0902583152055740356
0.319999992847442627 1.04379987716674805 0.103186935186386108
0.319999992847442627 0.431730270385742188 0.123050086200237274
0.319999992847442627 0.961994171142578125 0.0952753275632858276
0.319999992847442627 1.18399012088775635 0.0685270354151725769
0.319999992847442627 1.03748488426208496 0.0829691439867019653
0.319999992847442627 2.00455498695373535 0.0269806161522865295
0.319999992847442627 1.51471960544586182 0.0790397524833679199
0.319999992847442627 2.42563700675964355 0.105773374438285828
0.319999992847442627 1.28207945823669434 0.079634547233581543
0.319999992847442627 2.22421479225158691 0.125510856509208679
0.319999992847442627 1.35442864894866943 0.121783971786499023
0.319999992847442627 2.39691638946533203 0.105116292834281921
0.319999992847442627 2.42340874671936035 0.0666847452521324158
0.319999992847442627 2.4420771598815918 0.0920087993144989014
0.319999992847442627 1.94385170936584473 0.0799940824508666992
0.319999992847442627 1.18249762058258057 0.100646331906318665
0.319999992847442627 1.96539998054504395 0.0798971801996231079
0.319999992847442627 1.879608154296875 0.120551526546478271
0.319999992847442627 2.14609098434448242 0.0467586293816566467
0.319999992847442627 1.80485570430755615 0.104667603969573975
0.319999992847442627 1.38039660453796387 0.122146397829055786
0.319999992847442627 2.37389802932739258 0.0670302212238311768
0.319999992847442627 0.953986167907714844 0.117847800254821777
0.319999992847442627 2.3371429443359375 0.0448206290602684021
0.319999992847442627 1.04628682136535645 0.105381853878498077
0.319999992847442627 2.42432141304016113 0.052662581205368042
0.319999992847442627 1.80254495143890381 0.0626046657562255859
0.319999992847442627 2.13649511337280273 0.0916928648948669434
0.319999992847442627 1.03955066204071045 0.0990598201751708984
0.319999992847442627 2.34178709983825684 0.0564914867281913757
0.319999992847442627 2.3766789436340332 0.0908352956175804138
0.319999992847442627 2.34870338439941406 0.0832028388977050781
0.319999992847442627 1.89481782913208008 0.035882212221622467
0.319999992847442627 1.69127094745635986 0.113204009830951691
0.319999992847442627 1.91746759414672852 0.125152856111526489
0.319999992847442627 0.735764861106872559 0.118890635669231415
0.319999992847442627 0.166775941848754883 0.124792486429214478
0.319999992847442627 1.74827003479003906 0.0539832711219787598
0.319999992847442627 1.55413031578063965 0.118024937808513641
0.319999992847442627 1.02911043167114258 0.101483575999736786
0.319999992847442627 0.581755161285400391 0.127142518758773804
0.319999992847442627 1.12231266498565674 0.104397803544998169
0.319999992847442627 1.72656130790710449 0.122045330703258514
0.319999992847442627 1.53861427307128906 0.098652958869934082
0.319999992847442627 1.30029201507568359 0.0762390494346618652
0.319999992847442627 2.31591463088989258 0.0801234245300292969
0.319999992847442627 2.3672788143157959 0.0572966411709785461
0.319999992847442627 1.94541454315185547 0.0436783358454704285
0.319999992847442627 1.75919723510742188 0.0956166684627532959
0.319999992847442627 2.29196286201477051 0.08805064857006073
0.319999992847442627 1.06735694408416748 0.0790152549743652344
0.319999992847442627 1.01766717433929443 0.114520750939846039
0.319999992847442627 2.0547187328338623 0.106879577040672302
0.319999992847442627 1.82764995098114014 0.0434282347559928894
0.319999992847442627 1.0589911937713623 0.122059516608715057
0.319999992847442627 2.2181861400604248 0.117109812796115875
0.319999992847442627 2.32297253608703613 0.079384341835975647
0.319999992847442627 1.97075343132019043 0.100123330950737
0.319999992847442627 2.16701889038085938 0.123308412730693817
0.319999992847442627 1.48423409461975098 0.0795322805643081665
0.319999992847442627 1.88651037216186523 0.07102956622838974
0.319999992847442627 1.26654589176177979 0.121409326791763306
0.319999992847442627 0.629754304885864258 0.127383321523666382
0.319999992847442627 1.80447983741760254 0.0957882851362228394
0.319999992847442627 1.00451338291168213 0.0794359371066093445
0.319999992847442627 1.31736624240875244 0.112121075391769409
0.319999992847442627 2.33663749694824219 0.0249911397695541382
0.319999992847442627 0.864170432090759277 0.114793457090854645
0.319999992847442627 0.58224332332611084 0.123358972370624542
0.319999992847442627 1.61930203437805176 0.0573341473937034607
0.319999992847442627 2.39882993698120117 0.0470347553491592407
0.319999992847442627 0.674104809761047363 0.105605624616146088
0.319999992847442627 1.4205019474029541 0.0950051993131637573
0.319999992847442627 1.12286579608917236 0.128378912806510925
0.319999992847442627 1.38063967227935791 0.124583199620246887
0.319999992847442627 2.39795541763305664 0.0954876840114593506
0.319999992847442627 2.25660991668701172 0.0381019487977027893
0.319999992847442627 1.18918275833129883 0.105148389935493469
0.319999992847442627 0.581235051155090332 0.117673851549625397
0.319999992847442627 1.56715190410614014 0.0589279979467391968
0.319999992847442627 2.44173383712768555 0.101404741406440735
0.319999992847442627 1.05109477043151855 0.123392343521118164
0.319999992847442627 1.97014236450195312 0.0712670385837554932
0.319999992847442627 1.76116108894348145 0.114934101700782776
0.319999992847442627 0.52718651294708252 0.108416363596916199
0.319999992847442627 2.10296392440795898 0.0464926883578300476
0.319999992847442627 2.18279027938842773 0.0510272011160850525
0.319999992847442627 1.63289618492126465 0.128072306513786316
0.319999992847442627 2.15465831756591797 0.127583742141723633
0.319999992847442627 1.28964495658874512 0.0824531093239784241
0.319999992847442627 1.58466804027557373 0.0662591010332107544
0.319999992847442627 1.80968761444091797 0.120911404490470886
0.319999992847442627 0.406203269958496094 0.116890177130699158
0.319999992847442627 0.957454562187194824 0.107914403080940247
0.319999992847442627 2.08796191215515137 0.101124301552772522
0.319999992847442627 2.35817480087280273 0.0524482131004333496
0.319999992847442627 2.12659740447998047 0.0555817261338233948
0.319999992847442627 1.85014700889587402 0.0443507209420204163
0.319999992847442627 1.42242074012756348 0.0894416570663452148
0.319999992847442627 2.39310169219970703 0.0964491814374923706
0.319999992847442627 1.92223536968231201 0.0665911436080932617
0.319999992847442627 2.02231931686401367 0.0881568491458892822
0.319999992847442627 1.67873811721801758 0.0742643922567367554
0.319999992847442627 2.37202858924865723 0.126602098345756531
0.319999992847442627 0.315164089202880859 0.12638285756111145
0.319999992847442627 2.3376917839050293 0.013584919273853302
0.319999992847442627 1.9692232608795166 0.047769203782081604
0.319999992847442627 2.30091047286987305 0.0906416475772857666
0.319999992847442627 1.85374546051025391 0.0498132109642028809
0.319999992847442627 1.7528831958770752 0.119599945843219757
0.319999992847442627 1.7196192741394043 0.101991325616836548
0.319999992847442627 0.946640372276306152 0.104421958327293396
0.319999992847442627 1.79586195945739746 0.0564887300133705139
0.319999992847442627 1.96076273918151855 0.0282495617866516113
0.319999992847442627 0.186177730560302734 0.124138884246349335
0.319999992847442627 0.95738828182220459 0.0849249511957168579
0.319999992847442627 1.06248974800109863 0.0791178345680236816
0.319999992847442627 2.4201967716217041 0.010520637035369873
0.319999992847442627 2.2026360034942627 0.0488194823265075684
0.319999992847442627 1.11488914489746094 0.0865158587694168091
0.319999992847442627 2.37570476531982422 0.123878017067909241
0.319999992847442627 1.88865303993225098 0.100980132818222046
0.319999992847442627 2.24217081069946289 0.0708601921796798706
0.319999992847442627 2.0421452522277832 0.072646021842956543
0.319999992847442627 1.96883273124694824 0.106207400560379028
0.319999992847442627 1.39212679862976074 0.0610536858439445496
0.319999992847442627 1.69163894653320312 0.0990844517946243286
0.319999992847442627 2.32296562194824219 0.0833688080310821533
0.319999992847442627 2.25453972816467285 0.0147790834307670593
0.319999992847442627 1.64629924297332764 0.0461091920733451843
0.319999992847442627 1.35550737380981445 0.0877367556095123291
0.319999992847442627 1.59862589836120605 0.116817235946655273
0.319999992847442627 1.19567573070526123 0.109692364931106567
0.319999992847442627 1.87197518348693848 0.0513470619916915894
0.319999992847442627 2.26065707206726074 0.0690091252326965332
0.319999992847442627 1.32654941082000732 0.0730407387018203735
0.319999992847442627 1.60849940776824951 0.126130327582359314
0.319999992847442627 0.257324457168579102 0.119285561144351959
0.319999992847442627 2.0853877067565918 0.0473654121160507202
0.319999992847442627 1.41743659973144531 0.0825029462575912476
0.319999992847442627 0.805100440979003906 0.1110573410987854
0.319999992847442627 0.877135992050170898 0.0939629524946212769
0.319999992847442627 2.02065205574035645 0.0275966376066207886
0.319999992847442627 0.691021203994750977 0.12734609842300415
0.319999992847442627 0.877460360527038574 0.0884726941585540771
0.319999992847442627 1.67986297607421875 0.0654233545064926147
0.319999992847442627 1.6349189281463623 0.0764882862567901611
0.319999992847442627 1.80011749267578125 0.10468997061252594
0.319999992847442627 2.00655269622802734 0.0760794579982757568
0.319999992847442627 0.996332526206970215 0.121990352869033813
0.319999992847442627 0.45990908145904541 0.112116783857345581
0.319999992847442627 1.48159050941467285 0.088690049946308136
0.319999992847442627 2.34526991844177246 0.0492550209164619446
0.319999992847442627 2.17759919166564941 0.0743030011653900146
0.319999992847442627 0.595046639442443848 0.119317151606082916
0.319999992847442627 1.8882523775100708 0.078073546290397644
0.319999992847442627 1.22739315032958984 0.0978316888213157654
0.319999992847442627 2.08440041542053223 0.0557749345898628235
0.319999992847442627 2.26437520980834961 0.117162279784679413
0.319999992847442627 2.27060413360595703 0.116333037614822388
0.319999992847442627 1.60957884788513184 0.0448575466871261597
0.319999992847442627 1.58966004848480225 0.0551861673593521118
0.319999992847442627 1.53842294216156006 0.0943630188703536987
0.319999992847442627 1.22858083248138428 0.0712555199861526489
0.319999992847442627 1.91608643531799316 0.119577124714851379
0.319999992847442627 1.29953587055206299 0.0811331868171691895
0.319999992847442627 1.28919732570648193 0.0652710124850273132
0.319999992847442627 1.04770481586456299 0.0961568057537078857
0.319999992847442627 2.08601498603820801 0.0264558792114257812
0.319999992847442627 1.01176273822784424 0.0804085880517959595
0.319999992847442627 1.62732458114624023 0.0671039819717407227
0.319999992847442627 0.819002985954284668 0.11560165137052536
0.319999992847442627 2.04310941696166992 0.0330103859305381775
0.319999992847442627 1.06154716014862061 0.112417913973331451
0.319999992847442627 1.90126657485961914 0.102606579661369324
0.319999992847442627 1.34087955951690674 0.0894631296396255493
0.319999992847442627 1.42391932010650635 0.0653074160218238831
0.319999992847442627 1.16752505302429199 0.0879746228456497192
0.319999992847442627 1.64406299591064453 0.101488962769508362
0.319999992847442627 1.80580568313598633 0.0611654072999954224
0.319999992847442627 2.33375453948974609 0.0335438624024391174
0.319999992847442627 1.37410473823547363 0.121855199337005615
0.319999992847442627 2.10467195510864258 0.034944385290145874
0.319999992847442627 1.19943845272064209 0.0730746090412139893
0.319999992847442627 2.17672467231750488 0.0458942502737045288
0.319999992847442627 1.38886332511901855 0.087064005434513092
0.319999992847442627 0.920855164527893066 0.111012652516365051
0.319999992847442627 1.05581247806549072 0.0923195630311965942
0.319999992847442627 2.02554678916931152 0.0839675366878509521
0.319999992847442627 2.36626815795898438 0.0149717181921005249
0.319999992847442627 1.42402052879333496 0.0617041438817977905
0.319999992847442627 1.70383656024932861 0.0928845107555389404
0.319999992847442627 2.2229149341583252 0.103743456304073334
0.319999992847442627 1.79878807067871094 0.0402863770723342896
0.319999992847442627 1.85449957847595215 0.0639193132519721985
0.319999992847442627 1.95888900756835938 0.067905522882938385
0.319999992847442627 1.6042628288269043 0.0612556412816047668
0.319999992847442627 2.31742739677429199 0.00703110545873641968
0.319999992847442627 1.21557676792144775 0.104988068342208862
0.319999992847442627 1.52481651306152344 0.118453249335289001
0.319999992847442627 0.843024134635925293 0.126422539353370667
0.319999992847442627 1.71813321113586426 0.125886008143424988
0.319999992847442627 1.03974699974060059 0.115896709263324738
0.319999992847442627 0.883584856986999512 0.0843838751316070557
0.319999992847442627 2.03883218765258789 0.0309100598096847534
0.319999992847442627 1.37342369556427002 0.0630018562078475952
0.319999992847442627 1.54650294780731201 0.0508080199360847473
0.319999992847442627 0.644172787666320801 0.0988312214612960815
0.319999992847442627 2.03491616249084473 0.104935497045516968
0.319999992847442627 1.14759385585784912 0.0761053934693336487
0.319999992847442627 1.64292061328887939 0.12048666924238205
0.319999992847442627 2.03254413604736328 0.0754249542951583862
0.319999992847442627 2.42062568664550781 0.0678219646215438843
0.319999992847442627 0.973112821578979492 0.0844236314296722412
0.319999992847442627 2.05077624320983887 0.0829296112060546875
0.319999992847442627 1.51532769203186035 0.060698583722114563
0.319999992847442627 0.620240449905395508 0.122447922825813293
0.319999992847442627 2.21781635284423828 0.103868663311004639
0.319999992847442627 2.10837244987487793 0.0833442658185958862
0.319999992847442627 1.45766043663024902 0.0528118908405303955
0.319999992847442627 0.307675361633300781 0.126456350088119507
0.319999992847442627 2.43049812316894531 0.0540605559945106506
0.319999992847442627 0.738563776016235352 0.117979943752288818
0.319999992847442627 1.54743814468383789 0.0657558143138885498
0.319999992847442627 2.35173225402832031 0.038397960364818573
0.319999992847442627 2.18077468872070312 0.0373927950859069824
0.319999992847442627 1.53251361846923828 0.0926996469497680664
0.319999992847442627 1.35048329830169678 0.11159997433423996
0.319999992847442627 1.56789493560791016 0.0507850944995880127
0.319999992847442627 2.21540641784667969 0.0565162599086761475
0.319999992847442627 1.81994962692260742 0.0443432033061981201
0.319999992847442627 1.9160691499710083 0.0826105400919914246
0.319999992847442627 1.86954402923583984 0.0742391720414161682
0.319999992847442627 0.743975996971130371 0.0988546237349510193
0.319999992847442627 1.16940581798553467 0.116132579743862152
0.319999992847442627 2.07524561882019043 0.0198900476098060608
0.319999992847442627 2.28333568572998047 0.0951011478900909424
0.319999992847442627 1.1143423318862915 0.10483347624540329
0.319999992847442627 1.52888083457946777 0.0939096957445144653
0.319999992847442627 1.19604063034057617 0.0885578468441963196
0.319999992847442627 2.28867864608764648 0.118555463850498199
0.319999992847442627 2.18796658515930176 0.0527404621243476868
0.319999992847442627 1.54833865165710449 0.11268278956413269
0.319999992847442627 1.38302218914031982 0.109606906771659851
0.319999992847442627 1.55804586410522461 0.0729856193065643311
0.319999992847442627 2.23705387115478516 0.0884485393762588501
0.319999992847442627 0.333137989044189453 0.12579914927482605
0.319999992847442627 1.78979825973510742 0.0471874773502349854
0.319999992847442627 2.20511031150817871 0.0598116964101791382
0.319999992847442627 1.24517381191253662 0.0906559377908706665
0.319999992847442627 1.74081647396087646 0.0750251859426498413
0.319999992847442627 1.74580669403076172 0.083658948540687561
0.319999992847442627 2.02587056159973145 0.102396920323371887
0.319999992847442627 1.56641983985900879 0.103510245680809021
0.319999992847442627 2.20923757553100586 0.0934081897139549255
0.319999992847442627 2.41841244697570801 0.0852593258023262024
0.319999992847442627 1.97205460071563721 0.109815001487731934
0.319999992847442627 1.29570674896240234 0.0770383477210998535
0.319999992847442627 1.16960549354553223 0.0913785696029663086
0.319999992847442627 2.0878760814666748 0.0435552000999450684
0.319999992847442627 1.53913652896881104 0.103206418454647064
0.319999992847442627 2.18139004707336426 0.0931105315685272217
0.319999992847442627 2.02929878234863281 0.121944516897201538
0.319999992847442627 1.64477634429931641 0.0583747848868370056
0.319999992847442627 1.75012040138244629 0.122770681977272034
0.319999992847442627 1.24932718276977539 0.128949269652366638
0.319999992847442627 2.37385177612304688 0.017849452793598175
0.319999992847442627 1.32148635387420654 0.0608661994338035583
0.319999992847442627 1.7260591983795166 0.124700561165809631
0.319999992847442627 1.89321422576904297 0.0334126949310302734
0.319999992847442627 1.84324657917022705 0.0883210599422454834
0.319999992847442627 1.64139986038208008 0.0648363903164863586
0.319999992847442627 1.33016037940979004 0.0932466089725494385
0.319999992847442627 2.36451292037963867 0.0871189013123512268
0.319999992847442627 0.192850589752197266 0.123935870826244354
0.319999992847442627 1.84864664077758789 0.0527617856860160828
0.319999992847442627 0.576468944549560547 0.121815986931324005
0.319999992847442627 1.6216806173324585 0.106827780604362488
0.319999992847442627 0.113011837005615234 0.124078959226608276
0.319999992847442627 2.43298435211181641 0.0164208859205245972
0.319999992847442627 1.64259505271911621 0.0956637263298034668
0.319999992847442627 1.12102687358856201 0.125861823558807373
0.319999992847442627 1.49299931526184082 0.0835567563772201538
0.319999992847442627 1.05241930484771729 0.101289905607700348
0.319999992847442627 0.678770184516906738 0.121317014098167419
0.319999992847442627 1.22062933444976807 0.0874996185302734375
0.319999992847442627 1.47674226760864258 0.0609728097915649414
0.319999992847442627 1.67813634872436523 0.112183988094329834
0.319999992847442627 2.23506689071655273 0.0679933726787567139
0.319999992847442627 1.03819000720977783 0.0824889987707138062
0.319999992847442627 1.87814474105834961 0.0600123405456542969
0.319999992847442627 2.03204107284545898 0.0414363667368888855
0.319999992847442627 1.34867310523986816 0.129514589905738831
0.319999992847442627 1.88477277755737305 0.0960163921117782593
0.319999992847442627 2.31752753257751465 0.12112552672624588
0.319999992847442627 0.942281484603881836 0.0960781797766685486
0.319999992847442627 1.58229660987854004 0.0844152122735977173
0.319999992847442627 1.246010422706604 0.0828074216842651367
0.319999992847442627 2.35071182250976562 0.0229209139943122864
0.319999992847442627 1.46723556518554688 0.0836428254842758179
0.319999992847442627 1.43750286102294922 0.102264858782291412
0.319999992847442627 0.530863523483276367 0.125966936349868774
0.319999992847442627 1.96407449245452881 0.117747798562049866
0.319999992847442627 2.35424566268920898 0.110234469175338745
0.319999992847442627 2.39260268211364746 0.0773612484335899353
0.319999992847442627 1.48789429664611816 0.0696556717157363892
0.319999992847442627 2.37898397445678711 0.0585655122995376587
0.319999992847442627 1.88291692733764648 0.0714503452181816101
0.319999992847442627 1.64579582214355469 0.116573885083198547
0.319999992847442627 1.62477147579193115 0.0658909305930137634
0.319999992847442627 0.999860286712646484 0.0834657400846481323
0.319999992847442627 2.03859424591064453 0.0866636857390403748
0.319999992847442627 0.825648069381713867 0.11815345287322998
0.319999992847442627 1.2095564603805542 0.114167168736457825
0.319999992847442627 1.89720249176025391 0.108595684170722961
0.319999992847442627 0.908236145973205566 0.0963287800550460815
0.319999992847442627 0.264954090118408203 0.118272796273231506
0.319999992847442627 1.80622124671936035 0.0752130299806594849
0.319999992847442627 1.56274092197418213 0.0654870644211769104
0.319999992847442627 2.41792440414428711 0.0224632546305656433
0.319999992847442627 2.20681047439575195 0.0313421562314033508
0.319999992847442627 1.68046963214874268 0.100169457495212555
0.319999992847442627 1.64620208740234375 0.128014683723449707
0.319999992847442627 2.21026134490966797 0.115155801177024841
0.319999992847442627 2.01570367813110352 0.0499801710247993469
0.319999992847442627 0.0366115570068359375 0.129330903291702271
0.319999992847442627 0.626348733901977539 0.104433447122573853
0.319999992847442627 2.03834438323974609 0.120201848447322845
0.319999992847442627 2.17451572418212891 0.0947020351886749268
0.319999992847442627 2.39430832862854004 0.0505654290318489075
0.319999992847442627 1.12994372844696045 0.0879736542701721191
0.319999992847442627 1.7889406681060791 0.059727795422077179
0.319999992847442627 0.57997894287109375 0.112450733780860901
0.319999992847442627 2.0528101921081543 0.107155241072177887
0.319999992847442627 0.464898467063903809 0.116949200630187988
0.319999992847442627 1.4583885669708252 0.0733701586723327637
0.319999992847442627 0.643979310989379883 0.0986515283584594727
0.319999992847442627 0.348013639450073242 0.118543952703475952
0.319999992847442627 0.8332366943359375 0.100150004029273987
0.319999992847442627 1.39797091484069824 0.0672495588660240173
0.319999992847442627 1.7334744930267334 0.0864003151655197144
0.319999992847442627 2.14255237579345703 0.123626112937927246
0.319999992847442627 2.13575339317321777 0.0886280909180641174
0.319999992847442627 1.32432723045349121 0.0847857296466827393
0.319999992847442627 0.833526968955993652 0.0942547470331192017
0.319999992847442627 1.60001134872436523 0.0780151635408401489
0.319999992847442627 1.89525032043457031 0.046677224338054657
0.319999992847442627 0.374466896057128906 0.119160950183868408
0.319999992847442627 2.12882828712463379 0.0345098674297332764
0.319999992847442627 2.42552900314331055 0.117183901369571686
0.319999992847442627 1.60926437377929688 0.107733190059661865
0.319999992847442627 2.34972167015075684 0.111439533531665802
0.319999992847442627 2.13313674926757812 0.041420862078666687
0.319999992847442627 2.07351493835449219 0.105087831616401672
0.319999992847442627 0.991603970527648926 0.104550294578075409
0.319999992847442627 1.56902861595153809 0.120050512254238129
0.319999992847442627 1.61147665977478027 0.0673359185457229614
0.319999992847442627 2.13761782646179199 0.111011922359466553
0.319999992847442627 2.4253389835357666 0.0690498128533363342
0.319999992847442627 2.3922889232635498 0.0418640449643135071
0.319999992847442627 1.87820577621459961 0.108726948499679565
0.319999992847442627 1.08136105537414551 0.108147561550140381
0.319999992847442627 2.33272886276245117 0.0369838029146194458
0.319999992847442627 2.13032102584838867 0.117134168744087219
0.319999992847442627 0.702230930328369141 0.113578446209430695
0.319999992847442627 1.06825506687164307 0.084454655647277832
0.319999992847442627 2.05772781372070312 0.0767520815134048462
0.319999992847442627 0.698238015174865723 0.10361163318157196
0.319999992847442627 1.43630790710449219 0.129244685173034668
0.319999992847442627 2.0029754638671875 0.0362579971551895142
0.319999992847442627 1.54979634284973145 0.117699846625328064
0.319999992847442627 2.20818924903869629 0.127840131521224976
0.319999992847442627 1.21336960792541504 0.110457949340343475
0.319999992847442627 2.10497260093688965 0.0869210660457611084
0.319999992847442627 1.77112698554992676 0.067284315824508667
0.319999992847442627 1.28577351570129395 0.0893412232398986816
0.319999992847442627 1.33236598968505859 0.116114422678947449
0.319999992847442627 2.05296826362609863 0.128007620573043823
0.319999992847442627 0.57736361026763916 0.126550868153572083
0.319999992847442627 1.19501888751983643 0.0923783481121063232
0.319999992847442627 1.12587070465087891 0.0992984175682067871
0.319999992847442627 1.36910176277160645 0.123256802558898926
0.319999992847442627 1.66829574108123779 0.0741337090730667114
0.319999992847442627 2.28343462944030762 0.0893045812845230103
0.319999992847442627 2.14538216590881348 0.0382755622267723083
0.319999992847442627 2.40743470191955566 0.0716015994548797607
0.319999992847442627 1.76065158843994141 0.0525194406509399414
0.319999992847442627 1.590201735496521 0.0940035954117774963
0.319999992847442627 0.346767187118530273 0.125762104988098145
0.319999992847442627 1.7037506103515625 0.0675861984491348267
0.319999992847442627 1.23130464553833008 0.1278199702501297
0.319999992847442627 1.43691039085388184 0.0741774663329124451
0.319999992847442627 1.90356731414794922 0.0830270946025848389
0.319999992847442627 1.70439767837524414 0.0860905349254608154
0.319999992847442627 1.18204021453857422 0.0869769230484962463
0.319999992847442627 1.1825028657913208 0.072529330849647522
0.319999992847442627 2.3574674129486084 0.109785646200180054
0.319999992847442627 1.40588390827178955 0.119954019784927368
0.319999992847442627 1.77973842620849609 0.0540055185556411743
0.319999992847442627 2.03745436668395996 0.0783588290214538574
0.319999992847442627 2.14188909530639648 0.0512110888957977295
0.319999992847442627 1.84068500995635986 0.0416814908385276794
0.319999992847442627 2.20550227165222168 0.0421251431107521057
0.319999992847442627 1.64440369606018066 0.101744718849658966
0.319999992847442627 2.01636672019958496 0.0587320700287818909
0.319999992847442627 1.36312472820281982 0.0619510859251022339
0.319999992847442627 1.07996773719787598 0.115743272006511688
0.319999992847442627 2.17933440208435059 0.0675234496593475342
0.319999992847442627 1.16902291774749756 0.0693600773811340332
0.319999992847442627 1.09490621089935303 0.107045352458953857
0.319999992847442627 2.0800011157989502 0.0747140794992446899
0.319999992847442627 1.639892578125 0.0543258562684059143
0.319999992847442627 1.8462071418762207 0.102812439203262329
0.319999992847442627 1.27319681644439697 0.0799966752529144287
0.319999992847442627 1.68886983394622803 0.0785248726606369019
0.319999992847442627 2.34181356430053711 0.033596627414226532
0.319999992847442627 1.89974641799926758 0.111279979348182678
0.319999992847442627 1.53876709938049316 0.0512290075421333313
0.319999992847442627 1.17352652549743652 0.089597649872303009
0.319999992847442627 2.34647464752197266 0.0336039438843727112
0.319999992847442627 2.2051544189453125 0.128372639417648315
0.319999992847442627 0.712691307067871094 0.0939359143376350403
0.319999992847442627 2.06541633605957031 0.0971460640430450439
0.319999992847442627 1.88717889785766602 0.122414223849773407
0.319999992847442627 1.44521641731262207 0.129700839519500732
0.319999992847442627 1.6687018871307373 0.12945401668548584
0.319999992847442627 0.962346434593200684 0.0932212024927139282
0.319999992847442627 1.70659661293029785 0.125233590602874756
0.319999992847442627 2.39370179176330566 0.0325285196304321289
0.319999992847442627 0.625203847885131836 0.101804830133914948
0.319999992847442627 1.70211493968963623 0.102799348533153534
0.319999992847442627 0.89808964729309082 0.119184575974941254
0.319999992847442627 0.895429849624633789 0.11951620876789093
0.319999992847442627 2.30313658714294434 0.113130375742912292
0.319999992847442627 1.40930616855621338 0.0619752109050750732
0.319999992847442627 0.820789933204650879 0.107910074293613434
0.319999992847442627 1.24427974224090576 0.0947932302951812744
0.319999992847442627 1.77277278900146484 0.0521294623613357544
