ply
format ascii 1.0
element vertex 775
property float x
property float y
property float z
end_header
-3.4972025275692431e-15 0.449968934059143066 0.046166151762008667
-3.4972025275692431e-15 0.0506239719688892365 0.0414773076772689819
-3.4972025275692431e-15 0.609447777271270752 0.0391918905079364777
-3.4972025275692431e-15 0.630190193653106689 0.0323325097560882568
-3.4972025275692431e-15 0.0619733482599258423 0.0275452695786952972
-3.4972025275692431e-15 0.342467427253723145 0.0205443967133760452
-3.4972025275692431e-15 0.10410686582326889 0.0298554170876741409
-3.4972025275692431e-15 0.0033562143798917532 0.000603549182415008545
-3.4972025275692431e-15 0.421847015619277954 0.0267702192068099976
-3.4972025275692431e-15 0.162745922803878784 0.0115905925631523132
-3.4972025275692431e-15 0.126936823129653931 0.024847719818353653
-3.4972025275692431e-15 0.0549307242035865784 0.0360670387744903564
-3.4972025275692431e-15 0.379749804735183716 0.0305892191827297211
-3.4972025275692431e-15 0.0740694701671600342 0.0469865351915359497
-3.4972025275692431e-15 0.266494423151016235 0.0165272951126098633
-3.4972025275692431e-15 0.220758751034736633 0.0369772650301456451
-3.4972025275692431e-15 0.0507712587714195251 0.0245363730937242508
-3.4972025275692431e-15 0.674130499362945557 0.0366636216640472412
-3.4972025275692431e-15 0.180445462465286255 0.0370139069855213165
-3.4972025275692431e-15 0.0743779242038726807 0.015894819051027298
-3.4972025275692431e-15 0.249411404132843018 0.0142283886671066284
-3.4972025275692431e-15 0.407981812953948975 0.0360471829771995544
-3.4972025275692431e-15 0.604192435741424561 0.0318294055759906769
-3.4972025275692431e-15 0.0875326544046401978 0.00782673060894012451
-3.4972025275692431e-15 0.650400042533874512 0.0460978299379348755
-3.4972025275692431e-15 0.747196793556213379 0.0384344123303890228
-3.4972025275692431e-15 0.314448684453964233 0.0296492520719766617
-3.4972025275692431e-15 0.106359854340553284 0.0306386630982160568
-3.4972025275692431e-15 0.24008353054523468 0.0448620952665805817
-3.4972025275692431e-15 0.3631325364112854 0.0487462952733039856
-3.4972025275692431e-15 0.094405055046081543 0.0339615345001220703
-3.4972025275692431e-15 0.488004952669143677 0.0353691354393959045
-3.4972025275692431e-15 0.00505418982356786728 0.00869974493980407715
-3.4972025275692431e-15 0.0478969365358352661 0.0324993357062339783
-3.4972025275692431e-15 0.22260226309299469 0.0340977832674980164
-3.4972025275692431e-15 0.314683318138122559 0.0255392361432313919
-3.4972025275692431e-15 0.219380885362625122 0.0178859271109104156
-3.4972025275692431e-15 0.393203854560852051 0.0331802107393741608
-3.4972025275692431e-15 0.857159078121185303 0.0466278679668903351
-3.4972025275692431e-15 0.184155106544494629 0.0413328260183334351
-3.4972025275692431e-15 0.239111617207527161 0.0246338285505771637
-3.4972025275692431e-15 0.611047923564910889 0.0419211164116859436
-3.4972025275692431e-15 0.346609324216842651 0.0347415357828140259
-3.4972025275692431e-15 0.275195986032485962 0.0337552577257156372
-3.4972025275692431e-15 0.725949347019195557 0.0398153811693191528
-3.4972025275692431e-15 0.682036340236663818 0.0482564829289913177
-3.4972025275692431e-15 0.509543955326080322 0.0435531400144100189
-3.4972025275692431e-15 0.054229002445936203 0.0411503612995147705
-3.4972025275692431e-15 0.518432319164276123 0.0287486054003238678
-3.4972025275692431e-15 0.823277115821838379 0.0473140552639961243
-3.4972025275692431e-15 0.159776434302330017 0.0390559583902359009
-3.4972025275692431e-15 0.953578054904937744 0.0499414801597595215
-3.4972025275692431e-15 0.37091866135597229 0.0499501079320907593
-3.4972025275692431e-15 0.35859110951423645 0.0201705936342477798
-3.4972025275692431e-15 0.295266240835189819 0.0401786975562572479
-3.4972025275692431e-15 0.43050268292427063 0.0416543297469615936
-3.4972025275692431e-15 0.219639599323272705 0.049994390457868576
-3.4972025275692431e-15 0.0670778378844261169 0.0222559515386819839
-3.4972025275692431e-15 0.593735754489898682 0.0470580048859119415
-3.4972025275692431e-15 0.72860419750213623 0.0460966862738132477
-3.4972025275692431e-15 0.111510366201400757 0.0242039225995540619
-3.4972025275692431e-15 0.098383098840713501 0.00766252726316452026
-3.4972025275692431e-15 0.0204454250633716583 0.0104688629508018494
-3.4972025275692431e-15 0.285148561000823975 0.0434224456548690796
-3.4972025275692431e-15 0.0383140891790390015 0.041175350546836853
-3.4972025275692431e-15 0.593420863151550293 0.0427516140043735504
-3.4972025275692431e-15 0.237496927380561829 0.0177716687321662903
-3.4972025275692431e-15 0.0970420464873313904 0.0325788408517837524
-3.4972025275692431e-15 0.0269365236163139343 0.0446295849978923798
-3.4972025275692431e-15 0.762039661407470703 0.0468756034970283508
-3.4972025275692431e-15 0.106816768646240234 0.0322576798498630524
-3.4972025275692431e-15 0.252822279930114746 0.0443536005914211273
-3.4972025275692431e-15 0.192623704671859741 0.0337423570454120636
-3.4972025275692431e-15 0.156304389238357544 0.0160172432661056519
-3.4972025275692431e-15 0.486964136362075806 0.0357805117964744568
-3.4972025275692431e-15 0.517188906669616699 0.0394052788615226746
-3.4972025275692431e-15 0.0503271445631980896 0.00750046595931053162
-3.4972025275692431e-15 0.0996339395642280579 0.0123851224780082703
-3.4972025275692431e-15 0.127559036016464233 0.0137687548995018005
-3.4972025275692431e-15 0.0258372779935598373 0.00406675040721893311
-3.4972025275692431e-15 0.255367428064346313 0.0436717309057712555
-3.4972025275692431e-15 0.484055817127227783 0.0395595841109752655
-3.4972025275692431e-15 0.0451686643064022064 0.0449827127158641815
-3.4972025275692431e-15 0.0568825304508209229 0.00768307223916053772
-3.4972025275692431e-15 0.064883992075920105 0.0217352397739887238
-3.4972025275692431e-15 0.0866349488496780396 0.0293330717831850052
-3.4972025275692431e-15 0.555429756641387939 0.0444862246513366699
-3.4972025275692431e-15 0.0856138989329338074 0.022844383493065834
-3.4972025275692431e-15 0.541422009468078613 0.0490689836442470551
-3.4972025275692431e-15 0.60713118314743042 0.0412812456488609314
-3.4972025275692431e-15 0.437708348035812378 0.0281776059418916702
-3.4972025275692431e-15 0.815878510475158691 0.0477134883403778076
-3.4972025275692431e-15 0.247540757060050964 0.0138326957821846008
-3.4972025275692431e-15 0.39388352632522583 0.0340730920433998108
-3.4972025275692431e-15 0.162651926279067993 0.0335576385259628296
-3.4972025275692431e-15 0.329994171857833862 0.0344984456896781921
-3.4972025275692431e-15 0.338502973318099976 0.0306053142994642258
-3.4972025275692431e-15 0.567595541477203369 0.033191680908203125
-3.4972025275692431e-15 0.759882211685180664 0.0411478877067565918
-3.4972025275692431e-15 0.716395854949951172 0.0494877025485038757
-3.4972025275692431e-15 0.0142825758084654808 0.0194190144538879395
-3.4972025275692431e-15 0.0986004173755645752 0.0258966907858848572
-3.4972025275692431e-15 0.448480844497680664 0.0229681357741355896
-3.4972025275692431e-15 0.536267936229705811 0.0409007929265499115
-3.4972025275692431e-15 0.207327216863632202 0.0259062387049198151
-3.4972025275692431e-15 0.589442312717437744 0.0362257473170757294
-3.4972025275692431e-15 0.499124914407730103 0.0332817435264587402
-3.4972025275692431e-15 0.267001718282699585 0.0262215640395879745
-3.4972025275692431e-15 0.494736135005950928 0.0459502115845680237
-3.4972025275692431e-15 0.218929693102836609 0.0289712920784950256
-3.4972025275692431e-15 0.315336018800735474 0.0193817205727100372
-3.4972025275692431e-15 0.758408784866333008 0.0398230254650115967
-3.4972025275692431e-15 0.359632700681686401 0.0386902615427970886
-3.4972025275692431e-15 0.151479139924049377 0.0153768919408321381
-3.4972025275692431e-15 0.653618991374969482 0.0383298173546791077
-3.4972025275692431e-15 0.409813225269317627 0.0312690660357475281
-3.4972025275692431e-15 0.0373743213713169098 0.0424138344824314117
-3.4972025275692431e-15 0.662028014659881592 0.0497013367712497711
-3.4972025275692431e-15 0.434791654348373413 0.0244802143424749374
-3.4972025275692431e-15 0.115770585834980011 0.0123170763254165649
-3.4972025275692431e-15 0.235976994037628174 0.0375159606337547302
-3.4972025275692431e-15 0.255923718214035034 0.0211160574108362198
-3.4972025275692431e-15 0.198158055543899536 0.0256449766457080841
-3.4972025275692431e-15 0.0607686340808868408 0.0498678050935268402
-3.4972025275692431e-15 0.110686793923377991 0.0451386831700801849
-3.4972025275692431e-15 0.206439301371574402 0.0215179864317178726
-3.4972025275692431e-15 0.428138613700866699 0.0276039186865091324
-3.4972025275692431e-15 0.685302376747131348 0.0468417815864086151
-3.4972025275692431e-15 0.519345343112945557 0.0368124395608901978
-3.4972025275692431e-15 0.244246095418930054 0.0232581775635480881
-3.4972025275692431e-15 0.14307086169719696 0.0268705114722251892
-3.4972025275692431e-15 0.15842631459236145 0.0366780050098896027
-3.4972025275692431e-15 0.871653497219085693 0.049013383686542511
-3.4972025275692431e-15 0.108953602612018585 0.0470281019806861877
-3.4972025275692431e-15 0.141020208597183228 0.0500590279698371887
-3.4972025275692431e-15 0.0635992437601089478 0.0143131688237190247
-3.4972025275692431e-15 0.752254843711853027 0.0384455733001232147
-3.4972025275692431e-15 0.206126123666763306 0.0246584713459014893
-3.4972025275692431e-15 0.783879280090332031 0.0424687638878822327
-3.4972025275692431e-15 0.0107080470770597458 0.0260685421526432037
-3.4972025275692431e-15 0.125042721629142761 0.0411717966198921204
-3.4972025275692431e-15 0.634547233581542969 0.0380263179540634155
-3.4972025275692431e-15 0.293297439813613892 0.0153212361037731171
-3.4972025275692431e-15 0.35494580864906311 0.0466626659035682678
-3.4972025275692431e-15 0.651256978511810303 0.0379826910793781281
-3.4972025275692431e-15 0.295436710119247437 0.038242734968662262
-3.4972025275692431e-15 0.190086126327514648 0.0213937032967805862
-3.4972025275692431e-15 0.0558564625680446625 0.0396577455103397369
-3.4972025275692431e-15 0.173085570335388184 0.0357526615262031555
-3.4972025275692431e-15 0.391434699296951294 0.0352181866765022278
-3.4972025275692431e-15 0.252033710479736328 0.0220567211508750916
-3.4972025275692431e-15 0.102618128061294556 0.0431580916047096252
-3.4972025275692431e-15 0.439282715320587158 0.0428465977311134338
-3.4972025275692431e-15 0.0707572251558303833 0.0189212262630462646
-3.4972025275692431e-15 0.724620699882507324 0.0369786769151687622
-3.4972025275692431e-15 0.208529025316238403 0.0374368578195571899
-3.4972025275692431e-15 0.27051505446434021 0.0334379598498344421
-3.4972025275692431e-15 0.56679987907409668 0.0308594051748514175
-3.4972025275692431e-15 0.053302280604839325 0.0109887532889842987
-3.4972025275692431e-15 0.155065596103668213 0.0301433335989713669
-3.4972025275692431e-15 0.669551193714141846 0.0342431142926216125
-3.4972025275692431e-15 0.695450723171234131 0.0495155304670333862
-3.4972025275692431e-15 0.154072552919387817 0.0239406172186136246
-3.4972025275692431e-15 0.179355740547180176 0.0210981890559196472
-3.4972025275692431e-15 0.493018776178359985 0.026518581435084343
-3.4972025275692431e-15 0.169478565454483032 0.0391849055886268616
-3.4972025275692431e-15 0.604053676128387451 0.0448217280209064484
-3.4972025275692431e-15 0.0411788858473300934 0.00529065728187561035
-3.4972025275692431e-15 0.420317798852920532 0.0325190722942352295
-3.4972025275692431e-15 0.516675055027008057 0.0313571691513061523
-3.4972025275692431e-15 0.164188355207443237 0.0459493063390254974
-3.4972025275692431e-15 0.0557476319372653961 0.01276426762342453
-3.4972025275692431e-15 0.820680320262908936 0.0459102839231491089
-3.4972025275692431e-15 0.0522866919636726379 0.0298058409243822098
-3.4972025275692431e-15 0.310780942440032959 0.0160354599356651306
-3.4972025275692431e-15 0.135605767369270325 0.0217094700783491135
-3.4972025275692431e-15 0.175199657678604126 0.0377300269901752472
-3.4972025275692431e-15 0.498049437999725342 0.0420494675636291504
-3.4972025275692431e-15 0.684401333332061768 0.0350571013987064362
-3.4972025275692431e-15 0.435425668954849243 0.042812790721654892
-3.4972025275692431e-15 0.123451761901378632 0.0365665405988693237
-3.4972025275692431e-15 0.438850492238998413 0.0254031699150800705
-3.4972025275692431e-15 0.222031936049461365 0.0155479423701763153
-3.4972025275692431e-15 0.227309718728065491 0.0141588449478149414
-3.4972025275692431e-15 0.460940897464752197 0.0281538795679807663
-3.4972025275692431e-15 0.108036443591117859 0.0120262652635574341
-3.4972025275692431e-15 0.0637266486883163452 0.0311115961521863937
-3.4972025275692431e-15 0.599858999252319336 0.0391396880149841309
-3.4972025275692431e-15 0.550752937793731689 0.0394159890711307526
-3.4972025275692431e-15 0.781893312931060791 0.0452169254422187805
-3.4972025275692431e-15 0.671128690242767334 0.0367235578596591949
-3.4972025275692431e-15 0.307536691427230835 0.039302390068769455
-3.4972025275692431e-15 0.589439868927001953 0.0436881557106971741
-3.4972025275692431e-15 0.189980804920196533 0.0341611653566360474
-3.4972025275692431e-15 0.508820056915283203 0.0444045774638652802
-3.4972025275692431e-15 0.719136834144592285 0.0405879020690917969
-3.4972025275692431e-15 0.2272147536277771 0.012687981128692627
-3.4972025275692431e-15 0.0753568187355995178 0.00960992276668548584
-3.4972025275692431e-15 0.0436099916696548462 0.0319806858897209167
-3.4972025275692431e-15 0.671376883983612061 0.0347476154565811157
-3.4972025275692431e-15 0.0551351867616176605 0.0342095568776130676
-3.4972025275692431e-15 0.439486175775527954 0.0464606024324893951
-3.4972025275692431e-15 0.542325139045715332 0.0364017114043235779
-3.4972025275692431e-15 0.0399723351001739502 0.0101877860724925995
-3.4972025275692431e-15 0.965442836284637451 0.0491139106452465057
-3.4972025275692431e-15 0.226811632513999939 0.0156430900096893311
-3.4972025275692431e-15 0.0791488513350486755 0.0260009206831455231
-3.4972025275692431e-15 0.176103159785270691 0.0444010235369205475
-3.4972025275692431e-15 0.133106127381324768 0.0491308271884918213
-3.4972025275692431e-15 0.12091345340013504 0.0119959898293018341
-3.4972025275692431e-15 0.442588776350021362 0.0250530149787664413
-3.4972025275692431e-15 0.584858596324920654 0.0375518426299095154
-3.4972025275692431e-15 0.133152782917022705 0.0133910216391086578
-3.4972025275692431e-15 0.177969709038734436 0.0424321107566356659
-3.4972025275692431e-15 0.050932861864566803 0.0136605240404605865
-3.4972025275692431e-15 0.273024946451187134 0.0421224236488342285
-3.4972025275692431e-15 0.629097878932952881 0.0331650078296661377
-3.4972025275692431e-15 0.351783871650695801 0.0425700433552265167
-3.4972025275692431e-15 0.214085593819618225 0.0284097325056791306
-3.4972025275692431e-15 0.603676915168762207 0.0478934869170188904
-3.4972025275692431e-15 0.423348695039749146 0.0459523200988769531
-3.4972025275692431e-15 0.253669887781143188 0.0267186388373374939
-3.4972025275692431e-15 0.250767916440963745 0.0374330058693885803
-3.4972025275692431e-15 0.831403911113739014 0.0483779385685920715
-3.4972025275692431e-15 0.0253669507801532745 0.0108882486820220947
-3.4972025275692431e-15 0.0687585324048995972 0.0314130187034606934
-3.4972025275692431e-15 0.507948160171508789 0.038637109100818634
-3.4972025275692431e-15 0.416152358055114746 0.022566596046090126
-3.4972025275692431e-15 0.17902103066444397 0.0237789936363697052
-3.4972025275692431e-15 0.226094424724578857 0.036324724555015564
-3.4972025275692431e-15 0.450023531913757324 0.0412324517965316772
-3.4972025275692431e-15 0.57134544849395752 0.0384656935930252075
-3.4972025275692431e-15 0.887592792510986328 0.0490833520889282227
-3.4972025275692431e-15 0.463242620229721069 0.0375434756278991699
-3.4972025275692431e-15 0.466069608926773071 0.0413818769156932831
-3.4972025275692431e-15 0.250328481197357178 0.0297900773584842682
-3.4972025275692431e-15 0.55463331937789917 0.0497883707284927368
-3.4972025275692431e-15 0.0890217497944831848 0.0142025165259838104
-3.4972025275692431e-15 0.70231330394744873 0.0418790243566036224
-3.4972025275692431e-15 0.126113623380661011 0.00685133412480354309
-3.4972025275692431e-15 0.10090954601764679 0.00923481956124305725
-3.4972025275692431e-15 0.30285876989364624 0.0392807535827159882
-3.4972025275692431e-15 0.175325751304626465 0.0286451075226068497
-3.4972025275692431e-15 0.654238283634185791 0.0499295778572559357
-3.4972025275692431e-15 0.219838827848434448 0.0242935474961996078
-3.4972025275692431e-15 0.585278749465942383 0.0441295430064201355
-3.4972025275692431e-15 0.0605408884584903717 0.0311810225248336792
-3.4972025275692431e-15 0.241217687726020813 0.022869989275932312
-3.4972025275692431e-15 0.0140606621280312538 0.0394719503819942474
-3.4972025275692431e-15 0.366506308317184448 0.030404968187212944
-3.4972025275692431e-15 0.444104313850402832 0.0487417168915271759
-3.4972025275692431e-15 0.0492491424083709717 0.0213834922760725021
-3.4972025275692431e-15 0.696642875671386719 0.0373634621500968933
-3.4972025275692431e-15 0.518314957618713379 0.0333455614745616913
-3.4972025275692431e-15 0.431144893169403076 0.0442686975002288818
-3.4972025275692431e-15 0.509283304214477539 0.0482285767793655396
-3.4972025275692431e-15 0.153209879994392395 0.0238532721996307373
-3.4972025275692431e-15 0.69303584098815918 0.0458234921097755432
-3.4972025275692431e-15 0.352310389280319214 0.0432886816561222076
-3.4972025275692431e-15 0.784420371055603027 0.0403033643960952759
-3.4972025275692431e-15 0.120674803853034973 0.011525232344865799
-3.4972025275692431e-15 0.215221583843231201 0.0379600152373313904
-3.4972025275692431e-15 0.033449225127696991 0.0196207072585821152
-3.4972025275692431e-15 0.0631071180105209351 0.0156026631593704224
-3.4972025275692431e-15 0.201801404356956482 0.0191151686012744904
-3.4972025275692431e-15 0.488894343376159668 0.0249720197170972824
-3.4972025275692431e-15 0.0653485506772994995 0.016681913286447525
-3.4972025275692431e-15 0.451568663120269775 0.0452630110085010529
-3.4972025275692431e-15 0.288733422756195068 0.0368194654583930969
-3.4972025275692431e-15 0.672073006629943848 0.0413881167769432068
-3.4972025275692431e-15 0.401579737663269043 0.0457715839147567749
-3.4972025275692431e-15 0.341539114713668823 0.028033185750246048
-3.4972025275692431e-15 0.172026589512825012 0.0221149381250143051
-3.4972025275692431e-15 0.156483486294746399 0.0382833071053028107
-3.4972025275692431e-15 0.363186746835708618 0.0310540627688169479
-3.4972025275692431e-15 0.463813304901123047 0.0433368459343910217
-3.4972025275692431e-15 0.309935837984085083 0.025488661602139473
-3.4972025275692431e-15 0.0824112594127655029 0.0132462866604328156
-3.4972025275692431e-15 0.0913679301738739014 0.0235047172755002975
-3.4972025275692431e-15 0.210885494947433472 0.0120901428163051605
-3.4972025275692431e-15 0.0806109309196472168 0.0166369080543518066
-3.4972025275692431e-15 0.505287408828735352 0.0271055363118648529
-3.4972025275692431e-15 0.636813461780548096 0.046356886625289917
-3.4972025275692431e-15 0.249458432197570801 0.0457217544317245483
-3.4972025275692431e-15 0.0611905194818973541 0.0483315959572792053
-3.4972025275692431e-15 0.627109050750732422 0.0443001165986061096
-3.4972025275692431e-15 0.398329675197601318 0.0313572101294994354
-3.4972025275692431e-15 0.544475436210632324 0.0444727800786495209
-3.4972025275692431e-15 0.452824592590332031 0.0395367294549942017
-3.4972025275692431e-15 0.705274581909179688 0.0376105979084968567
-3.4972025275692431e-15 0.0146298948675394058 0.00133064761757850647
-3.4972025275692431e-15 0.645987629890441895 0.0487010069191455841
-3.4972025275692431e-15 0.442676305770874023 0.042416989803314209
-3.4972025275692431e-15 0.21432049572467804 0.0383674763143062592
-3.4972025275692431e-15 0.561842024326324463 0.0456109233200550079
-3.4972025275692431e-15 0.0207881685346364975 0.0225180182605981827
-3.4972025275692431e-15 0.494679033756256104 0.0490075573325157166
-3.4972025275692431e-15 0.285270273685455322 0.034999500960111618
-3.4972025275692431e-15 0.664599239826202393 0.0386224985122680664
-3.4972025275692431e-15 0.786307215690612793 0.0447690375149250031
-3.4972025275692431e-15 0.281484097242355347 0.0287488847970962524
-3.4972025275692431e-15 0.120560839772224426 0.00977783277630805969
-3.4972025275692431e-15 0.277781963348388672 0.0340074002742767334
-3.4972025275692431e-15 0.166949406266212463 0.0390181764960289001
-3.4972025275692431e-15 0.473691791296005249 0.0297698955982923508
-3.4972025275692431e-15 0.1321554034948349 0.0118655450642108917
-3.4972025275692431e-15 0.101643122732639313 0.0500052981078624725
-3.4972025275692431e-15 0.618991971015930176 0.0312349628657102585
-3.4972025275692431e-15 0.00808589346706867218 0.0070438869297504425
-3.4972025275692431e-15 0.0382962487637996674 0.0166646204888820648
-3.4972025275692431e-15 0.234504431486129761 0.0193492919206619263
-3.4972025275692431e-15 0.213643208146095276 0.0222731176763772964
-3.4972025275692431e-15 0.647672414779663086 0.0478401370346546173
-3.4972025275692431e-15 0.57112497091293335 0.0433352403342723846
-3.4972025275692431e-15 0.127807438373565674 0.0493931695818901062
-3.4972025275692431e-15 0.073490142822265625 0.0086249522864818573
-3.4972025275692431e-15 0.0255019068717956543 0.0155725739896297455
-3.4972025275692431e-15 0.364047765731811523 0.0298090353608131409
-3.4972025275692431e-15 0.293714374303817749 0.0234174169600009918
-3.4972025275692431e-15 0.235294431447982788 0.0305838119238615036
-3.4972025275692431e-15 0.0595801323652267456 0.0485802739858627319
-3.4972025275692431e-15 0.300216972827911377 0.0395391471683979034
-3.4972025275692431e-15 0.0423459373414516449 0.0444893352687358856
-3.4972025275692431e-15 0.368228822946548462 0.0275216754525899887
-3.4972025275692431e-15 0.881142914295196533 0.0470116287469863892
-3.4972025275692431e-15 0.521981596946716309 0.0420936942100524902
-3.4972025275692431e-15 0.506029486656188965 0.0362340062856674194
-3.4972025275692431e-15 0.292364418506622314 0.0399735681712627411
-3.4972025275692431e-15 0.572226166725158691 0.0360306799411773682
-3.4972025275692431e-15 0.204962387681007385 0.0176763944327831268
-3.4972025275692431e-15 0.242303073406219482 0.0388843715190887451
-3.4972025275692431e-15 0.210570260882377625 0.0218926500529050827
-3.4972025275692431e-15 0.092218548059463501 0.0229829959571361542
-3.4972025275692431e-15 0.397468000650405884 0.0344339124858379364
-3.4972025275692431e-15 0.0780568122863769531 0.0337004512548446655
-3.4972025275692431e-15 0.231317728757858276 0.0218874327838420868
-3.4972025275692431e-15 0.309692025184631348 0.0227317754179239273
-3.4972025275692431e-15 0.657704174518585205 0.0487122833728790283
-3.4972025275692431e-15 0.040578797459602356 0.00768437609076499939
-3.4972025275692431e-15 0.228839889168739319 0.0359618254005908966
-3.4972025275692431e-15 0.0957095474004745483 0.035961538553237915
-3.4972025275692431e-15 0.275476455688476562 0.0488956719636917114
-3.4972025275692431e-15 0.342594057321548462 0.0484117381274700165
-3.4972025275692431e-15 0.70818483829498291 0.0427917130291461945
-3.4972025275692431e-15 0.0116991493850946426 0.039041958749294281
-3.4972025275692431e-15 0.00483228173106908798 0.013235677033662796
-3.4972025275692431e-15 0.264393985271453857 0.0383605062961578369
-3.4972025275692431e-15 0.43190765380859375 0.0495115965604782104
-3.4972025275692431e-15 0.709446847438812256 0.0454004295170307159
-3.4972025275692431e-15 0.0689793601632118225 0.00430330634117126465
-3.4972025275692431e-15 0.506589233875274658 0.0259852949529886246
-3.4972025275692431e-15 0.582488179206848145 0.0435382649302482605
-3.4972025275692431e-15 0.493802398443222046 0.0399870425462722778
-3.4972025275692431e-15 0.254241585731506348 0.0201949048787355423
-3.4972025275692431e-15 0.111836947500705719 0.0199772007763385773
-3.4972025275692431e-15 0.313834309577941895 0.0485055744647979736
-3.4972025275692431e-15 0.0441853292286396027 0.0443659089505672455
-3.4972025275692431e-15 0.552958011627197266 0.0313146859407424927
-3.4972025275692431e-15 0.63064873218536377 0.0422730222344398499
-3.4972025275692431e-15 0.280688852071762085 0.0146962739527225494
-3.4972025275692431e-15 0.655798435211181641 0.040195271372795105
-3.4972025275692431e-15 0.606100380420684814 0.0445095822215080261
-3.4972025275692431e-15 0.28760257363319397 0.030163956806063652
-3.4972025275692431e-15 0.501475632190704346 0.0482016578316688538
-3.4972025275692431e-15 0.796786129474639893 0.0450603999197483063
-3.4972025275692431e-15 0.399675637483596802 0.0275811981409788132
-3.4972025275692431e-15 0.634940862655639648 0.0355789363384246826
-3.4972025275692431e-15 0.442181825637817383 0.0390965640544891357
-3.4972025275692431e-15 0.561682820320129395 0.0287351887673139572
-3.4972025275692431e-15 0.132584065198898315 0.031192537397146225
-3.4972025275692431e-15 0.517763376235961914 0.034033656120300293
-3.4972025275692431e-15 0.446255594491958618 0.032997429370880127
-3.4972025275692431e-15 0.368922829627990723 0.0204708762466907501
-3.4972025275692431e-15 0.165640324354171753 0.0144977308809757233
-3.4972025275692431e-15 0.584809720516204834 0.0434716679155826569
-3.4972025275692431e-15 0.290543943643569946 0.0406717956066131592
-3.4972025275692431e-15 0.0589465238153934479 0.0464180819690227509
-3.4972025275692431e-15 0.26840248703956604 0.0500485152006149292
-3.4972025275692431e-15 0.130132779479026794 0.044140402227640152
-3.4972025275692431e-15 0.115680500864982605 0.0309221968054771423
-3.4972025275692431e-15 0.132427364587783813 0.0132878534495830536
-3.4972025275692431e-15 0.835613071918487549 0.0477645359933376312
-3.4972025275692431e-15 0.156351834535598755 0.0104021616280078888
-3.4972025275692431e-15 0.0351302959024906158 0.0183202251791954041
-3.4972025275692431e-15 0.328389823436737061 0.0250363312661647797
-3.4972025275692431e-15 0.123282849788665771 0.0218870881944894791
-3.4972025275692431e-15 0.00706716533750295639 0.0222222469747066498
-3.4972025275692431e-15 0.0331791378557682037 0.0484994910657405853
-3.4972025275692431e-15 0.0736676976084709167 0.00967160612344741821
-3.4972025275692431e-15 0.033291693776845932 0.0427503585815429688
-3.4972025275692431e-15 0.582044839859008789 0.0400206185877323151
-3.4972025275692431e-15 0.678689420223236084 0.0421759858727455139
-3.4972025275692431e-15 0.483483493328094482 0.0482195764780044556
-3.4972025275692431e-15 0.192458763718605042 0.0299817901104688644
-3.4972025275692431e-15 0.299572557210922241 0.018426697701215744
-3.4972025275692431e-15 0.217750295996665955 0.0463097728788852692
-3.4972025275692431e-15 0.0748081505298614502 0.0204449519515037537
-3.4972025275692431e-15 0.697135746479034424 0.046995159238576889
-3.4972025275692431e-15 0.0528630614280700684 0.016695607453584671
0.00380486669018864632 9.49240686054508842e-15 0.027086254209280014
0.0912231579422950745 9.49240686054508842e-15 0.0203110296279191971
0.107631959021091461 9.49240686054508842e-15 0.00796790793538093567
0.0741805955767631531 9.49240686054508842e-15 0.0209024939686059952
0.137268990278244019 9.49240686054508842e-15 0.00127298012375831604
0.0838098824024200439 9.49240686054508842e-15 0.0227674711495637894
0.0249402262270450592 9.49240686054508842e-15 0.0159360263496637344
0.0880967006087303162 9.49240686054508842e-15 0.00734241865575313568
0.101876072585582733 9.49240686054508842e-15 0.0180142167955636978
0.00513675576075911522 9.49240686054508842e-15 0.0344213619828224182
0.000599222606979310513 9.49240686054508842e-15 0.0448717884719371796
0.00210737553425133228 9.49240686054508842e-15 0.000871529162395745516
0.0404578670859336853 9.49240686054508842e-15 0.0210214331746101379
0.0463094823062419891 9.49240686054508842e-15 0.0227186568081378937
0.163457021117210388 9.49240686054508842e-15 0.00502646341919898987
0.13199499249458313 9.49240686054508842e-15 0.00831937044858932495
0.0385869517922401428 9.49240686054508842e-15 0.0340666733682155609
0.0656277760863304138 9.49240686054508842e-15 0.0224953591823577881
0.0753425657749176025 9.49240686054508842e-15 0.0261698924005031586
0.00734026357531547546 9.49240686054508842e-15 0.0385692976415157318
0.00383945414796471596 9.49240686054508842e-15 0.0324514806270599365
0.107957720756530762 9.49240686054508842e-15 0.011152489110827446
0.0688320249319076538 9.49240686054508842e-15 0.0148267727345228195
0.0354910083115100861 9.49240686054508842e-15 0.00280152726918458939
0.00566879427060484886 9.49240686054508842e-15 0.0406731106340885162
0.0357944406569004059 9.49240686054508842e-15 0.0212285332381725311
0.0268942322582006454 9.49240686054508842e-15 0.0047958684153854847
0.0213361792266368866 9.49240686054508842e-15 0.030288349837064743
0.0540348701179027557 9.49240686054508842e-15 0.0294174980372190475
0.00985780637711286545 9.49240686054508842e-15 0.00560826994478702545
0.0101451575756072998 9.49240686054508842e-15 0.024905102327466011
0.0341891609132289886 9.49240686054508842e-15 0.0412945039570331573
0.0340000726282596588 9.49240686054508842e-15 0.00818321853876113892
0.0372931770980358124 9.49240686054508842e-15 0.0328798480331897736
0.0107979392632842064 9.49240686054508842e-15 0.039889700710773468
0.112516462802886963 9.49240686054508842e-15 0.0122613478451967239
0.154463469982147217 9.49240686054508842e-15 0.00150267034769058228
0.132350146770477295 9.49240686054508842e-15 0.00418851524591445923
0.126916229724884033 9.49240686054508842e-15 0.0108419023454189301
0.00478879688307642937 9.49240686054508842e-15 0.0263565443456172943
0.0111843030899763107 9.49240686054508842e-15 0.0156742744147777557
0.00329702021554112434 9.49240686054508842e-15 0.0282714404165744781
0.0315827839076519012 9.49240686054508842e-15 0.0113288434222340584
0.0208773072808980942 9.49240686054508842e-15 0.0268195308744907379
0.0546084009110927582 9.49240686054508842e-15 0.00669777672737836838
0.0178115703165531158 9.49240686054508842e-15 0.0243733339011669159
0.00514837354421615601 9.49240686054508842e-15 0.0296807270497083664
0.068574175238609314 9.49240686054508842e-15 0.00115427188575267792
0.0142154144123196602 9.49240686054508842e-15 0.00948817282915115356
0.00759689090773463249 9.49240686054508842e-15 0.0400542467832565308
0.0828743875026702881 9.49240686054508842e-15 0.0167905949056148529
0.0315636210143566132 9.49240686054508842e-15 0.00314104650169610977
0.052750658243894577 9.49240686054508842e-15 0.00647677667438983917
0.0458393506705760956 9.49240686054508842e-15 0.00780263915657997131
0.0217024441808462143 9.49240686054508842e-15 0.02799200639128685
0.0646448731422424316 9.49240686054508842e-15 0.0202294178307056427
0.160796284675598145 9.49240686054508842e-15 0.0035240761935710907
0.0949591323733329773 9.49240686054508842e-15 0.0247304979711771011
0.00687466142699122429 9.49240686054508842e-15 0.0227354001253843307
0.0279663056135177612 9.49240686054508842e-15 0.00659740902483463287
0.000179701222805306315 9.49240686054508842e-15 0.0376122258603572845
0.0729968473315238953 9.49240686054508842e-15 0.030374797061085701
0.00339395785704255104 9.49240686054508842e-15 0.0106889344751834869
0.0250264536589384079 9.49240686054508842e-15 0.0190967358648777008
0.0552072227001190186 9.49240686054508842e-15 0.0172190964221954346
0.00370564381591975689 9.49240686054508842e-15 0.00139848538674414158
0.00556022115051746368 9.49240686054508842e-15 0.00173278443980962038
0.0891651585698127747 9.49240686054508842e-15 0.0198674704879522324
0.0982131287455558777 9.49240686054508842e-15 0.0211640074849128723
0.0162719953805208206 9.49240686054508842e-15 0.000217086169868707657
0.0243588238954544067 9.49240686054508842e-15 0.0130547871813178062
0.033090200275182724 9.49240686054508842e-15 0.0256010927259922028
0.0683582425117492676 9.49240686054508842e-15 0.0301329251378774643
0.0464403145015239716 9.49240686054508842e-15 0.00374911818653345108
0.0605344474315643311 9.49240686054508842e-15 0.00416987016797065735
0.00505738845095038414 9.49240686054508842e-15 0.000163046526722609997
0.04918709397315979 9.49240686054508842e-15 0.0184271596372127533
0.0139071093872189522 9.49240686054508842e-15 0.00380467716604471207
0.0248183105140924454 9.49240686054508842e-15 0.0356995314359664917
0.0427142642438411713 9.49240686054508842e-15 0.0192634407430887222
0.00342908361926674843 9.49240686054508842e-15 0.0345679670572280884
0.111139915883541107 9.49240686054508842e-15 0.0205578655004501343
0.139496862888336182 9.49240686054508842e-15 0.0109105855226516724
0.0632826387882232666 9.49240686054508842e-15 0.0037105754017829895
0.0460770986974239349 9.49240686054508842e-15 0.00667882710695266724
0.121016643941402435 9.49240686054508842e-15 0.00782095454633235931
0.0951973721385002136 9.49240686054508842e-15 0.0119524132460355759
0.0133037585765123367 9.49240686054508842e-15 0.0169700998812913895
0.0746714100241661072 9.49240686054508842e-15 0.0301607530564069748
0.0384509377181529999 9.49240686054508842e-15 0.0020001651719212532
0.0262707769870758057 9.49240686054508842e-15 0.00116889458149671555
0.00553101487457752228 9.49240686054508842e-15 0.0309990588575601578
0.0318151377141475677 9.49240686054508842e-15 0.024256289005279541
0.00143614329863339663 9.49240686054508842e-15 0.0422996953129768372
0.0327173247933387756 9.49240686054508842e-15 0.0143048800528049469
0.0151141704991459846 9.49240686054508842e-15 0.0369651243090629578
0.116128139197826385 9.49240686054508842e-15 0.019304666668176651
0.156985700130462646 9.49240686054508842e-15 0.0171163231134414673
0.165326893329620361 9.49240686054508842e-15 0.0116637349128723145
0.194696769118309021 9.49240686054508842e-15 0.0295257177203893661
0.0885403528809547424 9.49240686054508842e-15 0.0311869252473115921
0.187919735908508301 9.49240686054508842e-15 0.024679938331246376
0.0588998198509216309 9.49240686054508842e-15 0.0385879315435886383
0.16194365918636322 9.49240686054508842e-15 0.0259885303676128387
0.106771282851696014 9.49240686054508842e-15 0.0247492268681526184
0.125692069530487061 9.49240686054508842e-15 0.0406779833137989044
0.137048691511154175 9.49240686054508842e-15 0.021371571347117424
0.105337105691432953 9.49240686054508842e-15 0.0472325980663299561
0.0868628397583961487 9.49240686054508842e-15 0.0304229762405157089
0.0847125574946403503 9.49240686054508842e-15 0.046578921377658844
0.192815572023391724 9.49240686054508842e-15 0.00322624295949935913
0.186006024479866028 9.49240686054508842e-15 0.0400397889316082001
0.17524777352809906 9.49240686054508842e-15 0.00677972286939620972
0.097495637834072113 9.49240686054508842e-15 0.045922495424747467
0.0804523453116416931 9.49240686054508842e-15 0.0441751964390277863
0.187281116843223572 9.49240686054508842e-15 0.0411973632872104645
0.174487262964248657 9.49240686054508842e-15 0.0144079811871051788
0.167276367545127869 9.49240686054508842e-15 0.0298916790634393692
0.16477358341217041 9.49240686054508842e-15 0.00952593609690666199
0.129900038242340088 9.49240686054508842e-15 0.0455266423523426056
0.178056716918945312 9.49240686054508842e-15 0.0492079257965087891
0.12623026967048645 9.49240686054508842e-15 0.0449622012674808502
0.0950057432055473328 9.49240686054508842e-15 0.0415436960756778717
0.166991204023361206 9.49240686054508842e-15 0.041220005601644516
0.11863119900226593 9.49240686054508842e-15 0.0435192659497261047
0.195311069488525391 9.49240686054508842e-15 0.014086894690990448
0.10723065584897995 9.49240686054508842e-15 0.0435374528169631958
0.163943171501159668 9.49240686054508842e-15 0.0432107672095298767
0.180470302700996399 9.49240686054508842e-15 0.00721606984734535217
0.0453543514013290405 9.49240686054508842e-15 0.0484658405184745789
0.0954339131712913513 9.49240686054508842e-15 0.0367887839674949646
0.156826645135879517 9.49240686054508842e-15 0.049421943724155426
0.186550796031951904 9.49240686054508842e-15 0.0298691801726818085
0.163158625364303589 9.49240686054508842e-15 0.0463318154215812683
0.18548862636089325 9.49240686054508842e-15 0.0488399602472782135
0.190152108669281006 9.49240686054508842e-15 0.0297005511820316315
0.0816721543669700623 9.49240686054508842e-15 0.0457668416202068329
0.126218453049659729 9.49240686054508842e-15 0.0348029881715774536
0.187257692217826843 9.49240686054508842e-15 0.0117220282554626465
0.123751960694789886 9.49240686054508842e-15 0.0400886386632919312
0.0145054459571838379 9.49240686054508842e-15 0.0479116737842559814
0.17264874279499054 9.49240686054508842e-15 0.021988552063703537
0.13076251745223999 9.49240686054508842e-15 0.0190794281661510468
0.189431026577949524 9.49240686054508842e-15 0.0371152646839618683
0.167122706770896912 9.49240686054508842e-15 0.0430634990334510803
0.179700598120689392 9.49240686054508842e-15 0.0205626990646123886
0.101849555969238281 9.49240686054508842e-15 0.0259177573025226593
0.167349547147750854 9.49240686054508842e-15 0.0131313987076282501
0.140366882085800171 9.49240686054508842e-15 0.039690263569355011
0.0476662516593933105 9.49240686054508842e-15 0.0481489561498165131
0.192505165934562683 9.49240686054508842e-15 0.00452131405472755432
0.133940249681472778 9.49240686054508842e-15 0.0303134080022573471
0.0720485001802444458 9.49240686054508842e-15 0.0422030426561832428
0.178411096334457397 9.49240686054508842e-15 0.0221490543335676193
0.145912855863571167 9.49240686054508842e-15 0.034380011260509491
0.146132692694664001 9.49240686054508842e-15 0.0355810113251209259
0.139201328158378601 9.49240686054508842e-15 0.026696937158703804
0.19380265474319458 9.49240686054508842e-15 0.0175382159650325775
0.105393074452877045 9.49240686054508842e-15 0.0271328166127204895
0.14011053740978241 9.49240686054508842e-15 0.0259176623076200485
0.158210307359695435 9.49240686054508842e-15 0.0486623011529445648
0.108804173767566681 9.49240686054508842e-15 0.0231991168111562729
0.112332016229629517 9.49240686054508842e-15 0.04253401979804039
0.150390222668647766 9.49240686054508842e-15 0.0229247566312551498
0.132967680692672729 9.49240686054508842e-15 0.017889462411403656
0.16087689995765686 9.49240686054508842e-15 0.0130418241024017334
0.186715006828308105 9.49240686054508842e-15 0.0166274085640907288
0.126860320568084717 9.49240686054508842e-15 0.0393877662718296051
0.104157604277133942 9.49240686054508842e-15 0.0349755696952342987
0.0777828022837638855 9.49240686054508842e-15 0.0359449200332164764
0.183917135000228882 9.49240686054508842e-15 0.02024029940366745
0.105175599455833435 9.49240686054508842e-15 0.0438425429165363312
0.150005713105201721 9.49240686054508842e-15 0.0357035882771015167
0.129780113697052002 9.49240686054508842e-15 0.0392334014177322388
0.169739678502082825 9.49240686054508842e-15 0.034173913300037384
0.168122053146362305 9.49240686054508842e-15 0.0245620720088481903
0.185553252696990967 9.49240686054508842e-15 0.0364707857370376587
0.066088944673538208 9.49240686054508842e-15 0.0340854562819004059
0.119972042739391327 9.49240686054508842e-15 0.0219514276832342148
0.0986887142062187195 9.49240686054508842e-15 0.0343848466873168945
0.153457045555114746 9.49240686054508842e-15 0.0205611251294612885
0.150951147079467773 9.49240686054508842e-15 0.0146582610905170441
0.0208628475666046143 9.49240686054508842e-15 0.0490201227366924286
0.0134906470775604248 9.49240686054508842e-15 0.0479608252644538879
0.0341647565364837646 9.49240686054508842e-15 0.0480873659253120422
0.0976688042283058167 9.49240686054508842e-15 0.0340713858604431152
0.102312877774238586 9.49240686054508842e-15 0.0283292029052972794
0.0677796155214309692 9.49240686054508842e-15 0.0334252640604972839
0.175573334097862244 9.49240686054508842e-15 0.0117078162729740143
0.108048312366008759 9.49240686054508842e-15 0.0377675890922546387
0.0627134740352630615 9.49240686054508842e-15 0.0453272983431816101
0.14320710301399231 9.49240686054508842e-15 0.0461701005697250366
0.148356541991233826 9.49240686054508842e-15 0.0457538627088069916
0.0494231432676315308 9.49240686054508842e-15 0.0425154119729995728
0.129116341471672058 0.445491909980773926 0
0.124807089567184448 0.605116307735443115 0
0.0902487784624099731 0.878962337970733643 0
0.137344956398010254 0.824097514152526855 0
0.19207213819026947 0.22444605827331543 0
0.117340497672557831 0.745572686195373535 0
0.161048382520675659 0.324578642845153809 0
0.199647128582000732 0.823999881744384766 0
0.0410500615835189819 0.827557802200317383 0
0.145767346024513245 0.515712141990661621 0
0.150741830468177795 0.948958814144134521 0
0.186653241515159607 0.193059563636779785 0
0.0482067316770553589 0.798714518547058105 0
0.133476108312606812 0.697378277778625488 0
0.179488345980644226 0.437818288803100586 0
0.198863208293914795 0.81548917293548584 0
0.160299167037010193 0.491799592971801758 0
0.139204561710357666 0.825411379337310791 0
0.0940407291054725647 0.844269633293151855 0
0.153494775295257568 0.940348982810974121 0
0.194592505693435669 0.91585540771484375 0
0.0219596326351165771 0.928893506526947021 0
0.194667518138885498 0.376709401607513428 0
0.0797484517097473145 0.977301895618438721 0
0.181752711534500122 0.302028417587280273 0
0.157180950045585632 0.761646091938018799 0
0.0596951395273208618 0.885965287685394287 0
0.161449521780014038 0.463393747806549072 0
0.180143922567367554 0.580710709095001221 0
0.15853823721408844 0.740389585494995117 0
0.113958470523357391 0.683420300483703613 0
0.148624569177627563 0.43473207950592041 0
0.138385966420173645 0.460725188255310059 0
0.137605443596839905 0.93811333179473877 0
0.178647428750991821 0.558494746685028076 0
0.0137060731649398804 0.973478198051452637 0
0.160266682505607605 0.394045770168304443 0
0.158165246248245239 0.462882101535797119 0
0.0481370985507965088 0.801726222038269043 0
0.185405895113945007 0.998393654823303223 0
0.191341698169708252 0.678964018821716309 0
0.165512725710868835 0.421093225479125977 0
0.187604442238807678 0.476625978946685791 0
0.0234762728214263916 0.904218137264251709 0
0.0831453800201416016 0.646865785121917725 0
0.142459407448768616 0.913296222686767578 0
0.163300290703773499 0.464644014835357666 0
0.0576318204402923584 0.803291022777557373 0
0.177321001887321472 0.411135375499725342 0
0.198201790452003479 0.852666854858398438 0
0.166167974472045898 0.937778174877166748 0
0.188099578022956848 0.569596469402313232 0
0.190691560506820679 0.59995114803314209 0
0.123708002269268036 0.387969851493835449 0
0.148963227868080139 0.778595447540283203 0
0.168503791093826294 0.705567061901092529 0
0.0687269270420074463 0.93176424503326416 0
0.0987289771437644958 0.564868330955505371 0
0.185538113117218018 0.209802210330963135 0
0.194461449980735779 0.949132323265075684 0
0.14294135570526123 0.378709077835083008 0
0.196455880999565125 0.852699398994445801 0
0.157612264156341553 0.880754947662353516 0
0.0612934529781341553 0.871275484561920166 0
0.197838723659515381 0.360420346260070801 0
0.0400416404008865356 0.87942272424697876 0
0.186955317854881287 0.727532744407653809 0
0.139006912708282471 0.775429606437683105 0
0.0196241140365600586 0.962046384811401367 0
0.195291459560394287 0.412593841552734375 0
0.169288501143455505 0.65703427791595459 0
0.0834109708666801453 0.716367959976196289 0
0.0550993233919143677 0.828773677349090576 0
0.0890238210558891296 0.687316417694091797 0
0.168178215622901917 0.194806754589080811 0
0.0808061733841896057 0.718221724033355713 0
0.111599288880825043 0.719473481178283691 0
0.182006508111953735 0.348914742469787598 0
0.139563828706741333 0.562876224517822266 0
0.165091708302497864 0.635904371738433838 0
0.108777768909931183 0.596730947494506836 0
0.186599165201187134 0.690064430236816406 0
0.160057380795478821 0.871599793434143066 0
0.112078674137592316 0.630727291107177734 0
0.16218121349811554 0.668581664562225342 0
0.0523818880319595337 0.975248873233795166 0
0.149438410997390747 0.99316561222076416 0
0.134002655744552612 0.779728174209594727 0
0.113043211400508881 0.93209385871887207 0
0.107171140611171722 0.901340961456298828 0
0.162659406661987305 0.389264285564422607 0
0.0745231062173843384 0.738357305526733398 0
0.16683332622051239 0.857413113117218018 0
0.172812119126319885 0.86125415563583374 0
0.140263631939888 0.793786227703094482 0
0.114425249397754669 0.777152657508850098 0
0.195908412337303162 0.764529883861541748 0
0.0896103307604789734 0.584332942962646484 0
0.117157548666000366 0.907366096973419189 0
0.1648988276720047 0.941617667675018311 0
0.104455731809139252 0.87381446361541748 0
0.19215838611125946 0.530198872089385986 0
0.180476471781730652 0.405601143836975098 0
0.198132142424583435 0.57257544994354248 0
0.132164746522903442 0.718562006950378418 0
0.103805415332317352 0.82555466890335083 0
0.182519912719726562 0.827271819114685059 0
0.185611903667449951 0.702874898910522461 0
0.188635498285293579 0.536679089069366455 0
0.138746514916419983 0.433932781219482422 0
0.148444980382919312 0.27726370096206665 0
0.196477502584457397 0.806056618690490723 0
0.0905742645263671875 0.753109872341156006 0
0.149531081318855286 0.793106794357299805 0
0.168210804462432861 0.292259633541107178 0
0.118782579898834229 0.690300047397613525 0
0.141477808356285095 0.472482681274414062 0
0.0700243562459945679 0.944868385791778564 0
0.181291282176971436 0.29873359203338623 0
0.0963789746165275574 0.892237305641174316 0
0.141324549913406372 0.556314408779144287 0
0.161466434597969055 0.774313092231750488 0
0.113318853080272675 0.774161159992218018 0
0.0986798182129859924 0.853501439094543457 0
0.0859674736857414246 0.708647012710571289 0
0.0106497406959533691 0.971281468868255615 0
0.149949908256530762 0.845377683639526367 0
0.0974976196885108948 0.725637197494506836 0
0.175884678959846497 0.828307092189788818 0
0.0663980245590209961 0.938774168491363525 0
0.107036612927913666 0.632056117057800293 0
0.136001989245414734 0.638105154037475586 0
0.144997537136077881 0.316189885139465332 0
0.0752428993582725525 0.632822871208190918 0
0.198872029781341553 0.738919079303741455 0
0.164957389235496521 0.316687107086181641 0
0.197631493210792542 0.930380821228027344 0
0.10492318868637085 0.655080437660217285 0
0.195022255182266235 0.0942316055297851562 0
0.178153678774833679 0.32639467716217041 0
0.145325616002082825 0.717891216278076172 0
0.122389063239097595 0.594454348087310791 0
0.159030824899673462 0.911999404430389404 0
0.123681262135505676 0.703765034675598145 0
0.13069838285446167 0.737168669700622559 0
0.158760309219360352 0.526441335678100586 0
0.0646940171718597412 0.785792529582977295 0
0.0550460517406463623 0.773847758769989014 0
0.137078672647476196 0.792942285537719727 0
0.18793073296546936 0.640830516815185547 0
0.10006318986415863 0.776639044284820557 0
0.188118338584899902 0.373578965663909912 0
0.149894416332244873 0.773411035537719727 0
0.0228809118270874023 0.967708885669708252 0
0.115909285843372345 0.796335875988006592 0
0.177937060594558716 0.686225056648254395 0
0.197980865836143494 0.652515053749084473 0
0.0960771441459655762 0.976872086524963379 0
0.153745353221893311 0.888594388961791992 0
0.171215131878852844 0.849639654159545898 0
0.158591151237487793 0.680925846099853516 0
0.13896101713180542 0.85540163516998291 0
0.104352787137031555 0.853870153427124023 0
0.154393717646598816 0.332909941673278809 0
0.166833281517028809 0.916309654712677002 0
0.180551499128341675 0.16975855827331543 0
0.0990423187613487244 0.931810200214385986 0
0.169426172971725464 0.672080695629119873 0
0.195808082818984985 0.76050269603729248 0
0.138316541910171509 0.544021546840667725 0
0.104735814034938812 0.666158199310302734 0
0.179871350526809692 0.665555715560913086 0
0.115330420434474945 0.642774283885955811 0
0.184945926070213318 0.728360176086425781 0
0.105193659663200378 0.896929025650024414 0
0.156324386596679688 0.753767728805541992 0
0.0730294287204742432 0.859410762786865234 0
0.175122350454330444 0.510371923446655273 0
0.0397369563579559326 0.974647641181945801 0
0.175434231758117676 0.142371237277984619 0
0.145138531923294067 0.577950477600097656 0
0.184481903910636902 0.614533901214599609 0
