ply
format ascii 1.0
element vertex 805
property float x
property float y
property float z
end_header
-1.97064586870965286e-15 0.843278825283050537 0.161516204476356506
-1.97064586870965286e-15 0.184004485607147217 0.0957696586847305298
-1.97064586870965286e-15 0.627209603786468506 0.0858458876609802246
-1.97064586870965286e-15 0.0658416450023651123 0.168069213628768921
-1.97064586870965286e-15 0.516788661479949951 0.06501808762550354
-1.97064586870965286e-15 0.82494962215423584 0.146409600973129272
-1.97064586870965286e-15 0.491068035364151001 0.163648888468742371
-1.97064586870965286e-15 0.621729433536529541 0.119282014667987823
-1.97064586870965286e-15 0.453909635543823242 0.143838316202163696
-1.97064586870965286e-15 0.332444965839385986 0.0890290364623069763
-1.97064586870965286e-15 0.446799546480178833 0.0928204581141471863
-1.97064586870965286e-15 0.662472963333129883 0.111144430935382843
-1.97064586870965286e-15 0.0963151305913925171 0.192304149270057678
-1.97064586870965286e-15 0.243345975875854492 0.124223671853542328
-1.97064586870965286e-15 0.340233385562896729 0.181922957301139832
-1.97064586870965286e-15 0.243902623653411865 0.147386342287063599
-1.97064586870965286e-15 0.0493868477642536163 0.0254226028919219971
-1.97064586870965286e-15 0.10264519602060318 0.171299383044242859
-1.97064586870965286e-15 0.0129652628675103188 0.130837589502334595
-1.97064586870965286e-15 0.148099213838577271 0.0975762605667114258
-1.97064586870965286e-15 0.452211260795593262 0.123569659888744354
-1.97064586870965286e-15 1.25315237045288086 0.144056469202041626
-1.97064586870965286e-15 1.00795984268188477 0.121871523559093475
-1.97064586870965286e-15 0.934532523155212402 0.11551462858915329
-1.97064586870965286e-15 0.562866806983947754 0.160143941640853882
-1.97064586870965286e-15 1.39497256278991699 0.165444821119308472
-1.97064586870965286e-15 1.13935363292694092 0.157704606652259827
-1.97064586870965286e-15 0.290538579225540161 0.125082105398178101
-1.97064586870965286e-15 0.886486828327178955 0.109511099755764008
-1.97064586870965286e-15 0.705392777919769287 0.085093177855014801
-1.97064586870965286e-15 0.437059253454208374 0.147778883576393127
-1.97064586870965286e-15 1.18260085582733154 0.153968468308448792
-1.97064586870965286e-15 1.09485459327697754 0.198349878191947937
-1.97064586870965286e-15 0.694687902927398682 0.19300532341003418
-1.97064586870965286e-15 0.989331185817718506 0.173390939831733704
-1.97064586870965286e-15 0.376313358545303345 0.180259019136428833
-1.97064586870965286e-15 0.391637146472930908 0.180164188146591187
-1.97064586870965286e-15 0.656764745712280273 0.136452734470367432
-1.97064586870965286e-15 0.177482187747955322 0.14354097843170166
-1.97064586870965286e-15 0.222869411110877991 0.0447135567665100098
-1.97064586870965286e-15 0.798000216484069824 0.161085635423660278
-1.97064586870965286e-15 0.991646826267242432 0.182779490947723389
-1.97064586870965286e-15 0.680686652660369873 0.174820840358734131
-1.97064586870965286e-15 0.0964180678129196167 0.0141664594411849976
-1.97064586870965286e-15 1.14436936378479004 0.186101332306861877
-1.97064586870965286e-15 0.136191904544830322 0.185485497117042542
-1.97064586870965286e-15 0.697324573993682861 0.135237991809844971
-1.97064586870965286e-15 0.0232102908194065094 0.0868267342448234558
-1.97064586870965286e-15 0.0591676533222198486 0.127569884061813354
-1.97064586870965286e-15 0.48688390851020813 0.0762326493859291077
-1.97064586870965286e-15 1.28164041042327881 0.17354990541934967
-1.97064586870965286e-15 0.395951420068740845 0.0646150857210159302
-1.97064586870965286e-15 0.456389307975769043 0.103626005351543427
-1.97064586870965286e-15 1.08487510681152344 0.1676749587059021
-1.97064586870965286e-15 0.528914928436279297 0.101229444146156311
-1.97064586870965286e-15 1.18064844608306885 0.169135496020317078
-1.97064586870965286e-15 0.61111980676651001 0.0775376111268997192
-1.97064586870965286e-15 0.15975363552570343 0.0492849797010421753
-1.97064586870965286e-15 0.142141520977020264 0.0403374731540679932
-1.97064586870965286e-15 0.644971609115600586 0.0851625353097915649
-1.97064586870965286e-15 0.733499467372894287 0.145288571715354919
-1.97064586870965286e-15 1.52282154560089111 0.182686194777488708
-1.97064586870965286e-15 0.0896731764078140259 0.185889825224876404
-1.97064586870965286e-15 0.659886658191680908 0.0871606841683387756
-1.97064586870965286e-15 0.0372668355703353882 0.183683857321739197
-1.97064586870965286e-15 0.506743192672729492 0.165128156542778015
-1.97064586870965286e-15 0.326557964086532593 0.180560290813446045
-1.97064586870965286e-15 0.22298663854598999 0.0639474689960479736
-1.97064586870965286e-15 0.459732711315155029 0.136871755123138428
-1.97064586870965286e-15 0.077144138514995575 0.0541610419750213623
-1.97064586870965286e-15 0.186627864837646484 0.0812458395957946777
-1.97064586870965286e-15 1.25009524822235107 0.181840002536773682
-1.97064586870965286e-15 0.804225683212280273 0.183164462447166443
-1.97064586870965286e-15 0.189123034477233887 0.135375708341598511
-1.97064586870965286e-15 0.719489574432373047 0.141799867153167725
-1.97064586870965286e-15 0.352026224136352539 0.0730002224445343018
-1.97064586870965286e-15 0.0729660391807556152 0.0751306936144828796
-1.97064586870965286e-15 0.452073067426681519 0.16425517201423645
-1.97064586870965286e-15 0.557680964469909668 0.131277859210968018
-1.97064586870965286e-15 0.55184859037399292 0.140714406967163086
-1.97064586870965286e-15 0.138434082269668579 0.177297875285148621
-1.97064586870965286e-15 0.321493476629257202 0.178600430488586426
-1.97064586870965286e-15 0.853398382663726807 0.121654555201530457
-1.97064586870965286e-15 1.26665198802947998 0.173652425408363342
-1.97064586870965286e-15 0.678979814052581787 0.161644697189331055
-1.97064586870965286e-15 1.3947526216506958 0.168231651186943054
-1.97064586870965286e-15 0.415456861257553101 0.159620553255081177
-1.97064586870965286e-15 0.009751136414706707 0.141616120934486389
-1.97064586870965286e-15 0.634926140308380127 0.166575312614440918
-1.97064586870965286e-15 0.0939394235610961914 0.0221352279186248779
-1.97064586870965286e-15 0.0424842536449432373 0.0969620570540428162
-1.97064586870965286e-15 0.602067649364471436 0.198982372879981995
-1.97064586870965286e-15 0.430413514375686646 0.0956588983535766602
-1.97064586870965286e-15 0.540075123310089111 0.157655835151672363
-1.97064586870965286e-15 1.07403445243835449 0.120670132339000702
-1.97064586870965286e-15 1.12602579593658447 0.170440554618835449
-1.97064586870965286e-15 1.3414146900177002 0.1959877610206604
-1.97064586870965286e-15 0.0279942303895950317 0.121150963008403778
-1.97064586870965286e-15 0.0152876758947968483 0.116443179547786713
-1.97064586870965286e-15 0.0590607337653636932 0.127780318260192871
-1.97064586870965286e-15 1.18405020236968994 0.186418518424034119
-1.97064586870965286e-15 0.577002048492431641 0.131189674139022827
-1.97064586870965286e-15 0.303172528743743896 0.0952271968126296997
-1.97064586870965286e-15 0.052260328084230423 0.193091273307800293
-1.97064586870965286e-15 0.375189721584320068 0.19379878044128418
-1.97064586870965286e-15 0.456956714391708374 0.104201130568981171
-1.97064586870965286e-15 1.73089158535003662 0.198894128203392029
-1.97064586870965286e-15 1.18721091747283936 0.172784209251403809
-1.97064586870965286e-15 0.026240495964884758 0.00916866958141326904
-1.97064586870965286e-15 1.25964152812957764 0.160302355885505676
-1.97064586870965286e-15 0.5560721755027771 0.199219733476638794
-1.97064586870965286e-15 1.14617633819580078 0.199266672134399414
-1.97064586870965286e-15 1.15479826927185059 0.147933632135391235
-1.97064586870965286e-15 0.350699782371520996 0.0833430662751197815
-1.97064586870965286e-15 0.755433082580566406 0.189347758889198303
-1.97064586870965286e-15 0.461831539869308472 0.135824143886566162
-1.97064586870965286e-15 0.374111771583557129 0.15093424916267395
-1.97064586870965286e-15 0.469211846590042114 0.0599746257066726685
-1.97064586870965286e-15 0.0610992833971977234 0.0327725708484649658
-1.97064586870965286e-15 1.50962114334106445 0.180141225457191467
-1.97064586870965286e-15 0.0765470489859580994 0.131726771593093872
-1.97064586870965286e-15 0.814351439476013184 0.193064317107200623
-1.97064586870965286e-15 0.675275981426239014 0.162202000617980957
-1.97064586870965286e-15 0.717368006706237793 0.110405199229717255
-1.97064586870965286e-15 1.27330625057220459 0.174800008535385132
-1.97064586870965286e-15 0.0565978921949863434 0.0519583076238632202
-1.97064586870965286e-15 0.37023240327835083 0.0990247130393981934
-1.97064586870965286e-15 0.248023003339767456 0.191415905952453613
-1.97064586870965286e-15 0.0250090397894382477 0.139687508344650269
-1.97064586870965286e-15 1.17438209056854248 0.177171662449836731
-1.97064586870965286e-15 0.43484845757484436 0.197433844208717346
-1.97064586870965286e-15 0.0591883920133113861 0.129280745983123779
-1.97064586870965286e-15 0.269554674625396729 0.0514707416296005249
-1.97064586870965286e-15 1.40599668025970459 0.169775158166885376
-1.97064586870965286e-15 0.395684868097305298 0.119767926633358002
-1.97064586870965286e-15 0.990684270858764648 0.127467140555381775
-1.97064586870965286e-15 1.66787457466125488 0.194104105234146118
-1.97064586870965286e-15 0.708018243312835693 0.106499813497066498
-1.97064586870965286e-15 1.25208103656768799 0.198618128895759583
-1.97064586870965286e-15 1.19775497913360596 0.199787884950637817
-1.97064586870965286e-15 0.108292952179908752 0.0158620178699493408
-1.97064586870965286e-15 0.686799705028533936 0.0840948373079299927
-1.97064586870965286e-15 0.573744118213653564 0.168833494186401367
-1.97064586870965286e-15 0.734815478324890137 0.156218186020851135
-1.97064586870965286e-15 0.611114561557769775 0.0700628459453582764
-1.97064586870965286e-15 0.464551091194152832 0.068697318434715271
-1.97064586870965286e-15 0.317475497722625732 0.157529816031455994
-1.97064586870965286e-15 0.342976868152618408 0.125164955854415894
-1.97064586870965286e-15 0.528443872928619385 0.0872063413262367249
-1.97064586870965286e-15 0.218658268451690674 0.0971038714051246643
-1.97064586870965286e-15 1.07989513874053955 0.178468108177185059
-1.97064586870965286e-15 0.254744857549667358 0.129257082939147949
-1.97064586870965286e-15 1.76117217540740967 0.197701901197433472
-1.97064586870965286e-15 0.154056891798973083 0.098443247377872467
-1.97064586870965286e-15 0.952178597450256348 0.132368415594100952
-1.97064586870965286e-15 1.5234600305557251 0.191089540719985962
-1.97064586870965286e-15 0.362597197294235229 0.0457522273063659668
-1.97064586870965286e-15 1.02289319038391113 0.193268895149230957
-1.97064586870965286e-15 1.05668675899505615 0.171918332576751709
-1.97064586870965286e-15 0.491987168788909912 0.153548628091812134
-1.97064586870965286e-15 0.173909649252891541 0.0545949339866638184
-1.97064586870965286e-15 1.0708993673324585 0.122228823602199554
-1.97064586870965286e-15 0.220442637801170349 0.112744323909282684
-1.97064586870965286e-15 0.116686105728149414 0.163086742162704468
-1.97064586870965286e-15 0.0623636543750762939 0.125652790069580078
-1.97064586870965286e-15 1.10948288440704346 0.124814055860042572
-1.97064586870965286e-15 0.0995426252484321594 0.0154069364070892334
-1.97064586870965286e-15 0.467853248119354248 0.111357666552066803
-1.97064586870965286e-15 0.224041149020195007 0.0286774933338165283
-1.97064586870965286e-15 0.918619871139526367 0.194349080324172974
-1.97064586870965286e-15 0.0846660584211349487 0.113730750977993011
-1.97064586870965286e-15 0.173495650291442871 0.0315897762775421143
-1.97064586870965286e-15 0.225928857922554016 0.0627036988735198975
-1.97064586870965286e-15 0.753902614116668701 0.126315593719482422
-1.97064586870965286e-15 0.311146259307861328 0.122670643031597137
-1.97064586870965286e-15 0.867234587669372559 0.142614051699638367
-1.97064586870965286e-15 0.176953375339508057 0.17179088294506073
-1.97064586870965286e-15 0.00965115521103143692 0.17283119261264801
-1.97064586870965286e-15 0.396973222494125366 0.128711611032485962
-1.97064586870965286e-15 0.31684422492980957 0.113808847963809967
-1.97064586870965286e-15 0.00570898177102208138 0.182993456721305847
-1.97064586870965286e-15 0.088121563196182251 0.0832883864641189575
-1.97064586870965286e-15 0.130583509802818298 0.171923726797103882
-1.97064586870965286e-15 1.75895357131958008 0.197657451033592224
-1.97064586870965286e-15 1.20889246463775635 0.162341281771659851
-1.97064586870965286e-15 0.349593460559844971 0.175724446773529053
-1.97064586870965286e-15 0.711014747619628906 0.189266666769981384
-1.97064586870965286e-15 1.04143273830413818 0.171914726495742798
-1.97064586870965286e-15 0.111976705491542816 0.17274203896522522
-1.97064586870965286e-15 1.0743098258972168 0.157329782843589783
-1.97064586870965286e-15 0.0263585634529590607 0.0514509081840515137
-1.97064586870965286e-15 0.858871817588806152 0.134660273790359497
-1.97064586870965286e-15 0.771831810474395752 0.126122057437896729
-1.97064586870965286e-15 0.762603878974914551 0.170990824699401855
-1.97064586870965286e-15 0.25429767370223999 0.0835339948534965515
-1.97064586870965286e-15 1.23072540760040283 0.143537253141403198
-1.97064586870965286e-15 0.00681934505701065063 0.068636476993560791
-1.97064586870965286e-15 0.390814691781997681 0.140490323305130005
-1.97064586870965286e-15 0.719700813293457031 0.145223245024681091
-1.97064586870965286e-15 1.00528585910797119 0.181719347834587097
-1.97064586870965286e-15 0.832403063774108887 0.182502329349517822
-1.97064586870965286e-15 1.05592048168182373 0.155526056885719299
-1.97064586870965286e-15 0.308372288942337036 0.0759767219424247742
-1.97064586870965286e-15 0.240991562604904175 0.143753409385681152
-1.97064586870965286e-15 0.043740738183259964 0.0155791044235229492
-1.97064586870965286e-15 0.0116218207404017448 0.177092522382736206
-1.97064586870965286e-15 0.845920979976654053 0.127068936824798584
-1.97064586870965286e-15 0.221817702054977417 0.165237799286842346
-1.97064586870965286e-15 0.424038827419281006 0.0729648619890213013
-1.97064586870965286e-15 0.130981042981147766 0.160645291209220886
-1.97064586870965286e-15 1.24287497997283936 0.163913309574127197
-1.97064586870965286e-15 1.17692101001739502 0.161955386400222778
-1.97064586870965286e-15 0.824904918670654297 0.150612667202949524
-1.97064586870965286e-15 1.32209229469299316 0.160223349928855896
-1.97064586870965286e-15 0.155188366770744324 0.149351447820663452
-1.97064586870965286e-15 0.6968422532081604 0.104006685316562653
-1.97064586870965286e-15 0.777682900428771973 0.188523292541503906
-1.97064586870965286e-15 0.265127032995223999 0.0741615146398544312
-1.97064586870965286e-15 0.45301094651222229 0.194147273898124695
-1.97064586870965286e-15 0.0119042433798313141 0.083647310733795166
-1.97064586870965286e-15 0.702960312366485596 0.173851430416107178
-1.97064586870965286e-15 0.917557656764984131 0.149359747767448425
-1.97064586870965286e-15 0.102949090301990509 0.0384117066860198975
-1.97064586870965286e-15 0.328722178936004639 0.0759546086192131042
-1.97064586870965286e-15 0.870288491249084473 0.190702736377716064
-1.97064586870965286e-15 0.38791540265083313 0.0996268540620803833
-1.97064586870965286e-15 0.652326464653015137 0.15153774619102478
-1.97064586870965286e-15 0.935559272766113281 0.117028824985027313
-1.97064586870965286e-15 0.948466181755065918 0.125608935952186584
-1.97064586870965286e-15 0.286279916763305664 0.0956604629755020142
-1.97064586870965286e-15 0.058188173919916153 0.150343447923660278
-1.97064586870965286e-15 1.44575154781341553 0.172000497579574585
-1.97064586870965286e-15 1.27287864685058594 0.195946052670478821
-1.97064586870965286e-15 1.31269443035125732 0.196677029132843018
-1.97064586870965286e-15 0.146055698394775391 0.129015743732452393
-1.97064586870965286e-15 0.381502896547317505 0.044631078839302063
-1.97064586870965286e-15 0.880316793918609619 0.129720360040664673
-1.97064586870965286e-15 0.105511799454689026 0.105382815003395081
-1.97064586870965286e-15 0.194984838366508484 0.0562212914228439331
-1.97064586870965286e-15 0.775285720825195312 0.122076205909252167
-1.97064586870965286e-15 1.04320085048675537 0.135132908821105957
-1.97064586870965286e-15 0.612243592739105225 0.0751965045928955078
-1.97064586870965286e-15 1.2933727502822876 0.147554948925971985
-1.97064586870965286e-15 0.219797968864440918 0.11366688460111618
-1.97064586870965286e-15 0.34068635106086731 0.189872205257415771
-1.97064586870965286e-15 0.428055763244628906 0.0865226313471794128
-1.97064586870965286e-15 0.0147207574918866158 0.111979648470878601
-1.97064586870965286e-15 0.117167986929416656 0.179858624935150146
-1.97064586870965286e-15 1.25078022480010986 0.163106665015220642
-1.97064586870965286e-15 0.0167667251080274582 0.043504863977432251
-1.97064586870965286e-15 0.572093784809112549 0.085787750780582428
-1.97064586870965286e-15 0.950772404670715332 0.14386749267578125
-1.97064586870965286e-15 1.19821405410766602 0.159673139452934265
-1.97064586870965286e-15 0.922930538654327393 0.141105234622955322
-1.97064586870965286e-15 0.205825984477996826 0.0745324194431304932
-1.97064586870965286e-15 0.823519468307495117 0.166363358497619629
-1.97064586870965286e-15 0.0694131776690483093 0.0760377645492553711
-1.97064586870965286e-15 0.26883620023727417 0.13561558723449707
-1.97064586870965286e-15 0.84556877613067627 0.185543403029441833
-1.97064586870965286e-15 0.834120333194732666 0.158274367451667786
-1.97064586870965286e-15 0.406514227390289307 0.147686824202537537
-1.97064586870965286e-15 1.26299643516540527 0.14181964099407196
-1.97064586870965286e-15 0.307184219360351562 0.0607883930206298828
-1.97064586870965286e-15 0.244536176323890686 0.0283258259296417236
-1.97064586870965286e-15 0.0344670936465263367 0.104447536170482635
-1.97064586870965286e-15 0.0760356634855270386 0.171622410416603088
-1.97064586870965286e-15 0.0931567922234535217 0.192908704280853271
-1.97064586870965286e-15 0.0419735237956047058 0.0227325856685638428
-1.97064586870965286e-15 0.230655327439308167 0.0858105644583702087
-1.97064586870965286e-15 0.243929043412208557 0.0359145849943161011
-1.97064586870965286e-15 0.952543377876281738 0.140780091285705566
-1.97064586870965286e-15 0.400107145309448242 0.105519533157348633
-1.97064586870965286e-15 0.62430572509765625 0.128154858946800232
-1.97064586870965286e-15 0.343077898025512695 0.134391754865646362
-1.97064586870965286e-15 0.420496106147766113 0.160254120826721191
-1.97064586870965286e-15 0.0649315342307090759 0.146101638674736023
-1.97064586870965286e-15 0.0143753811717033386 0.179676428437232971
-1.97064586870965286e-15 0.97417604923248291 0.132752507925033569
-1.97064586870965286e-15 0.625079095363616943 0.169951885938644409
-1.97064586870965286e-15 0.106946311891078949 0.0293380469083786011
-1.97064586870965286e-15 0.811212837696075439 0.134898245334625244
-1.97064586870965286e-15 0.575728535652160645 0.15309944748878479
-1.97064586870965286e-15 0.402887284755706787 0.17200721800327301
-1.97064586870965286e-15 0.136569797992706299 0.125020682811737061
-1.97064586870965286e-15 0.36138567328453064 0.06432323157787323
-1.97064586870965286e-15 0.800192415714263916 0.147726729512214661
-1.97064586870965286e-15 1.01456975936889648 0.162185460329055786
-1.97064586870965286e-15 0.792892754077911377 0.195577308535575867
-1.97064586870965286e-15 0.0971242040395736694 0.0213056206703186035
-1.97064586870965286e-15 0.823092103004455566 0.15609586238861084
-1.97064586870965286e-15 0.64591526985168457 0.17649562656879425
-1.97064586870965286e-15 0.635814487934112549 0.0902149006724357605
-1.97064586870965286e-15 1.04213559627532959 0.125752180814743042
-1.97064586870965286e-15 0.324221938848495483 0.179479807615280151
-1.97064586870965286e-15 0.232960835099220276 0.117242030799388885
-1.97064586870965286e-15 1.56601905822753906 0.19342397153377533
-1.97064586870965286e-15 0.155444025993347168 0.13963964581489563
-1.97064586870965286e-15 1.10410392284393311 0.166908681392669678
-1.97064586870965286e-15 0.364395290613174438 0.167687132954597473
-1.97064586870965286e-15 0.0708262771368026733 0.132493764162063599
-1.97064586870965286e-15 0.714328348636627197 0.0990262553095817566
-1.97064586870965286e-15 0.601560413837432861 0.185235440731048584
-1.97064586870965286e-15 0.404470592737197876 0.186535924673080444
-1.97064586870965286e-15 0.560682356357574463 0.130844682455062866
-1.97064586870965286e-15 0.350748062133789062 0.0997923612594604492
-1.97064586870965286e-15 0.818859696388244629 0.100774191319942474
-1.97064586870965286e-15 0.329698324203491211 0.0992517098784446716
-1.97064586870965286e-15 0.574091792106628418 0.108412854373455048
-1.97064586870965286e-15 0.681689739227294922 0.133154571056365967
-1.97064586870965286e-15 0.139629483222961426 0.129098296165466309
-1.97064586870965286e-15 0.12506420910358429 0.190266340970993042
-1.97064586870965286e-15 0.105037979781627655 0.0393493622541427612
-1.97064586870965286e-15 0.081012919545173645 0.171789199113845825
-1.97064586870965286e-15 1.51807677745819092 0.191614344716072083
-1.97064586870965286e-15 0.00520089222118258476 0.10279420018196106
-1.97064586870965286e-15 1.10012006759643555 0.180027082562446594
-1.97064586870965286e-15 0.526924431324005127 0.165402457118034363
-1.97064586870965286e-15 0.998585641384124756 0.167317569255828857
-1.97064586870965286e-15 0.220245927572250366 0.0448535531759262085
-1.97064586870965286e-15 1.16362345218658447 0.193681493401527405
-1.97064586870965286e-15 0.316539257764816284 0.0490409880876541138
-1.97064586870965286e-15 0.26314091682434082 0.0557009875774383545
-1.97064586870965286e-15 0.855926394462585449 0.178676411509513855
-1.97064586870965286e-15 0.691135644912719727 0.141425907611846924
-1.97064586870965286e-15 0.114470072090625763 0.0300676971673965454
-1.97064586870965286e-15 0.501795351505279541 0.101352885365486145
-1.97064586870965286e-15 0.276432335376739502 0.167290061712265015
-1.97064586870965286e-15 0.265106737613677979 0.193359702825546265
-1.97064586870965286e-15 0.0343923754990100861 0.0461778491735458374
-1.97064586870965286e-15 0.409240990877151489 0.0834884196519851685
-1.97064586870965286e-15 1.01878082752227783 0.130607068538665771
-1.97064586870965286e-15 0.511197566986083984 0.102354235947132111
-1.97064586870965286e-15 0.403025239706039429 0.112013950943946838
-1.97064586870965286e-15 0.105034865438938141 0.132041305303573608
-1.97064586870965286e-15 0.82374882698059082 0.104751013219356537
-1.97064586870965286e-15 0.346750468015670776 0.196057319641113281
-1.97064586870965286e-15 0.77131122350692749 0.0990761294960975647
-1.97064586870965286e-15 0.081628061830997467 0.123387567698955536
-1.97064586870965286e-15 1.11356127262115479 0.148362040519714355
-1.97064586870965286e-15 0.755900263786315918 0.15875205397605896
-1.97064586870965286e-15 1.14700567722320557 0.13662254810333252
-1.97064586870965286e-15 0.583946704864501953 0.145247846841812134
-1.97064586870965286e-15 0.917064487934112549 0.120131336152553558
-1.97064586870965286e-15 0.857787966728210449 0.176296338438987732
-1.97064586870965286e-15 0.38969951868057251 0.197385057806968689
-1.97064586870965286e-15 0.207580387592315674 0.101679436862468719
-1.97064586870965286e-15 1.09129548072814941 0.143849536776542664
-1.97064586870965286e-15 0.212905019521713257 0.0637162774801254272
-1.97064586870965286e-15 0.406732261180877686 0.173413485288619995
-1.97064586870965286e-15 0.523808956146240234 0.11038912832736969
-1.97064586870965286e-15 1.44929540157318115 0.182472661137580872
-1.97064586870965286e-15 0.104877598583698273 0.142562747001647949
-1.97064586870965286e-15 0.302303522825241089 0.113725319504737854
-1.97064586870965286e-15 0.843465328216552734 0.109622970223426819
-1.97064586870965286e-15 1.21809923648834229 0.152105540037155151
-1.97064586870965286e-15 0.471212953329086304 0.177527442574501038
-1.97064586870965286e-15 0.67229461669921875 0.0839117765426635742
-1.97064586870965286e-15 0.190412476658821106 0.125777319073677063
-1.97064586870965286e-15 1.21998786926269531 0.161956354975700378
-1.97064586870965286e-15 1.27196502685546875 0.188666656613349915
-1.97064586870965286e-15 0.330278664827346802 0.0949153825640678406
-1.97064586870965286e-15 1.45795583724975586 0.194114252924919128
-1.97064586870965286e-15 0.827519416809082031 0.115078933537006378
-1.97064586870965286e-15 0.419976294040679932 0.12373187392950058
-1.97064586870965286e-15 0.616584122180938721 0.141003474593162537
-1.97064586870965286e-15 0.0766984894871711731 0.178449526429176331
-1.97064586870965286e-15 1.2871546745300293 0.161874786019325256
-1.97064586870965286e-15 0.294874101877212524 0.18715958297252655
-1.97064586870965286e-15 0.0413166210055351257 0.0578777343034744263
-1.97064586870965286e-15 0.673006951808929443 0.109540410339832306
-1.97064586870965286e-15 0.058712102472782135 0.162648022174835205
-1.97064586870965286e-15 0.162026450037956238 0.024003252387046814
-1.97064586870965286e-15 0.623872697353363037 0.15533272922039032
-1.97064586870965286e-15 0.424407064914703369 0.0777407214045524597
-1.97064586870965286e-15 0.204024478793144226 0.172264799475669861
-1.97064586870965286e-15 0.0439556501805782318 0.096060827374458313
-1.97064586870965286e-15 0.35155564546585083 0.114749990403652191
-1.97064586870965286e-15 0.231784746050834656 0.0344727486371994019
-1.97064586870965286e-15 1.13044476509094238 0.130735665559768677
-1.97064586870965286e-15 0.41142737865447998 0.159008681774139404
-1.97064586870965286e-15 0.854630053043365479 0.137492954730987549
-1.97064586870965286e-15 0.129024878144264221 0.034793555736541748
-1.97064586870965286e-15 0.187407225370407104 0.0757707282900810242
-1.97064586870965286e-15 1.09203290939331055 0.163878947496414185
-1.97064586870965286e-15 0.296682208776473999 0.0493212193250656128
-1.97064586870965286e-15 0.152787759900093079 0.134414076805114746
-1.97064586870965286e-15 0.429016828536987305 0.167376458644866943
-1.97064586870965286e-15 0.898490428924560547 0.118607982993125916
-1.97064586870965286e-15 0.495138734579086304 0.182340711355209351
-1.97064586870965286e-15 0.375972628593444824 0.114548221230506897
-1.97064586870965286e-15 0.364878952503204346 0.0417930185794830322
-1.97064586870965286e-15 1.52260982990264893 0.188871070742607117
-1.97064586870965286e-15 0.106496900320053101 0.159517019987106323
-1.97064586870965286e-15 0.238405585289001465 0.0416032969951629639
-1.97064586870965286e-15 0.528580069541931152 0.108770422637462616
-1.97064586870965286e-15 0.833437085151672363 0.0952016264200210571
-1.97064586870965286e-15 0.157323256134986877 0.179429814219474792
-1.97064586870965286e-15 0.233111172914505005 0.0648176223039627075
-1.97064586870965286e-15 0.738415122032165527 0.10695948451757431
-1.97064586870965286e-15 0.250505894422531128 0.141309022903442383
-1.97064586870965286e-15 0.464860081672668457 0.126286804676055908
-1.97064586870965286e-15 0.0164384283125400543 0.177379265427589417
-1.97064586870965286e-15 0.551011383533477783 0.0928386226296424866
-1.97064586870965286e-15 0.0238659866154193878 0.0686645060777664185
-1.97064586870965286e-15 0.757163941860198975 0.146103948354721069
-1.97064586870965286e-15 0.0563460066914558411 0.160002604126930237
-1.97064586870965286e-15 0.453002303838729858 0.134407967329025269
-1.97064586870965286e-15 1.64627766609191895 0.18788592517375946
-1.97064586870965286e-15 1.24264466762542725 0.19595983624458313
-1.97064586870965286e-15 0.985536873340606689 0.136038839817047119
-1.97064586870965286e-15 0.0330040790140628815 0.0578489005565643311
-1.97064586870965286e-15 0.375241369009017944 0.124327108263969421
-1.97064586870965286e-15 0.0304785110056400299 0.064799576997756958
-1.97064586870965286e-15 1.08962559700012207 0.188335955142974854
-1.97064586870965286e-15 0.980260610580444336 0.134765267372131348
-1.97064586870965286e-15 0.730750143527984619 0.152913808822631836
-1.97064586870965286e-15 0.262958228588104248 0.170726358890533447
-1.97064586870965286e-15 0.891068935394287109 0.144687652587890625
-1.97064586870965286e-15 0.389577001333236694 0.052348703145980835
-1.97064586870965286e-15 1.00626683235168457 0.169764459133148193
-1.97064586870965286e-15 0.0746540501713752747 0.0273336470127105713
-1.97064586870965286e-15 0.571481883525848389 0.193347901105880737
-1.97064586870965286e-15 0.224118515849113464 0.0311615169048309326
-1.97064586870965286e-15 0.250553041696548462 0.13617628812789917
-1.97064586870965286e-15 0.0133876949548721313 0.0516193956136703491
-1.97064586870965286e-15 0.335941225290298462 0.152549147605895996
-1.97064586870965286e-15 1.0101463794708252 0.174878105521202087
-1.97064586870965286e-15 0.899169325828552246 0.10475718230009079
-1.97064586870965286e-15 0.313411891460418701 0.181806802749633789
-1.97064586870965286e-15 0.552893280982971191 0.159938022494316101
-1.97064586870965286e-15 0.165072277188301086 0.0841730162501335144
-1.97064586870965286e-15 1.59914755821228027 0.181389704346656799
-1.97064586870965286e-15 0.00364752090536057949 0.137052416801452637
-1.97064586870965286e-15 0.411165565252304077 0.135239571332931519
-1.97064586870965286e-15 0.15271526575088501 0.090070381760597229
-1.97064586870965286e-15 0.745763599872589111 0.130731284618377686
-1.97064586870965286e-15 0.270560234785079956 0.131810992956161499
-1.97064586870965286e-15 1.77144980430603027 0.199607595801353455
-1.97064586870965286e-15 1.17532074451446533 0.1991233229637146
-1.97064586870965286e-15 0.0928288921713829041 0.0878336802124977112
-1.97064586870965286e-15 0.413253039121627808 0.118423886597156525
-1.97064586870965286e-15 0.493879646062850952 0.140536442399024963
-1.97064586870965286e-15 0.0604678243398666382 0.150061294436454773
-1.97064586870965286e-15 1.19693303108215332 0.148441657423973083
-1.97064586870965286e-15 0.911108195781707764 0.158819973468780518
-1.97064586870965286e-15 0.297480762004852295 0.103636279702186584
-1.97064586870965286e-15 0.693580448627471924 0.104223407804965973
-1.97064586870965286e-15 0.092067621648311615 0.178835421800613403
-1.97064586870965286e-15 0.340847223997116089 0.192929357290267944
-1.97064586870965286e-15 0.487001925706863403 0.119224004447460175
-1.97064586870965286e-15 0.0172170922160148621 0.0260805040597915649
-1.97064586870965286e-15 0.97045433521270752 0.12360074371099472
-1.97064586870965286e-15 0.417991727590560913 0.112587146461009979
-1.97064586870965286e-15 0.701280713081359863 0.116028241813182831
-1.97064586870965286e-15 0.458861857652664185 0.187509655952453613
-1.97064586870965286e-15 0.392318457365036011 0.149357005953788757
-1.97064586870965286e-15 0.469429731369018555 0.136201784014701843
-1.97064586870965286e-15 0.837448418140411377 0.166252255439758301
-1.97064586870965286e-15 0.209172695875167847 0.17633819580078125
-1.97064586870965286e-15 0.0173705797642469406 0.193025514483451843
-1.97064586870965286e-15 0.966242969036102295 0.115193635225296021
-1.97064586870965286e-15 1.73143661022186279 0.19858764111995697
-1.97064586870965286e-15 0.178288534283638 0.0346044450998306274
-1.97064586870965286e-15 0.295972198247909546 0.119416221976280212
-1.97064586870965286e-15 0.383773177862167358 0.183161601424217224
-1.97064586870965286e-15 0.206380665302276611 0.135125249624252319
-1.97064586870965286e-15 1.08146452903747559 0.18394508957862854
-1.97064586870965286e-15 0.370224863290786743 0.123762555420398712
-1.97064586870965286e-15 1.27626323699951172 0.158815309405326843
-1.97064586870965286e-15 0.30045124888420105 0.127422675490379333
-1.97064586870965286e-15 0.0949387699365615845 0.123407088220119476
-1.97064586870965286e-15 0.837073862552642822 0.157518863677978516
-1.97064586870965286e-15 0.33830106258392334 0.0610584914684295654
-1.97064586870965286e-15 0.467467755079269409 0.109484992921352386
-1.97064586870965286e-15 0.788499057292938232 0.17127653956413269
-1.97064586870965286e-15 0.128220856189727783 0.149445310235023499
-1.97064586870965286e-15 0.834245741367340088 0.152059346437454224
-1.97064586870965286e-15 0.303178906440734863 0.0401124060153961182
-1.97064586870965286e-15 1.57508265972137451 0.196833983063697815
-1.97064586870965286e-15 0.29492264986038208 0.191677123308181763
-1.97064586870965286e-15 1.61865067481994629 0.181429162621498108
-1.97064586870965286e-15 0.120287932455539703 0.16841810941696167
-1.97064586870965286e-15 0.404489308595657349 0.081212259829044342
-1.97064586870965286e-15 0.30413857102394104 0.125189393758773804
-1.97064586870965286e-15 0.146135672926902771 0.0618681162595748901
-1.97064586870965286e-15 0.993747413158416748 0.18516223132610321
-1.97064586870965286e-15 0.371937602758407593 0.180499836802482605
-1.97064586870965286e-15 0.123501338064670563 0.141802087426185608
-1.97064586870965286e-15 0.0671758949756622314 0.143335327506065369
-1.97064586870965286e-15 0.608785748481750488 0.103525474667549133
-1.97064586870965286e-15 0.360980808734893799 0.0717733204364776611
-1.97064586870965286e-15 0.461442857980728149 0.166801467537879944
-1.97064586870965286e-15 1.55690062046051025 0.192482411861419678
-1.97064586870965286e-15 0.153389230370521545 0.0861793309450149536
-1.97064586870965286e-15 0.430022299289703369 0.132502228021621704
-1.97064586870965286e-15 0.0379812978208065033 0.120275013148784637
-1.97064586870965286e-15 1.65686070919036865 0.198255911469459534
-1.97064586870965286e-15 1.31956076622009277 0.181069567799568176
-1.97064586870965286e-15 1.59900414943695068 0.197085455060005188
-1.97064586870965286e-15 0.295645177364349365 0.17597682774066925
-1.97064586870965286e-15 0.715146839618682861 0.101131290197372437
-1.97064586870965286e-15 0.789661824703216553 0.131840541958808899
-1.97064586870965286e-15 0.935002028942108154 0.149309530854225159
-1.97064586870965286e-15 0.835757553577423096 0.114637136459350586
-1.97064586870965286e-15 0.367658674716949463 0.0695656687021255493
-1.97064586870965286e-15 0.443841904401779175 0.115904994308948517
-1.97064586870965286e-15 0.290091663599014282 0.179719835519790649
-1.97064586870965286e-15 1.18785452842712402 0.143371537327766418
-1.97064586870965286e-15 1.29659771919250488 0.166336804628372192
-1.97064586870965286e-15 1.09140181541442871 0.160402506589889526
-1.97064586870965286e-15 1.21730995178222656 0.186457380652427673
-1.97064586870965286e-15 0.0678454190492630005 0.0607890188694000244
-1.97064586870965286e-15 0.890546619892120361 0.153793424367904663
-1.97064586870965286e-15 1.5940406322479248 0.192386612296104431
-1.97064586870965286e-15 0.472550958395004272 0.144502520561218262
-1.97064586870965286e-15 0.456252545118331909 0.0687833279371261597
-1.97064586870965286e-15 1.49343717098236084 0.193176865577697754
-1.97064586870965286e-15 0.466075986623764038 0.0752068161964416504
-1.97064586870965286e-15 0.543447256088256836 0.0830473676323890686
-1.97064586870965286e-15 0.948746144771575928 0.125194042921066284
-1.97064586870965286e-15 0.493121027946472168 0.0925162583589553833
-1.97064586870965286e-15 0.57296597957611084 0.103086665272712708
-1.97064586870965286e-15 0.0206079669296741486 0.0532150417566299438
-1.97064586870965286e-15 0.973185181617736816 0.122136913239955902
-1.97064586870965286e-15 0.992103934288024902 0.194181546568870544
-1.97064586870965286e-15 1.68907558917999268 0.19505031406879425
-1.97064586870965286e-15 0.319387048482894897 0.190715417265892029
-1.97064586870965286e-15 0.985199511051177979 0.149633809924125671
-1.97064586870965286e-15 0.308808326721191406 0.195994168519973755
-1.97064586870965286e-15 0.365418821573257446 0.166883155703544617
-1.97064586870965286e-15 0.465569853782653809 0.146657586097717285
-1.97064586870965286e-15 0.0326823815703392029 0.134970515966415405
-1.97064586870965286e-15 0.317114919424057007 0.183608353137969971
0.16454748809337616 0 0.054919220507144928
0.0409590862691402435 0 0.130340754985809326
0.0550083480775356293 0 0.0352333784103393555
0.165595456957817078 0 0.0372122004628181458
0.227000504732131958 0 0.000175036489963531494
0.0843571573495864868 0 0.0324905738234519958
0.12787802517414093 0 0.103825457394123077
0.0349757969379425049 0 0.064536653459072113
0.0278749559074640274 0 0.114347301423549652
0.147619813680648804 0 0.104058608412742615
0.284548014402389526 0 0.00721089541912078857
0.114335648715496063 0 0.0997217446565628052
0.0379313789308071136 0 0.125656589865684509
0.00749178742989897728 0 0.114193812012672424
0.0971369296312332153 0 0.0485708490014076233
0.0269846748560667038 0 0.0913850069046020508
0.131695613265037537 0 0.0126648023724555969
0.327015906572341919 0 0.0161084234714508057
0.152874156832695007 0 0.0731577947735786438
0.00722532719373703003 0 0.135354414582252502
0.233104467391967773 0 0.0635621100664138794
0.170110270380973816 0 0.106141231954097748
0.373302996158599854 0 0.0117431879043579102
0.148402437567710876 0 0.101004265248775482
0.344428420066833496 0 0.00274685025215148926
0.0293051004409790039 0 0.00683608651161193848
0.0119152544066309929 0 0.0936090350151062012
0.0589500069618225098 0 0.0787409394979476929
0.121428385376930237 0 0.0518026649951934814
0.108639024198055267 0 0.0959831923246383667
0.186911121010780334 0 0.000546783208847045898
0.0331442207098007202 0 0.133620262145996094
0.0209660176187753677 0 0.0771237388253211975
0.0163292046636343002 0 0.0493258945643901825
0.0369488485157489777 0 0.0145194139331579208
0.213230237364768982 0 0.0600323453545570374
0.244861006736755371 0 0.0736077874898910522
0.210182890295982361 0 0.0242671146988868713
0.0589427724480628967 0 0.130024313926696777
0.0315955653786659241 0 0.0328841619193553925
0.361395716667175293 0 0.00590153038501739502
0.00758330244570970535 0 0.191214680671691895
0.116056501865386963 0 0.0819328129291534424
0.170767530798912048 0 0.0620186552405357361
0.130150690674781799 0 0.0605420693755149841
0.107652120292186737 0 0.104226738214492798
0.153671965003013611 0 0.0717083141207695007
0.140811026096343994 0 0.087739214301109314
0.12783302366733551 0 0.128169119358062744
0.294072180986404419 0 0.0483902096748352051
0.0692594647407531738 0 0.0318840146064758301
0.164379090070724487 0 0.0230841487646102905
0.00118928216397762299 0 0.122308798134326935
0.169366002082824707 0 0.0510186105966567993
0.223817750811576843 0 0.0875937119126319885
0.00855960417538881302 0 0.109435282647609711
0.196779370307922363 0 0.00493111461400985718
0.287405848503112793 0 0.00769291818141937256
0.0780471563339233398 0 0.134090498089790344
0.0840616747736930847 0 0.0178601182997226715
0.255526155233383179 0 0.0412832349538803101
0.0639375671744346619 0 0.0709297060966491699
0.0938706099987030029 0 0.0922808945178985596
0.00691520934924483299 0 0.0840333253145217896
0.0403526090085506439 0 0.133241713047027588
0.0317658744752407074 0 0.0631044209003448486
0.164194062352180481 0 0.0696950480341911316
0.133903101086616516 0 0.0924919471144676208
0.0454076342284679413 0 0.0600243657827377319
0.287666290998458862 0 0.0174832046031951904
0.135717615485191345 0 0.087057746946811676
0.020195765420794487 0 0.172474563121795654
0.0837977677583694458 0 0.0522542744874954224
0.220763549208641052 0 0.0202097967267036438
0.128115564584732056 0 0.0324898585677146912
0.177581295371055603 0 0.0946995839476585388
0.227507710456848145 0 0.0100062564015388489
0.185908898711204529 0 0.0340123847126960754
0.0306802242994308472 0 0.175848782062530518
0.238006994128227234 0 0.0486269369721412659
0.219548493623733521 0 0.0376099497079849243
0.0657169744372367859 0 0.0341965295374393463
0.105595164000988007 0 0.0375501252710819244
0.0435702167451381683 0 0.0847336277365684509
0.0271134432405233383 0 0.17397153377532959
0.0478620007634162903 0 0.115873843431472778
0.131213173270225525 0 0.0127536281943321228
0.00997234415262937546 0 0.12094203382730484
0.138331949710845947 0 0.0112012550234794617
0.0369514711201190948 0 0.0512130632996559143
0.224063903093338013 0 0.0211313217878341675
0.186402022838592529 0 0.0643581897020339966
0.0702599212527275085 0 0.03813900426030159
0.100963316857814789 0 0.00518212094902992249
0.200743913650512695 0 0.0507795363664627075
0.0712473094463348389 0 0.162018090486526489
0.20160190761089325 0 0.0253373011946678162
0.119438409805297852 0 0.0486221909523010254
0.0893243178725242615 0 0.126621663570404053
0.192310288548469543 0 0.0887707099318504333
0.0111846644431352615 0 0.180009067058563232
0.123375430703163147 0 0.042541995644569397
0.0466552190482616425 0 0.136598989367485046
0.0293441005051136017 0 0.139085486531257629
0.203699216246604919 0 0.0171655714511871338
0.0091282697394490242 0 0.0276998896151781082
0.019909292459487915 0 0.1277647465467453
0.158333525061607361 0 0.0869110599160194397
0.0989578813314437866 0 0.0546913743019104004
0.0920693278312683105 0 0.014521479606628418
0.0747594907879829407 0 0.0470158569514751434
0.114286236464977264 0 0.128792434930801392
0.155996859073638916 0 0.0398840010166168213
0.201315030455589294 0 0.0194638520479202271
0.0597579851746559143 0 0.0056971423327922821
0.179702430963516235 0 0.0515096187591552734
0.286217570304870605 0 0.0367349982261657715
0.0190557464957237244 0 0.0366268046200275421
0.116517417132854462 0 0.0289488695561885834
0.0529113002121448517 0 0.152124807238578796
0.100752905011177063 0 0.0938021615147590637
0.153798401355743408 0 0.121523872017860413
0.158612892031669617 0 0.00551207363605499268
0.0844917669892311096 0 0.0303841196000576019
0.107441246509552002 0 0.0470558106899261475
0.174103900790214539 0 0.107408054172992706
0.0154959326609969139 0 0.0539207123219966888
0.0832906290888786316 0 0.155841171741485596
0.292178601026535034 0 0.0395386070013046265
0.343335449695587158 0 0.00603032112121582031
0.279118865728378296 0 0.0236406326293945312
0.170444011688232422 0 0.00651645660400390625
0.293297559022903442 0 0.0149133652448654175
0.166542083024978638 0 0.0731205195188522339
0.149276375770568848 0 0.00501199066638946533
0.292473405599594116 0 0.0221964269876480103
0.0467525161802768707 0 0.0491362214088439941
0.348205864429473877 0 0.0242686420679092407
0.110092103481292725 0 0.141114503145217896
0.201902702450752258 0 0.0962254926562309265
0.11457359790802002 0 0.101705312728881836
0.0970518589019775391 0 0.126189038157463074
0.010840035043656826 0 0.0447453968226909637
0.205023571848869324 0 0.0971144214272499084
0.175249382853507996 0 0.0325767099857330322
0.220075398683547974 0 0.0077660977840423584
0.0875506475567817688 0 0.0212189517915248871
0.0931998789310455322 0 0.0698640421032905579
0.035474579781293869 0 0.100339427590370178
0.209923133254051208 0 0.0202092006802558899
0.141332879662513733 0 0.0746075734496116638
0.0220577791333198547 0 0.0372045300900936127
0.0511538870632648468 0 0.125650882720947266
0.141803443431854248 0 0.0835104882717132568
0.258081018924713135 0 0.0605521649122238159
0.294238299131393433 0 0.0252065360546112061
0.195337370038032532 0 0.0479349121451377869
0.0838019773364067078 0 0.0162393786013126373
0.114317514002323151 0 0.0668894946575164795
0.079081416130065918 0 0.142462164163589478
0.0526408031582832336 0 0.0471202842891216278
0.00669518718495965004 0 0.0994150936603546143
0.0905539616942405701 0 0.123424440622329712
0.114676050841808319 0 0.0930137187242507935
0.0565453283488750458 0 0.047890886664390564
0.103660382330417633 0 0.0996794551610946655
0.208865389227867126 0 0.00115102529525756836
0.0610495693981647491 0 0.113127671182155609
0.0265889912843704224 0 0.10869288444519043
0.316364020109176636 0 0.0324088931083679199
0.0400017574429512024 0 0.138820469379425049
0.0106802089139819145 0 0.161842972040176392
0.102417469024658203 0 0.0502299293875694275
0.244259148836135864 0 0.0421480089426040649
0.268898844718933105 0 0.0840406790375709534
0.304508239030838013 0 0.121466107666492462
0.200484856963157654 0 0.164459288120269775
0.388928681612014771 0 0.148278892040252686
0.232239052653312683 0 0.127150297164916992
0.302678406238555908 0 0.076841987669467926
0.280377119779586792 0 0.173906847834587097
0.221545800566673279 0 0.101393871009349823
0.353574097156524658 0 0.111105367541313171
0.367039769887924194 0 0.192865088582038879
0.377623051404953003 0 0.0282820761203765869
0.355900108814239502 0 0.117013417184352875
0.313706576824188232 0 0.152181163430213928
0.284341514110565186 0 0.161920979619026184
0.212912172079086304 0 0.119076572358608246
0.318296551704406738 0 0.065671086311340332
0.357494056224822998 0 0.12564811110496521
0.288295149803161621 0 0.127555370330810547
0.0835363268852233887 0 0.165769279003143311
0.353116869926452637 0 0.110231414437294006
0.125983297824859619 0 0.152359738945960999
0.262808144092559814 0 0.113279163837432861
0.0909245610237121582 0 0.157600820064544678
0.0539805889129638672 0 0.199800610542297363
0.191965267062187195 0 0.183168545365333557
0.147350281476974487 0 0.127970784902572632
0.163888052105903625 0 0.121189571917057037
0.369310736656188965 0 0.0476747602224349976
0.267275393009185791 0 0.188240304589271545
0.319747120141983032 0 0.149752840399742126
0.293261945247650146 0 0.124880693852901459
0.136412203311920166 0 0.143519893288612366
0.255402803421020508 0 0.125799953937530518
0.156596049666404724 0 0.173138052225112915
0.370526373386383057 0 0.157970726490020752
0.160762816667556763 0 0.135524958372116089
0.0441743433475494385 0 0.197977006435394287
0.390014588832855225 0 0.119488470256328583
0.291814237833023071 0 0.190400794148445129
0.382681101560592651 0 0.18445160984992981
0.359553545713424683 0 0.176005065441131592
0.367243796586990356 0 0.190453127026557922
0.289919644594192505 0 0.126100540161132812
0.323755025863647461 0 0.137703761458396912
0.07458457350730896 0 0.193487048149108887
0.385074138641357422 0 0.143699884414672852
0.132639706134796143 0 0.154008761048316956
0.27558135986328125 0 0.135741591453552246
0.112841248512268066 0 0.182397991418838501
0.361737817525863647 0 0.0745806694030761719
0.265352874994277954 0 0.119796842336654663
0.267216742038726807 0 0.189575150609016418
0.287757396697998047 0 0.13804955780506134
0.0937206447124481201 0 0.179699838161468506
0.30156254768371582 0 0.0675015151500701904
0.231873095035552979 0 0.12859933078289032
0.395709633827209473 0 0.100229136645793915
0.203618153929710388 0 0.14496217668056488
0.256533503532409668 0 0.121646896004676819
0.293376743793487549 0 0.190834566950798035
0.152112320065498352 0 0.16817881166934967
0.168476492166519165 0 0.189051538705825806
0.0562264621257781982 0 0.198196113109588623
0.0659922957420349121 0 0.193901509046554565
0.129149258136749268 0 0.177596300840377808
0.342559278011322021 0 0.092409573495388031
0.307117253541946411 0 0.107543185353279114
0.397900193929672241 0 0.0863405987620353699
0.29477226734161377 0 0.0827214941382408142
0.236682355403900146 0 0.170519053936004639
0.0854708552360534668 0 0.185086503624916077
0.308057427406311035 0 0.178567379713058472
0.203989595174789429 0 0.19053339958190918
0.230897650122642517 0 0.0956940203905105591
0.227861002087593079 0 0.138763546943664551
0.345423400402069092 0 0.166366070508956909
0.388931959867477417 0 0.125480994582176208
0.292367219924926758 0 0.160245835781097412
0.369138777256011963 0 0.122139208018779755
0.237810298800468445 0 0.138438373804092407
0.205343693494796753 0 0.114153683185577393
0.192450240254402161 0 0.119491025805473328
0.24869239330291748 0 0.0843744277954101562
0.293654263019561768 0 0.0619238764047622681
0.212630689144134521 0 0.199428826570510864
0.294756561517715454 0 0.113582655787467957
0.37465330958366394 0 0.169221296906471252
0.193347051739692688 0 0.19738219678401947
0.364010423421859741 0 0.121837414801120758
0.11315387487411499 0 0.179069027304649353
0.332095056772232056 0 0.0528306066989898682
0.335363537073135376 0 0.0429237782955169678
0.356107532978057861 0 0.0497380197048187256
0.346957802772521973 0 0.0693960636854171753
0.399341046810150146 0 0.090601794421672821
0.366740792989730835 0 0.179956108331680298
0.32809370756149292 0 0.101887337863445282
0.25811341404914856 0 0.114112041890621185
