ply
format ascii 1.0
element vertex 702
property float x
property float y
property float z
end_header
-0.00872509554028511047 0.0445000007748603821 0.0089352848008275032
0.000111419736640527844 0.0445000007748603821 0.00777510134503245354
-0.00611912645399570465 0.0445000007748603821 0.00860826671123504639
-0.0104117095470428467 0.0445000007748603821 0.00680001871660351753
-0.00431655626744031906 0.0445000007748603821 0.00863820873200893402
-0.0100024743005633354 0.0445000007748603821 0.00724384607747197151
-0.00714329397305846214 0.0445000007748603821 0.0077031073160469532
0.00192443234845995903 0.0445000007748603821 0.00852809939533472061
-0.00480775628238916397 0.0445000007748603821 0.00881034694612026215
-0.010059824213385582 0.0445000007748603821 0.0088520171120762825
-0.00979026500135660172 0.0445000007748603821 0.00725786294788122177
0.00177501002326607704 0.0445000007748603821 0.00988758914172649384
-0.00619919551536440849 0.0445000007748603821 0.00961004849523305893
-0.00735415006056427956 0.0445000007748603821 0.00969634763896465302
-0.0055205649696290493 0.0445000007748603821 0.0096883084625005722
0.00361939147114753723 0.0445000007748603821 0.00958754494786262512
-0.00608738791197538376 0.0445000007748603821 0.00983118917793035507
-0.00445612240582704544 0.0445000007748603821 0.00955028831958770752
0.00401650788262486458 0.0445000007748603821 0.00947285257279872894
-0.00713379867374897003 0.0445000007748603821 0.0107265273109078407
-0.00307508604601025581 0.0445000007748603821 0.0100583611056208611
-0.00360292289406061172 0.0445000007748603821 0.0100318174809217453
-0.000535623286850750446 0.0445000007748603821 0.0104393120855093002
0.0007231167983263731 0.0445000007748603821 0.0103174038231372833
0.00678761489689350128 0.0445000007748603821 0.00975415389984846115
-0.0012450024951249361 0.0445000007748603821 0.0106313442811369896
-0.00583195174112915993 0.0445000007748603821 0.0115105295553803444
0.00456647574901580811 0.0445000007748603821 0.00974954292178153992
-0.00355652067810297012 0.0445000007748603821 0.0117559116333723068
-0.00347887421958148479 0.0445000007748603821 0.0108419815078377724
-0.0023429039865732193 0.0445000007748603821 0.0111944917589426041
0.00476918322965502739 0.0445000007748603821 0.0107134114950895309
-0.00103229517117142677 0.0445000007748603821 0.012615579180419445
0.00166211789473891258 0.0445000007748603821 0.011841832660138607
0.00127662159502506256 0.0445000007748603821 0.0122331306338310242
0.00258209649473428726 0.0445000007748603821 0.0115005746483802795
0.000154553912580013275 0.0445000007748603821 0.0124856624752283096
-0.00254888995550572872 0.0445000007748603821 0.0121446456760168076
0.00392970675602555275 0.0445000007748603821 0.0120967207476496696
0.00733296573162078857 0.0445000007748603821 0.0103102447465062141
0.00882050860673189163 0.0445000007748603821 0.00960640795528888702
0.00495572993531823158 0.0445000007748603821 0.0116094527766108513
0.00400888640433549881 0.0445000007748603821 0.0125351259484887123
0.00850945431739091873 0.0445000007748603821 0.00992867723107337952
0.00683031277731060982 0.0445000007748603821 0.0112760327756404877
0.0109962904825806618 0.0445000007748603821 0.00731918308883905411
0.0123582333326339722 0.0445000007748603821 0.00368979200720787048
0.0115893185138702393 0.0445000007748603821 0.0055090123787522316
0.0103009669110178947 0.0445000007748603821 0.00833498686552047729
0.0123476507142186165 0.0445000007748603821 0.000600283965468406677
0.0126291392371058464 0.0445000007748603821 0.000812500715255737305
0.0128254806622862816 0.0445000007748603821 0.00104474951513111591
0.0120306471362709999 0.0445000007748603821 0.000136469490826129913
0.0125902015715837479 0.0445000007748603821 -0.00310984207317233086
0.0119549417868256569 0.0445000007748603821 -0.00336559861898422241
0.0120231006294488907 0.0445000007748603821 -0.00391806475818157196
0.0117777548730373383 0.0445000007748603821 0.000463062198832631111
0.0119767934083938599 0.0445000007748603821 0.00135146442335098982
0.0107596050947904587 0.0445000007748603821 -0.00255817268043756485
0.0117745930328965187 0.0445000007748603821 -0.00514999404549598694
0.0106595372781157494 0.0445000007748603821 -0.00413065450266003609
0.0102206375449895859 0.0445000007748603821 -0.00388054084032773972
0.0107674840837717056 0.0445000007748603821 0.00217696535401046276
0.0111978678032755852 0.0445000007748603821 -0.00487126782536506653
0.0103086689487099648 0.0445000007748603821 -0.00403273012489080429
0.0111358752474188805 0.0445000007748603821 -0.00299578392878174782
0.010221114382147789 0.0445000007748603821 0.00150445103645324707
0.00943956989794969559 0.0445000007748603821 0.000937344972044229507
0.00835788901895284653 0.0445000007748603821 -0.0102293239906430244
0.00901403091847896576 0.0445000007748603821 -0.00786959566175937653
0.00855900812894105911 0.0445000007748603821 -0.0051816767081618309
0.00996129494160413742 0.0445000007748603821 0.00582927092909812927
0.00887570902705192566 0.0445000007748603821 -0.00328260008245706558
0.00985239911824464798 0.0445000007748603821 -0.000154756475239992142
0.00981769990175962448 0.0445000007748603821 0.0042581167072057724
0.0100592011585831642 0.0445000007748603821 0.00675151962786912918
0.00989002827554941177 0.0445000007748603821 0.00579414889216423035
0.00982813816517591476 0.0445000007748603821 -0.00569841265678405762
0.00939832720905542374 0.0445000007748603821 -0.00350963138043880463
0.00841531995683908463 0.0445000007748603821 0.000172558240592479706
0.00792188476771116257 0.0445000007748603821 -0.00354400509968400002
0.00812762975692749023 0.0445000007748603821 -0.007090800441801548
0.00801546033471822739 0.0445000007748603821 -0.00797370634973049164
0.00780874956399202347 0.0445000007748603821 -0.00818600691854953766
0.00819757208228111267 0.0445000007748603821 -0.00280853314325213432
0.00870052818208932877 0.0445000007748603821 -0.00253379391506314278
0.00845420826226472855 0.0445000007748603821 -0.00268970662727952003
0.00674628186970949173 0.0445000007748603821 -0.00914728175848722458
0.00979132018983364105 0.0445000007748603821 0.00711997551843523979
0.00976777262985706329 0.0445000007748603821 0.00701324176043272018
0.00653168093413114548 0.0445000007748603821 -0.00856584031134843826
0.00925774965435266495 0.0445000007748603821 0.00253776856698095798
0.00834475550800561905 0.0445000007748603821 -0.00454708235338330269
0.00561217870563268661 0.0445000007748603821 -0.00756848510354757309
0.0100273815914988518 0.0445000007748603821 0.00873909052461385727
0.00297353370115160942 0.0445000007748603821 -0.0100506693124771118
0.00495803076773881912 0.0445000007748603821 -0.0089874267578125
0.00627752672880887985 0.0445000007748603821 -0.00572905037552118301
0.00810945127159357071 0.0445000007748603821 0.00141821824945509434
0.00465380866080522537 0.0445000007748603821 -0.00983683019876480103
0.00458324514329433441 0.0445000007748603821 -0.0102913640439510345
0.00616330932825803757 0.0445000007748603821 -0.00271970545873045921
0.00534308189526200294 0.0445000007748603821 -0.00651618931442499161
0.00540800159797072411 0.0445000007748603821 -0.00797647982835769653
0.00682696234434843063 0.0445000007748603821 -0.00422056159004569054
0.00590677373111248016 0.0445000007748603821 -0.00694304099306464195
0.00754650216549634933 0.0445000007748603821 0.00188026297837495804
0.0055947531946003437 0.0445000007748603821 -0.0074756331741809845
0.00776529451832175255 0.0445000007748603821 -0.000212596030905842781
0.00224574794992804527 0.0445000007748603821 -0.0126505997031927109
-0.00113916303962469101 0.0445000007748603821 -0.0131465541198849678
0.00853550247848033905 0.0445000007748603821 0.00483169034123420715
0.00252833310514688492 0.0445000007748603821 -0.0103044863790273666
0.00641815038397908211 0.0445000007748603821 -7.90670746937394142e-05
0.003759799525141716 0.0445000007748603821 -0.0059362403117120266
0.00540432054549455643 0.0445000007748603821 -0.00218429113738238811
0.00187609205022454262 0.0445000007748603821 -0.0073010716587305069
0.0077503938227891922 0.0445000007748603821 0.00440731551498174667
0.00626803422346711159 0.0445000007748603821 0.000826150178909301758
0.00517335208132863045 0.0445000007748603821 -0.00160345900803804398
0.00871147215366363525 0.0445000007748603821 0.00584881752729415894
0.00447652721777558327 0.0445000007748603821 -0.00466887187212705612
0.00736980605870485306 0.0445000007748603821 0.00186416716314852238
0.00337279425002634525 0.0445000007748603821 -0.00871346797794103622
0.00377454096451401711 0.0445000007748603821 -0.00700376369059085846
0.00135407457128167152 0.0445000007748603821 -0.0128986481577157974
-0.00042954273521900177 0.0445000007748603821 -0.0114753246307373047
0.000505283940583467484 0.0445000007748603821 -0.0124436989426612854
0.00173787865787744522 0.0445000007748603821 -0.00842742621898651123
0.00776313617825508118 0.0445000007748603821 0.00446398695930838585
0.00292935757897794247 0.0445000007748603821 -0.00378370867110788822
-0.000389280728995800018 0.0445000007748603821 -0.0075455312617123127
-0.00372360832989215851 0.0445000007748603821 -0.0124324467033147812
-0.00110209512058645487 0.0445000007748603821 -0.0123990299180150032
0.00313364551402628422 0.0445000007748603821 -0.00274787750095129013
0.000649737659841775894 0.0445000007748603821 -0.00654954696074128151
-0.000216126209124922752 0.0445000007748603821 -0.00896124448627233505
-0.00045598205178976059 0.0445000007748603821 -0.006922141183167696
-0.00103654246777296066 0.0445000007748603821 -0.00838170573115348816
-0.00251157721504569054 0.0445000007748603821 -0.0109648844227194786
0.00305496854707598686 0.0445000007748603821 -0.00356510980054736137
0.00235845567658543587 0.0445000007748603821 -0.00376244541257619858
0.000458264723420143127 0.0445000007748603821 -0.00554050784558057785
0.00108795799314975739 0.0445000007748603821 -0.00437948945909738541
0.00219762232154607773 0.0445000007748603821 -0.00259178876876831055
-0.0026369486004114151 0.0445000007748603821 -0.011994396336376667
-0.000315517187118530273 0.0445000007748603821 -0.00686748465523123741
-0.00121632893569767475 0.0445000007748603821 -0.0126013513654470444
0.00300851021893322468 0.0445000007748603821 -0.00292268628254532814
-0.00329338014125823975 0.0445000007748603821 -0.010466279461979866
-0.00098673312459141016 0.0445000007748603821 -0.0118405781686306
0.00123998802155256271 0.0445000007748603821 -0.00143613247200846672
-0.00421704445034265518 0.0445000007748603821 -0.00886894576251506805
0.000812671380117535591 0.0445000007748603821 -0.00359335332177579403
-0.0027674487791955471 0.0445000007748603821 -0.00809969101101160049
-0.00610766373574733734 0.0445000007748603821 -0.0117287011817097664
-0.00191327370703220367 0.0445000007748603821 -0.00566186662763357162
-0.00101599190384149551 0.0445000007748603821 -0.00417242478579282761
-0.00440504960715770721 0.0445000007748603821 -0.00960574857890605927
-0.000831414014101028442 0.0445000007748603821 -0.00609496934339404106
-0.00382695998996496201 0.0445000007748603821 -0.00823186617344617844
-0.00258703483268618584 0.0445000007748603821 -0.00765216350555419922
0.00125864357687532902 0.0445000007748603821 -0.00332357781007885933
-0.00125114899128675461 0.0445000007748603821 -0.00569694628939032555
0.00724617298692464828 0.0445000007748603821 0.00506440456956624985
0.00743287056684494019 0.0445000007748603821 0.00538423378020524979
-0.0044514387845993042 0.0445000007748603821 -0.0100968601182103157
0.00864881090819835663 0.0445000007748603821 0.00689560873433947563
-0.00139307137578725815 0.0445000007748603821 -0.00549691310152411461
0.00465491507202386856 0.0445000007748603821 0.00273958826437592506
0.00259371614083647728 0.0445000007748603821 -0.000165622681379318237
-0.00510415993630886078 0.0445000007748603821 -0.00973909161984920502
-0.00152994156815111637 0.0445000007748603821 -0.00773298041895031929
0.00061910552904009819 0.0445000007748603821 -0.00234412681311368942
-0.000504723750054836273 0.0445000007748603821 -0.00114452745765447617
0.00737851578742265701 0.0445000007748603821 0.00609532464295625687
0.00289931055158376694 0.0445000007748603821 0.00150270876474678516
0.00910980161279439926 0.0445000007748603821 0.00786630250513553619
-0.00685315812006592751 0.0445000007748603821 -0.00689952541142702103
-0.00333571340888738632 0.0445000007748603821 -0.0058390619233250618
0.000725945457816123962 0.0445000007748603821 -0.00098097044974565506
-0.00696232356131076813 0.0445000007748603821 -0.0064395340159535408
-0.00355646479874849319 0.0445000007748603821 -0.00469456519931554794
-0.00884480029344558716 0.0445000007748603821 -0.00927436724305152893
-0.00643221288919448853 0.0445000007748603821 -0.00626663863658905029
-0.00523446593433618546 0.0445000007748603821 -0.00829737726598978043
-0.00159131805412471294 0.0445000007748603821 -0.00335602159611880779
-0.009835023432970047 0.0445000007748603821 -0.00890222284942865372
-0.000174576998688280582 0.0445000007748603821 -0.00248566712252795696
0.00152815389446914196 0.0445000007748603821 0.00020105740986764431
0.00537559622898697853 0.0445000007748603821 0.00475962087512016296
0.00603874446824193001 0.0445000007748603821 0.00510493200272321701
-0.00849625188857316971 0.0445000007748603821 -0.00971611961722373962
-0.00229680957272648811 0.0445000007748603821 -0.00464171171188354492
-0.00841851159930229187 0.0445000007748603821 -0.00887040980160236359
-0.0025329948402941227 0.0445000007748603821 -0.00492819072678685188
-3.28104943037033081e-06 0.0445000007748603821 -0.00125706847757101059
-0.00593333318829536438 0.0445000007748603821 -0.00472214678302407265
-0.00881806947290897369 0.0445000007748603821 -0.00534785119816660881
-0.00750105734914541245 0.0445000007748603821 -0.00490443455055356026
-0.0100288828834891319 0.0445000007748603821 -0.00838897284120321274
-0.009649679996073246 0.0445000007748603821 -0.00477625709027051926
-0.0109610892832279205 0.0445000007748603821 -0.00626626890152692795
0.000601959240157157183 0.0445000007748603821 0.000583098444622009993
-0.0074691413901746273 0.0445000007748603821 -0.00559935485944151878
0.00209459033794701099 0.0445000007748603821 0.00217172759585082531
8.91624949872493744e-06 0.0445000007748603821 0.000622350955381989479
-0.00483828270807862282 0.0445000007748603821 -0.00248167989775538445
-0.00850702729076147079 0.0445000007748603821 -0.00747041217982769012
-0.0100362850353121758 0.0445000007748603821 -0.00670771300792694092
-0.00581190316006541252 0.0445000007748603821 -0.00297986296936869621
-0.00978102721273899078 0.0445000007748603821 -0.00818836875259876251
-0.00843009818345308304 0.0445000007748603821 -0.00719634350389242172
0.00236244965344667435 0.0445000007748603821 0.00290200673043727875
-0.00891469046473503113 0.0445000007748603821 -0.00670295162126421928
-0.00327523890882730484 0.0445000007748603821 -0.00270755426026880741
0.00753098167479038239 0.0445000007748603821 0.00708996504545211792
-0.00399157078936696053 0.0445000007748603821 -0.00182558409869670868
-0.0067377360537648201 0.0445000007748603821 -0.00276899430900812149
-0.00609797518700361252 0.0445000007748603821 -0.00483523309230804443
-0.0117827709764242172 0.0445000007748603821 -0.00448150467127561569
-0.0104175135493278503 0.0445000007748603821 -0.00262716319411993027
-0.00117082241922616959 0.0445000007748603821 0.00196838891133666039
-0.0122888423502445221 0.0445000007748603821 -0.00481915008276700974
0.000476286746561527252 0.0445000007748603821 0.00380287831649184227
0.00366763072088360786 0.0445000007748603821 0.00526482472196221352
-0.00429632095620036125 0.0445000007748603821 0.000364966690540313721
-0.00689252885058522224 0.0445000007748603821 -0.00195636716671288013
-0.0117988251149654388 0.0445000007748603821 -0.00312351854518055916
-0.011428050696849823 0.0445000007748603821 -0.00488462392240762711
-0.00313928350806236267 0.0445000007748603821 0.000658090226352214813
0.00268289796076714993 0.0445000007748603821 0.00387728144414722919
-0.0111576514318585396 0.0445000007748603821 -0.00402174703776836395
-0.0104189515113830566 0.0445000007748603821 -0.00468937959522008896
-0.00701920781284570694 0.0445000007748603821 -0.00135021889582276344
-0.0093262307345867157 0.0445000007748603821 -0.00302328448742628098
-0.0048442743718624115 0.0445000007748603821 0.0010789516381919384
-0.0128251714631915092 0.0445000007748603821 -0.00344315264374017715
-0.00572641193866729736 0.0445000007748603821 -2.6736874133348465e-05
0.00469032488763332367 0.0445000007748603821 0.00564221711829304695
-0.00728924386203289032 0.0445000007748603821 -0.00179250678047537804
-0.0105733973905444145 0.0445000007748603821 -0.0032718367874622345
-0.00442143017426133156 0.0445000007748603821 0.00217713206075131893
-0.00751504953950643539 0.0445000007748603821 -0.000240445209783501923
-0.0117973089218139648 0.0445000007748603821 -9.37129370868206024e-05
-0.00233287224546074867 0.0445000007748603821 0.00272122723981738091
-0.0111039057374000549 0.0445000007748603821 -0.00211233459413051605
-0.00683520827442407608 0.0445000007748603821 0.00205194391310214996
-0.00490781478583812714 0.0445000007748603821 0.00133046705741435289
-0.00534915551543235779 0.0445000007748603821 0.00185097777284681797
-0.00637399405241012573 0.0445000007748603821 0.00268038688227534294
-0.00042576715350151062 0.0445000007748603821 0.00484480941668152809
-0.0105656767264008522 0.0445000007748603821 -0.00132895843125879765
-0.0129771307110786438 0.0445000007748603821 -0.00286995153874158859
0.000400503631681203842 0.0445000007748603821 0.00481380335986614227
-0.00710565503686666489 0.0445000007748603821 0.000336952274665236473
-0.0109647568315267563 0.0445000007748603821 -0.000665443483740091324
0.00729525554925203323 0.0445000007748603821 0.00754292542114853859
-0.0063901054672896862 0.0445000007748603821 0.00179216568358242512
-0.00758537743240594864 0.0445000007748603821 0.00126050738617777824
0.00100632663816213608 0.0445000007748603821 0.0049840947613120079
-0.0115367947146296501 0.0445000007748603821 -0.00105843506753444672
-0.00476700067520141602 0.0445000007748603821 0.00198908452875912189
-0.0134001690894365311 0.0422093644738197327 0.000822180416435003281
-0.0134518491104245186 0.0438327305018901825 0.000396565214032307267
-0.0134478285908699036 0.0413049906492233276 0.00042966997716575861
-0.0133736031129956245 0.0420267097651958466 0.00104096729774028063
-0.0134880822151899338 0.0392278283834457397 9.81593038886785507e-05
-0.0134015101939439774 0.0439237803220748901 0.000811135396361351013
-0.0132978083565831184 0.0395037941634654999 0.00166520103812217712
-0.0131293889135122299 0.0426165610551834106 0.00305225607007741928
-0.0132955694571137428 0.0389539152383804321 0.00168363400734961033
-0.0134421149268746376 0.0375066176056861877 0.00047672586515545845
-0.0133637823164463043 0.0377750955522060394 0.0011218576692044735
-0.0132731078192591667 0.0396388210356235504 0.00186862784903496504
-0.0124564794823527336 0.0411646589636802673 0.00494792638346552849
-0.0120390914380550385 0.0390410050749778748 0.00604848889634013176
-0.0122020673006772995 0.0379490107297897339 0.00561875710263848305
-0.0126485871151089668 0.0382233783602714539 0.00444138096645474434
-0.0121186394244432449 0.0428927019238471985 0.00583873875439167023
-0.0122398948296904564 0.0421188510954380035 0.00551901478320360184
-0.0130249969661235809 0.0422280505299568176 0.00344886677339673042
-0.0129981739446520805 0.040916144847869873 0.0035195937380194664
-0.0130625301972031593 0.04303726926445961 0.00334990187548100948
-0.0124454181641340256 0.0416875705122947693 0.00497709261253476143
-0.012543313205242157 0.0419498421251773834 0.0047189672477543354
-0.0121100069954991341 0.0440165959298610687 0.00586150027811527252
-0.0111768227070569992 0.0386354178190231323 0.00739920046180486679
-0.0104806507006287575 0.0382014140486717224 0.00840777996927499771
-0.0116497008129954338 0.0378316938877105713 0.00671411864459514618
-0.0101762199774384499 0.042082667350769043 0.00884882360696792603
-0.0107906674966216087 0.0412961803376674652 0.00795864313840866089
-0.01146719790995121 0.0382610708475112915 0.0069785192608833313
-0.0116087812930345535 0.0428177379071712494 0.00677340058609843254
-0.0113271549344062805 0.0416614972054958344 0.00718140695244073868
-0.0114907408133149147 0.044293481856584549 0.00694441236555576324
-0.0112133119255304337 0.0403944402933120728 0.00734633579850196838
-0.0114993415772914886 0.0408874787390232086 0.00693195126950740814
-0.0114957885816693306 0.0412434525787830353 0.0069370991550385952
-0.00968097522854804993 0.0377347618341445923 0.00932771619409322739
-0.00786614324897527695 0.0384857058525085449 0.0109355170279741287
-0.00828397460281848907 0.0405649095773696899 0.0105653507634997368
-0.00797710474580526352 0.037810102105140686 0.0108372140675783157
-0.0078751659020781517 0.039726942777633667 0.0109275244176387787
-0.00775735871866345406 0.0384140685200691223 0.0110318921506404877
-0.00951732508838176727 0.040007617324590683 0.00947269704192876816
-0.00937412679195404053 0.0411128252744674683 0.00959955994039773941
-0.00801136810332536697 0.0442719124257564545 0.0108068585395812988
-0.00866251904517412186 0.0419870689511299133 0.0102299898862838745
-0.00815100409090518951 0.0433922447264194489 0.010683152824640274
-0.00815959833562374115 0.0439191907644271851 0.0106755392625927925
-0.00694342516362667084 0.0384713225066661835 0.0114910276606678963
-0.00516452314332127571 0.043042011559009552 0.0124246673658490181
-0.00566563103348016739 0.0417505688965320587 0.0121616655960679054
-0.00592244602739810944 0.0414749681949615479 0.0120268790051341057
-0.0048141060397028923 0.0434154830873012543 0.0126085802912712097
-0.00603953283280134201 0.0385524407029151917 0.0119654266163706779
-0.00748504325747489929 0.0409130603075027466 0.0112067647278308868
-0.00675564911216497421 0.0412642024457454681 0.0115895792841911316
-0.00693416548892855644 0.0420400872826576233 0.0114958873018622398
-0.00686965277418494225 0.0426753014326095581 0.0115297464653849602
-0.00728152226656675339 0.0413057282567024231 0.0113135809078812599
-0.0067576216533780098 0.0401083268225193024 0.0115885445848107338
-0.00262739183381199837 0.0390464216470718384 0.0131550561636686325
-0.00292585114948451519 0.0414070338010787964 0.0130814919248223305
-0.00250650779344141483 0.0376583114266395569 0.0131848510354757309
-0.00228747399523854256 0.0413171425461769104 0.013238837942481041
-0.0025741893332451582 0.038438115268945694 0.0131681691855192184
-0.00171345565468072891 0.0375489555299282074 0.013380320742726326
-0.0031578592024743557 0.0412022881209850311 0.0130243077874183655
-0.00389440543949604034 0.0412499122321605682 0.0128427660092711449
-0.00259886495769023895 0.0424559637904167175 0.0131620876491069794
-0.00265971804037690163 0.0422533564269542694 0.0131470877677202225
-0.00459833629429340363 0.0381388962268829346 0.0126692615449428558
-0.00447526015341281891 0.0415962040424346924 0.0126995975151658058
0.00115700508467853069 0.0412940271198749542 0.0134015697985887527
0.000627517933025956154 0.0384953543543815613 0.0134015697985887527
7.05590937286615372e-05 0.0380351953208446503 0.0134015697985887527
0.00119619886390864849 0.0399919822812080383 0.0134015697985887527
0.00013116421177983284 0.0396874435245990753 0.0134015697985887527
0.00139453948941081762 0.0394808202981948853 0.0134015697985887527
-0.00130458234343677759 0.0412521995604038239 0.0134015697985887527
-0.000353614159394055605 0.0432961918413639069 0.0134015697985887527
0.000599036109633743763 0.0435573495924472809 0.0134015697985887527
-0.00111624621786177158 0.040610097348690033 0.0134015697985887527
0.000129394626128487289 0.0442240722477436066 0.0134015697985887527
-0.00091095268726348877 0.0419290289282798767 0.0134015697985887527
0.00435904599726200104 0.0401336736977100372 0.0127282412722706795
0.00278705381788313389 0.0379204303026199341 0.0131157031282782555
0.00397924333810806274 0.0420502796769142151 0.0128218550235033035
0.00210582371801137924 0.0375345014035701752 0.0132836112752556801
0.00401444640010595322 0.0404535308480262756 0.0128131778910756111
0.00356388790532946587 0.0414174161851406097 0.01292423065751791
0.00300836609676480293 0.0437230393290519714 0.0130611546337604523
0.0027242021169513464 0.0436028502881526947 0.0131311947479844093
0.00395392719656229019 0.0431669242680072784 0.0128280939534306526
0.0019476903835311532 0.0406998246908187866 0.0133225871250033379
0.00254747364670038223 0.0436752289533615112 0.0131747536361217499
0.0017653231043368578 0.0428262799978256226 0.0133675364777445793
0.00547643285244703293 0.0390329658985137939 0.0122609641402959824
0.00712994672358036041 0.0418117828667163849 0.0113931335508823395
0.00665971077978610992 0.0390915833413600922 0.0116399321705102921
0.00621980614960193634 0.038696683943271637 0.0118708116933703423
0.00709219742566347122 0.0413270778954029083 0.0114129455760121346
0.00610424159094691277 0.0404361411929130554 0.0119314650073647499
0.00715093128383159637 0.0444645881652832031 0.0113821197301149368
0.00521464226767420769 0.0420716404914855957 0.0123983621597290039
0.0071485443040728569 0.0440995916724205017 0.0113833732903003693
0.00534385815262794495 0.0398818105459213257 0.012330545112490654
0.00509911589324474335 0.0443790331482887268 0.0124589959159493446
0.0052373567596077919 0.0416074134409427643 0.0123864412307739258
0.00887123867869377136 0.0385702252388000488 0.0100450804457068443
0.00888841040432453156 0.0378723405301570892 0.0100298672914505005
0.00902008451521396637 0.0391748584806919098 0.00991321448236703873
0.00922064017504453659 0.0411368757486343384 0.00973553769290447235
0.00943801924586296082 0.0420780442655086517 0.00954295601695775986
0.00952969305217266083 0.0405101105570793152 0.00946174003183841705
0.00918434467166662216 0.0429887473583221436 0.00976769253611564636
0.00892227422446012497 0.0415607206523418427 0.00999986752867698669
0.00935539882630109787 0.0443480797111988068 0.00961615238338708878
0.00799806602299213409 0.0433733463287353516 0.0108186434954404831
0.00873920600861310959 0.0416552871465682983 0.0101620499044656754
0.00842971913516521454 0.0417695008218288422 0.0104362322017550468
0.0109697841107845306 0.0404598936438560486 0.0076991482637822628
0.0119209354743361473 0.0390816554427146912 0.00632116757333278656
0.0117783360183238983 0.039131511002779007 0.00652775773778557777
0.0102062039077281952 0.0375356152653694153 0.00880538392812013626
0.0113237481564283371 0.0409679524600505829 0.00718634249642491341
0.0117358984425663948 0.043070569634437561 0.0065892399288713932
0.0102506931871175766 0.0441536866128444672 0.00874092988669872284
0.0107383392751216888 0.0402821823954582214 0.00803445279598236084
0.0101328045129776001 0.0383383706212043762 0.00891172140836715698
0.0101213250309228897 0.038661271333694458 0.0089283529669046402
0.01018550805747509 0.0398110561072826385 0.00883536599576473236
0.0111263394355773926 0.0444790460169315338 0.00747233815491199493
0.0123444637283682823 0.0377380140125751495 0.0052432892844080925
0.0123077277094125748 0.0377154313027858734 0.00534015428274869919
0.0128944972530007362 0.041548512876033783 0.00379296950995922089
0.01253544632345438 0.0397069118916988373 0.00473970826715230942
0.0130083663389086723 0.0438296236097812653 0.00349271949380636215
0.0127753755077719688 0.0405237153172492981 0.00410706689581274986
0.0125534655526280403 0.0418197773396968842 0.00469219591468572617
0.0126989539712667465 0.0428777970373630524 0.00430857483297586441
0.0120723778381943703 0.0438065603375434875 0.00596071919426321983
0.0125786494463682175 0.0440433882176876068 0.00462579121813178062
0.0121063105762004852 0.0385407879948616028 0.00587124843150377274
0.0127069354057312012 0.0437972396612167358 0.00428752833977341652
0.0133483996614813805 0.0413843579590320587 0.001248540123924613
0.0133416196331381798 0.0402077101171016693 0.00130438397172838449
0.0132514601573348045 0.0376520603895187378 0.00204691081307828426
0.0133017683401703835 0.0390865951776504517 0.00163258600514382124
0.0134669039398431778 0.0410271547734737396 0.000272574281552806497
0.0132008772343397141 0.038998778909444809 0.00246349978260695934
0.0132237449288368225 0.0419264882802963257 0.00227516423910856247
0.0131576023995876312 0.0389922745525836945 0.00281989551149308681
0.0131346825510263443 0.0429393462836742401 0.00300865923054516315
0.0131526952609419823 0.043112732470035553 0.00286030559800565243
0.0132088903337717056 0.0439522303640842438 0.0023975074291229248
0.0131571525707840919 0.0438062436878681183 0.00282359705306589603
0.0134051823988556862 0.0408719144761562347 -0.000780892791226506233
0.01348122488707304 0.0397527106106281281 -0.00015463423915207386
0.0134062711149454117 0.0418022796511650085 -0.000771925784647464752
0.0134513173252344131 0.0444680675864219666 -0.000400945078581571579
0.0133987357839941978 0.0441108979284763336 -0.00083398760762065649
0.0133243082091212273 0.0421619638800621033 -0.00144695630297064781
0.0132679985836148262 0.0392671413719654083 -0.00191070022992789745
0.0133019052445888519 0.0383991003036499023 -0.00163145526312291622
0.013242039829492569 0.0387006029486656189 -0.00212449114769697189
0.0131604643538594246 0.0375313945114612579 -0.0027963235042989254
0.013305087573826313 0.0390264354646205902 -0.00160525122191756964
0.0131255360320210457 0.0393606908619403839 -0.0030839869286864996
0.0121801178902387619 0.040853988379240036 -0.00567663274705410004
0.0121530890464782715 0.042451862245798111 -0.00574790313839912415
0.0125689320266246796 0.038553193211555481 -0.00465141376480460167
0.0127529902383685112 0.0383439362049102783 -0.00416609179228544235
0.0129069723188877106 0.0375098548829555511 -0.00376007589511573315
0.0123640745878219604 0.0405271463096141815 -0.00519157992675900459
0.0129667334258556366 0.0437425971031188965 -0.00360249751247465611
0.0122177256271243095 0.0436306335031986237 -0.00557747064158320427
0.0128482896834611893 0.0408965945243835449 -0.00391480699181556702
0.0123988203704357147 0.0426545366644859314 -0.00509996246546506882
0.0126392580568790436 0.0412897765636444092 -0.00446597952395677567
0.0126937106251716614 0.0405056066811084747 -0.00432239845395088196
0.010317828506231308 0.037754252552986145 -0.00864366814494132996
0.0102266706526279449 0.0394302308559417725 -0.00877573247998952866
0.0108076296746730804 0.0380853116512298584 -0.00793406832963228226
0.010308263823390007 0.0402765423059463501 -0.00865752529352903366
0.0112347565591335297 0.040165971964597702 -0.00731526874005794525
0.010384376160800457 0.0415080375969409943 -0.00854725763201713562
0.0114932190626859665 0.0401284657418727875 -0.00694082211703062057
0.0111278844997286797 0.0426313690841197968 -0.00747009972110390663
0.0115692522376775742 0.0408931821584701538 -0.00683066900819540024
0.011343139223754406 0.0423558764159679413 -0.0071582491509616375
0.0106750614941120148 0.0438914336264133453 -0.00812612567096948624
0.0115332817658782005 0.0391560494899749756 -0.00688278023153543472
0.00796686578541994095 0.0410287156701087952 -0.0108462851494550705
0.00782035570591688156 0.0378934741020202637 -0.0109760817140340805
0.00796773936599493027 0.0409839935600757599 -0.010845511220395565
0.00769805582240223885 0.0423412024974822998 -0.011084429919719696
0.00931630842387676239 0.0392528921365737915 -0.00965078268200159073
0.00798058696091175079 0.0432707443833351135 -0.0108341285958886147
0.00953407958149909973 0.0415045581758022308 -0.00945785362273454666
0.00911009591072797775 0.0405683256685733795 -0.00983347091823816299
0.00960613042116165161 0.0397228933870792389 -0.00939402170479297638
0.0100046480074524879 0.0441478155553340912 -0.00904096569865942001
0.00952006503939628601 0.0438463836908340454 -0.00947026908397674561
0.00998361315578222275 0.039671141654253006 -0.00905960053205490112
0.00544433156028389931 0.0404453091323375702 -0.012277812696993351
0.00674970727413892746 0.0384696461260318756 -0.0115926982834935188
0.00561901647597551346 0.039272647351026535 -0.0121861305087804794
0.00673767272382974625 0.0391401834785938263 -0.011599014513194561
0.00602053524926304817 0.0394409410655498505 -0.0119753973558545113
0.00483840890228748322 0.038876023143529892 -0.0125958248972892761
0.0067071341909468174 0.0420304946601390839 -0.0116150425747036934
0.00599767547100782394 0.0438339710235595703 -0.0119873955845832825
0.00737405708059668541 0.0441342294216156006 -0.0112650142982602119
0.00745042040944099426 0.0390297546982765198 -0.0112249357625842094
0.0066209062933921814 0.0424867719411849976 -0.0116602983325719833
0.00751711660996079445 0.042568642646074295 -0.0111899310722947121
0.0044190622866153717 0.0379074551165103912 -0.0127134490758180618
0.00237601902335882187 0.0388090834021568298 -0.0132170133292675018
0.00288571254350244999 0.0385628752410411835 -0.0130913853645324707
0.00245262449607253075 0.0385281704366207123 -0.0131981326267123222
0.00329932244494557381 0.0403257273137569427 -0.0129894400015473366
0.00248582637868821621 0.0405750349164009094 -0.013189949095249176
0.00433331355452537537 0.0400992110371589661 -0.0127345835790038109
0.00334680499508976936 0.0421996638178825378 -0.0129777370020747185
0.0022275485098361969 0.0433829426765441895 -0.0132536087185144424
0.00444611813873052597 0.042684558779001236 -0.0127067798748612404
0.00400244444608688354 0.0398268699645996094 -0.0128161357715725899
0.00314706261269748211 0.0415792688727378845 -0.0130269695073366165
-0.000287283444777131081 0.0387766845524311066 -0.0134015697985887527
0.00091098458506166935 0.0379641093313694 -0.0134015697985887527
-0.000251555233262479305 0.0390073917806148529 -0.0134015697985887527
-0.000629395828582346439 0.0377874337136745453 -0.0134015697985887527
-0.00158669822849333286 0.0403921790421009064 -0.0134015697985887527
-0.00108213641215115786 0.0408929511904716492 -0.0134015697985887527
-0.000703798606991767883 0.0438168086111545563 -0.0134015697985887527
0.000157852948177605867 0.0442823730409145355 -0.0134015697985887527
0.000747000158298760653 0.0414130426943302155 -0.0134015697985887527
0.00112641847226768732 0.0418762825429439545 -0.0134015697985887527
0.000708815408870577812 0.0425695478916168213 -0.0134015697985887527
0.000721173768397420645 0.0412985607981681824 -0.0134015697985887527
-0.00425170222297310829 0.0390320457518100739 -0.0127546992152929306
-0.0035760949831455946 0.0403076447546482086 -0.0129212215542793274
-0.0023299825843423605 0.0389667004346847534 -0.0132283605635166168
-0.00472610583528876305 0.0392890609800815582 -0.012637769803404808
-0.00396506069228053093 0.0424475520849227905 -0.0128253502771258354
-0.00463205808773636818 0.0410516969859600067 -0.0126609504222869873
-0.00182041898369789124 0.0389957837760448456 -0.013353956863284111
-0.00353545905090868473 0.0432461127638816833 -0.0129312369972467422
-0.0018835774390026927 0.0413249023258686066 -0.0133383888751268387
-0.00249669188633561134 0.0415738262236118317 -0.0131872706115245819
-0.00271954061463475227 0.0437662079930305481 -0.0131323430687189102
-0.00201323465444147587 0.038441140204668045 -0.0133064324036240578
-0.00686542177572846413 0.0397138446569442749 -0.0115319667384028435
-0.00671577220782637596 0.0378572084009647369 -0.0116105088964104652
-0.00757500296458601952 0.0427254959940910339 -0.0111595503985881805
-0.00538629386574029922 0.0384753495454788208 -0.0123082734644412994
-0.00727366982027888298 0.0400850474834442139 -0.0113177020102739334
-0.00565268564969301224 0.0387454777956008911 -0.0121684595942497253
-0.0050211222842335701 0.0424648448824882507 -0.0124999303370714188
-0.00559259857982397079 0.0444063730537891388 -0.0121999960392713547
-0.00637634145095944405 0.0418437160551548004 -0.0117886560037732124
-0.00557972723618149757 0.0407744869589805603 -0.0122067518532276154
-0.00486191548407077789 0.0433285832405090332 -0.0125834876671433449
-0.00539258960634469986 0.0402496717870235443 -0.0123049691319465637
-0.0100085306912660599 0.0382853671908378601 -0.00903752725571393967
-0.00845027901232242584 0.0376906022429466248 -0.0104180183261632919
-0.00989245902746915817 0.043118692934513092 -0.0091403573751449585
-0.00920851808041334152 0.0405777841806411743 -0.00974627584218978882
-0.00930892955511808395 0.0401926562190055847 -0.00965731963515281677
-0.00984777417033910751 0.041561126708984375 -0.00917994417250156403
-0.00986859947443008423 0.0440950579941272736 -0.0091614946722984314
-0.0083637777715921402 0.0412331745028495789 -0.010494651272892952
-0.00892973784357309341 0.0420091673731803894 -0.00999325420707464218
-0.00788302719593048096 0.038916420191526413 -0.0109205599874258041
-0.00768363568931818008 0.0402799807488918304 -0.0110972058027982712
-0.00885945651680231094 0.0442851558327674866 -0.01005551777780056
-0.0118750175461173058 0.0429906323552131653 -0.00638769101351499557
-0.0106561761349439621 0.0390260852873325348 -0.008153487928211689
-0.0116275539621710777 0.0420081093907356262 -0.00674620317295193672
-0.0116542326286435127 0.0376551114022731781 -0.00670755235478281975
-0.0111944330856204033 0.0397182665765285492 -0.00737368781119585037
-0.0108886342495679855 0.0397555641829967499 -0.00781671237200498581
-0.0108478283509612083 0.041317623108625412 -0.00787583086639642715
-0.0101889446377754211 0.0429425127804279327 -0.00883038807660341263
-0.0108794383704662323 0.0436722077429294586 -0.00783003680408000946
-0.0105261905118823051 0.0411298684775829315 -0.00834180321544408798
-0.0113560380414128304 0.0426474288105964661 -0.00713956262916326523
-0.0107171712443232536 0.0416466109454631805 -0.00806511938571929932
-0.0130888707935810089 0.0395757518708705902 -0.00328044849447906017
-0.0124383373185992241 0.0395845174789428711 -0.00499576330184936523
-0.0123411752283573151 0.0396972820162773132 -0.00525195896625518799
-0.0130886007100343704 0.0390309132635593414 -0.00328115979209542274
-0.012621760368347168 0.0391834601759910583 -0.00451211584731936455
-0.0129639413207769394 0.0433367975056171417 -0.00360985985025763512
-0.0122191673144698143 0.0393571741878986359 -0.00557366758584976196
-0.0123509177938103676 0.0413367301225662231 -0.00522627029567956924
-0.0123485755175352097 0.0425198748707771301 -0.00523244729265570641
-0.0122233247384428978 0.0425839386880397797 -0.00556270545348525047
-0.0122118713334202766 0.0442504324018955231 -0.00559290684759616852
-0.0119596552103757858 0.0418014414608478546 -0.00625794427469372749
-0.0134614920243620872 0.0390477702021598816 -0.000317147612804546952
-0.0133965881541371346 0.0376830026507377625 -0.000851673190481960773
-0.0134331267327070236 0.0413426868617534637 -0.000550753436982631683
-0.0134935453534126282 0.043456442654132843 -5.31615987711120397e-05
-0.0132915107533335686 0.0383121110498905182 -0.00171706115361303091
-0.0134557401761412621 0.0402945354580879211 -0.000364516396075487137
-0.0131487241014838219 0.0410390160977840424 -0.00289301387965679169
-0.0132587142288684845 0.0403214246034622192 -0.00198716623708605766
-0.0131777739152312279 0.0413469932973384857 -0.00265376875177025795
-0.0131582161411643028 0.0390739105641841888 -0.00281484005972743034
-0.0132971629500389099 0.0438003242015838623 -0.00167051085736602545
-0.0133778601884841919 0.0442577674984931946 -0.00100591278169304132
-0.0136066218838095665 0.0343998335301876068 0.0019986727274954319
-0.0134500013664364815 0.0359791368246078491 0.00182305031921714544
-0.0134871639311313629 0.0351830832660198212 0.00225569517351686954
-0.0133265657350420952 0.035681847482919693 0.00311550521291792393
-0.0133957583457231522 0.0368487164378166199 0.00146286678500473499
-0.0136227551847696304 0.0347721129655838013 0.00152035674545913935
-0.0138196134939789772 0.032446686178445816 0.00205694511532783508
-0.0138195697218179703 0.0335393659770488739 0.00104335742071270943
-0.0136832743883132935 0.0354361832141876221 0.000405715079978108406
-0.0137254362925887108 0.0330599322915077209 0.00226351059973239899
-0.0127438902854919434 0.0348904654383659363 0.00496536446735262871
-0.0124910743907094002 0.0366170033812522888 0.00511904247105121613
-0.012531728483736515 0.0374163165688514709 0.00477437581866979599
-0.0123166432604193687 0.0372917205095291138 0.00537852523848414421
-0.0127172460779547691 0.0355519987642765045 0.00483908131718635559
-0.0135420653969049454 0.0331726111471652985 0.00337111484259366989
-0.0131852710619568825 0.0334062054753303528 0.00424250448122620583
-0.0135793574154376984 0.0323359593749046326 0.00352134928107261658
-0.0132152196019887924 0.0329761877655982971 0.00429129181429743767
-0.0129491537809371948 0.0355171598494052887 0.00423794286325573921
-0.0117920543998479843 0.0373535975813865662 0.00653178151696920395
-0.0106895267963409424 0.0370398424565792084 0.00818028487265110016
-0.0109290601685643196 0.0323715433478355408 0.00859529059380292892
-0.0107873324304819107 0.0322994217276573181 0.00881239119917154312
-0.0107805626466870308 0.0336974337697029114 0.00859399419277906418
-0.0119740087538957596 0.0320222340524196625 0.00713844131678342819
-0.0121330590918660164 0.0319143868982791901 0.00692562106996774673
-0.0123234828934073448 0.032446540892124176 0.00656287837773561478
-0.0119154490530490875 0.0364334285259246826 0.00650321599096059799
-0.0121285300701856613 0.0324786454439163208 0.00684007536619901657
-0.0146330753341317177 0.0305482670664787292 0.000253830512519925833
-0.0149763980880379677 0.0293008480221033096 0.000982667319476604462
-0.0148716922849416733 0.029545249417424202 0.00113274669274687767
-0.0153482872992753983 0.0278231259435415268 0.00211844500154256821
-0.0155655303969979286 0.0272312089800834656 0.00203925743699073792
-0.0144659113138914108 0.0299611594527959824 0.00316861481405794621
-0.0151317715644836426 0.0283202007412910461 0.00245154974982142448
-0.0140580413863062859 0.0317982062697410583 0.00133072305470705032
-0.0139151820912957191 0.0319995321333408356 0.00189719605259597301
-0.0147326532751321793 0.0297135263681411743 0.00175979116465896368
-0.00881413277238607407 0.0355432257056236267 0.0102909961715340614
-0.00886065606027841568 0.0372693762183189392 0.0100774755701422691
-0.00942466221749782562 0.0361521206796169281 0.00968933477997779846
-0.00924669299274682999 0.0344270877540111542 0.0100191934034228325
-0.00822843797504901886 0.0343085937201976776 0.0109331170096993446
-0.0104969246312975883 0.0330781787633895874 0.00904623325914144516
-0.0100300312042236328 0.0327865369617938995 0.00948897562921047211
-0.00996471196413040161 0.0344472602009773254 0.00938107073307037354
-0.00955699756741523743 0.0346444770693778992 0.00972258765250444412
-0.0100740455090999603 0.0332633927464485168 0.00940238311886787415
-0.0141588086262345314 0.0290581397712230682 0.00477141514420509338
-0.0143193788826465607 0.0293037127703428268 0.00415404047816991806
-0.0139915281906723976 0.0303011685609817505 0.00410100817680358887
-0.0151446815580129623 0.027453811839222908 0.00370824127458035946
-0.0149521883577108383 0.0275700036436319351 0.00408852612599730492
-0.0136590674519538879 0.0312866345047950745 0.00407003005966544151
-0.0131109952926635742 0.0306438598781824112 0.00600602850317955017
-0.0137690100818872452 0.0296945422887802124 0.00518995616585016251
-0.0137920044362545013 0.0307358577847480774 0.00421977275982499123
-0.0062201106920838356 0.0366580337285995483 0.0119204418733716011
-0.00577771430835127831 0.0371324494481086731 0.0121245747432112694
-0.00736256036907434464 0.0367821753025054932 0.0113134970888495445
-0.00607738085091114044 0.036091882735490799 0.0120288319885730743
-0.00485435593873262405 0.0370881706476211548 0.0126118091866374016
-0.00630567083135247231 0.0339813195168972015 0.0120338257402181625
-0.00665237801149487495 0.0358282104134559631 0.0117426421493291855
-0.00686771934852004051 0.0313044935464859009 0.0118971345946192741
-0.00665667979046702385 0.0306035708636045456 0.0120493452996015549
-0.00748918578028678894 0.0336404480040073395 0.0114328265190124512
-0.00782270729541778564 0.0344578959047794342 0.0112094404175877571
-0.00796670559793710709 0.0346677675843238831 0.0111214537173509598
-0.00693878764286637306 0.0341281220316886902 0.0116928592324256897
-0.0123710231855511665 0.031238580122590065 0.00685856956988573074
-0.0114659341052174568 0.0311688072979450226 0.00813766289502382278
-0.0120912650600075722 0.0316008962690830231 0.00706908246502280235
-0.0111741451546549797 0.0306161735206842422 0.00880529638379812241
-0.0117000779137015343 0.0290031712502241135 0.00885825138539075851
-0.0126839056611061096 0.029908154159784317 0.00706863543018698692
-0.0137706156820058823 0.0269160997122526169 0.00701394304633140564
-0.0139519535005092621 0.0272422302514314651 0.00660736672580242157
-0.0127755980938673019 0.0281804874539375305 0.00777436420321464539
-0.0131706194952130318 0.0300412196666002274 0.00633479468524456024
-0.00311167491599917412 0.0348901264369487762 0.0131081705912947655
-0.00391598790884017944 0.0345650836825370789 0.0129189519211649895
-0.00429514516144990921 0.0360580272972583771 0.0127840377390384674
-0.00260842731222510338 0.0325040407478809357 0.0132984751835465431
-0.0036200270988047123 0.0338468402624130249 0.0130118466913700104
-0.00193004356697201729 0.0359509028494358063 0.0133699569851160049
-0.00258666463196277618 0.0317875035107135773 0.0133237382397055626
-0.00366005115211009979 0.0319729074835777283 0.0130540234968066216
-0.00510354060679674149 0.0306053087115287781 0.0127362161874771118
-0.00432621687650680542 0.0352254956960678101 0.0127994995564222336
-0.00452051172032952309 0.0337493866682052612 0.012792603112757206
-0.00512444972991943359 0.0329546481370925903 0.0126658175140619278
-0.00424470286816358566 0.0330802053213119507 0.0128791686147451401
-0.0159865822643041611 0.026804530993103981 0.000473819905892014503
-0.0164503827691078186 0.0256206691265106201 0.00243921694345772266
-0.0164648573845624924 0.0257557127624750137 0.00174217054154723883
-0.0172145534306764603 0.0245218835771083832 0.00192161579616367817
-0.0158557388931512833 0.0265397224575281143 0.00255966745316982269
-0.0183177422732114792 0.0226639769971370697 0.00237221899442374706
-0.0168594662100076675 0.0254665203392505646 0.000248164171352982521
-0.0169319342821836472 0.0253752171993255615 0.000142214586958289146
-0.0177907124161720276 0.0237624607980251312 0.00122701551299542189
-0.0169748049229383469 0.025319710373878479 8.61102016642689705e-05
-0.011832553893327713 0.0282940957695245743 0.00899204425513744354
-0.0110575640574097633 0.0253005065023899078 0.0105256699025630951
-0.0121219949796795845 0.0269494727253913879 0.00914440769702196121
-0.0119468271732330322 0.0279660020023584366 0.00899249128997325897
-0.0111681483685970306 0.0290148425847291946 0.00933891348540782928
-0.0121395383030176163 0.0267052631825208664 0.00920155365020036697
-0.00984807033091783524 0.030896846204996109 0.00989559665322303772
-0.010112161748111248 0.0288009382784366608 0.0102905109524726868
-0.0100550074130296707 0.0268024299293756485 0.0109270736575126648
-0.0105073992162942886 0.0254517383873462677 0.0109441019594669342
-0.0105841811746358871 0.0269447788596153259 0.0104398597031831741
0.000487289857119321823 0.029557274654507637 0.0134015697985887527
-1.16730807349085808e-05 0.0362209640443325043 0.0134015697985887527
8.61005391925573349e-05 0.0323952771723270416 0.0134015697985887527
0.000491175102069973946 0.0306175835430622101 0.0134015697985887527
0.000990867731161415577 0.0327515266835689545 0.0134015697985887527
-0.000519513094332069159 0.0366091430187225342 0.0134015697985887527
-0.00015832151984795928 0.0338292941451072693 0.0134015697985887527
-0.00032912474125623703 0.0355845056474208832 0.0134015697985887527
-0.000621503742877393961 0.0333900973200798035 0.0134015697985887527
-0.000221079011680558324 0.0306611135601997375 0.0134015697985887527
-0.00180728756822645664 0.0322666391730308533 0.0134015697985887527
