ply
format ascii 1.0
element vertex 912
property float x
property float y
property float z
end_header
1.89999997615814209 3.94008398056030273 0.29809945821762085
1.89999997615814209 1.49451684951782227 0.349886476993560791
1.89999997615814209 5.07566356658935547 0.263150930404663086
1.89999997615814209 6.60364913940429688 0.188797503709793091
1.89999997615814209 5.89404296875 0.363086491823196411
1.89999997615814209 9.02679920196533203 0.266030251979827881
1.89999997615814209 7.15000534057617188 0.211055144667625427
1.89999997615814209 8.30886650085449219 0.0893505513668060303
1.89999997615814209 6.82991409301757812 0.298962116241455078
1.89999997615814209 5.16366004943847656 0.203399404883384705
1.89999997615814209 7.31873321533203125 0.362850069999694824
1.89999997615814209 4.07500171661376953 0.32477957010269165
1.89999997615814209 8.75432109832763672 0.14778512716293335
1.89999997615814209 8.08755397796630859 0.207712456583976746
1.89999997615814209 8.67388153076171875 0.0547567307949066162
1.89999997615814209 3.93149995803833008 0.392172276973724365
1.89999997615814209 4.26027917861938477 0.288704186677932739
1.89999997615814209 7.67804145812988281 0.259001970291137695
1.89999997615814209 7.4209437370300293 0.360366284847259521
1.89999997615814209 6.58036708831787109 0.344594240188598633
1.89999997615814209 5.14131450653076172 0.391594529151916504
1.89999997615814209 5.21807241439819336 0.228697806596755981
1.89999997615814209 8.23201847076416016 0.270448148250579834
1.89999997615814209 8.05894660949707031 0.299256026744842529
1.89999997615814209 8.06664562225341797 0.299337536096572876
1.89999997615814209 7.69509792327880859 0.208483263850212097
1.89999997615814209 5.94009160995483398 0.388173371553421021
1.89999997615814209 8.332244873046875 0.259474873542785645
1.89999997615814209 5.55363082885742188 0.210912540555000305
1.89999997615814209 9.01440620422363281 0.00918278098106384277
1.89999997615814209 3.39461851119995117 0.344310879707336426
1.89999997615814209 7.43953323364257812 0.101059794425964355
1.89999997615814209 4.56330347061157227 0.398998737335205078
1.89999997615814209 8.63291072845458984 0.274095296859741211
1.89999997615814209 3.12563467025756836 0.329707443714141846
1.89999997615814209 8.97164249420166016 0.28162190318107605
1.89999997615814209 6.71898269653320312 0.370255559682846069
1.89999997615814209 2.61323070526123047 0.349084764719009399
1.89999997615814209 1.74783182144165039 0.344620108604431152
1.89999997615814209 7.38997459411621094 0.155028253793716431
1.89999997615814209 6.73346138000488281 0.214732334017753601
1.89999997615814209 7.82004356384277344 0.331166237592697144
1.89999997615814209 1.85023307800292969 0.325389355421066284
1.89999997615814209 7.05569887161254883 0.282858192920684814
1.89999997615814209 7.48111820220947266 0.120526701211929321
1.89999997615814209 3.4147639274597168 0.330132722854614258
1.89999997615814209 7.68834781646728516 0.320931732654571533
1.89999997615814209 9.04461956024169922 0.196148797869682312
1.89999997615814209 3.00872182846069336 0.314187586307525635
1.89999997615814209 6.45621299743652344 0.226721197366714478
1.89999997615814209 2.69882965087890625 0.349350899457931519
1.89999997615814209 5.70237064361572266 0.204041704535484314
1.89999997615814209 8.07798862457275391 0.3433113694190979
1.89999997615814209 4.83150005340576172 0.206111133098602295
1.89999997615814209 3.50331449508666992 0.305961787700653076
1.89999997615814209 3.83735990524291992 0.259138673543930054
1.89999997615814209 5.11005878448486328 0.33017498254776001
1.89999997615814209 3.78207826614379883 0.292062819004058838
1.89999997615814209 3.97171974182128906 0.28512197732925415
1.89999997615814209 6.14209413528442383 0.200091555714607239
1.89999997615814209 6.69679117202758789 0.36865544319152832
1.89999997615814209 6.46033668518066406 0.20133894681930542
1.89999997615814209 8.24976634979248047 0.223276093602180481
1.89999997615814209 7.19772624969482422 0.237516164779663086
1.89999997615814209 4.21192264556884766 0.270340859889984131
1.89999997615814209 7.06410455703735352 0.396248519420623779
1.89999997615814209 5.70457363128662109 0.393349826335906982
1.89999997615814209 5.19805335998535156 0.328596323728561401
1.89999997615814209 7.17533731460571289 0.357153534889221191
1.89999997615814209 9.05993461608886719 0.172686085104942322
1.89999997615814209 8.64740657806396484 0.256117463111877441
1.89999997615814209 5.71804046630859375 0.373363584280014038
1.89999997615814209 5.10441112518310547 0.337834149599075317
1.89999997615814209 6.56292438507080078 0.330651998519897461
1.89999997615814209 7.97994613647460938 0.279606640338897705
1.89999997615814209 6.52170372009277344 0.385853230953216553
1.89999997615814209 3.68672418594360352 0.348300248384475708
1.89999997615814209 8.86948204040527344 0.196991920471191406
1.89999997615814209 6.70565700531005859 0.389635264873504639
1.89999997615814209 2.57284116744995117 0.292617142200469971
1.89999997615814209 5.0406651496887207 0.259207606315612793
1.89999997615814209 4.55929851531982422 0.349422991275787354
1.89999997615814209 3.18633604049682617 0.274530857801437378
1.89999997615814209 3.82776594161987305 0.312865018844604492
1.89999997615814209 5.34134197235107422 0.23916374146938324
1.89999997615814209 6.2804412841796875 0.196504697203636169
1.89999997615814209 6.85585594177246094 0.117420345544815063
1.89999997615814209 4.37488508224487305 0.282568633556365967
1.89999997615814209 5.47347640991210938 0.17938096821308136
1.89999997615814209 6.2044672966003418 0.169050529599189758
1.89999997615814209 5.56415367126464844 0.337589830160140991
1.89999997615814209 5.99326658248901367 0.336986690759658813
1.89999997615814209 7.71198272705078125 0.141034901142120361
1.89999997615814209 8.91737174987792969 0.0428914725780487061
1.89999997615814209 8.99304771423339844 0.195565387606620789
1.89999997615814209 2.45074748992919922 0.348661601543426514
1.89999997615814209 1.42800092697143555 0.341030776500701904
1.89999997615814209 7.69865226745605469 0.0783500075340270996
1.89999997615814209 7.97991228103637695 0.252935111522674561
1.89999997615814209 8.05535316467285156 0.090982586145401001
1.89999997615814209 8.06850528717041016 0.161214619874954224
1.89999997615814209 6.91941261291503906 0.0970973372459411621
1.89999997615814209 7.40166330337524414 0.168944835662841797
1.89999997615814209 8.4649200439453125 0.209099218249320984
1.89999997615814209 7.59443950653076172 0.119296133518218994
1.89999997615814209 6.07003402709960938 0.347319662570953369
1.89999997615814209 8.40422821044921875 0.266173005104064941
1.89999997615814209 7.06317615509033203 0.364347994327545166
1.89999997615814209 1.6234288215637207 0.329323709011077881
1.89999997615814209 8.96224880218505859 0.26530301570892334
1.89999997615814209 7.14615154266357422 0.252354443073272705
1.89999997615814209 7.92609930038452148 0.220533847808837891
1.89999997615814209 4.51941299438476562 0.204579278826713562
1.89999997615814209 9.05138015747070312 0.367369890213012695
1.89999997615814209 6.72803974151611328 0.353497892618179321
1.89999997615814209 5.5082855224609375 0.261929154396057129
1.89999997615814209 5.9602665901184082 0.226853653788566589
1.89999997615814209 8.90881538391113281 0.0995914936065673828
1.89999997615814209 5.98019552230834961 0.180810317397117615
1.89999997615814209 7.06587696075439453 0.148359507322311401
1.89999997615814209 8.99147319793701172 0.0878913998603820801
1.89999997615814209 5.94106769561767578 0.390874117612838745
1.89999997615814209 6.33717060089111328 0.210195288062095642
1.89999997615814209 7.421051025390625 0.176104351878166199
1.89999997615814209 7.62930011749267578 0.153328970074653625
1.89999997615814209 6.27567005157470703 0.331582516431808472
1.89999997615814209 8.79117870330810547 0.0991398096084594727
1.89999997615814209 6.86727094650268555 0.125241696834564209
1.89999997615814209 7.44349384307861328 0.0780595541000366211
1.89999997615814209 7.21247673034667969 0.365412771701812744
1.89999997615814209 8.75061893463134766 0.0886736810207366943
1.89999997615814209 8.64706134796142578 0.21551978588104248
1.89999997615814209 4.07480049133300781 0.263107717037200928
1.89999997615814209 3.13559770584106445 0.277632594108581543
1.89999997615814209 5.24542093276977539 0.208360195159912109
1.89999997615814209 7.81060123443603516 0.315581798553466797
1.89999997615814209 5.75769615173339844 0.398961484432220459
1.89999997615814209 7.2158050537109375 0.316193342208862305
1.89999997615814209 0.941121101379394531 0.386302739381790161
1.89999997615814209 8.26325225830078125 0.323982268571853638
1.89999997615814209 4.38516426086425781 0.377324789762496948
1.89999997615814209 7.24737834930419922 0.324019968509674072
1.89999997615814209 8.04769611358642578 0.143752723932266235
1.89999997615814209 6.76897478103637695 0.134673207998275757
1.89999997615814209 8.56760025024414062 0.0431867837905883789
1.89999997615814209 7.96821832656860352 0.297048002481460571
1.89999997615814209 8.31353950500488281 0.111189305782318115
1.89999997615814209 6.79801559448242188 0.123376339673995972
1.89999997615814209 4.29351091384887695 0.36437639594078064
1.89999997615814209 8.43417263031005859 0.142529338598251343
1.89999997615814209 6.1452641487121582 0.256988614797592163
1.89999997615814209 7.44992589950561523 0.0764815211296081543
1.89999997615814209 3.92076492309570312 0.337366163730621338
1.89999997615814209 7.65174388885498047 0.267871618270874023
1.89999997615814209 5.65084457397460938 0.25863724946975708
1.89999997615814209 6.43375873565673828 0.139974772930145264
1.89999997615814209 8.30890560150146484 0.289226055145263672
1.89999997615814209 2.63720512390136719 0.355865448713302612
1.89999997615814209 5.08555746078491211 0.386066704988479614
1.89999997615814209 8.25644111633300781 0.0861065983772277832
1.89999997615814209 1.13889360427856445 0.380092799663543701
1.89999997615814209 7.84766387939453125 0.367492377758026123
1.89999997615814209 8.70735073089599609 0.244080111384391785
1.89999997615814209 1.64379644393920898 0.393796384334564209
1.89999997615814209 5.46997785568237305 0.360569357872009277
1.89999997615814209 2.67039060592651367 0.30448383092880249
1.89999997615814209 7.8785405158996582 0.212625429034233093
1.89999997615814209 6.07590007781982422 0.138092339038848877
1.89999997615814209 2.11816740036010742 0.309690773487091064
1.89999997615814209 1.90288448333740234 0.335472524166107178
1.89999997615814209 8.73103237152099609 0.298808276653289795
1.89999997615814209 7.7505955696105957 0.184206083416938782
1.89999997615814209 5.08316564559936523 0.232358798384666443
1.89999997615814209 5.40001106262207031 0.290223896503448486
1.89999997615814209 6.26065540313720703 0.15841558575630188
1.89999997615814209 7.92502307891845703 0.373203873634338379
1.89999997615814209 3.94665813446044922 0.282472044229507446
1.89999997615814209 7.7706146240234375 0.234220206737518311
1.89999997615814209 7.32976150512695312 0.303578048944473267
1.89999997615814209 8.15260696411132812 0.167925551533699036
1.89999997615814209 7.27924108505249023 0.135287582874298096
1.89999997615814209 7.38520240783691406 0.334889799356460571
1.89999997615814209 7.65706586837768555 0.0836422741413116455
1.89999997615814209 6.07195472717285156 0.359443962574005127
1.89999997615814209 5.92899131774902344 0.239863157272338867
1.89999997615814209 6.34558010101318359 0.229309752583503723
1.89999997615814209 4.68216562271118164 0.332876086235046387
1.89999997615814209 8.00273036956787109 0.354629576206207275
1.89999997615814209 6.34332418441772461 0.200846657156944275
1.89999997615814209 8.52764987945556641 0.239046424627304077
1.89999997615814209 1.30410337448120117 0.396788954734802246
1.89999997615814209 7.59309482574462891 0.393561333417892456
1.89999997615814209 6.26864290237426758 0.231020435690879822
1.89999997615814209 8.51196384429931641 0.315219521522521973
1.89999997615814209 4.67248821258544922 0.378950923681259155
1.89999997615814209 7.88302707672119141 0.273797214031219482
1.89999997615814209 6.44540977478027344 0.120099872350692749
1.89999997615814209 6.53713893890380859 0.244643986225128174
1.89999997615814209 8.45341396331787109 0.275376737117767334
1.89999997615814209 6.27274084091186523 0.25902092456817627
1.89999997615814209 5.92246055603027344 0.30095750093460083
1.89999997615814209 8.13563251495361328 0.336654990911483765
1.89999997615814209 3.13474607467651367 0.371070295572280884
1.89999997615814209 7.740631103515625 0.31292387843132019
1.89999997615814209 6.34172153472900391 0.166564345359802246
1.89999997615814209 3.90561819076538086 0.315938621759414673
1.89999997615814209 8.10329055786132812 0.217127606272697449
1.89999997615814209 8.24182224273681641 0.304565906524658203
1.89999997615814209 6.85303020477294922 0.301422774791717529
1.89999997615814209 5.28307533264160156 0.283806651830673218
1.89999997615814209 4.08107566833496094 0.321678817272186279
1.89999997615814209 4.1936335563659668 0.311284959316253662
1.89999997615814209 4.21703195571899414 0.358487576246261597
1.89999997615814209 7.91926765441894531 0.0983046889305114746
1.89999997615814209 7.627655029296875 0.273954629898071289
1.89999997615814209 3.53195381164550781 0.284054160118103027
1.89999997615814209 6.62872123718261719 0.227143630385398865
1.89999997615814209 7.74771499633789062 0.197022780776023865
1.89999997615814209 7.25919437408447266 0.115041196346282959
1.89999997615814209 5.76533603668212891 0.161812111735343933
1.89999997615814209 6.46483993530273438 0.156980320811271667
1.89999997615814209 8.18930339813232422 0.0560595393180847168
1.89999997615814209 8.88650035858154297 0.130645632743835449
1.89999997615814209 8.08954143524169922 0.101844906806945801
1.89999997615814209 5.67790126800537109 0.317186444997787476
1.89999997615814209 2.34540319442749023 0.360929518938064575
1.89999997615814209 7.99209737777709961 0.0796703696250915527
1.89999997615814209 0.246794700622558594 0.396837592124938965
1.89999997615814209 8.52166271209716797 0.144948393106460571
1.89999997615814209 8.41076087951660156 0.23517705500125885
1.89999997615814209 8.45598220825195312 0.246881574392318726
1.89999997615814209 5.53820705413818359 0.300278693437576294
1.89999997615814209 8.42779636383056641 0.328011184930801392
1.89999997615814209 6.87780189514160156 0.15138109028339386
1.89999997615814209 6.35512495040893555 0.313327252864837646
1.89999997615814209 2.92859315872192383 0.285725921392440796
1.89999997615814209 8.73077583312988281 0.138894021511077881
1.89999997615814209 1.00785636901855469 0.376107394695281982
1.89999997615814209 7.79982948303222656 0.309903055429458618
1.89999997615814209 7.30644559860229492 0.369539111852645874
1.89999997615814209 4.22841644287109375 0.232645049691200256
1.89999997615814209 5.1841893196105957 0.318489283323287964
1.89999997615814209 3.61673212051391602 0.367807716131210327
1.89999997615814209 7.72863674163818359 0.263836532831192017
1.89999997615814209 5.10193300247192383 0.344283640384674072
1.89999997615814209 5.32882213592529297 0.206798657774925232
1.89999997615814209 7.62866497039794922 0.395993947982788086
1.89999997615814209 3.42727947235107422 0.382520377635955811
1.89999997615814209 0.855320930480957031 0.399383574724197388
1.89999997615814209 4.45133829116821289 0.317055791616439819
1.89999997615814209 5.1959686279296875 0.286827802658081055
1.89999997615814209 3.7675323486328125 0.300846964120864868
1.89999997615814209 8.92336082458496094 0.297344446182250977
1.89999997615814209 5.90680408477783203 0.222591504454612732
1.89999997615814209 0.672600746154785156 0.399362921714782715
1.89999997615814209 7.94565200805664062 0.34419715404510498
1.89999997615814209 7.03210973739624023 0.35825684666633606
1.89999997615814209 5.54772233963012695 0.334965944290161133
1.89999997615814209 7.59221839904785156 0.157706484198570251
1.89999997615814209 7.87039518356323242 0.14523652195930481
1.89999997615814209 6.74432706832885742 0.118558317422866821
1.89999997615814209 8.79578018188476562 0.0526354312896728516
1.89999997615814209 9.04183578491210938 0.250360608100891113
1.89999997615814209 3.97005033493041992 0.316543251276016235
1.89999997615814209 8.43030357360839844 0.169962361454963684
1.89999997615814209 2.30015182495117188 0.394314229488372803
1.89999997615814209 8.48701381683349609 0.178089648485183716
1.89999997615814209 3.27404403686523438 0.283640742301940918
1.89999997615814209 7.93661975860595703 0.0765379667282104492
1.89999997615814209 7.26284980773925781 0.0875221490859985352
1.89999997615814209 4.67344522476196289 0.336765944957733154
1.89999997615814209 3.93907690048217773 0.325077354907989502
1.89999997615814209 6.09783077239990234 0.292166560888290405
1.89999997615814209 6.30625724792480469 0.282527267932891846
1.89999997615814209 7.20839452743530273 0.132549703121185303
1.89999997615814209 5.86301040649414062 0.390065371990203857
1.89999997615814209 4.60466766357421875 0.350220620632171631
1.89999997615814209 7.48646640777587891 0.328507900238037109
1.89999997615814209 5.21466541290283203 0.337028712034225464
1.89999997615814209 2.09409141540527344 0.321187287569046021
1.89999997615814209 8.24930191040039062 0.268444836139678955
1.89999997615814209 5.4246368408203125 0.334924042224884033
1.89999997615814209 3.29831981658935547 0.355452567338943481
1.89999997615814209 6.72990608215332031 0.398049235343933105
1.89999997615814209 5.98170566558837891 0.316898435354232788
1.89999997615814209 8.55000495910644531 0.324137479066848755
1.89999997615814209 4.64809083938598633 0.377621084451675415
1.89999997615814209 8.38328361511230469 0.305075615644454956
1.89999997615814209 6.23342132568359375 0.269029140472412109
1.89999997615814209 4.64444923400878906 0.274700254201889038
1.89999997615814209 5.20195150375366211 0.343786656856536865
1.89999997615814209 8.55067634582519531 0.204667717218399048
1.89999997615814209 5.65317916870117188 0.342102259397506714
1.89999997615814209 7.96350812911987305 0.0887693166732788086
1.89999997615814209 8.58879852294921875 0.272257566452026367
1.89999997615814209 8.45466232299804688 0.374125212430953979
1.89999997615814209 7.51456832885742188 0.195934280753135681
1.89999997615814209 9.04299354553222656 0.111709475517272949
1.89999997615814209 7.13764047622680664 0.317119717597961426
1.89999997615814209 0.874811172485351562 0.385869354009628296
1.89999997615814209 7.95503854751586914 0.240912675857543945
1.01965391635894775 9.06477928161621094 0.0280016213655471802
1.57153224945068359 9.06477928161621094 0.0640764683485031128
1.72103941440582275 9.06477928161621094 0.103741824626922607
1.0383453369140625 9.06477928161621094 0.112472042441368103
0.837666749954223633 9.06477928161621094 0.109527602791786194
0.893013477325439453 9.06477928161621094 0.180706262588500977
1.15194106101989746 9.06477928161621094 0.165486931800842285
0.966264247894287109 9.06477928161621094 0.0208622068166732788
0.160744190216064453 9.06477928161621094 0.00677257776260375977
0.434186935424804688 9.06477928161621094 0.053083956241607666
1.15323567390441895 9.06477928161621094 0.167358890175819397
0.694232821464538574 9.06477928161621094 0.0708831846714019775
1.78122222423553467 9.06477928161621094 0.193519607186317444
1.50918960571289062 9.06477928161621094 0.0713561922311782837
1.6574937105178833 9.06477928161621094 0.0747106894850730896
1.3030087947845459 9.06477928161621094 0.179936155676841736
1.12839007377624512 9.06477928161621094 0.0386144667863845825
1.89296829700469971 9.06477928161621094 0.00971283949911594391
1.21025180816650391 9.06477928161621094 0.128307029604911804
0.959264039993286133 9.06477928161621094 0.176472559571266174
1.63982021808624268 9.06477928161621094 0.0725371167063713074
1.67006206512451172 9.06477928161621094 0.1026291623711586
0.652670741081237793 9.06477928161621094 0.114823132753372192
1.63685774803161621 9.06477928161621094 0.0482596494257450104
0.56015169620513916 9.06477928161621094 0.0343966186046600342
0.775195717811584473 9.06477928161621094 0.0214820206165313721
1.29406213760375977 9.06477928161621094 0.234806820750236511
1.69589316844940186 9.06477928161621094 0.0732704252004623413
1.4824984073638916 9.06477928161621094 0.155520886182785034
1.79278433322906494 9.06477928161621094 0.0106381531804800034
0.412918925285339355 9.06477928161621094 0.0811186730861663818
1.5134427547454834 9.06477928161621094 0.112138636410236359
1.86205601692199707 9.06477928161621094 0.0545384138822555542
0.889474868774414062 9.06477928161621094 0.0345852077007293701
0.237049221992492676 9.06477928161621094 0.0140375792980194092
0.986035645008087158 9.06477928161621094 0.163839802145957947
1.87153780460357666 9.06477928161621094 0.323788911104202271
1.05139350891113281 9.06477928161621094 0.205675616860389709
0.987349092960357666 9.06477928161621094 0.0856398344039916992
1.6467207670211792 9.06477928161621094 0.00987033173441886902
0.699099540710449219 9.06477928161621094 0.0181069672107696533
1.17915534973144531 9.06477928161621094 0.161895394325256348
0.169907450675964355 9.06477928161621094 0.0212941169738769531
1.72862565517425537 9.06477928161621094 0.022559676319360733
1.24750781059265137 9.06477928161621094 0.0782941132783889771
1.87067592144012451 9.06477928161621094 0.183418199419975281
1.5243217945098877 9.06477928161621094 0.224745690822601318
1.7631450891494751 9.06477928161621094 0.129378318786621094
1.74809551239013672 9.06477928161621094 0.0770324170589447021
1.13498783111572266 9.06477928161621094 0.21125851571559906
1.39690279960632324 9.06477928161621094 0.120610810816287994
1.11535215377807617 9.06477928161621094 0.0270538479089736938
1.34789800643920898 9.06477928161621094 0.0831015929579734802
0.916804015636444092 9.06477928161621094 0.00980670750141143799
0.990891695022583008 9.06477928161621094 0.0160243958234786987
1.60791575908660889 9.06477928161621094 0.192020148038864136
1.5903162956237793 9.06477928161621094 0.304568290710449219
1.5044703483581543 9.06477928161621094 0.123808063566684723
1.5492631196975708 9.06477928161621094 0.223821699619293213
1.09855818748474121 9.06477928161621094 0.161952778697013855
1.35194754600524902 9.06477928161621094 0.209914445877075195
1.1764533519744873 9.06477928161621094 0.22656308114528656
1.60285711288452148 9.06477928161621094 0.213633611798286438
1.20774316787719727 9.06477928161621094 0.236369684338569641
1.18997955322265625 9.06477928161621094 0.213354989886283875
0.686902284622192383 9.06477928161621094 0.0362092554569244385
1.59979009628295898 9.06477928161621094 0.245338529348373413
1.36199259757995605 9.06477928161621094 0.072582148015499115
1.85014331340789795 9.06477928161621094 0.0995413586497306824
1.5146944522857666 9.06477928161621094 0.295322984457015991
1.22260880470275879 9.06477928161621094 0.23110392689704895
1.62619507312774658 9.06477928161621094 0.00297081470489501953
0.972128212451934814 9.06477928161621094 0.0314154922962188721
1.77369058132171631 9.06477928161621094 0.190429940819740295
1.78430533409118652 9.06477928161621094 0.29658973217010498
0.551007866859436035 9.06477928161621094 0.0325895547866821289
1.8577800989151001 9.06477928161621094 0.0293549597263336182
1.09105634689331055 9.06477928161621094 0.190927624702453613
0.972673356533050537 9.06477928161621094 0.0969765037298202515
0.932558894157409668 9.06477928161621094 0.107975184917449951
1.49087297916412354 9.06477928161621094 0.0325208157300949097
1.72556352615356445 9.06477928161621094 0.319124490022659302
0.859693169593811035 9.06477928161621094 0.0196039080619812012
1.73129153251647949 9.06477928161621094 0.15564708411693573
1.81162512302398682 9.06477928161621094 0.0467128343880176544
1.75371384620666504 9.06477928161621094 0.102551355957984924
1.69797384738922119 9.06477928161621094 0.335618764162063599
1.01341152191162109 9.06477928161621094 0.171488538384437561
0.334925860166549683 9.06477928161621094 0.28600013256072998
0.396174848079681396 9.06477928161621094 0.373210668563842773
0.0979140773415565491 9.06477928161621094 0.186789706349372864
0.187397226691246033 9.06477928161621094 0.109252244234085083
0.585115671157836914 9.06477928161621094 0.294830054044723511
0.25241929292678833 9.06477928161621094 0.0981912016868591309
0.519864141941070557 9.06477928161621094 0.19538329541683197
0.441656976938247681 9.06477928161621094 0.244433149695396423
0.841668307781219482 9.06477928161621094 0.224905416369438171
0.426192551851272583 9.06477928161621094 0.0967758595943450928
0.363056749105453491 9.06477928161621094 0.145564645528793335
1.36425983905792236 9.06477928161621094 0.392204165458679199
1.53986895084381104 9.06477928161621094 0.397090822458267212
0.0801231414079666138 9.06477928161621094 0.0816635489463806152
1.12611842155456543 9.06477928161621094 0.374537378549575806
0.641589999198913574 9.06477928161621094 0.232643589377403259
1.135040283203125 9.06477928161621094 0.258498728275299072
1.84502482414245605 9.06477928161621094 0.395798027515411377
0.563767433166503906 9.06477928161621094 0.375049740076065063
0.0666614249348640442 9.06477928161621094 0.35815727710723877
0.152831673622131348 9.06477928161621094 0.248866468667984009
0.709235906600952148 9.06477928161621094 0.234698876738548279
0.417597293853759766 9.06477928161621094 0.280741780996322632
0.411442756652832031 9.06477928161621094 0.378837317228317261
1.27211141586303711 9.06477928161621094 0.362531304359436035
1.74216187000274658 9.06477928161621094 0.397408246994018555
0.200845152139663696 9.06477928161621094 0.130461961030960083
1.16772937774658203 9.06477928161621094 0.344716161489486694
0.626324653625488281 9.06477928161621094 0.135446101427078247
1.61071813106536865 9.06477928161621094 0.378904342651367188
0.644406676292419434 9.06477928161621094 0.194191321730613708
1.66700577735900879 9.06477928161621094 0.381956160068511963
1.42656755447387695 9.06477928161621094 0.376182436943054199
1.7998652458190918 9.06477928161621094 0.398574143648147583
0.830854296684265137 9.06477928161621094 0.209174558520317078
0.208430305123329163 9.06477928161621094 0.308275133371353149
0.489753663539886475 9.06477928161621094 0.320121794939041138
1.04112613201141357 9.06477928161621094 0.359600603580474854
0.472891032695770264 9.06477928161621094 0.183085232973098755
1.24680566787719727 9.06477928161621094 0.355549246072769165
0.515442490577697754 9.06477928161621094 0.207694336771965027
0.217810913920402527 9.06477928161621094 0.164571121335029602
0.243042334914207458 9.06477928161621094 0.28699299693107605
1.01731729507446289 9.06477928161621094 0.284112542867660522
0.0873644649982452393 9.06477928161621094 0.196654275059700012
0.433506101369857788 9.06477928161621094 0.179335907101631165
0.912104606628417969 9.06477928161621094 0.231905743479728699
0.0208886675536632538 9.06477928161621094 0.290070563554763794
1.14307165145874023 9.06477928161621094 0.343235641717910767
0.609172940254211426 9.06477928161621094 0.274917662143707275
0.507343947887420654 9.06477928161621094 0.133867561817169189
0.111431337893009186 9.06477928161621094 0.105379402637481689
0.4828357994556427 9.06477928161621094 0.272362768650054932
0.0970555469393730164 9.06477928161621094 0.119573414325714111
0.615293562412261963 9.06477928161621094 0.229693606495857239
0.379883825778961182 9.06477928161621094 0.356308341026306152
0.567389369010925293 9.06477928161621094 0.323315560817718506
0.577063500881195068 9.06477928161621094 0.320840775966644287
0.202785655856132507 9.06477928161621094 0.292908400297164917
0.164518371224403381 9.06477928161621094 0.177513644099235535
1.0453571081161499 9.06477928161621094 0.243713259696960449
0.262735158205032349 9.06477928161621094 0.398253321647644043
0.604648113250732422 9.06477928161621094 0.291107028722763062
0.0870695188641548157 9.06477928161621094 0.322016984224319458
0.497043490409851074 9.06477928161621094 0.146708577871322632
0.314923942089080811 9.06477928161621094 0.194744691252708435
0.360275447368621826 9.06477928161621094 0.269954472780227661
1.02335512638092041 9.06477928161621094 0.363825857639312744
1.29909729957580566 9.06477928161621094 0.284306704998016357
0.351207196712493896 9.06477928161621094 0.267010271549224854
0.0527700521051883698 9.06477928161621094 0.354280561208724976
1.04528927803039551 9.06477928161621094 0.24790993332862854
0.852570652961730957 9.06477928161621094 0.363922625780105591
1.16159653663635254 9.06477928161621094 0.347095370292663574
0.0684990882873535156 9.06477928161621094 0.234975039958953857
0.558817386627197266 9.06477928161621094 0.174052909016609192
0.0604098103940486908 9.06477928161621094 0.0454863309860229492
0.507325232028961182 9.06477928161621094 0.391923964023590088
0.122125320136547089 9.06477928161621094 0.0356204807758331299
0.74562537670135498 9.06477928161621094 0.198937207460403442
0.203728795051574707 9.06477928161621094 0.250195920467376709
0.789258778095245361 9.06477928161621094 0.239947468042373657
0.234463751316070557 9.06477928161621094 0.15504339337348938
0.250375986099243164 9.06477928161621094 0.304667294025421143
0.15674157440662384 9.06477928161621094 0.373422980308532715
0.0624937079846858978 9.06477928161621094 0.109541743993759155
0.276179462671279907 9.06477928161621094 0.370831459760665894
0.34077763557434082 9.06477928161621094 0.339998543262481689
0.878788232803344727 0.918547928333282471 0
1.63737380504608154 0.115193009376525879 0
1.71793591976165771 0.701340019702911377 0
1.06957817077636719 2.03899288177490234 0
0.310591906309127808 0.180516242980957031 0
0.188924267888069153 4.52434635162353516 0
0.761068105697631836 2.22523260116577148 0
1.27731072902679443 2.24075579643249512 0
1.14062952995300293 2.7930903434753418 0
0.00632353639230132103 0.904747962951660156 0
0.240051895380020142 4.13881254196166992 0
0.174968302249908447 7.72895908355712891 0
0.165670976042747498 1.42542564868927002 0
1.4626544713973999 0.171079725027084351 0
0.609611332416534424 5.02524948120117188 0
0.646637916564941406 2.84299278259277344 0
1.23466622829437256 2.84821224212646484 0
1.12419641017913818 2.00932049751281738 0
0.917538344860076904 2.24268841743469238 0
0.00533777195960283279 8.76590633392333984 0
0.228400826454162598 7.5281825065612793 0
0.333408325910568237 0.155773356556892395 0
0.014003668911755085 6.81221294403076172 0
0.70482170581817627 1.20709657669067383 0
0.179592758417129517 5.89547061920166016 0
0.443524807691574097 0.759425103664398193 0
0.0726962164044380188 5.54885768890380859 0
1.36699831485748291 0.576403141021728516 0
1.20873367786407471 2.60978221893310547 0
1.46879768371582031 1.44034886360168457 0
1.30004537105560303 1.83897066116333008 0
0.262225478887557983 2.55730295181274414 0
0.911011457443237305 3.50194692611694336 0
1.52680110931396484 0.781548917293548584 0
1.17408287525177002 0.0263995584100484848 0
0.0485040768980979919 1.51202130317687988 0
1.18472111225128174 0.918104231357574463 0
0.443362921476364136 1.20349514484405518 0
0.606899261474609375 1.33878207206726074 0
0.0281035583466291428 3.00304746627807617 0
0.147710561752319336 1.60651266574859619 0
0.0830195322632789612 7.04992580413818359 0
0.133243769407272339 1.47986328601837158 0
0.272801876068115234 0.808331310749053955 0
0.689645648002624512 3.84192657470703125 0
0.169373899698257446 3.29440808296203613 0
0.100595764815807343 1.1794438362121582 0
0.275859534740447998 3.86224532127380371 0
0.524337887763977051 3.97797560691833496 0
0.204790115356445312 3.32053041458129883 0
0.0675291642546653748 7.33425045013427734 0
0.358719050884246826 5.24798107147216797 0
0.197267338633537292 4.26047515869140625 0
0.0843070000410079956 2.48060464859008789 0
0.500476300716400146 5.74973630905151367 0
0.570874989032745361 1.40043306350708008 0
0.0141838779672980309 4.83420276641845703 0
0.237926885485649109 2.93213200569152832 0
0.917601048946380615 2.36509180068969727 0
1.80623543262481689 0.275156676769256592 0
0.82789534330368042 0.736106932163238525 0
0.0324886590242385864 8.84801959991455078 0
1.02660298347473145 1.81668365001678467 0
0.764105618000030518 1.07398080825805664 0
1.19051778316497803 1.38787901401519775 0
0.844713330268859863 3.08845615386962891 0
0.492355078458786011 2.12291717529296875 0
0.409690916538238525 4.76097345352172852 0
0.426656752824783325 4.14418506622314453 0
0.769974410533905029 2.41492843627929688 0
1.04928958415985107 4.04920721054077148 0
0.778798520565032959 4.13931417465209961 0
0.374913454055786133 1.95545792579650879 0
1.36940991878509521 1.43794846534729004 0
0.0634854957461357117 1.11045777797698975 0
0.491844236850738525 3.63175106048583984 0
0.393078714609146118 5.892120361328125 0
0.95165783166885376 2.75150799751281738 0
0.427744626998901367 6.77476072311401367 0
0.371443390846252441 5.62209224700927734 0
1.02937817573547363 3.06395149230957031 0
0.0859934091567993164 5.00998306274414062 0
0.084605194628238678 5.28838586807250977 0
0.199659928679466248 4.86387252807617188 0
0.951408803462982178 0.527297616004943848 0
0.356775552034378052 1.40617990493774414 0
0.0933897420763969421 0.454564809799194336 0
0.122361458837985992 1.9742734432220459 0
0.522925019264221191 5.10790157318115234 0
0.353550255298614502 0.561252236366271973 0
0.29752582311630249 7.52477073669433594 0
0.0882922038435935974 6.37224483489990234 0
0.887050867080688477 3.41076350212097168 0
0.0311393570154905319 6.00048589706420898 0
0.788828790187835693 3.71181821823120117 0
0.204278901219367981 7.57302188873291016 0
1.15209770202636719 0.410774707794189453 0
0.780168354511260986 2.87031149864196777 0
1.10889637470245361 1.67799198627471924 0
0.295735299587249756 7.08378076553344727 0
0.746689379215240479 2.4487614631652832 0
1.11130821704864502 1.74924254417419434 0
0.60281074047088623 1.31340217590332031 0
0.189887925982475281 4.11606121063232422 0
1.0029904842376709 2.37006592750549316 0
0.243260651826858521 3.22617125511169434 0
1.12497794628143311 3.52273941040039062 0
0.953524172306060791 2.50138998031616211 0
0.198974311351776123 4.69608020782470703 0
0.805905818939208984 2.9125068187713623 0
1.15198338031768799 2.47459244728088379 0
0.853173673152923584 0.56816864013671875 0
0.972591876983642578 3.68957042694091797 0
0.0131973577663302422 5.51142454147338867 0
0.620898604393005371 0.446225166320800781 0
0.158156558871269226 3.78995776176452637 0
0.12412755936384201 2.06592440605163574 0
0.359158813953399658 0.399603962898254395 0
0.707019925117492676 2.55422472953796387 0
0.809282779693603516 3.55050539970397949 0
0.00635637575760483742 8.88529777526855469 0
0.0982136055827140808 5.68720722198486328 0
0.480869174003601074 5.38415241241455078 0
0.912078022956848145 4.04586696624755859 0
1.70700788497924805 0.066859222948551178 0
1.36360406875610352 1.66030216217041016 0
0.394379377365112305 4.38093090057373047 0
0.499066770076751709 0.0960956811904907227 0
0.260919004678726196 3.08647871017456055 0
0.824029684066772461 1.85568785667419434 0
1.36574125289916992 2.50862717628479004 0
0.0780248045921325684 5.60255622863769531 0
0.355164110660552979 2.0663764476776123 0
0.790237247943878174 4.79677438735961914 0
0.300116598606109619 1.8991239070892334 0
0.0955727323889732361 4.5128483772277832 0
0.705232441425323486 0.515439450740814209 0
1.27291762828826904 0.640050292015075684 0
0.601626574993133545 3.50345206260681152 0
0.169246062636375427 2.0542752742767334 0
0.181892886757850647 3.41493606567382812 0
0.654310703277587891 2.73928117752075195 0
0.368201702833175659 3.15821361541748047 0
0.156500130891799927 3.30197501182556152 0
0.654802203178405762 5.85206317901611328 0
0.0871782451868057251 8.45133304595947266 0
0.759697079658508301 0.312680840492248535 0
0.63334190845489502 4.50255775451660156 0
1.72498476505279541 0.470605820417404175 0
0.0141824120655655861 3.07458925247192383 0
1.00146698951721191 4.26826000213623047 0
0.138607963919639587 8.00140380859375 0
0.947202086448669434 1.76497042179107666 0
0.952586591243743896 2.46164369583129883 0
0.81864553689956665 1.81605494022369385 0
0.055170837789773941 0.193015947937965393 0
1.34568607807159424 0.85290074348449707 0
0.925707101821899414 4.08531713485717773 0
1.39763569831848145 0.477767080068588257 0
0.402968376874923706 3.60051965713500977 0
0.630973756313323975 1.06429183483123779 0
0.906413793563842773 0.538445711135864258 0
1.22234582901000977 0.159197032451629639 0
0.352064192295074463 6.39217662811279297 0
1.00678646564483643 0.461239159107208252 0
0.0626587346196174622 0.367171287536621094 0
0.973518610000610352 0.918091833591461182 0
1.43236863613128662 2.1711738109588623 0
0.632218480110168457 2.68102526664733887 0
0.0997233837842941284 3.39760756492614746 0
0.0232019610702991486 5.502899169921875 0
1.70748519897460938 0.292604595422744751 0
0.91365206241607666 0.62581789493560791 0
0.685549139976501465 3.2486112117767334 0
1.17658853530883789 2.64115524291992188 0
0.0486555434763431549 0.743427097797393799 0
0.459592372179031372 6.49952983856201172 0
0.981196761131286621 0.42528870701789856 0
0.238972678780555725 3.86333060264587402 0
0.885287702083587646 1.96094024181365967 0
0.943224072456359863 0.882018566131591797 0
0.991996586322784424 1.75823533535003662 0
1.0835723876953125 2.29826450347900391 0
0.662785768508911133 0.20109926164150238 0
0.843612790107727051 1.39585840702056885 0
0.373617261648178101 4.4520573616027832 0
1.02497255802154541 2.0070192813873291 0
0.895987093448638916 4.22096014022827148 0
0.338348418474197388 3.46785616874694824 0
0.192739561200141907 0.648597300052642822 0
1.16317546367645264 3.42760372161865234 0
0.446426957845687866 3.97658443450927734 0
0.46750873327255249 5.24652385711669922 0
0.465874463319778442 4.34034395217895508 0
1.33963358402252197 1.54111897945404053 0
0.464701741933822632 0.326267331838607788 0
1.27762722969055176 2.90347671508789062 0
0.205741211771965027 7.52732706069946289 0
1.19913685321807861 2.53186440467834473 0
0.76275181770324707 4.08021831512451172 0
0.594704270362854004 2.41546320915222168 0
1.29022443294525146 0.404674679040908813 0
1.0759432315826416 3.74983358383178711 0
0.375054627656936646 4.94491052627563477 0
0.974854826927185059 2.97800540924072266 0
0.324909776449203491 5.24366044998168945 0
0.123691566288471222 3.33510899543762207 0
1.46170496940612793 1.48399126529693604 0
0.64104926586151123 0.821734786033630371 0
0.702917158603668213 2.12339496612548828 0
1.43676877021789551 1.45579195022583008 0
0.316971272230148315 0.378972053527832031 0
0.828482449054718018 0.837466597557067871 0
1.17845094203948975 1.14382898807525635 0
1.21253478527069092 1.23389339447021484 0
0.454541534185409546 1.96538400650024414 0
0.0114985983818769455 1.21882688999176025 0
0.0157271027565002441 0.370117992162704468 0
0.635244667530059814 5.40157699584960938 0
0.636339485645294189 3.50451898574829102 0
0.198590710759162903 1.35212767124176025 0
0.933794498443603516 4.30106735229492188 0
0.421651065349578857 3.28151297569274902 0
0.152511253952980042 1.21944832801818848 0
0.772371828556060791 3.5760047435760498 0
0.737924039363861084 1.24207580089569092 0
0.149749889969825745 2.33308076858520508 0
0.702788829803466797 4.81919240951538086 0
0.0659457072615623474 3.10683608055114746 0
0.00398098630830645561 2.27974772453308105 0
0.370832115411758423 3.08419346809387207 0
0.0854922756552696228 0.98602449893951416 0
0.991236031055450439 3.39397382736206055 0
0.205189436674118042 1.23456490039825439 0
1.25188565254211426 1.275504469871521 0
0.928304493427276611 4.4058074951171875 0
0.309347599744796753 5.9538884162902832 0
0.0530455596745014191 6.78740215301513672 0
0.42926517128944397 0.541622757911682129 0
1.17358088493347168 0.509396255016326904 0
0.62058103084564209 5.63947916030883789 0
0.77198183536529541 0.213375642895698547 0
0.558977127075195312 0.249159336090087891 0
0.144297868013381958 1.99453067779541016 0
1.43730306625366211 1.2096717357635498 0
0.26838347315788269 7.65230321884155273 0
0.901005685329437256 1.22155022621154785 0
0.739295482635498047 0.275580853223800659 0
0.723113298416137695 3.41397690773010254 0
0.0329663865268230438 4.33101511001586914 0
0.3848399817943573 1.37328290939331055 0
0.420806914567947388 6.3242497444152832 0
0.126981824636459351 3.98572659492492676 0
0.762657344341278076 2.3898625373840332 0
0.00540585676208138466 4.08818769454956055 0
0.448649466037750244 3.9490664005279541 0
1.19202625751495361 2.09189891815185547 0
1.02936160564422607 3.43261218070983887 0
1.2063363790512085 0.129475101828575134 0
1.63504874706268311 0.735603690147399902 0
0.476851791143417358 5.56497764587402344 0
0.378134995698928833 0.321782827377319336 0
0.114623546600341797 4.5704340934753418 0
0.134600475430488586 8.15782260894775391 0
0.976237833499908447 0.385984569787979126 0
0.704040944576263428 0.036069873720407486 0
0.94861835241317749 2.42686605453491211 0
0.328836143016815186 1.2633134126663208 0
0.43099626898765564 3.56202292442321777 0
0.408765703439712524 6.97094869613647461 0
0.196178704500198364 6.55530929565429688 0
0.0730519220232963562 3.56117129325866699 0
0.250794351100921631 2.44883513450622559 0
0.228732824325561523 2.47011065483093262 0
0.433382421731948853 2.86546087265014648 0
0.573692142963409424 4.45864295959472656 0
0.920339465141296387 1.90290200710296631 0
0.37541663646697998 5.83496761322021484 0
1.29286837577819824 2.05876445770263672 0
0.13534119725227356 6.48373889923095703 0
1.06883704662322998 1.6258857250213623 0
0.653438985347747803 1.27571272850036621 0
0.415126055479049683 0.922900199890136719 0
0.744279801845550537 4.72193288803100586 0
0.196822509169578552 0.0514627844095230103 0
1.00234127044677734 1.99989581108093262 0
0.268572390079498291 5.28028631210327148 0
0.824273407459259033 1.11012911796569824 0
0.017812119796872139 7.54448747634887695 0
0.818116426467895508 3.23329544067382812 0
0.785491943359375 4.86255502700805664 0
0.243268102407455444 5.42506694793701172 0
0.0312929488718509674 0.916833400726318359 0
0.220426648855209351 3.57863283157348633 0
0.100831419229507446 1.35438191890716553 0
0.0381863228976726532 3.72688674926757812 0
0.357910960912704468 0.855988383293151855 0
1.5426560640335083 0.718070328235626221 0
0.0394606739282608032 5.5964198112487793 0
0.262307733297348022 3.73966550827026367 0
0.556433796882629395 5.79699373245239258 0
0.185982838273048401 4.10069704055786133 0
1.50327372550964355 1.69618046283721924 0
0.628490447998046875 5.11711931228637695 0
0.747621297836303711 4.79759311676025391 0
0.31939089298248291 4.81257295608520508 0
0.311191767454147339 0.825554907321929932 0
0.686132371425628662 1.18664181232452393 0
1.22868907451629639 1.96670663356781006 0
0.353385716676712036 6.01322841644287109 0
0.620412647724151611 3.77696514129638672 0
0.933179855346679688 1.05313634872436523 0
0.937880873680114746 1.34640944004058838 0
0.457376599311828613 1.87097775936126709 0
0.0760073661804199219 6.89451026916503906 0
0.100780032575130463 6.15662145614624023 0
0.43149980902671814 4.94010019302368164 0
0.0895931720733642578 1.04930639266967773 0
0.112611666321754456 3.06479430198669434 0
0.493292838335037231 2.41573524475097656 0
0.21265701949596405 7.26759767532348633 0
0.599535226821899414 5.78863334655761719 0
0.0852069929242134094 1.10522556304931641 0
0.198019757866859436 2.64573240280151367 0
1.28032851219177246 2.6203618049621582 0
0.499403595924377441 2.21311378479003906 0
0.182058900594711304 7.51423883438110352 0
1.33394300937652588 1.69970822334289551 0
0.195453673601150513 7.7400975227355957 0
1.17387306690216064 1.01936352252960205 0
0.268843621015548706 3.24458909034729004 0
0.0071942484937608242 1.17586159706115723 0
1.22658252716064453 1.01955008506774902 0
0.636867284774780273 4.98538875579833984 0
0.141054630279541016 4.52546072006225586 0
0.217880472540855408 6.58205366134643555 0
0.805117964744567871 2.9504086971282959 0
1.50195646286010742 1.80659711360931396 0
0.877676486968994141 3.22367739677429199 0
0.762998282909393311 4.01108503341674805 0
0.66657489538192749 1.67824900150299072 0
1.63763463497161865 0.905791342258453369 0
0.744888544082641602 4.90008449554443359 0
0.413276612758636475 3.47209000587463379 0
1.10960054397583008 3.41329073905944824 0
0.00354023696854710579 1.0904078483581543 0
0.142195969820022583 1.33020246028900146 0
0.974960803985595703 3.46013188362121582 0
0.768674969673156738 4.87586402893066406 0
0.341055542230606079 4.56953525543212891 0
0.0913042351603507996 4.06135320663452148 0
0.400696247816085815 0.524911582469940186 0
0.22402191162109375 0.905147969722747803 0
0.0770131126046180725 0.275973737239837646 0
0.0463311448693275452 2.99404478073120117 0
0.593870103359222412 1.02271139621734619 0
0.276575714349746704 2.47388076782226562 0
0.363275259733200073 4.43646574020385742 0
0.497648864984512329 0.480481952428817749 0
1.12919390201568604 3.49364614486694336 0
0.758666396141052246 4.21562480926513672 0
0.712815225124359131 4.76418352127075195 0
0.935974419116973877 2.42177939414978027 0
1.27439510822296143 2.51127171516418457 0
0.563957631587982178 2.56943535804748535 0
0.436383187770843506 2.37653255462646484 0
0.45479390025138855 4.1556544303894043 0
0.560191690921783447 6.08375072479248047 0
0.265132099390029907 1.38566732406616211 0
0.705918788909912109 4.95423603057861328 0
0.26037132740020752 2.92206430435180664 0
0.186549067497253418 1.28271079063415527 0
0.963425993919372559 3.66567587852478027 0
1.4930422306060791 0.485669046640396118 0
1.09307849407196045 0.181939974427223206 0
0.180552646517753601 6.66005611419677734 0
0.972616136074066162 2.70108437538146973 0
0.364607125520706177 4.4711761474609375 0
1.35693860054016113 0.99503171443939209 0
0.391275316476821899 0.00598572427406907082 0
0.0820263400673866272 4.97622060775756836 0
0.122145861387252808 0.188597992062568665 0
0.184593632817268372 3.34378814697265625 0
0.634644091129302979 5.38590717315673828 0
0.502659916877746582 0.648207604885101318 0
0.0342039056122303009 4.52787637710571289 0
0.565456211566925049 2.91155481338500977 0
1.05071425437927246 2.31304526329040527 0
0.501766204833984375 5.15944051742553711 0
0.671836972236633301 1.08505511283874512 0
0.221371442079544067 5.08748626708984375 0
0.91487419605255127 3.75754570960998535 0
0.532248735427856445 3.34115123748779297 0
0.269783705472946167 4.23996305465698242 0
0.178460672497749329 5.9001922607421875 0
0.370749861001968384 0.296532869338989258 0
1.1571274995803833 0.702727735042572021 0
1.06648874282836914 1.48198151588439941 0
0.887674391269683838 2.8734128475189209 0
0.0639886856079101562 0.0228767916560173035 0
0.822363734245300293 5.04278945922851562 0
0.0774233043193817139 2.17830467224121094 0
0.340506166219711304 5.70049428939819336 0
0.599387586116790771 4.86946487426757812 0
0.688847005367279053 5.45134639739990234 0
0.177512764930725098 1.26977002620697021 0
0.525710403919219971 0.789393424987792969 0
0.389961391687393188 3.17305326461791992 0
1.11631238460540771 3.17561864852905273 0
1.36985540390014648 1.36870133876800537 0
0.074571952223777771 3.93264412879943848 0
0.645211696624755859 2.30350184440612793 0
1.65983641147613525 0.666580796241760254 0
0.0200008675456047058 7.59334564208984375 0
0.62478029727935791 3.71532821655273438 0
1.20384848117828369 0.566757738590240479 0
0.347813576459884644 1.38000047206878662 0
0.950210392475128174 3.24062919616699219 0
1.21941816806793213 2.51709413528442383 0
0.320566147565841675 4.5982818603515625 0
1.14041650295257568 0.471694707870483398 0
0.0126348678022623062 6.95381069183349609 0
0.187318459153175354 5.03339862823486328 0
0.21378268301486969 7.77743291854858398 0
0.106433704495429993 5.66713237762451172 0
0.269121348857879639 1.33737027645111084 0
0.489766210317611694 3.97496271133422852 0
0.814749419689178467 1.51774358749389648 0
0.0146129969507455826 3.21467494964599609 0
0.068074345588684082 6.15520048141479492 0
0.147683307528495789 5.70917606353759766 0
1.22335731983184814 2.99074935913085938 0
1.43635809421539307 1.47534441947937012 0
0.0350809358060359955 1.96412074565887451 0
0.902720510959625244 0.88440096378326416 0
