ply
format ascii 1.0
element vertex 965
property float x
property float y
property float z
end_header
3.82702064514160156 0 0.445296943187713623
3.08079338073730469 0 0.229543000459671021
3.30649566650390625 0 0.423424094915390015
3.64120769500732422 0 0.0621022582054138184
2.7873382568359375 0 0.459940791130065918
0.320106267929077148 0 0.465487658977508545
1.8838045597076416 0 0.282431870698928833
3.9525909423828125 0 0.238464415073394775
4.0636591911315918 0 0.204516768455505371
2.3489995002746582 0 0.437477469444274902
3.69063019752502441 0 0.458409577608108521
2.68166685104370117 0 0.489867150783538818
3.20935583114624023 0 0.449919760227203369
2.08497214317321777 0 0.341058313846588135
1.96432805061340332 0 0.467758238315582275
3.89755368232727051 0 0.157904505729675293
0.350062847137451172 0 0.463295251131057739
1.74350881576538086 0 0.455232709646224976
2.94553375244140625 0 0.499965786933898926
2.87811589241027832 0 0.460915833711624146
3.03235316276550293 0 0.488592833280563354
3.9528203010559082 0 0.218110024929046631
3.55916404724121094 0 0.290244191884994507
3.79100871086120605 0 0.309110641479492188
3.09361124038696289 0 0.232850372791290283
1.98330450057983398 0 0.497881889343261719
4.06093549728393555 0 0.306467115879058838
3.37280654907226562 0 0.236779779195785522
3.7301628589630127 0 0.452964693307876587
3.99315094947814941 0 0.455237865447998047
3.05511569976806641 0 0.383008837699890137
2.05281352996826172 0 0.336454421281814575
2.48906850814819336 0 0.338869422674179077
4.05114126205444336 0 0.461905092000961304
3.23849725723266602 0 0.480265676975250244
2.37837076187133789 0 0.460126936435699463
1.64977455139160156 0 0.359617650508880615
1.07508134841918945 0 0.472586393356323242
3.46301388740539551 0 0.193552851676940918
3.29151296615600586 0 0.247924119234085083
2.65014243125915527 0 0.276177763938903809
2.54994964599609375 0 0.297061324119567871
0.79069209098815918 0 0.440564125776290894
1.93559122085571289 0 0.358167111873626709
2.61443591117858887 0 0.311838090419769287
3.55122494697570801 0 0.425615400075912476
1.32173061370849609 0 0.416673928499221802
1.20340228080749512 0 0.451862543821334839
2.57864475250244141 0 0.303144752979278564
3.39607000350952148 0 0.457429319620132446
3.20521879196166992 0 0.283277511596679688
3.34663128852844238 0 0.233510643243789673
3.35894155502319336 0 0.282346487045288086
3.99694991111755371 0 0.339043259620666504
3.80408573150634766 0 0.117211908102035522
3.88406705856323242 0 0.0386202633380889893
1.52044796943664551 0 0.463970929384231567
2.13377809524536133 0 0.322710782289505005
3.5481104850769043 0 0.247012585401535034
3.8720090389251709 0 0.0621486008167266846
2.26433825492858887 0 0.469967961311340332
3.02225804328918457 0 0.140410691499710083
1.0368962287902832 0 0.47020605206489563
1.6218869686126709 0 0.340708494186401367
2.6244208812713623 0 0.388572722673416138
1.24710822105407715 0 0.462176650762557983
4.10599231719970703 0 0.165369123220443726
3.20273947715759277 0 0.2802315354347229
3.59755063056945801 0 0.0668289363384246826
3.2888786792755127 0 0.278543353080749512
2.77018427848815918 0 0.44727015495300293
2.48668956756591797 0 0.264034152030944824
3.12440776824951172 0 0.41031569242477417
4.06425952911376953 0 0.00797483325004577637
3.69687533378601074 0 0.460179150104522705
2.20424795150756836 0 0.336337506771087646
2.39916157722473145 0 0.475679576396942139
3.01399803161621094 0 0.198266208171844482
2.04759597778320312 0 0.402763724327087402
3.32489824295043945 0 0.121255338191986084
2.59201860427856445 0 0.305627167224884033
2.95369195938110352 0 0.239817112684249878
2.17809152603149414 0 0.268445521593093872
1.37839722633361816 0 0.491879284381866455
1.34074950218200684 0 0.384905427694320679
3.49543094635009766 0 0.375525325536727905
3.58143401145935059 0 0.181997835636138916
3.93938469886779785 0 0.363700240850448608
1.30055689811706543 0 0.388080686330795288
3.92863178253173828 0 0.338481903076171875
3.76470255851745605 0 0.26832425594329834
1.31737422943115234 0 0.430012792348861694
2.97917699813842773 0 0.193373501300811768
3.27053928375244141 0 0.22323182225227356
1.36585259437561035 0 0.445857107639312744
3.80402994155883789 0 0.149216264486312866
2.05131936073303223 0 0.451641440391540527
1.46984767913818359 0 0.380926430225372314
3.48268628120422363 0 0.465065866708755493
3.97118067741394043 0 0.154719799757003784
2.6967613697052002 0 0.354943752288818359
3.31658387184143066 0 0.39607962965965271
1.5163731575012207 0 0.438080102205276489
2.76755166053771973 0 0.338266074657440186
3.2668304443359375 0 0.344324499368667603
4.07496309280395508 0 0.0796151459217071533
3.48884892463684082 0 0.346720874309539795
2.41963434219360352 0 0.310103654861450195
3.78916645050048828 0 0.307124316692352295
4.10043048858642578 0 0.381805330514907837
1.41938328742980957 0 0.349154025316238403
2.71432209014892578 0 0.46025317907333374
2.60326194763183594 0 0.185190379619598389
4.08072137832641602 0 0.364214003086090088
2.81192445755004883 0 0.278751403093338013
2.61638259887695312 0 0.268479973077774048
3.80477762222290039 0 0.095117032527923584
3.96688389778137207 0 0.124926626682281494
1.22771334648132324 0 0.436211317777633667
1.93357419967651367 0 0.397766023874282837
3.97065997123718262 0 0.197322696447372437
2.9645380973815918 0 0.452782213687896729
0.470966577529907227 0 0.461403042078018188
1.39339280128479004 0 0.480330049991607666
3.15799713134765625 0 0.324293375015258789
3.01271772384643555 0 0.181506097316741943
3.76058268547058105 0 0.431062698364257812
3.01755070686340332 0 0.450901180505752563
0.639253854751586914 0 0.469819128513336182
1.71063375473022461 0 0.393582463264465332
2.85163593292236328 0 0.302478194236755371
3.14459562301635742 0 0.471724271774291992
4.09713554382324219 0 0.0703538656234741211
1.94007372856140137 0 0.391557812690734863
1.64102005958557129 0 0.375627040863037109
0.529538869857788086 0 0.46387791633605957
0.409066677093505859 0 0.464690446853637695
1.18346023559570312 0 0.378751516342163086
4.09163331985473633 0 0.19943702220916748
3.68388199806213379 0 0.309631109237670898
3.89060759544372559 0 0.474196404218673706
2.84085488319396973 0 0.365739524364471436
2.9601438045501709 0 0.286483883857727051
2.26831173896789551 0 0.326662838459014893
3.09191179275512695 0 0.161037474870681763
3.38080501556396484 0 0.281920045614242554
3.50637054443359375 0 0.462670743465423584
3.28455829620361328 0 0.160122692584991455
2.83125782012939453 0 0.178830772638320923
3.17314577102661133 0 0.185464024543762207
1.14468932151794434 0 0.428469568490982056
3.91955351829528809 0 0.447118848562240601
3.69291210174560547 0 0.331270188093185425
4.06197929382324219 0 0.138162374496459961
2.43591523170471191 0 0.352655500173568726
3.69587445259094238 0 0.153024554252624512
3.78564834594726562 0 0.331086099147796631
2.38587188720703125 0 0.257118672132492065
3.88265419006347656 0 0.413678109645843506
1.85564947128295898 0 0.403716623783111572
3.77137541770935059 0 0.373143762350082397
1.327362060546875 0 0.411967039108276367
1.96851801872253418 0 0.326482325792312622
1.24353504180908203 0 0.398399472236633301
2.44758749008178711 0 0.356411218643188477
2.19149398803710938 0 0.457671374082565308
3.830810546875 0 0.2074107825756073
3.72221732139587402 0 0.389375358819961548
2.59886789321899414 0 0.254172533750534058
2.83515524864196777 0 0.170082032680511475
3.04761338233947754 0 0.271513581275939941
2.56472110748291016 0 0.339044034481048584
1.32474350929260254 0 0.478367388248443604
3.60667061805725098 0 0.454744398593902588
1.76453351974487305 0 0.291217625141143799
2.79124307632446289 0 0.437154293060302734
3.720367431640625 0 0.342364907264709473
2.84187912940979004 0 0.454166710376739502
2.92906904220581055 0 0.288799762725830078
1.91203522682189941 0 0.373456448316574097
3.68543028831481934 0 0.465631008148193359
2.77715921401977539 0 0.367000848054885864
3.78626632690429688 0 0.289325505495071411
2.63372802734375 0 0.456714034080505371
0.372598648071289062 0 0.472919374704360962
1.09824585914611816 0 0.48668709397315979
3.75971364974975586 0 0.497988224029541016
0.767210245132446289 0 0.43504786491394043
2.18635082244873047 0 0.496081650257110596
2.8063514232635498 0 0.443859457969665527
4.01040792465209961 0 0.363612830638885498
3.11458349227905273 0 0.207134276628494263
2.8393397331237793 0 0.403712213039398193
2.07072591781616211 0 0.411329388618469238
2.71265196800231934 0 0.344505816698074341
2.65813350677490234 0 0.419247806072235107
3.87721681594848633 0 0.49190714955329895
3.64876198768615723 0 0.266882091760635376
3.42696022987365723 0 0.319549560546875
1.23990726470947266 0 0.441649258136749268
3.47277498245239258 0 0.142326474189758301
2.36061382293701172 0 0.345416665077209473
2.16558265686035156 0 0.486916601657867432
3.20346164703369141 0 0.480147123336791992
2.68937826156616211 0 0.189754128456115723
3.94733357429504395 0 0.254856377840042114
4.06260395050048828 0 0.170087605714797974
1.38189935684204102 0 0.39841189980506897
1.42680025100708008 0 0.351335823535919189
2.80325102806091309 0 0.230508357286453247
2.50911235809326172 0 0.292401611804962158
1.93461370468139648 0 0.276018977165222168
3.47308969497680664 0 0.123783499002456665
1.16544485092163086 0 0.409677088260650635
2.21244525909423828 0 0.419815659523010254
3.75222682952880859 0 0.120650947093963623
1.50026917457580566 0 0.474320173263549805
2.87863397598266602 0 0.276269197463989258
3.29124975204467773 0 0.436072230339050293
1.59329128265380859 0 0.32837986946105957
3.69689035415649414 0 0.157181501388549805
4.08190441131591797 0 0.0220391154289245605
1.99639749526977539 0 0.361249715089797974
3.64344406127929688 0 0.352109044790267944
2.88676929473876953 0 0.455934524536132812
1.86634254455566406 0 0.306976974010467529
3.82799696922302246 0 0.219020456075668335
2.14924430847167969 0 0.338782310485839844
3.92526674270629883 0 0.214492827653884888
0.924283742904663086 0 0.403333336114883423
0.953234672546386719 0 0.444861412048339844
1.99044704437255859 0 0.440382391214370728
2.12800455093383789 0 0.402957260608673096
4.05827856063842773 0 0.0169576108455657959
3.66346287727355957 0 0.452982306480407715
3.73029017448425293 0 0.44759783148765564
2.40567350387573242 0 0.22505950927734375
3.68676328659057617 0 0.0747459530830383301
4.11154508590698242 0 0.0353052914142608643
2.63347768783569336 0 0.397649586200714111
2.17708635330200195 0 0.374499022960662842
3.5432898998260498 0 0.086938709020614624
1.45372343063354492 0 0.326740890741348267
1.24630475044250488 0 0.453381866216659546
3.43909835815429688 0 0.412045598030090332
2.36890387535095215 0 0.499794751405715942
2.54483318328857422 0 0.295302331447601318
4.10415410995483398 0 0.465710252523422241
1.28676581382751465 0 0.424814343452453613
3.34337162971496582 0 0.332429111003875732
3.5132906436920166 0 0.324926406145095825
3.9087226390838623 0 0.412835955619812012
2.38412809371948242 0 0.4087027907371521
2.56472682952880859 0 0.256817162036895752
3.52320146560668945 0 0.40854179859161377
3.53268814086914062 0 0.133336961269378662
1.98950839042663574 0 0.441231071949005127
2.70413589477539062 0 0.371928036212921143
2.3709263801574707 0 0.355039894580841064
0.53140711784362793 0 0.465249091386795044
3.89330720901489258 0 0.0653013885021209717
2.7252345085144043 0 0.169588238000869751
3.39864587783813477 0 0.226292163133621216
3.6897590160369873 0 0.402028560638427734
2.9926295280456543 0 0.377281367778778076
0.475466251373291016 0 0.481746196746826172
3.39736843109130859 0 0.145863324403762817
0.488889455795288086 0 0.493944317102432251
3.69527816772460938 0 0.217834144830703735
2.20281553268432617 0 0.244364410638809204
1.67404341697692871 0 0.338062644004821777
3.96910643577575684 0 0.116684913635253906
3.65678143501281738 0 0.05974578857421875
3.53857803344726562 0 0.336790651082992554
3.25790524482727051 0 0.289107143878936768
3.49413347244262695 0 0.148532718420028687
3.63181614875793457 0 0.358727693557739258
3.99347591400146484 0 0.45241132378578186
3.1439511775970459 0 0.349437117576599121
3.69559168815612793 0 0.085087209939956665
3.47155237197875977 0 0.476805567741394043
3.49045944213867188 0 0.3401336669921875
1.52294325828552246 0 0.450452297925949097
2.04821062088012695 0 0.331287413835525513
3.32125282287597656 0 0.221366554498672485
3.36015963554382324 0 0.162864089012145996
1.92099690437316895 0 0.358417242765426636
3.10494375228881836 0 0.138665467500686646
2.15266752243041992 0 0.3417777419090271
4.04876422882080078 0 0.374515920877456665
1.83677339553833008 0 0.448150336742401123
2.17529726028442383 0 0.445101648569107056
3.70972776412963867 0 0.207797795534133911
1.89607882499694824 0 0.401464551687240601
1.06182694435119629 0 0.412500560283660889
3.43665647506713867 0 0.133042186498641968
1.58276724815368652 0 0.432398200035095215
2.96402311325073242 0 0.300881743431091309
2.2700507640838623 0 0.370361834764480591
1.63013195991516113 0 0.483364731073379517
3.5613715648651123 0 0.447898507118225098
4.0663299560546875 0 0.0489712655544281006
3.37363982200622559 0 0.226345270872116089
2.08617281913757324 0 0.246802210807800293
4.09635257720947266 0 0.296520769596099854
2.46607542037963867 0 0.472749590873718262
2.50773215293884277 0 0.227695763111114502
2.31116628646850586 0 0.48068729043006897
3.3098297119140625 0 0.292752385139465332
1.97688484191894531 0 0.321130812168121338
2.21494960784912109 0 0.242439687252044678
3.91994333267211914 0 0.428758859634399414
3.74319148063659668 0 0.47656664252281189
3.15245985984802246 0 0.313880771398544312
2.52191638946533203 0 0.374421685934066772
3.38141250610351562 0 0.362908989191055298
1.48154711723327637 0 0.320508897304534912
3.08633232116699219 0 0.17595943808555603
3.85029268264770508 0 0.454631626605987549
2.2234950065612793 0 0.273435592651367188
2.61188602447509766 0 0.184544891119003296
3.78306889533996582 0 0.302701562643051147
3.74315118789672852 0 0.212973952293395996
2.48399639129638672 0 0.434810847043991089
0.466579198837280273 0 0.446878492832183838
3.15650844573974609 0 0.25985419750213623
2.5173954963684082 0 0.489590317010879517
3.72421050071716309 0 0.452878445386886597
3.87775063514709473 0 0.089562833309173584
3.71198606491088867 0 0.33694988489151001
2.659942626953125 0 0.281219601631164551
2.04009294509887695 0 0.289354562759399414
3.3552699089050293 0 0.470726937055587769
3.42418670654296875 0 0.46933513879776001
3.37781476974487305 0 0.382300436496734619
4.03696107864379883 0 0.100255817174911499
1.37237954139709473 0 0.392930686473846436
2.98275518417358398 0 0.425234854221343994
2.26819276809692383 0 0.367853462696075439
3.9137873649597168 0 0.295382589101791382
2.27196526527404785 0 0.427430033683776855
2.16297698020935059 0 0.407760143280029297
2.87191891670227051 0 0.373569667339324951
3.97659564018249512 0 0.297991007566452026
0.994488239288330078 0 0.425114035606384277
3.55515956878662109 0 0.408427536487579346
3.3870391845703125 0 0.362848490476608276
2.64819574356079102 0 0.316643714904785156
3.8060462474822998 0 0.0901074707508087158
1.44176983833312988 0 0.488112837076187134
3.66436266899108887 0 0.309617578983306885
2.20273089408874512 0 0.444667071104049683
4.02092599868774414 0 0.247848659753799438
4.01531410217285156 0 0.0842181742191314697
1.84771418571472168 0 0.411379396915435791
2.26002979278564453 0 0.327063441276550293
2.62832903861999512 0 0.334838807582855225
3.98067879676818848 0 0.261130779981613159
3.62845611572265625 0 0.143586248159408569
4.10670328140258789 0 0.309514164924621582
2.92971611022949219 0 0.187192082405090332
3.52502560615539551 0 0.334463000297546387
3.82792472839355469 0 0.205933868885040283
3.05011320114135742 0 0.399309724569320679
1.31122446060180664 0 0.408294081687927246
3.37125849723815918 0 0.452065199613571167
3.85926413536071777 0 0.041656494140625
3.00916719436645508 0 0.410395145416259766
3.72071671485900879 0 0.395320922136306763
2.47215461730957031 0 0.334957897663116455
1.85840344429016113 0 0.430803835391998291
3.12317800521850586 0 0.33201366662979126
2.42369413375854492 0 0.495742887258529663
2.6335759162902832 0 0.446964472532272339
3.10436582565307617 0 0.32437974214553833
2.95531368255615234 0 0.148736119270324707
3.58328962326049805 0 0.166390925645828247
0.977198600769042969 0 0.423304587602615356
2.8683929443359375 0 0.185059845447540283
3.47975444793701172 0 0.230418294668197632
2.86977553367614746 0 0.279129922389984131
1.17595362663269043 0 0.369947254657745361
3.99239730834960938 0 0.419720709323883057
3.48436951637268066 0 0.366194784641265869
3.36447811126708984 0 0.153361707925796509
3.95481228828430176 0 0.155722320079803467
2.6944880485534668 0 0.412060141563415527
3.12766385078430176 0 0.364174485206604004
1.41140484809875488 0 0.492445170879364014
1.15094614028930664 0 0.46717303991317749
2.96446466445922852 0 0.163859516382217407
3.2061915397644043 0 0.306287556886672974
1.10263252258300781 0 0.486023813486099243
2.90633583068847656 0 0.411947280168533325
3.39544129371643066 0 0.42303997278213501
3.25529003143310547 0 0.313981056213378906
3.19142317771911621 0 0.386113882064819336
4.05981206893920898 0 0.443690836429595947
1.2588493824005127 0 0.38911592960357666
3.55309677124023438 0 0.233975023031234741
3.26618242263793945 0 0.432601183652877808
2.21291637420654297 0 0.478054910898208618
3.79009890556335449 0 0.269621789455413818
3.95541810989379883 0 0.152575969696044922
2.9026799201965332 0 0.383955836296081543
3.44643020629882812 0 0.122068345546722412
1.97160005569458008 0 0.471182435750961304
3.08134889602661133 0 0.457146316766738892
1.71556591987609863 0 0.444525420665740967
3.91685819625854492 0 0.465741842985153198
1.45926618576049805 0 0.473095148801803589
3.71010732650756836 0 0.4907875657081604
3.58209323883056641 0 0.132482975721359253
4.06892824172973633 0 0.143656700849533081
3.23624491691589355 0 0.322623193264007568
3.92303371429443359 0 0.0648160874843597412
3.50426793098449707 0 0.366093873977661133
3.70961523056030273 0 0.186147898435592651
3.84824609756469727 0 0.242690712213516235
2.70010590553283691 0 0.230324625968933105
4.09290504455566406 0 0.336479067802429199
4.00791692733764648 0 0.376612335443496704
2.29917359352111816 0 0.405258148908615112
4.00014400482177734 0 0.222581148147583008
3.22694492340087891 0 0.367631673812866211
2.69483184814453125 0 0.297032773494720459
0.580888509750366211 0 0.475018084049224854
1.53333902359008789 0 0.455357998609542847
3.90590524673461914 0 0.275044262409210205
3.69950652122497559 0 0.461099565029144287
3.43619012832641602 0 0.439918190240859985
3.84595322608947754 0 0.304195284843444824
4.05673456192016602 0 0.433076232671737671
0.551184654235839844 0 0.481517970561981201
1.02522873878479004 0 0.394016295671463013
3.81424427032470703 0 0.164441227912902832
3.50255537033081055 0 0.43686288595199585
1.50247716903686523 0 0.378018558025360107
2.35254430770874023 0 0.468513578176498413
2.5054619312286377 0 0.235907405614852905
2.14736366271972656 0 0.252878725528717041
3.00684189796447754 0 0.220243215560913086
2.34379386901855469 0 0.224054664373397827
3.73594546318054199 0 0.378733575344085693
3.64440751075744629 0 0.082133561372756958
3.40157747268676758 0 0.154997825622558594
3.14751768112182617 0 0.429603487253189087
3.17348766326904297 0 0.478624284267425537
1.85761475563049316 0 0.364852964878082275
1.55694937705993652 0 0.463946610689163208
3.68487453460693359 0 0.368408501148223877
2.56640291213989258 0 0.278372913599014282
2.1099083423614502 0 0.354992121458053589
2.87564659118652344 0 0.210206151008605957
2.84375333786010742 0 0.433440536260604858
2.89462709426879883 0 0.262370854616165161
3.30338716506958008 0 0.437949299812316895
3.76564741134643555 0 0.411971420049667358
0.44004058837890625 0 0.486830562353134155
3.15456247329711914 0 0.49810558557510376
3.46052432060241699 0 0.20316845178604126
3.00017428398132324 0 0.295889198780059814
3.71262574195861816 0 0.264040291309356689
1.76369357109069824 0 0.459146052598953247
2.56607389450073242 0 0.346160054206848145
2.10983586311340332 0 0.432089447975158691
3.71508026123046875 0 0.237191766500473022
1.00885677337646484 0 0.491424441337585449
2.71257209777832031 0 0.360733777284622192
2.62840533256530762 0 0.433767437934875488
3.29961800575256348 0 0.265936493873596191
3.69695234298706055 0 0.14358171820640564
3.18609619140625 0 0.252798199653625488
3.7393336296081543 0 0.0637654960155487061
1.43781590461730957 0 0.485304057598114014
2.4093017578125 0 0.470980048179626465
3.83772611618041992 0 0.417852997779846191
0.859688520431518555 0 0.499756932258605957
3.93416333198547363 0 0.152162551879882812
3.82149195671081543 0 0.185827702283859253
3.04223155975341797 0 0.432871997356414795
2.13828468322753906 0 0.284639060497283936
2.08636164665222168 0 0.352925479412078857
3.34326577186584473 0 0.181227773427963257
2.4132993221282959 0 0.358769059181213379
1.5454099178314209 0 0.314607828855514526
3.52766609191894531 0 0.465219259262084961
2.41911554336547852 0 0.351261168718338013
2.06000447273254395 0 0.474161922931671143
2.47174406051635742 0 0.206535905599594116
3.63049530982971191 0 0.142355650663375854
4.07783699035644531 0 0.452658563852310181
3.93616604804992676 0 0.429684698581695557
2.8222041130065918 0 0.22393345832824707
3.25885534286499023 0 0.303517550230026245
3.89890837669372559 0 0.180645734071731567
2.61434578895568848 0 0.433575659990310669
3.93659543991088867 0 0.0806048810482025146
4.08825540542602539 0 0.464431583881378174
3.87831020355224609 0 0.204155504703521729
2.2727663516998291 0 0.227277249097824097
0.927663326263427734 0 0.403560519218444824
2.3985750675201416 0 0.404995232820510864
2.80381584167480469 0 0.383240461349487305
1.6912846565246582 0 0.450435996055603027
0.756265878677368164 0 0.491325438022613525
3.58353519439697266 0 0.0834449529647827148
2.69036245346069336 0 0.184464305639266968
2.78175258636474609 0 0.421811908483505249
1.76955151557922363 0 0.309574306011199951
2.3624870777130127 0 0.468051165342330933
2.73493766784667969 0 0.492331475019454956
3.73493242263793945 0 0.226843535900115967
4.05205631256103516 0 0.343730628490447998
2.76843976974487305 0 0.2940177321434021
3.4048006534576416 0 0.16593441367149353
2.21108341217041016 0 0.301225423812866211
3.49559307098388672 0 0.344304978847503662
1.29352211952209473 0 0.378277361392974854
1.37956666946411133 0 0.434820234775543213
2.24535560607910156 0 0.473895102739334106
0.131361246109008789 0 0.489567697048187256
1.79064750671386719 0 0.311772942543029785
3.00160646438598633 0 0.37359166145324707
2.23530435562133789 0 0.320381015539169312
1.15185332298278809 0 0.470910131931304932
2.76815176010131836 0 0.164893746376037598
2.80256938934326172 0 0.399572163820266724
3.64667224884033203 0 0.143461167812347412
0.793650150299072266 0 0.465424478054046631
3.25408649444580078 0 0.135188639163970947
2.55945396423339844 0 0.27817004919052124
2.16860198974609375 0 0.254636287689208984
3.22675395011901855 0 0.321454226970672607
3.22301864624023438 0 0.388521939516067505
3.33250045776367188 0 0.263375043869018555
2.30686712265014648 0 0.368155777454376221
3.22671294212341309 0 0.238997817039489746
3.93896341323852539 0 0.0588994324207305908
2.0741584300994873 0 0.280090153217315674
2.82169437408447266 0 0.25894734263420105
2.9908297061920166 0 0.201593399047851562
1.75008225440979004 0 0.38405182957649231
2.07415652275085449 0 0.280260920524597168
3.85683512687683105 0 0.333657801151275635
2.46343302726745605 0 0.459687918424606323
1.43119978904724121 0 0.476204127073287964
2.99360895156860352 0 0.41689571738243103
1.18789005279541016 0 0.387778043746948242
3.71154379844665527 0 0.413755983114242554
3.9083411693572998 0 0.349656641483306885
3.22243547439575195 0 0.266483128070831299
3.43581867218017578 0 0.10305824875831604
3.38279151916503906 0 0.440227389335632324
3.72866153717041016 0 0.495473355054855347
2.64857292175292969 0 0.327816426753997803
2.49495267868041992 0 0.204071074724197388
3.75879669189453125 0 0.0821991264820098877
3.67510724067687988 0 0.365971028804779053
3.00561618804931641 0 0.203007370233535767
3.58880853652954102 0 0.184076845645904541
1.86878418922424316 0 0.465847700834274292
3.05515670776367188 0 0.326739192008972168
3.23988127708435059 0 0.311843156814575195
3.19080042839050293 0 0.467063307762145996
3.71882772445678711 0 0.293142557144165039
3.9466700553894043 0 0.126802325248718262
2.59549808502197266 0 0.386416912078857422
2.40447497367858887 0 0.372827112674713135
3.9960319995880127 0 0.0754857063293457031
2.02768445014953613 0 0.340816974639892578
3.79171872138977051 0 0.0877087414264678955
2.95721626281738281 0 0.203577578067779541
3.26978087425231934 0 0.202201396226882935
3.38668251037597656 0 0.231540113687515259
0.878793716430664062 0 0.496057629585266113
2.59009122848510742 0 0.29875028133392334
1.61616778373718262 0 0.432003200054168701
3.51395845413208008 0 0.433662533760070801
3.73223042488098145 0 0.133875221014022827
2.51001358032226562 0 0.227824181318283081
3.22567629814147949 0 0.185577332973480225
2.51875638961791992 0 0.274575769901275635
2.49800205230712891 0 0.233845889568328857
2.55388236045837402 0 0.297709882259368896
3.38455438613891602 0 0.271417468786239624
1.09371352195739746 0 0.460861563682556152
4.08042049407958984 0 0.272576600313186646
1.55846738815307617 0 0.409182488918304443
1.59537124633789062 0 0.347890853881835938
0.658204317092895508 0 0.499693334102630615
1.87281370162963867 0 0.432397007942199707
3.51979541778564453 0 0.275740444660186768
2.05931210517883301 0 0.492492526769638062
3.9398047924041748 0 0.425492167472839355
3.50817203521728516 0 0.215335667133331299
3.19830679893493652 0 0.370246589183807373
3.1153416633605957 0 0.125263422727584839
3.91870331764221191 0 0.269465446472167969
4.10599899291992188 0 0.0195609331130981445
3.05149078369140625 0 0.133000314235687256
1.09948325157165527 0 0.434132933616638184
3.10314846038818359 0 0.349828720092773438
3.85587024688720703 0 0.0388236045837402344
3.90821123123168945 0 0.28286588191986084
3.88599872589111328 0 0.101045548915863037
3.41041183471679688 0 0.423588871955871582
2.2303776741027832 0 0.413939118385314941
2.79834890365600586 0 0.229982942342758179
2.30995917320251465 0 0.467897295951843262
2.46574115753173828 0 0.431744754314422607
2.19375228881835938 0 0.25332266092300415
3.54653501510620117 0 0.248214244842529297
3.90824460983276367 0 0.21312326192855835
1.22609448432922363 0 0.448535740375518799
3.84497976303100586 0 0.111773639917373657
3.93873977661132812 0 0.274102210998535156
1.3844599723815918 0 0.418630123138427734
3.07216787338256836 0 0.364503949880599976
2.65409588813781738 0 0.194750726222991943
2.48695135116577148 0 0.375716090202331543
3.61148452758789062 0 0.0711533725261688232
4.11399984359741211 0.285168737173080444 0.367880493402481079
4.11399984359741211 0.223865598440170288 0.0915351882576942444
4.11399984359741211 0.413150161504745483 0.153006866574287415
4.11399984359741211 0.580188393592834473 0.09088115394115448
4.11399984359741211 0.451981216669082642 0.247348546981811523
4.11399984359741211 0.871986329555511475 0.100312203168869019
4.11399984359741211 0.157961547374725342 0.348463833332061768
4.11399984359741211 0.122562035918235779 0.063488885760307312
4.11399984359741211 0.200756266713142395 0.315366983413696289
4.11399984359741211 0.248971417546272278 0.246996685862541199
4.11399984359741211 0.550174176692962646 0.067440226674079895
4.11399984359741211 0.608435094356536865 0.239538222551345825
4.11399984359741211 0.0379667021334171295 0.184467226266860962
4.11399984359741211 0.485313147306442261 0.166537955403327942
4.11399984359741211 0.225524663925170898 0.0744731053709983826
4.11399984359741211 0.226214438676834106 0.0871708691120147705
4.11399984359741211 0.40385165810585022 0.152993440628051758
4.11399984359741211 0.128692790865898132 0.340666502714157104
4.11399984359741211 0.656283736228942871 0.0854661166667938232
4.11399984359741211 0.387712150812149048 0.108672842383384705
4.11399984359741211 0.0893632844090461731 0.353375554084777832
4.11399984359741211 0.117293499410152435 0.0855566561222076416
4.11399984359741211 0.225160330533981323 0.326792418956756592
4.11399984359741211 0.248751267790794373 0.34505656361579895
4.11399984359741211 0.193921312689781189 0.233193159103393555
4.11399984359741211 0.193290144205093384 0.215591758489608765
4.11399984359741211 0.334944605827331543 0.29888501763343811
4.11399984359741211 0.703304767608642578 0.0762878954410552979
4.11399984359741211 0.329691022634506226 0.276100337505340576
4.11399984359741211 0.716843068599700928 0.0377847552299499512
4.11399984359741211 0.221510276198387146 0.0409205853939056396
4.11399984359741211 0.0872286558151245117 0.145047128200531006
4.11399984359741211 0.960647404193878174 0.0337742865085601807
4.11399984359741211 0.50020211935043335 0.0743087083101272583
4.11399984359741211 0.380571424961090088 0.251156359910964966
4.11399984359741211 0.25419306755065918 0.0463120788335800171
4.11399984359741211 0.517124712467193604 0.0961748063564300537
4.11399984359741211 0.139367848634719849 0.434303969144821167
4.11399984359741211 0.102000914514064789 0.162396818399429321
4.11399984359741211 0.182234823703765869 0.112808689475059509
4.11399984359741211 0.0612084493041038513 0.436307668685913086
4.11399984359741211 0.123803496360778809 0.074011676013469696
4.11399984359741211 0.310748904943466187 0.164671704173088074
4.11399984359741211 0.0505315698683261871 0.0822533220052719116
4.11399984359741211 0.744660913944244385 0.104841828346252441
4.11399984359741211 0.248259261250495911 0.207167923450469971
4.11399984359741211 0.21072639524936676 0.185025498270988464
4.11399984359741211 0.0890435278415679932 0.254394441843032837
4.11399984359741211 0.10839419811964035 0.145196422934532166
4.11399984359741211 0.149657860398292542 0.296057999134063721
4.11399984359741211 0.398762702941894531 0.197099432349205017
4.11399984359741211 0.24582943320274353 0.33469158411026001
4.11399984359741211 0.372073143720626831 0.177844658493995667
4.11399984359741211 0.878709137439727783 0.130880773067474365
4.11399984359741211 0.390219897031784058 0.172670677304267883
4.11399984359741211 0.269201368093490601 0.191300749778747559
4.11399984359741211 0.907223403453826904 0.105982333421707153
4.11399984359741211 0.375022977590560913 0.201902657747268677
4.11399984359741211 0.764496028423309326 0.125714987516403198
4.11399984359741211 0.632581830024719238 0.148297280073165894
4.11399984359741211 0.486707180738449097 0.0257186740636825562
4.11399984359741211 0.987629950046539307 0.0185005068778991699
4.11399984359741211 0.320078343152999878 0.264428377151489258
4.11399984359741211 0.657382428646087646 0.112816959619522095
4.11399984359741211 0.412483125925064087 0.075111091136932373
4.11399984359741211 0.370406001806259155 0.0245534777641296387
4.11399984359741211 0.347185999155044556 0.142821460962295532
4.11399984359741211 0.509127557277679443 0.150910019874572754
4.11399984359741211 0.509207546710968018 0.1123637855052948
4.11399984359741211 0.732110679149627686 0.17569887638092041
4.11399984359741211 0.560912191867828369 0.0661609023809432983
4.11399984359741211 0.773394644260406494 0.115210354328155518
4.11399984359741211 0.127629414200782776 0.409636795520782471
4.11399984359741211 0.0942256525158882141 0.328666716814041138
4.11399984359741211 0.0844150930643081665 0.391242265701293945
4.11399984359741211 0.953952968120574951 0.0631222724914550781
4.11399984359741211 0.113777503371238708 0.169402182102203369
4.11399984359741211 0.757306516170501709 0.105731189250946045
4.11399984359741211 0.163224473595619202 0.392845332622528076
4.11399984359741211 0.261842966079711914 0.370633721351623535
4.11399984359741211 0.555058538913726807 0.184645339846611023
4.11399984359741211 0.495185226202011108 0.264473080635070801
4.11399984359741211 0.69798743724822998 0.0957310199737548828
4.11399984359741211 0.178446084260940552 0.417616337537765503
4.11399984359741211 0.179013043642044067 0.257969766855239868
4.11399984359741211 0.285250872373580933 0.190123170614242554
4.11399984359741211 0.799114406108856201 0.0519217550754547119
4.11399984359741211 0.373493432998657227 0.340510845184326172
4.11399984359741211 0.411541014909744263 0.0936871469020843506
4.11399984359741211 1.01761507987976074 0.0393970608711242676
4.11399984359741211 0.858137607574462891 0.0683825910091400146
4.11399984359741211 0.243075132369995117 0.260729014873504639
4.11399984359741211 0.168999537825584412 0.154202818870544434
4.11399984359741211 0.311187088489532471 0.0495613962411880493
4.11399984359741211 0.25788542628288269 0.187228411436080933
4.11399984359741211 0.248104304075241089 0.17420293390750885
4.11399984359741211 0.769896805286407471 0.0266250371932983398
4.11399984359741211 0.365444451570510864 0.220280364155769348
4.11399984359741211 0.166351363062858582 0.00923864543437957764
4.11399984359741211 0.42381557822227478 0.124545633792877197
4.11399984359741211 0.194943800568580627 0.406453073024749756
4.11399984359741211 0.416087925434112549 0.0777675062417984009
4.11399984359741211 0.690101921558380127 0.043255925178527832
4.11399984359741211 0.0664036422967910767 0.342437684535980225
4.11399984359741211 0.0678029283881187439 0.306742608547210693
4.11399984359741211 0.128492504358291626 0.110988065600395203
4.11399984359741211 0.0276815462857484818 0.319661915302276611
4.11399984359741211 0.210529834032058716 0.156098365783691406
4.11399984359741211 0.464900404214859009 0.185649529099464417
4.11399984359741211 0.397703588008880615 0.0208589434623718262
4.11399984359741211 0.244981050491333008 0.021125398576259613
4.11399984359741211 0.176945194602012634 0.0832528769969940186
4.11399984359741211 0.42733427882194519 0.225395619869232178
4.11399984359741211 0.789719521999359131 0.159493327140808105
4.11399984359741211 0.177391007542610168 0.0422086417675018311
4.11399984359741211 0.343393474817276001 0.10531790554523468
4.11399984359741211 0.188390612602233887 0.241975978016853333
4.11399984359741211 0.722920596599578857 0.156755656003952026
4.11399984359741211 0.237202554941177368 0.173601150512695312
4.11399984359741211 0.186141505837440491 0.282679349184036255
4.11399984359741211 0.0370710976421833038 0.289584845304489136
4.11399984359741211 0.626997292041778564 0.09685555100440979
4.11399984359741211 0.496249556541442871 0.137117579579353333
4.11399984359741211 0.284210801124572754 0.14028659462928772
4.11399984359741211 0.316815674304962158 0.229897469282150269
4.11399984359741211 0.713512539863586426 0.130424290895462036
4.11399984359741211 0.128260135650634766 0.287956476211547852
4.11399984359741211 0.188846662640571594 0.162546858191490173
4.11399984359741211 0.397067099809646606 0.102845311164855957
4.11399984359741211 0.741945505142211914 0.173615187406539917
4.11399984359741211 0.292766720056533813 0.0498897060751914978
4.11399984359741211 0.0613270029425621033 0.349213838577270508
4.11399984359741211 0.975617468357086182 0.0277057290077209473
4.11399984359741211 0.213050872087478638 0.130059242248535156
4.11399984359741211 0.723549365997314453 0.135240525007247925
4.11399984359741211 0.0568699948489665985 0.287601351737976074
4.11399984359741211 0.504377901554107666 0.0653764158487319946
4.11399984359741211 0.196812942624092102 0.326835721731185913
4.11399984359741211 0.028375629335641861 0.0926052629947662354
4.11399984359741211 0.967111766338348389 0.0435148477554321289
4.11399984359741211 0.122156672179698944 0.28477826714515686
4.11399984359741211 0.214802637696266174 0.195178195834159851
4.11399984359741211 0.583039700984954834 0.131649896502494812
4.11399984359741211 0.668519675731658936 0.112390995025634766
4.11399984359741211 0.0418265685439109802 0.428858488798141479
4.11399984359741211 0.388867706060409546 0.299686193466186523
4.11399984359741211 0.563699483871459961 0.258762001991271973
4.11399984359741211 0.626686453819274902 0.228786200284957886
4.11399984359741211 0.699073553085327148 0.0396850705146789551
4.11399984359741211 0.0313708819448947906 0.395622521638870239
4.11399984359741211 0.0157791692763566971 0.160744667053222656
4.11399984359741211 0.395833224058151245 0.197209551930427551
4.11399984359741211 0.378573328256607056 0.189962312579154968
4.11399984359741211 0.769587874412536621 0.0962855219841003418
4.11399984359741211 0.814402163028717041 0.0272109806537628174
4.11399984359741211 0.0297086220234632492 0.0349876098334789276
4.11399984359741211 0.763789832592010498 0.102123886346817017
4.11399984359741211 0.404433637857437134 0.244510024785995483
4.11399984359741211 0.402609914541244507 0.146712437272071838
4.11399984359741211 0.260172665119171143 0.070328347384929657
4.11399984359741211 0.0812610983848571777 0.248030886054039001
4.11399984359741211 0.669031083583831787 0.149627178907394409
4.11399984359741211 0.495368212461471558 0.145716920495033264
4.11399984359741211 0.0139920273795723915 0.0850445106625556946
4.11399984359741211 0.951640307903289795 0.0924172103404998779
4.11399984359741211 0.660818636417388916 0.187070757150650024
4.11399984359741211 0.525014162063598633 0.105923190712928772
4.11399984359741211 0.0105827935039997101 0.25541234016418457
4.11399984359741211 0.808815538883209229 0.11299663782119751
4.11399984359741211 0.148044124245643616 0.170363396406173706
4.11399984359741211 0.158816426992416382 0.26281440258026123
4.11399984359741211 1.15758156776428223 0.0160587728023529053
4.11399984359741211 0.225082442164421082 0.263612687587738037
4.11399984359741211 1.10743176937103271 0.0205295681953430176
4.11399984359741211 0.387147665023803711 0.120062127709388733
4.11399984359741211 0.557396411895751953 0.249367788434028625
4.11399984359741211 0.464954167604446411 0.10478132963180542
4.11399984359741211 0.283386290073394775 0.378272056579589844
4.11399984359741211 0.0619285479187965393 0.150379002094268799
4.11399984359741211 0.481521308422088623 0.129812851548194885
4.11399984359741211 0.04941602423787117 0.093869626522064209
4.11399984359741211 1.00093960762023926 0.0589725077152252197
4.11399984359741211 0.255831450223922729 0.0250710025429725647
4.11399984359741211 0.0448518544435501099 0.203103885054588318
4.11399984359741211 0.142002448439598083 0.349557161331176758
4.11399984359741211 0.609359264373779297 0.176071792840957642
4.11399984359741211 0.579647541046142578 0.00209496915340423584
4.11399984359741211 0.0475529022514820099 0.292436122894287109
4.11399984359741211 0.240373536944389343 0.391705572605133057
4.11399984359741211 0.2202729731798172 0.110586993396282196
4.11399984359741211 0.136924415826797485 0.388142138719558716
4.11399984359741211 0.490412354469299316 0.00505359470844268799
4.11399984359741211 0.474212020635604858 0.216112479567527771
4.11399984359741211 0.127221882343292236 0.0150656476616859436
4.11399984359741211 0.0734347403049468994 0.108478695154190063
4.11399984359741211 0.721227705478668213 0.00340989232063293457
4.11399984359741211 0.359836876392364502 0.292908012866973877
4.11399984359741211 0.94260096549987793 0.396568357944488525
4.11399984359741211 0.725479960441589355 0.277755647897720337
4.11399984359741211 0.632688939571380615 0.444234669208526611
4.11399984359741211 0.555128216743469238 0.498382359743118286
4.11399984359741211 0.957978487014770508 0.364161193370819092
4.11399984359741211 0.975554585456848145 0.122526586055755615
4.11399984359741211 0.442053675651550293 0.493157744407653809
4.11399984359741211 1.0715482234954834 0.414539068937301636
4.11399984359741211 0.899906277656555176 0.47948649525642395
4.11399984359741211 0.931524932384490967 0.484513998031616211
4.11399984359741211 0.910012483596801758 0.236925214529037476
4.11399984359741211 0.69014739990234375 0.21794426441192627
4.11399984359741211 0.914976119995117188 0.46755450963973999
4.11399984359741211 0.559510111808776855 0.362835675477981567
4.11399984359741211 0.699649631977081299 0.233672201633453369
4.11399984359741211 0.437434494495391846 0.385316163301467896
4.11399984359741211 0.939747333526611328 0.213390201330184937
4.11399984359741211 1.13022768497467041 0.0841315984725952148
4.11399984359741211 1.11020529270172119 0.352807462215423584
4.11399984359741211 1.01161468029022217 0.422163844108581543
4.11399984359741211 0.992611348628997803 0.413105428218841553
4.11399984359741211 0.845335006713867188 0.172377139329910278
4.11399984359741211 0.69695591926574707 0.240298837423324585
4.11399984359741211 1.1996084451675415 0.0680129826068878174
4.11399984359741211 1.09299993515014648 0.276940226554870605
4.11399984359741211 0.848288416862487793 0.178397417068481445
4.11399984359741211 0.6877937912940979 0.416445642709732056
4.11399984359741211 0.487062811851501465 0.48743903636932373
4.11399984359741211 1.08542084693908691 0.470253348350524902
4.11399984359741211 0.775049567222595215 0.48763120174407959
4.11399984359741211 1.11652553081512451 0.317971557378768921
4.11399984359741211 0.33909374475479126 0.389007806777954102
4.11399984359741211 0.334317326545715332 0.38045966625213623
4.11399984359741211 0.174192667007446289 0.480499535799026489
4.11399984359741211 1.0686333179473877 0.486007422208786011
4.11399984359741211 0.255435645580291748 0.464461088180541992
4.11399984359741211 0.348161876201629639 0.359696269035339355
4.11399984359741211 0.355956494808197021 0.391313135623931885
4.11399984359741211 1.15268278121948242 0.0938087403774261475
4.11399984359741211 0.541471958160400391 0.3371257483959198
4.11399984359741211 1.01302635669708252 0.275561213493347168
4.11399984359741211 0.903117060661315918 0.193022608757019043
4.11399984359741211 0.800296902656555176 0.221233099699020386
4.11399984359741211 0.094857335090637207 0.493031352758407593
4.11399984359741211 0.448337674140930176 0.314109504222869873
4.11399984359741211 1.02906584739685059 0.481452494859695435
4.11399984359741211 1.19462287425994873 0.329156190156936646
4.11399984359741211 1.08522713184356689 0.298777252435684204
4.11399984359741211 0.595336675643920898 0.370250195264816284
4.11399984359741211 0.363096952438354492 0.406541347503662109
4.11399984359741211 0.760576844215393066 0.421261757612228394
4.11399984359741211 0.972122788429260254 0.120644807815551758
4.11399984359741211 1.19914543628692627 0.37524905800819397
4.11399984359741211 1.0970914363861084 0.330673813819885254
4.11399984359741211 0.853873133659362793 0.300549924373626709
4.11399984359741211 0.817842245101928711 0.49911189079284668
4.11399984359741211 0.165961265563964844 0.461456954479217529
4.11399984359741211 0.843491554260253906 0.160602927207946777
4.11399984359741211 0.937719941139221191 0.370614290237426758
4.11399984359741211 0.268206954002380371 0.450879305601119995
4.11399984359741211 0.596630752086639404 0.486513316631317139
4.11399984359741211 0.857517063617706299 0.497932374477386475
4.11399984359741211 0.848195433616638184 0.438154429197311401
4.11399984359741211 0.463588953018188477 0.477811455726623535
4.11399984359741211 0.987635254859924316 0.145476371049880981
4.11399984359741211 0.874266922473907471 0.438099920749664307
4.11399984359741211 0.901788949966430664 0.399525046348571777
4.11399984359741211 1.07906544208526611 0.1356467604637146
4.11399984359741211 0.965683579444885254 0.166585534811019897
4.11399984359741211 1.13804352283477783 0.303117811679840088
4.11399984359741211 1.11976873874664307 0.444612950086593628
4.11399984359741211 0.842801928520202637 0.159330457448959351
4.11399984359741211 1.06010663509368896 0.403112530708312988
4.11399984359741211 0.711110591888427734 0.304186969995498657
4.11399984359741211 0.924619317054748535 0.280377030372619629
4.11399984359741211 0.348192095756530762 0.366219788789749146
4.11399984359741211 0.992580831050872803 0.452702492475509644
4.11399984359741211 0.989470839500427246 0.316257208585739136
4.11399984359741211 0.468025267124176025 0.351165950298309326
4.11399984359741211 0.626301348209381104 0.4610939621925354
4.11399984359741211 1.03058707714080811 0.0721776485443115234
4.11399984359741211 0.170911669731140137 0.475241035223007202
4.11399984359741211 0.682240724563598633 0.217995375394821167
4.11399984359741211 0.882525444030761719 0.222538083791732788
4.11399984359741211 0.504523634910583496 0.396533042192459106
4.11399984359741211 1.17070817947387695 0.269091367721557617
4.11399984359741211 0.910803675651550293 0.40005764365196228
4.11399984359741211 0.993328332901000977 0.288826823234558105
4.11399984359741211 0.67836451530456543 0.461137562990188599
4.11399984359741211 0.93250662088394165 0.379501104354858398
4.11399984359741211 0.299419820308685303 0.400876253843307495
4.11399984359741211 0.0676150321960449219 0.475072354078292847
4.11399984359741211 0.706663250923156738 0.496740609407424927
4.11399984359741211 1.1973642110824585 0.188421547412872314
4.11399984359741211 0.463052153587341309 0.384597212076187134
4.11399984359741211 0.622100830078125 0.25426974892616272
4.11399984359741211 1.00725710391998291 0.306518673896789551
4.11399984359741211 1.19694900512695312 0.0508527755737304688
4.11399984359741211 1.11046242713928223 0.408125519752502441
4.11399984359741211 1.12435698509216309 0.463976532220840454
4.11399984359741211 0.944195687770843506 0.491715848445892334
4.11399984359741211 0.456460773944854736 0.400005131959915161
4.11399984359741211 1.14210224151611328 0.184323161840438843
4.11399984359741211 1.0964202880859375 0.317263782024383545
4.11399984359741211 0.951125204563140869 0.323765218257904053
4.11399984359741211 0.417930662631988525 0.454575151205062866
4.11399984359741211 0.312986910343170166 0.489661067724227905
4.11399984359741211 0.610110282897949219 0.337171226739883423
4.11399984359741211 0.981927871704101562 0.136347323656082153
4.11399984359741211 0.861244678497314453 0.177776426076889038
4.11399984359741211 0.990047216415405273 0.321021676063537598
4.11399984359741211 0.538024544715881348 0.343847155570983887
4.11399984359741211 0.863136529922485352 0.46423184871673584
4.11399984359741211 0.854845941066741943 0.420818328857421875
4.11399984359741211 0.554324507713317871 0.475969165563583374
4.11399984359741211 0.8907012939453125 0.147107392549514771
4.11399984359741211 1.04503762722015381 0.381265759468078613
4.11399984359741211 1.10615134239196777 0.390184879302978516
4.11399984359741211 0.861591815948486328 0.496204107999801636
4.11399984359741211 0.772345185279846191 0.239159345626831055
4.11399984359741211 0.334271430969238281 0.427509874105453491
4.11399984359741211 0.891852796077728271 0.156533986330032349
4.11399984359741211 0.91344749927520752 0.382747411727905273
4.11399984359741211 1.0543440580368042 0.466635078191757202
4.11399984359741211 0.544186115264892578 0.468032240867614746
4.11399984359741211 0.903005719184875488 0.381496638059616089
4.11399984359741211 1.12571310997009277 0.354322373867034912
4.11399984359741211 0.389480769634246826 0.499046653509140015
4.11399984359741211 0.876737475395202637 0.420408487319946289
4.11399984359741211 0.670712769031524658 0.464556366205215454
4.11399984359741211 0.932421267032623291 0.330554783344268799
4.11399984359741211 0.759857654571533203 0.27831721305847168
4.11399984359741211 1.19313597679138184 0.0456298887729644775
4.11399984359741211 0.906727015972137451 0.416265785694122314
4.11399984359741211 1.18828952312469482 0.398007392883300781
4.11399984359741211 0.583698868751525879 0.466320604085922241
4.11399984359741211 1.17997181415557861 0.350704073905944824
4.11399984359741211 0.903011798858642578 0.289743185043334961
4.11399984359741211 0.934462189674377441 0.433961689472198486
4.11399984359741211 0.930643618106842041 0.283372998237609863
4.11399984359741211 0.289653897285461426 0.480556309223175049
4.11399984359741211 0.92818450927734375 0.179380267858505249
4.11399984359741211 0.606749534606933594 0.401406377553939819
4.11399984359741211 1.00309324264526367 0.168574005365371704
4.11399984359741211 0.814539730548858643 0.266906201839447021
4.11399984359741211 1.19382727146148682 0.181982994079589844
