ply
format ascii 1.0
element vertex 727
property float x
property float y
property float z
end_header
9.99200722162640886e-16 2.46466779708862305 0.0740814954042434692
9.99200722162640886e-16 1.75377583503723145 0.0448546409606933594
9.99200722162640886e-16 3.36095380783081055 0.00449505448341369629
9.99200722162640886e-16 1.48348140716552734 0.0492630451917648315
9.99200722162640886e-16 3.59685802459716797 0.150065839290618896
9.99200722162640886e-16 2.15069770812988281 0.000931046903133392334
9.99200722162640886e-16 2.78654265403747559 0.0894963815808296204
9.99200722162640886e-16 2.9489891529083252 0.0787459313869476318
9.99200722162640886e-16 1.44334030151367188 0.0212364494800567627
9.99200722162640886e-16 2.0212101936340332 0.0574584305286407471
9.99200722162640886e-16 1.65505671501159668 0.058705747127532959
9.99200722162640886e-16 1.17759013175964355 0.0471298396587371826
9.99200722162640886e-16 2.65429353713989258 0.0713915228843688965
9.99200722162640886e-16 1.84433197975158691 0.0738565102219581604
9.99200722162640886e-16 0.685348749160766602 0.0285838842391967773
9.99200722162640886e-16 3.44689321517944336 0.0953520387411117554
9.99200722162640886e-16 3.41762661933898926 0.0575299635529518127
9.99200722162640886e-16 1.81394660472869873 0.0336694344878196716
9.99200722162640886e-16 3.14758062362670898 0.0958154276013374329
9.99200722162640886e-16 1.79543209075927734 0.0229662880301475525
9.99200722162640886e-16 0.406952857971191406 0.00123879313468933105
9.99200722162640886e-16 0.641331195831298828 0.00898876786231994629
9.99200722162640886e-16 3.28689217567443848 0.0467351227998733521
9.99200722162640886e-16 2.46289229393005371 0.101386770606040955
9.99200722162640886e-16 3.24128365516662598 0.0802341252565383911
9.99200722162640886e-16 2.42131805419921875 0.0547873862087726593
9.99200722162640886e-16 3.54807448387145996 0.0973780229687690735
9.99200722162640886e-16 2.09517955780029297 0.0295465812087059021
9.99200722162640886e-16 3.55304574966430664 0.0146713349968194962
9.99200722162640886e-16 2.54769372940063477 0.043403279036283493
9.99200722162640886e-16 2.45074081420898438 0.0662560462951660156
9.99200722162640886e-16 1.2933661937713623 0.0420490875840187073
9.99200722162640886e-16 3.51706790924072266 0.126898959279060364
9.99200722162640886e-16 2.70573949813842773 0.0665780007839202881
9.99200722162640886e-16 3.44415092468261719 0.0778810977935791016
9.99200722162640886e-16 3.24860739707946777 0.0126782078295946121
9.99200722162640886e-16 1.48794674873352051 0.036715582013130188
9.99200722162640886e-16 2.76350116729736328 0.0740341395139694214
9.99200722162640886e-16 0.525213956832885742 0.0194791257381439209
9.99200722162640886e-16 3.04777669906616211 0.0607925355434417725
9.99200722162640886e-16 2.69301319122314453 0.0916133224964141846
9.99200722162640886e-16 1.03063392639160156 0.0033483356237411499
9.99200722162640886e-16 3.63614654541015625 0.133281990885734558
9.99200722162640886e-16 1.52138257026672363 0.0495420098304748535
9.99200722162640886e-16 3.2687067985534668 0.0834946781396865845
9.99200722162640886e-16 2.33709192276000977 0.0690104514360427856
9.99200722162640886e-16 1.33789300918579102 0.0223548039793968201
9.99200722162640886e-16 3.02829599380493164 0.0724518671631813049
9.99200722162640886e-16 3.19214010238647461 0.107630901038646698
9.99200722162640886e-16 2.93915915489196777 0.0585006847977638245
9.99200722162640886e-16 2.42024993896484375 0.0494501590728759766
9.99200722162640886e-16 3.16449666023254395 0.0504306629300117493
9.99200722162640886e-16 2.61674737930297852 0.0924299806356430054
9.99200722162640886e-16 2.13259696960449219 0.0889149382710456848
9.99200722162640886e-16 2.68205118179321289 0.0457502305507659912
9.99200722162640886e-16 3.60202503204345703 0.12880939245223999
9.99200722162640886e-16 1.68289732933044434 0.0409519746899604797
9.99200722162640886e-16 0.969958305358886719 0.0249821320176124573
9.99200722162640886e-16 3.0631403923034668 0.0632743388414382935
9.99200722162640886e-16 3.34564065933227539 0.143703967332839966
9.99200722162640886e-16 2.24001908302307129 0.0834745392203330994
9.99200722162640886e-16 2.02364969253540039 0.0732009261846542358
9.99200722162640886e-16 2.05043935775756836 0.062231898307800293
9.99200722162640886e-16 2.96674108505249023 0.0576923787593841553
9.99200722162640886e-16 2.78786516189575195 0.0492432825267314911
9.99200722162640886e-16 3.07472133636474609 0.0535918138921260834
9.99200722162640886e-16 3.219268798828125 0.105231486260890961
9.99200722162640886e-16 3.66486716270446777 0.00581172481179237366
9.99200722162640886e-16 2.2613985538482666 0.0865822508931159973
9.99200722162640886e-16 1.10261321067810059 0.0337720364332199097
9.99200722162640886e-16 3.14298391342163086 0.083731435239315033
9.99200722162640886e-16 3.64827919006347656 0.0352640450000762939
9.99200722162640886e-16 3.10220766067504883 0.00549604929983615875
9.99200722162640886e-16 2.96919679641723633 0.00861565396189689636
9.99200722162640886e-16 2.31748390197753906 0.0815280824899673462
9.99200722162640886e-16 3.23129820823669434 0.102379195392131805
9.99200722162640886e-16 3.67494821548461914 0.0871966332197189331
9.99200722162640886e-16 2.38551139831542969 0.0708943605422973633
9.99200722162640886e-16 2.47132968902587891 0.00393013283610343933
9.99200722162640886e-16 3.66327548027038574 0.0568100437521934509
9.99200722162640886e-16 2.73315143585205078 0.0473320111632347107
9.99200722162640886e-16 2.6443488597869873 0.0701482445001602173
9.99200722162640886e-16 3.14250802993774414 0.100954554975032806
9.99200722162640886e-16 0.315080881118774414 0.00868248939514160156
9.99200722162640886e-16 3.58364295959472656 0.0715076848864555359
9.99200722162640886e-16 3.47181320190429688 0.0310089085251092911
9.99200722162640886e-16 0.567824602127075195 0.0157333463430404663
9.99200722162640886e-16 1.45835041999816895 0.0215845257043838501
9.99200722162640886e-16 2.53937530517578125 0.0171205811202526093
9.99200722162640886e-16 2.60842704772949219 0.0796422585844993591
9.99200722162640886e-16 2.55710124969482422 0.0753982290625572205
9.99200722162640886e-16 3.57834291458129883 0.153973758220672607
9.99200722162640886e-16 2.97977709770202637 0.0487932562828063965
9.99200722162640886e-16 3.27132225036621094 0.00108401477336883545
9.99200722162640886e-16 3.16121602058410645 0.0316037237644195557
9.99200722162640886e-16 1.24847221374511719 0.0449740141630172729
9.99200722162640886e-16 2.96606135368347168 0.0487331897020339966
9.99200722162640886e-16 1.15601778030395508 0.0152273029088973999
9.99200722162640886e-16 1.80595767498016357 0.0775437429547309875
9.99200722162640886e-16 2.73026800155639648 0.0603456422686576843
9.99200722162640886e-16 3.47849893569946289 0.113063760101795197
9.99200722162640886e-16 3.37961745262145996 0.127696141600608826
9.99200722162640886e-16 2.88158512115478516 0.0662593469023704529
9.99200722162640886e-16 3.15813684463500977 0.0595596954226493835
9.99200722162640886e-16 3.15765237808227539 0.0874340981245040894
9.99200722162640886e-16 2.5624842643737793 0.0031136050820350647
9.99200722162640886e-16 3.18839502334594727 0.00668460875749588013
9.99200722162640886e-16 3.6834409236907959 0.0364769883453845978
9.99200722162640886e-16 3.67618989944458008 0.0815572440624237061
9.99200722162640886e-16 0.205043554306030273 0.000998899340629577637
9.99200722162640886e-16 3.21642494201660156 0.0181772001087665558
9.99200722162640886e-16 3.24776005744934082 0.0402688682079315186
9.99200722162640886e-16 2.02605962753295898 0.029917791485786438
9.99200722162640886e-16 2.54643774032592773 0.104596301913261414
9.99200722162640886e-16 3.51657843589782715 0.140662059187889099
9.99200722162640886e-16 2.23742771148681641 0.0693595558404922485
9.99200722162640886e-16 3.25833368301391602 0.0673066750168800354
9.99200722162640886e-16 3.01017332077026367 0.0187287572771310806
9.99200722162640886e-16 3.01526141166687012 0.115881294012069702
9.99200722162640886e-16 2.66333961486816406 0.0567269138991832733
9.99200722162640886e-16 2.12469124794006348 0.0414403602480888367
9.99200722162640886e-16 1.33839058876037598 0.0258362367749214172
9.99200722162640886e-16 2.33508110046386719 0.0350497439503669739
9.99200722162640886e-16 2.7297661304473877 0.103048384189605713
9.99200722162640886e-16 0.284907817840576172 0.0023635178804397583
9.99200722162640886e-16 3.06811428070068359 0.0827142521739006042
9.99200722162640886e-16 3.3538060188293457 0.0241016224026679993
9.99200722162640886e-16 3.53885555267333984 0.102673895657062531
9.99200722162640886e-16 2.85432147979736328 0.0268431864678859711
9.99200722162640886e-16 3.50553297996520996 0.0393167212605476379
9.99200722162640886e-16 2.5326533317565918 0.0111783631145954132
9.99200722162640886e-16 2.11129307746887207 0.0389454588294029236
9.99200722162640886e-16 1.98837101459503174 0.0693825110793113708
9.99200722162640886e-16 2.51179933547973633 0.0598609670996665955
9.99200722162640886e-16 1.42892146110534668 0.0355255305767059326
9.99200722162640886e-16 3.52662467956542969 0.152036800980567932
9.99200722162640886e-16 2.41345739364624023 0.0550295710563659668
9.99200722162640886e-16 2.6626429557800293 0.0878807157278060913
9.99200722162640886e-16 2.76832485198974609 0.0339807420969009399
9.99200722162640886e-16 2.92515039443969727 0.0530343614518642426
9.99200722162640886e-16 0.661545753479003906 0.027312740683555603
9.99200722162640886e-16 1.76186668872833252 0.0384043976664543152
9.99200722162640886e-16 2.47070980072021484 0.0414248928427696228
9.99200722162640886e-16 3.67633318901062012 0.120420366525650024
9.99200722162640886e-16 2.13259744644165039 0.0863144174218177795
9.99200722162640886e-16 3.69361138343811035 0.145292297005653381
9.99200722162640886e-16 2.64469385147094727 0.0466845408082008362
9.99200722162640886e-16 1.40158891677856445 0.0478566139936447144
9.99200722162640886e-16 0.625458955764770508 0.00242193043231964111
9.99200722162640886e-16 3.21451807022094727 0.0665705204010009766
9.99200722162640886e-16 2.47701168060302734 0.0126199796795845032
9.99200722162640886e-16 3.10737514495849609 0.0085208602249622345
9.99200722162640886e-16 2.56368684768676758 0.051184631884098053
9.99200722162640886e-16 2.31316947937011719 0.00713857635855674744
9.99200722162640886e-16 2.20999002456665039 0.0309955179691314697
9.99200722162640886e-16 3.59221553802490234 0.115822859108448029
9.99200722162640886e-16 3.49721717834472656 0.113129705190658569
9.99200722162640886e-16 1.47669696807861328 0.0387571081519126892
9.99200722162640886e-16 2.84885787963867188 0.0477930717170238495
9.99200722162640886e-16 2.55510330200195312 0.100547663867473602
9.99200722162640886e-16 0.583953380584716797 0.0163527876138687134
9.99200722162640886e-16 3.59399056434631348 0.0418834462761878967
9.99200722162640886e-16 3.31560301780700684 0.132733613252639771
9.99200722162640886e-16 3.6253516674041748 0.0936935842037200928
9.99200722162640886e-16 2.77360820770263672 0.0780968964099884033
9.99200722162640886e-16 1.47755265235900879 0.0544399544596672058
9.99200722162640886e-16 1.74286842346191406 0.0133962109684944153
9.99200722162640886e-16 1.90775549411773682 0.00809495896100997925
9.99200722162640886e-16 2.12209606170654297 0.0341916009783744812
9.99200722162640886e-16 1.5826866626739502 0.0453048720955848694
9.99200722162640886e-16 3.4307396411895752 0.0486959442496299744
9.99200722162640886e-16 1.09901332855224609 0.0120894163846969604
9.99200722162640886e-16 0.98809814453125 0.037460722029209137
9.99200722162640886e-16 1.33656477928161621 0.0281959399580955505
9.99200722162640886e-16 1.36911821365356445 0.0384764522314071655
9.99200722162640886e-16 2.36581015586853027 0.0198337920010089874
9.99200722162640886e-16 2.24564337730407715 0.0681527629494667053
9.99200722162640886e-16 1.51117277145385742 0.0327337682247161865
9.99200722162640886e-16 2.03123760223388672 0.0672859922051429749
9.99200722162640886e-16 1.09417200088500977 0.0399765819311141968
9.99200722162640886e-16 2.15577220916748047 0.0396949648857116699
9.99200722162640886e-16 2.3892214298248291 0.0905811339616775513
9.99200722162640886e-16 2.81164669990539551 0.0074515119194984436
9.99200722162640886e-16 2.98049688339233398 0.094586886465549469
9.99200722162640886e-16 0.675401210784912109 0.0119517594575881958
9.99200722162640886e-16 2.0254051685333252 0.034332767128944397
9.99200722162640886e-16 2.05480766296386719 0.0707001909613609314
9.99200722162640886e-16 2.7203667163848877 0.0421980023384094238
9.99200722162640886e-16 1.3744652271270752 0.0384756624698638916
9.99200722162640886e-16 3.06093835830688477 0.0799433663487434387
9.99200722162640886e-16 2.3741450309753418 0.0139488466084003448
9.99200722162640886e-16 1.79517316818237305 0.0548174157738685608
9.99200722162640886e-16 1.26894950866699219 0.0304240062832832336
9.99200722162640886e-16 2.83217883110046387 0.106126606464385986
9.99200722162640886e-16 3.68126177787780762 0.0428312234580516815
9.99200722162640886e-16 3.22947573661804199 0.0527636930346488953
9.99200722162640886e-16 2.8672022819519043 0.0868972986936569214
9.99200722162640886e-16 2.40012550354003906 0.0115695185959339142
9.99200722162640886e-16 2.59835195541381836 0.0021737217903137207
9.99200722162640886e-16 0.601136445999145508 0.0222347676753997803
9.99200722162640886e-16 1.92432963848114014 0.0331342518329620361
9.99200722162640886e-16 0.659316301345825195 0.0139697045087814331
9.99200722162640886e-16 2.77794075012207031 0.104645527899265289
9.99200722162640886e-16 2.27412652969360352 0.0692033767700195312
9.99200722162640886e-16 1.7963111400604248 0.0770071446895599365
9.99200722162640886e-16 2.1316688060760498 0.038389354944229126
9.99200722162640886e-16 3.43199968338012695 0.0992904603481292725
9.99200722162640886e-16 3.48635292053222656 0.0151078915223479271
9.99200722162640886e-16 2.90141510963439941 2.19978392124176025e-05
9.99200722162640886e-16 2.05234432220458984 0.0848615318536758423
9.99200722162640886e-16 2.86506557464599609 0.048115268349647522
9.99200722162640886e-16 1.33748888969421387 0.00471359491348266602
9.99200722162640886e-16 2.99793624877929688 0.0616375431418418884
9.99200722162640886e-16 1.98008096218109131 0.0170947983860969543
9.99200722162640886e-16 2.03275537490844727 0.0258074775338172913
9.99200722162640886e-16 3.52800226211547852 0.0340643376111984253
9.99200722162640886e-16 0.236074447631835938 0.00810527801513671875
9.99200722162640886e-16 1.63790631294250488 0.0123429596424102783
9.99200722162640886e-16 3.48731040954589844 0.138968989253044128
9.99200722162640886e-16 3.27846813201904297 0.103078201413154602
9.99200722162640886e-16 3.66935992240905762 0.0773256048560142517
9.99200722162640886e-16 2.08332490921020508 0.0805963426828384399
9.99200722162640886e-16 2.93667268753051758 0.111397728323936462
9.99200722162640886e-16 2.97845029830932617 0.102685615420341492
9.99200722162640886e-16 2.60811424255371094 0.0185525566339492798
9.99200722162640886e-16 3.05953216552734375 0.0501148030161857605
9.99200722162640886e-16 3.34285378456115723 0.107893623411655426
9.99200722162640886e-16 2.15518665313720703 0.033222787082195282
9.99200722162640886e-16 1.15819454193115234 0.0400653406977653503
9.99200722162640886e-16 3.30846428871154785 0.0943195223808288574
9.99200722162640886e-16 1.92778575420379639 0.00281819701194763184
9.99200722162640886e-16 3.3434443473815918 0.0378898158669471741
9.99200722162640886e-16 1.07756137847900391 0.0460784435272216797
9.99200722162640886e-16 2.49934530258178711 0.0635704025626182556
9.99200722162640886e-16 2.35766768455505371 0.0880777835845947266
9.99200722162640886e-16 2.04681062698364258 0.0341284424066543579
9.99200722162640886e-16 0.841392755508422852 0.00270231068134307861
9.99200722162640886e-16 3.21139621734619141 0.0222876556217670441
9.99200722162640886e-16 2.85498690605163574 0.0381137393414974213
9.99200722162640886e-16 2.07129049301147461 0.0690520927309989929
9.99200722162640886e-16 3.41754698753356934 0.131477475166320801
9.99200722162640886e-16 3.11827945709228516 0.0490655191242694855
9.99200722162640886e-16 2.79062128067016602 0.114845499396324158
9.99200722162640886e-16 2.44595909118652344 0.100180014967918396
9.99200722162640886e-16 2.23061513900756836 0.035986386239528656
9.99200722162640886e-16 2.65849685668945312 0.0421973690390586853
9.99200722162640886e-16 3.60632443428039551 0.13329140841960907
9.99200722162640886e-16 3.36702203750610352 0.0723492652177810669
9.99200722162640886e-16 3.46527409553527832 0.0867147520184516907
9.99200722162640886e-16 2.74377059936523438 0.116075679659843445
9.99200722162640886e-16 2.08736395835876465 0.0444555506110191345
9.99200722162640886e-16 3.4178011417388916 0.0509207993745803833
9.99200722162640886e-16 2.34327268600463867 0.0754407793283462524
9.99200722162640886e-16 2.79992389678955078 0.0224601291120052338
9.99200722162640886e-16 3.14941024780273438 0.02600860595703125
9.99200722162640886e-16 3.62632560729980469 0.0342010296881198883
9.99200722162640886e-16 1.76207160949707031 0.0329411551356315613
9.99200722162640886e-16 2.3073887825012207 0.0384166911244392395
9.99200722162640886e-16 0.317778348922729492 0.00968064367771148682
9.99200722162640886e-16 3.32875704765319824 0.00907488353550434113
9.99200722162640886e-16 2.72583651542663574 0.100690074265003204
9.99200722162640886e-16 2.22931432723999023 0.0139439702033996582
9.99200722162640886e-16 2.92748594284057617 0.0447817891836166382
9.99200722162640886e-16 3.50920343399047852 0.056534159928560257
9.99200722162640886e-16 3.28275251388549805 0.00288557074964046478
9.99200722162640886e-16 1.20709562301635742 0.0506536290049552917
9.99200722162640886e-16 3.46494770050048828 0.0303277447819709778
9.99200722162640886e-16 1.23943161964416504 0.0137547999620437622
9.99200722162640886e-16 1.94123125076293945 0.0312225073575973511
9.99200722162640886e-16 2.07391238212585449 0.058068104088306427
9.99200722162640886e-16 1.30768203735351562 0.0337536036968231201
9.99200722162640886e-16 0.777319431304931641 0.0218782275915145874
9.99200722162640886e-16 2.92944502830505371 0.0619381852447986603
9.99200722162640886e-16 2.19249272346496582 0.0493808463215827942
9.99200722162640886e-16 3.64667129516601562 0.0503592640161514282
9.99200722162640886e-16 1.82863032817840576 0.0579192936420440674
9.99200722162640886e-16 1.41107678413391113 0.0382284075021743774
9.99200722162640886e-16 3.67867112159729004 0.0857501775026321411
9.99200722162640886e-16 2.05334234237670898 0.00599139183759689331
9.99200722162640886e-16 1.54422760009765625 0.00668264180421829224
9.99200722162640886e-16 2.13674497604370117 0.0414481833577156067
9.99200722162640886e-16 0.599930047988891602 0.00470294058322906494
9.99200722162640886e-16 3.55199956893920898 0.114953167736530304
9.99200722162640886e-16 1.79698514938354492 0.0254858806729316711
9.99200722162640886e-16 3.25816106796264648 0.0285115819424390793
9.99200722162640886e-16 2.84152507781982422 0.0879946351051330566
9.99200722162640886e-16 2.32364177703857422 0.0972314625978469849
9.99200722162640886e-16 3.68673467636108398 0.0135825313627719879
9.99200722162640886e-16 2.72984576225280762 0.105523794889450073
9.99200722162640886e-16 3.48592901229858398 0.063346564769744873
9.99200722162640886e-16 3.63270759582519531 0.0878149420022964478
9.99200722162640886e-16 2.32222795486450195 0.0217267163097858429
9.99200722162640886e-16 3.57587528228759766 0.129136219620704651
9.99200722162640886e-16 2.07755756378173828 0.0160332918167114258
9.99200722162640886e-16 3.6564323902130127 0.0110463369637727737
9.99200722162640886e-16 2.12194061279296875 0.0225576385855674744
9.99200722162640886e-16 2.94562864303588867 0.00672692432999610901
9.99200722162640886e-16 1.96499073505401611 0.0825419574975967407
9.99200722162640886e-16 3.23256516456604004 0.0022232402116060257
9.99200722162640886e-16 3.35364103317260742 0.140302062034606934
9.99200722162640886e-16 2.41667556762695312 0.0956092923879623413
9.99200722162640886e-16 3.09879183769226074 0.091241396963596344
9.99200722162640886e-16 3.04976224899291992 0.0422236695885658264
9.99200722162640886e-16 2.66376543045043945 0.0327361822128295898
9.99200722162640886e-16 0.490163087844848633 0.00188347697257995605
9.99200722162640886e-16 1.61469101905822754 0.0644337236881256104
9.99200722162640886e-16 3.03815865516662598 0.00458635762333869934
9.99200722162640886e-16 3.05205583572387695 0.0900082066655158997
9.99200722162640886e-16 3.49204277992248535 0.111630693078041077
9.99200722162640886e-16 2.75338244438171387 0.0603180676698684692
9.99200722162640886e-16 1.86773157119750977 0.0392515659332275391
9.99200722162640886e-16 3.02345871925354004 0.0129259061068296432
9.99200722162640886e-16 1.50618624687194824 0.0205358937382698059
9.99200722162640886e-16 3.47083306312561035 0.0509615428745746613
9.99200722162640886e-16 2.20625567436218262 0.0481389164924621582
9.99200722162640886e-16 1.08961319923400879 0.0244330465793609619
9.99200722162640886e-16 2.72394275665283203 0.0639983266592025757
9.99200722162640886e-16 3.52156853675842285 0.0162556488066911697
9.99200722162640886e-16 3.0574488639831543 0.104787975549697876
9.99200722162640886e-16 2.36299610137939453 0.0586046725511550903
9.99200722162640886e-16 3.19035005569458008 0.0316571146249771118
9.99200722162640886e-16 3.33745813369750977 0.0189394336193799973
9.99200722162640886e-16 3.59495902061462402 0.1441965252161026
9.99200722162640886e-16 2.28834033012390137 0.0526365675032138824
9.99200722162640886e-16 2.22502040863037109 0.0948083773255348206
9.99200722162640886e-16 3.49216151237487793 0.0675458088517189026
9.99200722162640886e-16 3.60047316551208496 0.00916805863380432129
9.99200722162640886e-16 3.22120046615600586 0.0830195322632789612
9.99200722162640886e-16 3.02513885498046875 0.0913759693503379822
9.99200722162640886e-16 2.67988014221191406 0.113378614187240601
9.99200722162640886e-16 0.16086888313293457 0.00309002399444580078
9.99200722162640886e-16 2.0768742561340332 0.0221323743462562561
9.99200722162640886e-16 0.689860820770263672 0.00551491975784301758
9.99200722162640886e-16 3.0612797737121582 0.0779535546898841858
9.99200722162640886e-16 3.64196300506591797 0.0480260290205478668
9.99200722162640886e-16 2.09231090545654297 0.0879775658249855042
9.99200722162640886e-16 3.03682470321655273 0.128611370921134949
9.99200722162640886e-16 1.28902387619018555 0.0431173518300056458
9.99200722162640886e-16 1.48994636535644531 0.00980247557163238525
9.99200722162640886e-16 2.45249652862548828 0.0777729079127311707
9.99200722162640886e-16 0.799158096313476562 0.0238303691148757935
9.99200722162640886e-16 2.11317157745361328 0.05152159184217453
9.99200722162640886e-16 1.50278806686401367 0.0447945371270179749
9.99200722162640886e-16 3.04420328140258789 0.032128550112247467
9.99200722162640886e-16 1.97255587577819824 0.0788827165961265564
9.99200722162640886e-16 1.03368043899536133 0.0423191413283348083
9.99200722162640886e-16 1.83728718757629395 0.0318015366792678833
9.99200722162640886e-16 2.57022738456726074 0.0708808973431587219
9.99200722162640886e-16 2.18855690956115723 0.0713148117065429688
9.99200722162640886e-16 1.4717552661895752 0.0533867627382278442
9.99200722162640886e-16 2.14743471145629883 0.0415881723165512085
9.99200722162640886e-16 1.51045322418212891 0.0569372028112411499
9.99200722162640886e-16 2.59464550018310547 0.0363825149834156036
9.99200722162640886e-16 2.18567752838134766 0.0746756717562675476
9.99200722162640886e-16 3.4826054573059082 0.0386087223887443542
9.99200722162640886e-16 2.38761377334594727 0.0857835486531257629
9.99200722162640886e-16 1.72680246829986572 0.00560241937637329102
9.99200722162640886e-16 2.34031891822814941 0.0376491211354732513
9.99200722162640886e-16 2.51769065856933594 0.0592890419065952301
9.99200722162640886e-16 1.49452447891235352 0.0550900176167488098
9.99200722162640886e-16 2.1344447135925293 0.0182307586073875427
9.99200722162640886e-16 2.7596590518951416 0.00966852530837059021
9.99200722162640886e-16 1.51358699798583984 0.0520496740937232971
9.99200722162640886e-16 3.03782033920288086 0.10805925726890564
9.99200722162640886e-16 2.41162919998168945 0.0207880735397338867
9.99200722162640886e-16 1.75730347633361816 0.0124157816171646118
9.99200722162640886e-16 3.63040256500244141 0.0545004457235336304
9.99200722162640886e-16 0.850862264633178711 0.034903407096862793
9.99200722162640886e-16 3.42138361930847168 0.00870275590568780899
9.99200722162640886e-16 1.53293752670288086 0.0213612541556358337
9.99200722162640886e-16 3.02612209320068359 0.117773339152336121
9.99200722162640886e-16 3.25722408294677734 0.136553481221199036
9.99200722162640886e-16 3.65897321701049805 0.103425793349742889
9.99200722162640886e-16 1.30614542961120605 0.0445012375712394714
9.99200722162640886e-16 3.52486348152160645 0.0764700174331665039
9.99200722162640886e-16 1.58545160293579102 0.0114871412515640259
9.99200722162640886e-16 3.69117903709411621 0.144845038652420044
9.99200722162640886e-16 1.60490083694458008 0.0690928921103477478
9.99200722162640886e-16 3.20580768585205078 0.0585482753813266754
9.99200722162640886e-16 2.25697875022888184 0.0554102957248687744
9.99200722162640886e-16 2.46922826766967773 0.04647088423371315
9.99200722162640886e-16 3.1088402271270752 0.108626514673233032
9.99200722162640886e-16 3.34990978240966797 0.0210713781416416168
9.99200722162640886e-16 1.76300287246704102 0.0548871457576751709
9.99200722162640886e-16 3.49346089363098145 0.0860561281442642212
9.99200722162640886e-16 3.03381252288818359 0.0783083587884902954
9.99200722162640886e-16 2.01639032363891602 0.0658924207091331482
9.99200722162640886e-16 2.4902491569519043 0.02918291836977005
9.99200722162640886e-16 2.61371374130249023 0.0413025841116905212
9.99200722162640886e-16 1.61718297004699707 0.0443506017327308655
9.99200722162640886e-16 3.30002880096435547 0.0931827723979949951
9.99200722162640886e-16 1.71574199199676514 0.063733614981174469
9.99200722162640886e-16 3.67201018333435059 0.0590608678758144379
9.99200722162640886e-16 3.26482534408569336 0.128769367933273315
9.99200722162640886e-16 3.21178245544433594 0.0407641343772411346
9.99200722162640886e-16 2.50406551361083984 0.0255676805973052979
9.99200722162640886e-16 3.33784914016723633 0.0624888576567173004
9.99200722162640886e-16 1.5352470874786377 0.0058519020676612854
9.99200722162640886e-16 2.87040376663208008 0.0622894242405891418
9.99200722162640886e-16 2.68805885314941406 0.064932599663734436
9.99200722162640886e-16 3.1637272834777832 0.130945309996604919
9.99200722162640886e-16 0.895896434783935547 0.0291959717869758606
9.99200722162640886e-16 2.83396577835083008 0.0557531751692295074
9.99200722162640886e-16 1.06876564025878906 0.0362860411405563354
9.99200722162640886e-16 1.69855678081512451 0.0468994900584220886
9.99200722162640886e-16 0.991527557373046875 0.0177835449576377869
9.99200722162640886e-16 2.01326560974121094 0.0135950148105621338
9.99200722162640886e-16 3.04264593124389648 0.122756130993366241
9.99200722162640886e-16 1.73817503452301025 0.0272605717182159424
9.99200722162640886e-16 2.22216510772705078 0.0113753080368041992
9.99200722162640886e-16 3.40458273887634277 0.0802494585514068604
9.99200722162640886e-16 2.33445644378662109 0.0094844326376914978
9.99200722162640886e-16 2.55648303031921387 0.0638008713722229004
9.99200722162640886e-16 0.40435481071472168 0.0169061720371246338
9.99200722162640886e-16 0.992756843566894531 0.0194799229502677917
9.99200722162640886e-16 2.82960939407348633 0.0488298945128917694
9.99200722162640886e-16 3.09069705009460449 0.0940191149711608887
9.99200722162640886e-16 3.1720430850982666 0.0120183881372213364
9.99200722162640886e-16 2.85401201248168945 0.117971614003181458
9.99200722162640886e-16 1.89726519584655762 0.0777571871876716614
9.99200722162640886e-16 3.08524584770202637 0.0262687802314758301
9.99200722162640886e-16 1.56403660774230957 0.0387365520000457764
9.99200722162640886e-16 1.52481341361999512 0.00342632830142974854
9.99200722162640886e-16 3.32001471519470215 0.138121053576469421
9.99200722162640886e-16 2.6972963809967041 0.102892667055130005
9.99200722162640886e-16 1.16036224365234375 0.0241556614637374878
9.99200722162640886e-16 3.49520111083984375 0.00552522111684083939
9.99200722162640886e-16 2.92635178565979004 0.0441106259822845459
9.99200722162640886e-16 2.7076878547668457 0.0636790990829467773
9.99200722162640886e-16 2.7645721435546875 0.0245736502110958099
9.99200722162640886e-16 1.53667616844177246 0.0387559160590171814
9.99200722162640886e-16 3.32266330718994141 0.0554960183799266815
9.99200722162640886e-16 1.59973812103271484 0.0109204947948455811
9.99200722162640886e-16 1.88452887535095215 0.0703547149896621704
9.99200722162640886e-16 3.22711753845214844 0.0734873786568641663
9.99200722162640886e-16 1.47989201545715332 0.00748319178819656372
9.99200722162640886e-16 2.4639439582824707 0.0241350382566452026
9.99200722162640886e-16 3.046295166015625 0.129918664693832397
9.99200722162640886e-16 3.53299379348754883 0.149771958589553833
9.99200722162640886e-16 2.19739437103271484 0.0379790887236595154
9.99200722162640886e-16 1.16160416603088379 0.047085687518119812
9.99200722162640886e-16 2.8873441219329834 0.0500814653933048248
9.99200722162640886e-16 2.69868898391723633 0.0129438899457454681
9.99200722162640886e-16 2.68669366836547852 0.094545319676399231
9.99200722162640886e-16 2.10684394836425781 0.0178686454892158508
9.99200722162640886e-16 1.93989467620849609 0.0151310935616493225
9.99200722162640886e-16 2.99362516403198242 0.112715445458889008
9.99200722162640886e-16 3.05054187774658203 0.0144766271114349365
9.99200722162640886e-16 3.64239835739135742 0.139369770884513855
9.99200722162640886e-16 3.51147580146789551 0.0457069650292396545
9.99200722162640886e-16 1.53894710540771484 0.00730666518211364746
9.99200722162640886e-16 1.82352018356323242 0.0310492217540740967
9.99200722162640886e-16 2.18836259841918945 0.0090058445930480957
9.99200722162640886e-16 2.58835673332214355 0.10792984813451767
9.99200722162640886e-16 2.35474109649658203 0.0354263372719287872
9.99200722162640886e-16 2.96871781349182129 0.0691059976816177368
9.99200722162640886e-16 3.48336005210876465 0.138917282223701477
9.99200722162640886e-16 0.892162799835205078 0.00627600401639938354
9.99200722162640886e-16 1.40278863906860352 0.0459572598338127136
9.99200722162640886e-16 1.17238283157348633 0.000228792428970336914
9.99200722162640886e-16 3.42607569694519043 0.00643851328641176224
9.99200722162640886e-16 2.26674365997314453 0.0961593836545944214
9.99200722162640886e-16 2.24086833000183105 0.0567590519785881042
9.99200722162640886e-16 1.74340617656707764 0.064603365957736969
9.99200722162640886e-16 2.83527493476867676 0.0521687008440494537
9.99200722162640886e-16 0.401027202606201172 0.0152291208505630493
9.99200722162640886e-16 3.5502021312713623 0.0653422027826309204
9.99200722162640886e-16 2.82280778884887695 0.0240439064800739288
9.99200722162640886e-16 3.49671554565429688 0.0441710129380226135
9.99200722162640886e-16 1.43442749977111816 0.0166010260581970215
9.99200722162640886e-16 1.7286456823348999 0.0452023595571517944
9.99200722162640886e-16 2.02519464492797852 0.00129238516092300415
9.99200722162640886e-16 1.76274669170379639 0.0681559443473815918
9.99200722162640886e-16 0.810277462005615234 0.00171753019094467163
9.99200722162640886e-16 2.92132186889648438 0.0150398164987564087
9.99200722162640886e-16 2.54009127616882324 0.00287592783570289612
9.99200722162640886e-16 3.46481966972351074 0.0405620783567428589
9.99200722162640886e-16 2.35404825210571289 0.030791793018579483
9.99200722162640886e-16 2.89371728897094727 0.0999086946249008179
9.99200722162640886e-16 2.97380542755126953 0.0163453146815299988
9.99200722162640886e-16 3.13121414184570312 0.132466763257980347
9.99200722162640886e-16 2.93885469436645508 0.0514349639415740967
9.99200722162640886e-16 3.42530512809753418 0.0307876821607351303
9.99200722162640886e-16 2.52163553237915039 0.0225513316690921783
9.99200722162640886e-16 3.6614985466003418 0.0377604477107524872
9.99200722162640886e-16 3.55027556419372559 0.0316937826573848724
9.99200722162640886e-16 0.601514339447021484 0.00905349850654602051
9.99200722162640886e-16 2.69126224517822266 0.0962894558906555176
9.99200722162640886e-16 3.19797134399414062 0.09193439781665802
9.99200722162640886e-16 3.48644161224365234 0.0433894842863082886
9.99200722162640886e-16 3.44656634330749512 0.0557168945670127869
9.99200722162640886e-16 3.57034087181091309 0.133929610252380371
9.99200722162640886e-16 3.01826381683349609 0.0605649091303348541
9.99200722162640886e-16 1.32795476913452148 0.0136330276727676392
9.99200722162640886e-16 2.8637700080871582 0.00320140272378921509
9.99200722162640886e-16 2.51159286499023438 0.0863697826862335205
9.99200722162640886e-16 2.25593137741088867 0.0705682635307312012
9.99200722162640886e-16 2.58188199996948242 0.0914081931114196777
9.99200722162640886e-16 2.85117912292480469 0.0683854743838310242
9.99200722162640886e-16 2.44159460067749023 0.0936675220727920532
9.99200722162640886e-16 2.7948768138885498 0.0270182862877845764
9.99200722162640886e-16 2.6645359992980957 0.0409838259220123291
9.99200722162640886e-16 3.50130224227905273 0.10601525753736496
9.99200722162640886e-16 3.16631126403808594 0.110577210783958435
9.99200722162640886e-16 3.29575347900390625 0.032789178192615509
9.99200722162640886e-16 0.581694126129150391 0.00995504856109619141
9.99200722162640886e-16 1.30105972290039062 0.0449172407388687134
9.99200722162640886e-16 3.34969568252563477 0.144288316369056702
9.99200722162640886e-16 3.05278444290161133 0.00794550217688083649
9.99200722162640886e-16 3.58362483978271484 0.0417340174317359924
9.99200722162640886e-16 3.58977556228637695 0.139451697468757629
9.99200722162640886e-16 3.55703496932983398 0.0147311519831418991
9.99200722162640886e-16 2.38522052764892578 0.0875947624444961548
9.99200722162640886e-16 3.12238264083862305 0.0742130950093269348
9.99200722162640886e-16 1.913047194480896 0.0411566197872161865
9.99200722162640886e-16 3.64994025230407715 0.109085217118263245
9.99200722162640886e-16 1.30162596702575684 0.0109396204352378845
9.99200722162640886e-16 1.42707228660583496 0.0444145351648330688
9.99200722162640886e-16 2.56448960304260254 0.0735226720571517944
9.99200722162640886e-16 2.83986639976501465 0.0722396820783615112
9.99200722162640886e-16 3.54554438591003418 0.037718016654253006
9.99200722162640886e-16 2.46726417541503906 0.0576947592198848724
9.99200722162640886e-16 1.92105674743652344 0.0726398155093193054
9.99200722162640886e-16 2.40249204635620117 0.0641909241676330566
9.99200722162640886e-16 2.22703886032104492 0.0804896876215934753
9.99200722162640886e-16 2.48176193237304688 0.0337541364133358002
9.99200722162640886e-16 0.786249399185180664 0.0175312310457229614
9.99200722162640886e-16 2.14296388626098633 0.0338321402668952942
9.99200722162640886e-16 2.76126813888549805 0.0796838477253913879
9.99200722162640886e-16 3.23185634613037109 0.0582928955554962158
9.99200722162640886e-16 0.297376632690429688 0.00999529659748077393
9.99200722162640886e-16 3.23215651512145996 0.0835249423980712891
9.99200722162640886e-16 2.53591012954711914 0.0388401485979557037
9.99200722162640886e-16 2.08959364891052246 0.0292960405349731445
9.99200722162640886e-16 2.19042372703552246 0.0398706123232841492
9.99200722162640886e-16 3.40127825736999512 0.0730764195322990417
9.99200722162640886e-16 0.630813121795654297 0.0757671743631362915
9.99200722162640886e-16 0.718455016613006592 0.154175505042076111
9.99200722162640886e-16 2.91204595565795898 0.130096390843391418
9.99200722162640886e-16 1.06971240043640137 0.139786407351493835
9.99200722162640886e-16 2.45424628257751465 0.1247357577085495
9.99200722162640886e-16 0.15582941472530365 0.0940014645457267761
9.99200722162640886e-16 2.39730954170227051 0.149097487330436707
9.99200722162640886e-16 2.913665771484375 0.151171565055847168
9.99200722162640886e-16 0.197049468755722046 0.0764382630586624146
9.99200722162640886e-16 1.02724981307983398 0.0854592397809028625
9.99200722162640886e-16 2.9228355884552002 0.128271639347076416
9.99200722162640886e-16 0.794170618057250977 0.11561758816242218
9.99200722162640886e-16 1.89695620536804199 0.152150824666023254
9.99200722162640886e-16 1.35272872447967529 0.153963595628738403
9.99200722162640886e-16 1.0559920072555542 0.126346468925476074
9.99200722162640886e-16 0.687575817108154297 0.0722467899322509766
9.99200722162640886e-16 0.137683123350143433 0.0711199268698692322
9.99200722162640886e-16 0.102507837116718292 0.0244292467832565308
9.99200722162640886e-16 1.82600617408752441 0.0797722488641738892
9.99200722162640886e-16 1.28122508525848389 0.0840667933225631714
9.99200722162640886e-16 0.886964082717895508 0.0827703922986984253
9.99200722162640886e-16 2.84110212326049805 0.130524039268493652
9.99200722162640886e-16 1.90164673328399658 0.112803831696510315
9.99200722162640886e-16 2.76500439643859863 0.130600407719612122
9.99200722162640886e-16 1.01317572593688965 0.13417208194732666
9.99200722162640886e-16 1.04154741764068604 0.109196022152900696
9.99200722162640886e-16 0.893784105777740479 0.0498176366090774536
9.99200722162640886e-16 2.53464317321777344 0.148646742105484009
9.99200722162640886e-16 0.691141843795776367 0.0845725685358047485
9.99200722162640886e-16 2.5763847827911377 0.151710286736488342
9.99200722162640886e-16 1.58240342140197754 0.157111108303070068
9.99200722162640886e-16 2.68219709396362305 0.158770844340324402
9.99200722162640886e-16 2.66102457046508789 0.157526329159736633
9.99200722162640886e-16 1.13809585571289062 0.0665984675288200378
9.99200722162640886e-16 2.35855770111083984 0.113719627261161804
9.99200722162640886e-16 0.191522389650344849 0.0166764408349990845
9.99200722162640886e-16 0.765179276466369629 0.0855523645877838135
9.99200722162640886e-16 0.653931081295013428 0.0476196557283401489
9.99200722162640886e-16 0.446025818586349487 0.0911145880818367004
9.99200722162640886e-16 1.39150691032409668 0.0645648539066314697
9.99200722162640886e-16 2.21894216537475586 0.140650570392608643
9.99200722162640886e-16 0.106255821883678436 0.14260806143283844
9.99200722162640886e-16 0.453263461589813232 0.148020684719085693
9.99200722162640886e-16 1.08537459373474121 0.0790989920496940613
9.99200722162640886e-16 2.10230827331542969 0.13261142373085022
9.99200722162640886e-16 0.103233389556407928 0.0436314195394515991
9.99200722162640886e-16 1.00723373889923096 0.0568611100316047668
9.99200722162640886e-16 1.57872438430786133 0.0860032811760902405
9.99200722162640886e-16 0.0599311292171478271 0.0773233324289321899
9.99200722162640886e-16 1.34905660152435303 0.060573183000087738
9.99200722162640886e-16 0.761690139770507812 0.0580982193350791931
9.99200722162640886e-16 0.443836122751235962 0.030068323016166687
9.99200722162640886e-16 0.51678919792175293 0.0953254476189613342
9.99200722162640886e-16 0.0362957529723644257 0.141855821013450623
9.99200722162640886e-16 1.81144988536834717 0.117553055286407471
9.99200722162640886e-16 0.0552901774644851685 0.141097202897071838
9.99200722162640886e-16 0.320570319890975952 0.15444241464138031
9.99200722162640886e-16 1.37481188774108887 0.0751590803265571594
9.99200722162640886e-16 0.420856833457946777 0.0422860607504844666
9.99200722162640886e-16 0.504114270210266113 0.0406709164381027222
9.99200722162640886e-16 2.19327044486999512 0.119647607207298279
9.99200722162640886e-16 1.0308234691619873 0.0887125730514526367
9.99200722162640886e-16 0.600021004676818848 0.153159856796264648
9.99200722162640886e-16 1.55291056632995605 0.125373512506484985
9.99200722162640886e-16 0.673872888088226318 0.0707645416259765625
9.99200722162640886e-16 2.99710392951965332 0.157132893800735474
9.99200722162640886e-16 0.400856971740722656 0.0988974273204803467
9.99200722162640886e-16 0.474546760320663452 0.0833496600389480591
9.99200722162640886e-16 1.23871314525604248 0.0639771223068237305
9.99200722162640886e-16 1.41560351848602295 0.15314018726348877
9.99200722162640886e-16 2.15268445014953613 0.147130995988845825
9.99200722162640886e-16 0.0526254028081893921 0.128943160176277161
9.99200722162640886e-16 0.233649998903274536 0.0242651998996734619
9.99200722162640886e-16 2.44313812255859375 0.119132347404956818
9.99200722162640886e-16 2.3035132884979248 0.149416372179985046
9.99200722162640886e-16 1.01720738410949707 0.158917829394340515
9.99200722162640886e-16 1.48206460475921631 0.0700916573405265808
9.99200722162640886e-16 1.74213171005249023 0.144267603754997253
9.99200722162640886e-16 0.362257599830627441 0.016219407320022583
9.99200722162640886e-16 0.655621707439422607 0.079684719443321228
9.99200722162640886e-16 0.094316728413105011 0.158147856593132019
9.99200722162640886e-16 0.414813101291656494 0.0927035585045814514
9.99200722162640886e-16 1.03817534446716309 0.139823168516159058
9.99200722162640886e-16 0.8060569167137146 0.136253267526626587
9.99200722162640886e-16 1.51242244243621826 0.0695287212729454041
9.99200722162640886e-16 0.136781260371208191 0.0148488283157348633
9.99200722162640886e-16 2.77513337135314941 0.129345208406448364
9.99200722162640886e-16 1.26759147644042969 0.135699927806854248
9.99200722162640886e-16 1.4357912540435791 0.155964240431785583
9.99200722162640886e-16 2.89816904067993164 0.126487419009208679
9.99200722162640886e-16 2.06879854202270508 0.114881232380867004
9.99200722162640886e-16 0.00783101748675107956 0.159267529845237732
9.99200722162640886e-16 1.68462145328521729 0.151597857475280762
9.99200722162640886e-16 0.894607186317443848 0.0462183058261871338
9.99200722162640886e-16 1.1664654016494751 0.111894115805625916
9.99200722162640886e-16 0.508466422557830811 0.115619450807571411
9.99200722162640886e-16 2.14232039451599121 0.114111423492431641
9.99200722162640886e-16 0.224295780062675476 0.042710430920124054
9.99200722162640886e-16 1.19810354709625244 0.123411841690540314
9.99200722162640886e-16 0.682912170886993408 0.110642477869987488
9.99200722162640886e-16 2.51003718376159668 0.139123290777206421
9.99200722162640886e-16 0.133176922798156738 0.144086167216300964
9.99200722162640886e-16 0.51110464334487915 0.106231614947319031
9.99200722162640886e-16 0.301174670457839966 0.150041669607162476
9.99200722162640886e-16 1.83909511566162109 0.103991612792015076
9.99200722162640886e-16 0.28840714693069458 0.104005604982376099
9.99200722162640886e-16 2.43019628524780273 0.153845995664596558
9.99200722162640886e-16 0.805344521999359131 0.0454031378030776978
9.99200722162640886e-16 0.356189131736755371 0.0211760848760604858
9.99200722162640886e-16 0.396053493022918701 0.113184221088886261
9.99200722162640886e-16 0.879913628101348877 0.13632558286190033
9.99200722162640886e-16 1.29287362098693848 0.0855978801846504211
9.99200722162640886e-16 1.26925575733184814 0.0981047600507736206
9.99200722162640886e-16 0.255202770233154297 0.0896215811371803284
9.99200722162640886e-16 3.07137823104858398 0.15359090268611908
9.99200722162640886e-16 1.36715924739837646 0.0933007970452308655
9.99200722162640886e-16 0.533463120460510254 0.0476729944348335266
9.99200722162640886e-16 0.755756795406341553 0.0883242711424827576
9.99200722162640886e-16 0.609492599964141846 0.119616732001304626
9.99200722162640886e-16 0.690504550933837891 0.0929707959294319153
9.99200722162640886e-16 1.82857608795166016 0.0817061811685562134
9.99200722162640886e-16 0.764414966106414795 0.114888504147529602
9.99200722162640886e-16 0.143507093191146851 0.123818531632423401
9.99200722162640886e-16 1.23188745975494385 0.0710100531578063965
9.99200722162640886e-16 1.90674173831939697 0.119619846343994141
9.99200722162640886e-16 0.331318527460098267 0.0964471697807312012
9.99200722162640886e-16 0.934109330177307129 0.0472589731216430664
9.99200722162640886e-16 0.0309961605817079544 0.128752276301383972
9.99200722162640886e-16 0.551698029041290283 0.137155801057815552
9.99200722162640886e-16 0.156298428773880005 0.0683685392141342163
9.99200722162640886e-16 0.0380561463534832001 0.0534124746918678284
9.99200722162640886e-16 2.28785395622253418 0.134464576840400696
9.99200722162640886e-16 0.346768081188201904 0.133313536643981934
9.99200722162640886e-16 2.50716471672058105 0.136815324425697327
9.99200722162640886e-16 0.269285887479782104 0.0925130695104598999
9.99200722162640886e-16 1.03603231906890869 0.0959319695830345154
9.99200722162640886e-16 2.60255241394042969 0.118672087788581848
9.99200722162640886e-16 0.0607972592115402222 0.0501808077096939087
9.99200722162640886e-16 1.97553050518035889 0.0887796282768249512
9.99200722162640886e-16 0.0607332699000835419 0.0434424206614494324
9.99200722162640886e-16 2.24129676818847656 0.135757759213447571
9.99200722162640886e-16 0.948830306529998779 0.126523196697235107
9.99200722162640886e-16 0.19707132875919342 0.136042594909667969
9.99200722162640886e-16 1.52756333351135254 0.130771249532699585
9.99200722162640886e-16 0.436338901519775391 0.0773331969976425171
9.99200722162640886e-16 0.537404119968414307 0.033873140811920166
9.99200722162640886e-16 1.5537261962890625 0.142517015337944031
9.99200722162640886e-16 0.0438749343156814575 0.0617946386337280273
9.99200722162640886e-16 1.70093882083892822 0.0819828063249588013
9.99200722162640886e-16 1.60568726062774658 0.153126925230026245
9.99200722162640886e-16 0.757072210311889648 0.0503653809428215027
9.99200722162640886e-16 0.658833026885986328 0.118259385228157043
9.99200722162640886e-16 0.104156255722045898 0.157431915402412415
9.99200722162640886e-16 2.69350600242614746 0.158232361078262329
9.99200722162640886e-16 0.474073231220245361 0.023795783519744873
9.99200722162640886e-16 1.16980469226837158 0.0830743461847305298
9.99200722162640886e-16 1.09282016754150391 0.128849416971206665
9.99200722162640886e-16 1.37573122978210449 0.0628153756260871887
9.99200722162640886e-16 0.162560254335403442 0.0509426891803741455
9.99200722162640886e-16 3.45960688591003418 0.158663421869277954
9.99200722162640886e-16 2.53050661087036133 0.14368399977684021
9.99200722162640886e-16 0.963875234127044678 0.125051289796829224
9.99200722162640886e-16 0.677112162113189697 0.0327529162168502808
9.99200722162640886e-16 0.612618982791900635 0.0723780691623687744
9.99200722162640886e-16 0.511206865310668945 0.0715608671307563782
9.99200722162640886e-16 0.233404964208602905 0.0313235670328140259
9.99200722162640886e-16 1.01367926597595215 0.0993425250053405762
9.99200722162640886e-16 2.10103893280029297 0.109956726431846619
9.99200722162640886e-16 1.98407411575317383 0.114735886454582214
9.99200722162640886e-16 0.497250258922576904 0.0526448637247085571
9.99200722162640886e-16 1.37189412117004395 0.116296499967575073
9.99200722162640886e-16 1.54227900505065918 0.0952071249485015869
9.99200722162640886e-16 0.474646776914596558 0.137439712882041931
9.99200722162640886e-16 0.641831755638122559 0.109859667718410492
9.99200722162640886e-16 0.151052594184875488 0.0208236873149871826
9.99200722162640886e-16 2.28169393539428711 0.117574900388717651
9.99200722162640886e-16 0.480323582887649536 0.0603159219026565552
9.99200722162640886e-16 3.26132535934448242 0.159922152757644653
9.99200722162640886e-16 1.7103583812713623 0.113427534699440002
9.99200722162640886e-16 0.892958700656890869 0.113353341817855835
9.99200722162640886e-16 0.840228617191314697 0.103648945689201355
9.99200722162640886e-16 1.95570731163024902 0.137862071394920349
9.99200722162640886e-16 3.10404634475708008 0.155857831239700317
9.99200722162640886e-16 1.79378986358642578 0.10551665723323822
9.99200722162640886e-16 1.81158530712127686 0.154777199029922485
9.99200722162640886e-16 1.45143282413482666 0.0882476344704627991
9.99200722162640886e-16 0.962183177471160889 0.0761762410402297974
9.99200722162640886e-16 2.20675349235534668 0.122441217303276062
9.99200722162640886e-16 0.925509810447692871 0.129241064190864563
9.99200722162640886e-16 0.0644929185509681702 0.0252829790115356445
9.99200722162640886e-16 0.0809088349342346191 0.0656927600502967834
