ply
format ascii 1.0
element vertex 718
property float x
property float y
property float z
end_header
4.99600361081320443e-16 0.168900519609451294 0.150377333164215088
4.99600361081320443e-16 0.103520855307579041 0.00437991321086883545
4.99600361081320443e-16 0.248996928334236145 0.148435622453689575
4.99600361081320443e-16 0.221064090728759766 0.117203965783119202
4.99600361081320443e-16 0.231579303741455078 0.0895285680890083313
4.99600361081320443e-16 0.184754341840744019 0.0873525291681289673
4.99600361081320443e-16 0.173309102654457092 0.145221054553985596
4.99600361081320443e-16 0.177622109651565552 0.0312203019857406616
4.99600361081320443e-16 0.151224613189697266 0.106725789606571198
4.99600361081320443e-16 0.197309091687202454 0.0895828902721405029
4.99600361081320443e-16 0.0763277709484100342 0.0720541924238204956
4.99600361081320443e-16 0.15808337926864624 0.0862338542938232422
4.99600361081320443e-16 0.175521805882453918 0.0324774757027626038
4.99600361081320443e-16 0.130798488855361938 0.11166670173406601
4.99600361081320443e-16 0.198994606733322144 0.0666675344109535217
4.99600361081320443e-16 0.155451506376266479 3.72752547264099121e-05
4.99600361081320443e-16 0.208943858742713928 0.155723586678504944
4.99600361081320443e-16 0.234072908759117126 0.112537756562232971
4.99600361081320443e-16 0.188086807727813721 0.00419056043028831482
4.99600361081320443e-16 0.227518990635871887 0.163012906908988953
4.99600361081320443e-16 0.107690215110778809 0.0899680852890014648
4.99600361081320443e-16 0.207030341029167175 0.0011639036238193512
4.99600361081320443e-16 0.127348080277442932 0.0732604935765266418
4.99600361081320443e-16 0.206091552972793579 0.049847729504108429
4.99600361081320443e-16 0.118558391928672791 0.0739272013306617737
4.99600361081320443e-16 0.0414617955684661865 0.0181520581245422363
4.99600361081320443e-16 0.196853905916213989 0.133690237998962402
4.99600361081320443e-16 0.0633162707090377808 0.0238384008407592773
4.99600361081320443e-16 0.0939008742570877075 0.0399239510297775269
4.99600361081320443e-16 0.107712537050247192 0.0893630236387252808
4.99600361081320443e-16 0.157256990671157837 0.0520460009574890137
4.99600361081320443e-16 0.211018308997154236 0.191580355167388916
4.99600361081320443e-16 0.101635783910751343 0.0722043365240097046
4.99600361081320443e-16 0.219759687781333923 0.103095754981040955
4.99600361081320443e-16 0.22523026168346405 0.104114621877670288
4.99600361081320443e-16 0.226060599088668823 0.0886285901069641113
4.99600361081320443e-16 0.224845752120018005 0.0372122004628181458
4.99600361081320443e-16 0.223910734057426453 0.076895490288734436
4.99600361081320443e-16 0.145211219787597656 0.0749998018145561218
4.99600361081320443e-16 0.180402874946594238 0.133273601531982422
4.99600361081320443e-16 0.209555432200431824 0.17767256498336792
4.99600361081320443e-16 0.152352422475814819 0.0253568515181541443
4.99600361081320443e-16 0.223361164331436157 0.0615279674530029297
4.99600361081320443e-16 0.194786489009857178 0.000368539243936538696
4.99600361081320443e-16 0.0374676734209060669 0.0313785672187805176
4.99600361081320443e-16 0.118615195155143738 0.0380457565188407898
4.99600361081320443e-16 0.218782380223274231 0.00187015347182750702
4.99600361081320443e-16 0.193601444363594055 0.115221127867698669
4.99600361081320443e-16 0.119117587804794312 0.0514108091592788696
4.99600361081320443e-16 0.111961096525192261 0.0609049946069717407
4.99600361081320443e-16 0.243164584040641785 0.0419530272483825684
4.99600361081320443e-16 0.233557209372520447 0.0396380946040153503
4.99600361081320443e-16 0.0794311761856079102 0.0345700085163116455
4.99600361081320443e-16 0.0371307730674743652 0.0333969444036483765
4.99600361081320443e-16 0.244752869009971619 0.225178077816963196
4.99600361081320443e-16 0.175846308469772339 0.00025447458028793335
4.99600361081320443e-16 0.162371322512626648 0.0114825442433357239
4.99600361081320443e-16 0.186283722519874573 0.0145248211920261383
4.99600361081320443e-16 0.115881726145744324 0.054574921727180481
4.99600361081320443e-16 0.168013036251068115 0.143827289342880249
4.99600361081320443e-16 0.247873768210411072 0.132760629057884216
4.99600361081320443e-16 0.217116191983222961 0.10411505401134491
4.99600361081320443e-16 0.103609025478363037 0.00399139523506164551
4.99600361081320443e-16 0.231737419962882996 0.0169591493904590607
4.99600361081320443e-16 0.236202418804168701 0.203491643071174622
4.99600361081320443e-16 0.222496598958969116 0.0212421547621488571
4.99600361081320443e-16 0.228047639131546021 0.203473091125488281
4.99600361081320443e-16 0.0435837209224700928 0.00281608104705810547
4.99600361081320443e-16 0.201808780431747437 0.158429980278015137
4.99600361081320443e-16 0.186495780944824219 0.0298676006495952606
4.99600361081320443e-16 0.146753996610641479 0.0490268990397453308
4.99600361081320443e-16 0.174157336354255676 0.0117007642984390259
4.99600361081320443e-16 0.0892550349235534668 0.0471199303865432739
4.99600361081320443e-16 0.192338496446609497 0.0373271405696868896
4.99600361081320443e-16 0.0152254551649093628 0.00989072024822235107
4.99600361081320443e-16 0.16336408257484436 0.0616751909255981445
4.99600361081320443e-16 0.116953402757644653 0.0436219871044158936
4.99600361081320443e-16 0.1209707111120224 0.0940652564167976379
4.99600361081320443e-16 0.227339833974838257 0.0144343022257089615
4.99600361081320443e-16 0.0566928386688232422 0.00245851278305053711
4.99600361081320443e-16 0.219345986843109131 0.153034865856170654
4.99600361081320443e-16 0.0968488901853561401 0.0463089346885681152
4.99600361081320443e-16 0.143738508224487305 0.0520052909851074219
4.99600361081320443e-16 0.157581910490989685 0.0104220733046531677
4.99600361081320443e-16 0.0194489210844039917 0.0155052989721298218
4.99600361081320443e-16 0.185447067022323608 0.0617672540247440338
4.99600361081320443e-16 0.1254902184009552 0.0364628806710243225
4.99600361081320443e-16 0.190331354737281799 0.0576169826090335846
4.99600361081320443e-16 0.177668243646621704 0.146035760641098022
4.99600361081320443e-16 0.188061922788619995 0.138436675071716309
4.99600361081320443e-16 0.23123517632484436 0.0401745885610580444
4.99600361081320443e-16 0.174606651067733765 0.0729689225554466248
4.99600361081320443e-16 0.232392877340316772 0.0561550557613372803
4.99600361081320443e-16 0.0984929203987121582 0.0895427316427230835
4.99600361081320443e-16 0.1923704594373703 0.0321741923689842224
4.99600361081320443e-16 0.134255349636077881 0.0383837446570396423
4.99600361081320443e-16 0.228170335292816162 0.0384095162153244019
4.99600361081320443e-16 0.158873051404953003 0.117314435541629791
4.99600361081320443e-16 0.150088101625442505 0.0460034012794494629
4.99600361081320443e-16 0.217736825346946716 0.198644101619720459
4.99600361081320443e-16 0.175201237201690674 0.131170898675918579
4.99600361081320443e-16 0.06505545973777771 0.044695243239402771
4.99600361081320443e-16 0.0863094329833984375 0.048806607723236084
4.99600361081320443e-16 0.130165785551071167 0.0755067989230155945
4.99600361081320443e-16 0.105380967259407043 0.0756935775279998779
4.99600361081320443e-16 0.168166130781173706 0.0101447701454162598
4.99600361081320443e-16 0.126991897821426392 0.0491102933883666992
4.99600361081320443e-16 0.0104611963033676147 0.00439472496509552002
4.99600361081320443e-16 0.0800581276416778564 0.0013027191162109375
4.99600361081320443e-16 0.0585866421461105347 0.0211076289415359497
4.99600361081320443e-16 0.0524336248636245728 0.0122597217559814453
4.99600361081320443e-16 0.0732535719871520996 0.0336365848779678345
4.99600361081320443e-16 0.131305679678916931 0.0449860543012619019
4.99600361081320443e-16 0.212930217385292053 0.0948508232831954956
4.99600361081320443e-16 0.124375447630882263 0.02652779221534729
4.99600361081320443e-16 0.188478976488113403 0.14974386990070343
4.99600361081320443e-16 0.160820603370666504 0.127799764275550842
4.99600361081320443e-16 0.242247030138969421 0.0268619917333126068
4.99600361081320443e-16 0.191680908203125 0.145081549882888794
4.99600361081320443e-16 0.114849865436553955 0.0141353458166122437
4.99600361081320443e-16 0.101131618022918701 0.0594587624073028564
4.99600361081320443e-16 0.138351500034332275 0.128032952547073364
4.99600361081320443e-16 0.169111356139183044 0.0416302382946014404
4.99600361081320443e-16 0.133614107966423035 0.00492946803569793701
4.99600361081320443e-16 0.147582635283470154 0.0733220726251602173
4.99600361081320443e-16 0.100974917411804199 0.0577162206172943115
4.99600361081320443e-16 0.0971782058477401733 0.0137946456670761108
4.99600361081320443e-16 0.190507367253303528 0.0382783450186252594
4.99600361081320443e-16 0.238285079598426819 0.082899242639541626
4.99600361081320443e-16 0.230105340480804443 0.0594538003206253052
4.99600361081320443e-16 0.179216563701629639 0.109463639557361603
4.99600361081320443e-16 0.179610013961791992 0.00936476141214370728
4.99600361081320443e-16 0.241834357380867004 0.114078201353549957
4.99600361081320443e-16 0.151380687952041626 0.0576862171292304993
4.99600361081320443e-16 0.220391169190406799 0.00280579365789890289
4.99600361081320443e-16 0.227116003632545471 0.148692354559898376
4.99600361081320443e-16 0.161261886358261108 0.146077677607536316
4.99600361081320443e-16 0.17215380072593689 0.0205340087413787842
4.99600361081320443e-16 0.187742158770561218 0.0861637890338897705
4.99600361081320443e-16 0.197287857532501221 0.109317302703857422
4.99600361081320443e-16 0.194073855876922607 0.00203246250748634338
4.99600361081320443e-16 0.160864382982254028 0.0283315852284431458
4.99600361081320443e-16 0.180313289165496826 0.154221490025520325
4.99600361081320443e-16 0.24635961651802063 0.14025472104549408
4.99600361081320443e-16 0.147604063153266907 0.107132226228713989
4.99600361081320443e-16 0.196007281541824341 0.137577205896377563
4.99600361081320443e-16 0.16095222532749176 0.128177791833877563
4.99600361081320443e-16 0.214580848813056946 0.129972994327545166
4.99600361081320443e-16 0.248431339859962463 0.101504340767860413
4.99600361081320443e-16 0.226799696683883667 0.137313202023506165
4.99600361081320443e-16 0.20039781928062439 0.00611641630530357361
4.99600361081320443e-16 0.24023282527923584 0.0705725327134132385
4.99600361081320443e-16 0.240344107151031494 0.222844019532203674
4.99600361081320443e-16 0.243119776248931885 0.12556573748588562
4.99600361081320443e-16 0.116331517696380615 0.0578466355800628662
4.99600361081320443e-16 0.0467577725648880005 0.022788703441619873
4.99600361081320443e-16 0.159879922866821289 0.00930242240428924561
4.99600361081320443e-16 0.0936129987239837646 0.047250896692276001
4.99600361081320443e-16 0.0553613007068634033 0.051946684718132019
4.99600361081320443e-16 0.213754028081893921 0.184506058692932129
4.99600361081320443e-16 0.249182477593421936 0.0993149951100349426
4.99600361081320443e-16 0.0261449366807937622 0.0148434340953826904
4.99600361081320443e-16 0.227153182029724121 0.102525241672992706
4.99600361081320443e-16 0.161311835050582886 0.0476723015308380127
4.99600361081320443e-16 0.212415114045143127 0.064523257315158844
4.99600361081320443e-16 0.231770753860473633 0.029927646741271019
4.99600361081320443e-16 0.139506369829177856 0.127493545413017273
4.99600361081320443e-16 0.128628745675086975 0.101405717432498932
4.99600361081320443e-16 0.176737695932388306 0.0779225975275039673
4.99600361081320443e-16 0.213599681854248047 0.0963211953639984131
4.99600361081320443e-16 0.0820657014846801758 0.0685325860977172852
4.99600361081320443e-16 0.223094820976257324 0.0518610812723636627
4.99600361081320443e-16 0.153186321258544922 0.0409857109189033508
4.99600361081320443e-16 0.184231370687484741 0.0344317294657230377
4.99600361081320443e-16 0.238111898303031921 0.0536364875733852386
4.99600361081320443e-16 0.124613508582115173 0.0824362188577651978
4.99600361081320443e-16 0.182003438472747803 0.0860504284501075745
4.99600361081320443e-16 0.0585650056600570679 0.016514122486114502
4.99600361081320443e-16 0.204510718584060669 0.147259935736656189
4.99600361081320443e-16 0.195919156074523926 0.118111416697502136
4.99600361081320443e-16 0.180786505341529846 0.0792463049292564392
4.99600361081320443e-16 0.246231332421302795 0.0982462316751480103
4.99600361081320443e-16 0.147181570529937744 0.131611883640289307
4.99600361081320443e-16 0.242724150419235229 0.141589105129241943
4.99600361081320443e-16 0.187336176633834839 0.0123491212725639343
4.99600361081320443e-16 0.0900897383689880371 0.0640472471714019775
4.99600361081320443e-16 0.240521654486656189 0.184822112321853638
4.99600361081320443e-16 0.0568916350603103638 0.030298575758934021
4.99600361081320443e-16 0.228010118007659912 0.0322846472263336182
4.99600361081320443e-16 0.156988918781280518 0.136481150984764099
4.99600361081320443e-16 0.121051236987113953 0.0128372237086296082
4.99600361081320443e-16 0.148201882839202881 0.135905534029006958
4.99600361081320443e-16 0.0427612960338592529 0.0167640596628189087
4.99600361081320443e-16 0.247415989637374878 0.0718387961387634277
4.99600361081320443e-16 0.0674922317266464233 0.0397636145353317261
4.99600361081320443e-16 0.132297828793525696 0.0795122310519218445
4.99600361081320443e-16 0.0877879559993743896 0.00208039581775665283
4.99600361081320443e-16 0.177729368209838867 0.095935523509979248
4.99600361081320443e-16 0.227771028876304626 0.0193993337452411652
4.99600361081320443e-16 0.193310916423797607 0.0163497067987918854
4.99600361081320443e-16 0.0329000651836395264 0.00188525021076202393
4.99600361081320443e-16 0.172103255987167358 0.156294539570808411
4.99600361081320443e-16 0.119027718901634216 0.051054932177066803
4.99600361081320443e-16 0.23486657440662384 0.212534233927726746
4.99600361081320443e-16 0.225863918662071228 0.0672131776809692383
4.99600361081320443e-16 0.225647732615470886 0.179810062050819397
4.99600361081320443e-16 0.159174412488937378 0.0741171911358833313
4.99600361081320443e-16 0.192802220582962036 0.0752553939819335938
4.99600361081320443e-16 0.24927985668182373 0.173171833157539368
4.99600361081320443e-16 0.106478244066238403 0.0662752389907836914
4.99600361081320443e-16 0.0702437758445739746 0.0588351190090179443
4.99600361081320443e-16 0.10997810959815979 0.0153877288103103638
4.99600361081320443e-16 0.197193801403045654 0.144417449831962585
4.99600361081320443e-16 0.226025685667991638 0.0588782653212547302
4.99600361081320443e-16 0.227719545364379883 0.19366125762462616
4.99600361081320443e-16 0.188468381762504578 0.0809034556150436401
4.99600361081320443e-16 0.0469520986080169678 0.0163754075765609741
4.99600361081320443e-16 0.233102113008499146 0.0303013604134321213
4.99600361081320443e-16 0.249001815915107727 0.0766922980546951294
4.99600361081320443e-16 0.117606759071350098 0.0259150415658950806
4.99600361081320443e-16 0.237481757998466492 0.199041664600372314
4.99600361081320443e-16 0.129780977964401245 0.0428422093391418457
4.99600361081320443e-16 0.134547501802444458 0.0918241739273071289
4.99600361081320443e-16 0.21932259202003479 0.136663973331451416
4.99600361081320443e-16 0.106944471597671509 0.041713222861289978
4.99600361081320443e-16 0.110634267330169678 0.00212301313877105713
4.99600361081320443e-16 0.151380941271781921 0.0414421558380126953
4.99600361081320443e-16 0.161856576800346375 0.142823457717895508
4.99600361081320443e-16 0.15358242392539978 0.117938846349716187
4.99600361081320443e-16 0.215973302721977234 0.0746410191059112549
4.99600361081320443e-16 0.142589867115020752 0.120727263391017914
4.99600361081320443e-16 0.241609692573547363 0.175840869545936584
4.99600361081320443e-16 0.238187730312347412 0.0527202002704143524
4.99600361081320443e-16 0.208859294652938843 0.0136512592434883118
4.99600361081320443e-16 0.158152833580970764 0.0533408895134925842
4.99600361081320443e-16 0.112814143300056458 0.0863095670938491821
4.99600361081320443e-16 0.128398656845092773 0.0746193304657936096
4.99600361081320443e-16 0.0540923178195953369 0.0458551794290542603
4.99600361081320443e-16 0.184006914496421814 0.0950931385159492493
4.99600361081320443e-16 0.078658565878868103 0.0142529010772705078
4.99600361081320443e-16 0.0768015086650848389 0.0114124119281768799
4.99600361081320443e-16 0.187512099742889404 0.108284935355186462
4.99600361081320443e-16 0.18593636155128479 0.0784029960632324219
4.99600361081320443e-16 0.190967530012130737 0.0021989382803440094
4.99600361081320443e-16 0.105809614062309265 0.0930624455213546753
4.99600361081320443e-16 0.161217004060745239 0.024048931896686554
4.99600361081320443e-16 0.176699429750442505 0.102422751486301422
4.99600361081320443e-16 0.201235055923461914 0.126340925693511963
4.99600361081320443e-16 0.223337367177009583 0.0465571694076061249
4.99600361081320443e-16 0.167964071035385132 0.158544793725013733
4.99600361081320443e-16 0.188663557171821594 0.0728128403425216675
4.99600361081320443e-16 0.220779046416282654 0.040503382682800293
4.99600361081320443e-16 0.173865169286727905 0.155990093946456909
4.99600361081320443e-16 0.0898490250110626221 0.026342928409576416
4.99600361081320443e-16 0.0863618850708007812 0.05525931715965271
4.99600361081320443e-16 0.151969611644744873 0.068944782018661499
4.99600361081320443e-16 0.248170897364616394 0.205936640501022339
4.99600361081320443e-16 0.138191089034080505 0.0854632258415222168
4.99600361081320443e-16 0.170418664813041687 0.140380591154098511
4.99600361081320443e-16 0.166069656610488892 0.107422336935997009
4.99600361081320443e-16 0.134270668029785156 0.0161859095096588135
4.99600361081320443e-16 0.219227612018585205 0.077309727668762207
4.99600361081320443e-16 0.207234382629394531 0.131445750594139099
4.99600361081320443e-16 0.249194979667663574 0.166989684104919434
4.99600361081320443e-16 0.0901895612478256226 0.0513239949941635132
4.99600361081320443e-16 0.082491263747215271 0.0518414229154586792
4.99600361081320443e-16 0.221179693937301636 0.158351048827171326
4.99600361081320443e-16 0.161579132080078125 0.0484282150864601135
4.99600361081320443e-16 0.235455840826034546 0.00865595322102308273
4.99600361081320443e-16 0.193361148238182068 0.00895255059003829956
4.99600361081320443e-16 0.223193690180778503 0.0900055095553398132
4.99600361081320443e-16 0.0973721146583557129 0.091193661093711853
4.99600361081320443e-16 0.227789342403411865 0.0809021666646003723
4.99600361081320443e-16 0.214291632175445557 0.0272806957364082336
4.99600361081320443e-16 0.226963996887207031 0.0541049093008041382
4.99600361081320443e-16 0.20211125910282135 0.18739202618598938
4.99600361081320443e-16 0.122989624738693237 0.00886815786361694336
4.99600361081320443e-16 0.197620987892150879 0.110531143844127655
4.99600361081320443e-16 0.157145008444786072 0.0819834247231483459
4.99600361081320443e-16 0.189766630530357361 0.116821795701980591
4.99600361081320443e-16 0.107724457979202271 0.032968178391456604
4.99600361081320443e-16 0.205484405159950256 0.0371174663305282593
4.99600361081320443e-16 0.134779065847396851 0.100095219910144806
4.99600361081320443e-16 0.0392815768718719482 0.0357195436954498291
4.99600361081320443e-16 0.178648591041564941 0.079831048846244812
4.99600361081320443e-16 0.226197391748428345 0.119484111666679382
4.99600361081320443e-16 0.0753476321697235107 0.00831827521324157715
4.99600361081320443e-16 0.0282119512557983398 0.00930070877075195312
4.99600361081320443e-16 0.167114734649658203 0.029646068811416626
4.99600361081320443e-16 0.24672679603099823 0.198793426156044006
4.99600361081320443e-16 0.136912107467651367 0.00115034729242324829
4.99600361081320443e-16 0.247805684804916382 0.0923651829361915588
4.99600361081320443e-16 0.116352006793022156 0.0248744189739227295
4.99600361081320443e-16 0.0530114322900772095 0.0290833562612533569
4.99600361081320443e-16 0.124503850936889648 0.0891608595848083496
4.99600361081320443e-16 0.149234101176261902 0.071499846875667572
4.99600361081320443e-16 0.0377206504344940186 0.0221317410469055176
4.99600361081320443e-16 0.165582090616226196 0.0715493038296699524
4.99600361081320443e-16 0.141803011298179626 0.0249356254935264587
4.99600361081320443e-16 0.218846529722213745 0.203523978590965271
4.99600361081320443e-16 0.187829941511154175 0.0407009050250053406
4.99600361081320443e-16 0.144768595695495605 0.0538842082023620605
4.99600361081320443e-16 0.173627853393554688 0.0752362087368965149
4.99600361081320443e-16 0.2277669757604599 0.130150660872459412
4.99600361081320443e-16 0.163460180163383484 0.0596334114670753479
4.99600361081320443e-16 0.0565429776906967163 0.0313438326120376587
4.99600361081320443e-16 0.192683055996894836 0.119615904986858368
4.99600361081320443e-16 0.121447533369064331 0.00141211599111557007
4.99600361081320443e-16 0.243386030197143555 0.0564744584262371063
4.99600361081320443e-16 0.0979797542095184326 0.0801186561584472656
4.99600361081320443e-16 0.172353953123092651 0.0263213068246841431
4.99600361081320443e-16 0.158953547477722168 0.0490116700530052185
4.99600361081320443e-16 0.052478298544883728 0.0133605897426605225
4.99600361081320443e-16 0.222128242254257202 0.0775963664054870605
4.99600361081320443e-16 0.10621093213558197 0.0401770621538162231
4.99600361081320443e-16 0.160963922739028931 0.0158211067318916321
4.99600361081320443e-16 0.227952107787132263 0.122272804379463196
4.99600361081320443e-16 0.156697005033493042 0.0954636931419372559
4.99600361081320443e-16 0.125999629497528076 0.0769145116209983826
4.99600361081320443e-16 0.136055931448936462 0.116767197847366333
4.99600361081320443e-16 0.0279921814799308777 0.151120632886886597
4.99600361081320443e-16 0.0242759771645069122 0.185115650296211243
4.99600361081320443e-16 0.0887107774615287781 0.168537288904190063
4.99600361081320443e-16 0.0519079007208347321 0.0718647390604019165
4.99600361081320443e-16 0.206106588244438171 0.235726460814476013
4.99600361081320443e-16 0.0476247407495975494 0.0821939855813980103
4.99600361081320443e-16 0.114973887801170349 0.117751099169254303
4.99600361081320443e-16 0.239246025681495667 0.230794817209243774
4.99600361081320443e-16 0.049395829439163208 0.180836006999015808
4.99600361081320443e-16 0.117987051606178284 0.167273640632629395
4.99600361081320443e-16 0.107608772814273834 0.138622045516967773
4.99600361081320443e-16 0.0103760240599513054 0.171225771307945251
4.99600361081320443e-16 0.0769797265529632568 0.116231121122837067
4.99600361081320443e-16 0.109290622174739838 0.193372637033462524
4.99600361081320443e-16 0.0212368108332157135 0.0949629694223403931
4.99600361081320443e-16 0.0626274421811103821 0.173152551054954529
4.99600361081320443e-16 0.109876140952110291 0.109417557716369629
4.99600361081320443e-16 0.0819758996367454529 0.0940727144479751587
4.99600361081320443e-16 0.138849139213562012 0.21842464804649353
4.99600361081320443e-16 0.0844645127654075623 0.156940117478370667
4.99600361081320443e-16 0.0604557991027832031 0.168546944856643677
4.99600361081320443e-16 0.0293359439820051193 0.0650049000978469849
4.99600361081320443e-16 0.0125696500763297081 0.0594746917486190796
4.99600361081320443e-16 0.131307214498519897 0.166639864444732666
4.99600361081320443e-16 0.199669688940048218 0.19867318868637085
4.99600361081320443e-16 0.0385656170547008514 0.0728757679462432861
4.99600361081320443e-16 0.0427718609571456909 0.203971028327941895
4.99600361081320443e-16 0.0321899577975273132 0.109125286340713501
4.99600361081320443e-16 0.213910788297653198 0.227143168449401855
4.99600361081320443e-16 0.165863290429115295 0.181341201066970825
4.99600361081320443e-16 0.0730061382055282593 0.0835583209991455078
4.99600361081320443e-16 0.108050636947154999 0.193887948989868164
4.99600361081320443e-16 0.0721446424722671509 0.11219438910484314
4.99600361081320443e-16 0.0216916892677545547 0.0855866223573684692
4.99600361081320443e-16 0.0448293015360832214 0.129405975341796875
4.99600361081320443e-16 0.0657356902956962585 0.123844549059867859
4.99600361081320443e-16 0.135382309556007385 0.183980554342269897
4.99600361081320443e-16 0.0389239899814128876 0.131525337696075439
4.99600361081320443e-16 0.0569757893681526184 0.131321296095848083
4.99600361081320443e-16 0.159562051296234131 0.155578091740608215
4.99600361081320443e-16 0.192359209060668945 0.214411064982414246
4.99600361081320443e-16 0.122036248445510864 0.230200916528701782
4.99600361081320443e-16 0.150447428226470947 0.208647996187210083
4.99600361081320443e-16 0.226691663265228271 0.222590535879135132
4.99600361081320443e-16 0.1378059983253479 0.150801211595535278
4.99600361081320443e-16 0.0494559407234191895 0.085324019193649292
4.99600361081320443e-16 0.18998408317565918 0.191657125949859619
4.99600361081320443e-16 0.0943325906991958618 0.123953774571418762
4.99600361081320443e-16 0.00831221789121627808 0.0725120007991790771
4.99600361081320443e-16 0.125913158059120178 0.122757382690906525
4.99600361081320443e-16 0.135468333959579468 0.214089825749397278
4.99600361081320443e-16 0.0611801519989967346 0.0919177085161209106
4.99600361081320443e-16 0.0532582662999629974 0.157203316688537598
4.99600361081320443e-16 0.0710222572088241577 0.218893051147460938
4.99600361081320443e-16 0.111043810844421387 0.122554942965507507
4.99600361081320443e-16 0.136603847146034241 0.18256792426109314
4.99600361081320443e-16 0.072211630642414093 0.0686082541942596436
4.99600361081320443e-16 0.187234893441200256 0.206756442785263062
4.99600361081320443e-16 0.0169137734919786453 0.196808472275733948
4.99600361081320443e-16 0.0537219643592834473 0.117104269564151764
4.99600361081320443e-16 0.104206189513206482 0.217027798295021057
4.99600361081320443e-16 0.0306329242885112762 0.195213854312896729
4.99600361081320443e-16 0.0440746061503887177 0.190106257796287537
4.99600361081320443e-16 0.0329831689596176147 0.106427177786827087
4.99600361081320443e-16 0.0834575295448303223 0.129233360290527344
4.99600361081320443e-16 0.0285514220595359802 0.19782903790473938
4.99600361081320443e-16 0.135480806231498718 0.165993005037307739
4.99600361081320443e-16 0.070799119770526886 0.072217106819152832
4.99600361081320443e-16 0.0873934775590896606 0.157957300543785095
4.99600361081320443e-16 0.0301323514431715012 0.0455685853958129883
4.99600361081320443e-16 0.138938203454017639 0.236108049750328064
4.99600361081320443e-16 0.00718173244968056679 0.235575675964355469
4.99600361081320443e-16 0.0762138962745666504 0.107150629162788391
4.99600361081320443e-16 0.204469025135040283 0.232664123177528381
4.99600361081320443e-16 0.215191811323165894 0.223461195826530457
4.99600361081320443e-16 0.0560313090682029724 0.0825800597667694092
4.99600361081320443e-16 0.0471802651882171631 0.168408200144767761
4.99600361081320443e-16 0.193646132946014404 0.230963513255119324
4.99600361081320443e-16 0.0935952439904212952 0.110801488161087036
4.99600361081320443e-16 0.0418401136994361877 0.0667880624532699585
4.99600361081320443e-16 0.0865888819098472595 0.0861374586820602417
4.99600361081320443e-16 0.0678194910287857056 0.132225006818771362
4.99600361081320443e-16 0.164001449942588806 0.172258496284484863
4.99600361081320443e-16 0.016042809933423996 0.0271361321210861206
4.99600361081320443e-16 0.20177653431892395 0.205348864197731018
4.99600361081320443e-16 0.0788739100098609924 0.209421366453170776
4.99600361081320443e-16 0.0115943597629666328 0.138158202171325684
4.99600361081320443e-16 0.0436796955764293671 0.225528448820114136
4.99600361081320443e-16 0.073636665940284729 0.0928240120410919189
4.99600361081320443e-16 0.0386367738246917725 0.13466256856918335
4.99600361081320443e-16 0.0596476905047893524 0.16189892590045929
4.99600361081320443e-16 0.0659153163433074951 0.206728950142860413
4.99600361081320443e-16 0.037984166294336319 0.216511860489845276
4.99600361081320443e-16 0.145927026867866516 0.172875106334686279
4.99600361081320443e-16 0.0720279142260551453 0.13196989893913269
4.99600361081320443e-16 0.0614480935037136078 0.176737681031227112
4.99600361081320443e-16 0.0433765724301338196 0.0415693670511245728
4.99600361081320443e-16 0.018147837370634079 0.0657206177711486816
4.99600361081320443e-16 0.119018644094467163 0.118102476000785828
4.99600361081320443e-16 0.0321345478296279907 0.204889953136444092
4.99600361081320443e-16 0.221757844090461731 0.213304817676544189
4.99600361081320443e-16 0.0290161632001399994 0.120886772871017456
4.99600361081320443e-16 0.0112251471728086472 0.236073240637779236
4.99600361081320443e-16 0.122050784528255463 0.166083842515945435
4.99600361081320443e-16 0.0235009007155895233 0.0675588548183441162
4.99600361081320443e-16 0.0837921500205993652 0.160334378480911255
4.99600361081320443e-16 0.137959927320480347 0.168045610189437866
4.99600361081320443e-16 0.0346481800079345703 0.11213751882314682
4.99600361081320443e-16 0.0990016460418701172 0.122345425188541412
4.99600361081320443e-16 0.174737438559532166 0.184026479721069336
4.99600361081320443e-16 0.00489137228578329086 0.0339538156986236572
4.99600361081320443e-16 0.0819936171174049377 0.176234647631645203
4.99600361081320443e-16 0.0737426429986953735 0.210646480321884155
4.99600361081320443e-16 0.080126836895942688 0.235349684953689575
4.99600361081320443e-16 0.130311056971549988 0.17034466564655304
4.99600361081320443e-16 0.0408959090709686279 0.193690121173858643
4.99600361081320443e-16 0.0975136533379554749 0.146362721920013428
4.99600361081320443e-16 0.0855861827731132507 0.218987524509429932
4.99600361081320443e-16 0.0140078822150826454 0.22058473527431488
4.99600361081320443e-16 0.0600666552782058716 0.212778642773628235
4.99600361081320443e-16 0.0703295022249221802 0.228082865476608276
4.99600361081320443e-16 0.0784461274743080139 0.0853446722030639648
4.99600361081320443e-16 0.00525281438603997231 0.0416403412818908691
4.99600361081320443e-16 0.112208522856235504 0.215762421488761902
4.99600361081320443e-16 0.155236199498176575 0.1812877357006073
4.99600361081320443e-16 0.153698980808258057 0.193092763423919678
4.99600361081320443e-16 0.00997157860547304153 0.1650361567735672
4.99600361081320443e-16 0.0845003575086593628 0.100840672850608826
4.99600361081320443e-16 0.0530590005218982697 0.0700095146894454956
4.99600361081320443e-16 0.177909597754478455 0.213039383292198181
4.99600361081320443e-16 0.190122216939926147 0.185148760676383972
4.99600361081320443e-16 0.100111939013004303 0.192481979727745056
4.99600361081320443e-16 0.0377808734774589539 0.149384051561355591
4.99600361081320443e-16 0.0115617914125323296 0.0948079079389572144
4.99600361081320443e-16 0.0974605977535247803 0.133350104093551636
4.99600361081320443e-16 0.153245702385902405 0.223259210586547852
4.99600361081320443e-16 0.0081320442259311676 0.0499032735824584961
4.99600361081320443e-16 0.087485194206237793 0.107938975095748901
4.99600361081320443e-16 0.198432743549346924 0.236685708165168762
4.99600361081320443e-16 0.144896969199180603 0.233825728297233582
4.99600361081320443e-16 0.0105598531663417816 0.139762759208679199
4.99600361081320443e-16 0.0868720263242721558 0.0824091285467147827
4.99600361081320443e-16 0.0847014337778091431 0.174543216824531555
4.99600361081320443e-16 0.118370726704597473 0.21632075309753418
4.99600361081320443e-16 0.0643177404999732971 0.138880342245101929
4.99600361081320443e-16 0.0476743839681148529 0.0685197412967681885
4.99600361081320443e-16 0.136126473546028137 0.217441543936729431
4.99600361081320443e-16 0.156423881649971008 0.152171850204467773
4.99600361081320443e-16 0.105405844748020172 0.170191079378128052
4.99600361081320443e-16 0.120953582227230072 0.195314526557922363
4.99600361081320443e-16 0.113962523639202118 0.125116661190986633
4.99600361081320443e-16 0.0495914071798324585 0.22351527214050293
4.99600361081320443e-16 0.0199792385101318359 0.191602393984794617
4.99600361081320443e-16 0.0348852165043354034 0.170453011989593506
4.99600361081320443e-16 0.175982862710952759 0.222855925559997559
4.99600361081320443e-16 0.0638220608234405518 0.231093764305114746
4.99600361081320443e-16 0.0680488348007202148 0.173019498586654663
4.99600361081320443e-16 0.172109365463256836 0.235704198479652405
4.99600361081320443e-16 0.12623065710067749 0.217488467693328857
4.99600361081320443e-16 0.0369766838848590851 0.0992181897163391113
4.99600361081320443e-16 0.088265739381313324 0.0930157601833343506
4.99600361081320443e-16 0.000780740287154912949 0.146949619054794312
4.99600361081320443e-16 0.0906821936368942261 0.165817290544509888
4.99600361081320443e-16 0.148127034306526184 0.148763254284858704
4.99600361081320443e-16 0.0646029561758041382 0.204611495137214661
4.99600361081320443e-16 0.0736795663833618164 0.153780430555343628
4.99600361081320443e-16 0.1011461541056633 0.204606801271438599
4.99600361081320443e-16 0.0596305578947067261 0.176547825336456299
4.99600361081320443e-16 0.158765554428100586 0.221085771918296814
4.99600361081320443e-16 0.0869477689266204834 0.191698193550109863
4.99600361081320443e-16 0.145184293389320374 0.205539345741271973
4.99600361081320443e-16 0.00749312387779355049 0.0808170586824417114
4.99600361081320443e-16 0.0466862767934799194 0.206411078572273254
4.99600361081320443e-16 0.0959666892886161804 0.23248860239982605
4.99600361081320443e-16 0.0268787331879138947 0.0405767560005187988
4.99600361081320443e-16 0.229828745126724243 0.221295967698097229
4.99600361081320443e-16 0.0977363064885139465 0.110917851328849792
4.99600361081320443e-16 0.130253076553344727 0.144312232732772827
4.99600361081320443e-16 0.0403181426227092743 0.169711217284202576
4.99600361081320443e-16 0.0226801522076129913 0.0719621032476425171
4.99600361081320443e-16 0.0182307139039039612 0.118742197751998901
4.99600361081320443e-16 0.122162558138370514 0.14140591025352478
4.99600361081320443e-16 0.0330101847648620605 0.216205313801765442
4.99600361081320443e-16 0.00629950035363435745 0.156581833958625793
4.99600361081320443e-16 0.197300150990486145 0.226598143577575684
4.99600361081320443e-16 0.0391173698008060455 0.126740023493766785
4.99600361081320443e-16 0.00903731398284435272 0.105574294924736023
4.99600361081320443e-16 0.0871204286813735962 0.20275542140007019
4.99600361081320443e-16 0.202011927962303162 0.214659690856933594
4.99600361081320443e-16 0.102948084473609924 0.162342667579650879
4.99600361081320443e-16 0.0805500894784927368 0.0788666605949401855
4.99600361081320443e-16 0.0883790403604507446 0.107811152935028076
4.99600361081320443e-16 0.0869367271661758423 0.220014885067939758
4.99600361081320443e-16 0.106298945844173431 0.228713050484657288
4.99600361081320443e-16 0.0190982185304164886 0.192926645278930664
4.99600361081320443e-16 0.0516078658401966095 0.191917121410369873
4.99600361081320443e-16 0.0749495774507522583 0.152275308966636658
4.99600361081320443e-16 0.228453204035758972 0.228723272681236267
4.99600361081320443e-16 0.0556017011404037476 0.235941767692565918
4.99600361081320443e-16 0.0945111140608787537 0.124499045312404633
4.99600361081320443e-16 0.0609340779483318329 0.199253961443901062
4.99600361081320443e-16 0.16595885157585144 0.221516549587249756
4.99600361081320443e-16 0.0426022149622440338 0.0640835165977478027
4.99600361081320443e-16 0.057881627231836319 0.127238437533378601
4.99600361081320443e-16 0.132701009511947632 0.198681622743606567
4.99600361081320443e-16 0.0259448625147342682 0.149352669715881348
4.99600361081320443e-16 0.0544163733720779419 0.199955150485038757
4.99600361081320443e-16 0.0684914290904998779 0.0994070470333099365
4.99600361081320443e-16 0.0591667257249355316 0.0674170553684234619
4.99600361081320443e-16 0.0591783411800861359 0.157093048095703125
4.99600361081320443e-16 0.00457151327282190323 0.2198515385389328
4.99600361081320443e-16 0.0731099098920822144 0.115820564329624176
4.99600361081320443e-16 0.0186430830508470535 0.106849581003189087
4.99600361081320443e-16 0.0165008064359426498 0.110828831791877747
4.99600361081320443e-16 0.126762941479682922 0.208228394389152527
4.99600361081320443e-16 0.0604987181723117828 0.141426652669906616
4.99600361081320443e-16 0.0365631952881813049 0.122468516230583191
4.99600361081320443e-16 0.156516119837760925 0.163986265659332275
4.99600361081320443e-16 0.0339669212698936462 0.216583803296089172
4.99600361081320443e-16 0.0482904314994812012 0.135710984468460083
4.99600361081320443e-16 0.0515294373035430908 0.0886105597019195557
4.99600361081320443e-16 0.113926254212856293 0.145327106118202209
4.99600361081320443e-16 0.12350667268037796 0.187643304467201233
4.99600361081320443e-16 0.105180144309997559 0.193248152732849121
4.99600361081320443e-16 0.028485199436545372 0.181219398975372314
4.99600361081320443e-16 0.0648993626236915588 0.104792118072509766
4.99600361081320443e-16 0.179926216602325439 0.181492641568183899
4.99600361081320443e-16 0.0123782893642783165 0.182612255215644836
4.99600361081320443e-16 0.111968770623207092 0.120374597609043121
4.99600361081320443e-16 0.0828403159976005554 0.0791133493185043335
4.99600361081320443e-16 0.104413427412509918 0.162241965532302856
4.99600361081320443e-16 0.130216136574745178 0.213022992014884949
4.99600361081320443e-16 0.173495665192604065 0.168359160423278809
4.99600361081320443e-16 0.0161010082811117172 0.203422755002975464
4.99600361081320443e-16 0.123945116996765137 0.121865935623645782
4.99600361081320443e-16 0.00887098722159862518 0.0111554116010665894
4.99600361081320443e-16 0.0525082536041736603 0.0628390759229660034
4.99600361081320443e-16 0.12530006468296051 0.209065914154052734
4.99600361081320443e-16 0.0337051264941692352 0.229874536395072937
4.99600361081320443e-16 0.112763948738574982 0.108042865991592407
4.99600361081320443e-16 0.0251041613519191742 0.17114277184009552
4.99600361081320443e-16 0.0165578257292509079 0.12869688868522644
4.99600361081320443e-16 0.140704572200775146 0.166454344987869263
4.99600361081320443e-16 0.22862572968006134 0.218960359692573547
4.99600361081320443e-16 0.109964415431022644 0.202227190136909485
4.99600361081320443e-16 0.059818759560585022 0.186278432607650757
4.99600361081320443e-16 0.123955979943275452 0.229362115263938904
4.99600361081320443e-16 0.124452933669090271 0.157481580972671509
4.99600361081320443e-16 0.14275301992893219 0.206010758876800537
4.99600361081320443e-16 0.186516448855400085 0.219365939497947693
4.99600361081320443e-16 0.0779528245329856873 0.151322841644287109
4.99600361081320443e-16 0.114633500576019287 0.128856420516967773
4.99600361081320443e-16 0.219194576144218445 0.228992119431495667
4.99600361081320443e-16 0.00400602677837014198 0.115822844207286835
4.99600361081320443e-16 0.0140938032418489456 0.118993990123271942
4.99600361081320443e-16 0.150101542472839355 0.155751273036003113
4.99600361081320443e-16 0.133298128843307495 0.189035519957542419
4.99600361081320443e-16 0.203977763652801514 0.217774808406829834
4.99600361081320443e-16 0.0328130871057510376 0.0335199832916259766
4.99600361081320443e-16 0.054665829986333847 0.138405874371528625
4.99600361081320443e-16 0.0139869162812829018 0.154058784246444702
4.99600361081320443e-16 0.239521831274032593 0.227328523993492126
4.99600361081320443e-16 0.172688931226730347 0.236188903450965881
4.99600361081320443e-16 0.155589193105697632 0.225910797715187073
4.99600361081320443e-16 0.0414802543818950653 0.153828591108322144
4.99600361081320443e-16 0.210289999842643738 0.2255268394947052
4.99600361081320443e-16 0.0555477216839790344 0.230899587273597717
4.99600361081320443e-16 0.0435799919068813324 0.231022387742996216
4.99600361081320443e-16 0.0113843176513910294 0.0313715040683746338
4.99600361081320443e-16 0.107188485562801361 0.110936939716339111
4.99600361081320443e-16 0.0784658119082450867 0.176104694604873657
4.99600361081320443e-16 0.14331643283367157 0.211228683590888977
4.99600361081320443e-16 0.124648928642272949 0.130441725254058838
4.99600361081320443e-16 0.155385330319404602 0.205551564693450928
4.99600361081320443e-16 0.0687289983034133911 0.0670608431100845337
4.99600361081320443e-16 0.0822977498173713684 0.0910572558641433716
4.99600361081320443e-16 0.0271483827382326126 0.0890809148550033569
4.99600361081320443e-16 0.166571587324142456 0.167008712887763977
4.99600361081320443e-16 0.0619534067809581757 0.139473408460617065
4.99600361081320443e-16 0.00703981798142194748 0.200831502676010132
4.99600361081320443e-16 0.106379158794879913 0.11534108966588974
4.99600361081320443e-16 0.192129194736480713 0.205796003341674805
4.99600361081320443e-16 0.19041500985622406 0.217692866921424866
4.99600361081320443e-16 0.107331342995166779 0.140717923641204834
4.99600361081320443e-16 0.117476768791675568 0.126368939876556396
4.99600361081320443e-16 0.141819655895233154 0.195392310619354248
4.99600361081320443e-16 0.044971417635679245 0.0656316578388214111
4.99600361081320443e-16 0.138493895530700684 0.235697701573371887
4.99600361081320443e-16 0.100066639482975006 0.113690592348575592
4.99600361081320443e-16 0.0597432330250740051 0.213725268840789795
4.99600361081320443e-16 0.101284921169281006 0.172228977084159851
4.99600361081320443e-16 0.04992685467004776 0.199256613850593567
4.99600361081320443e-16 0.00787259731441736221 0.191253840923309326
4.99600361081320443e-16 0.0251126661896705627 0.0539801567792892456
4.99600361081320443e-16 0.00333915441296994686 0.0109546184539794922
4.99600361081320443e-16 0.0158056169748306274 0.0746271610260009766
4.99600361081320443e-16 0.12316613644361496 0.232587441802024841
4.99600361081320443e-16 0.228548496961593628 0.21697564423084259
4.99600361081320443e-16 0.128166079521179199 0.219545885920524597
4.99600361081320443e-16 0.11854708194732666 0.193750143051147461
4.99600361081320443e-16 0.0600912347435951233 0.165215224027633667
4.99600361081320443e-16 0.151953533291816711 0.21197153627872467
4.99600361081320443e-16 0.0885467678308486938 0.220310330390930176
4.99600361081320443e-16 0.073161102831363678 0.220152854919433594
4.99600361081320443e-16 0.164543703198432922 0.157458275556564331
4.99600361081320443e-16 0.037431664764881134 0.0660546272993087769
4.99600361081320443e-16 0.0671588629484176636 0.15309731662273407
4.99600361081320443e-16 0.00492662284523248672 0.0440937429666519165
4.99600361081320443e-16 0.063537895679473877 0.121037513017654419
4.99600361081320443e-16 0.0945578888058662415 0.127401441335678101
4.99600361081320443e-16 0.0425227023661136627 0.166063100099563599
4.99600361081320443e-16 0.0088829677551984787 0.0425155013799667358
4.99600361081320443e-16 0.051664549857378006 0.0669016093015670776
4.99600361081320443e-16 0.0588686354458332062 0.0772987157106399536
4.99600361081320443e-16 0.0942166075110435486 0.162393510341644287
4.99600361081320443e-16 0.118486166000366211 0.184997260570526123
4.99600361081320443e-16 0.0268000662326812744 0.232093736529350281
4.99600361081320443e-16 0.0447313860058784485 0.225893512368202209
4.99600361081320443e-16 0.00805128365755081177 0.128687217831611633
4.99600361081320443e-16 0.0673642382025718689 0.219408825039863586
4.99600361081320443e-16 0.00926354900002479553 0.154912114143371582
4.99600361081320443e-16 0.0748620778322219849 0.147016316652297974
4.99600361081320443e-16 0.0606846697628498077 0.216497480869293213
4.99600361081320443e-16 0.065512046217918396 0.184951663017272949
4.99600361081320443e-16 0.0120282825082540512 0.235840022563934326
4.99600361081320443e-16 0.113423794507980347 0.211708784103393555
4.99600361081320443e-16 0.110053896903991699 0.224310815334320068
4.99600361081320443e-16 0.0473631471395492554 0.203150898218154907
4.99600361081320443e-16 0.0514478124678134918 0.119295381009578705
4.99600361081320443e-16 0.0241551958024501801 0.0713507235050201416
4.99600361081320443e-16 0.156182184815406799 0.201986908912658691
4.99600361081320443e-16 0.0787183716893196106 0.166224434971809387
4.99600361081320443e-16 0.000958736054599285126 0.0415891706943511963
4.99600361081320443e-16 0.0264402944594621658 0.167154431343078613
4.99600361081320443e-16 0.0576710402965545654 0.18680378794670105
4.99600361081320443e-16 0.101583868265151978 0.173509120941162109
4.99600361081320443e-16 0.0212064236402511597 0.15614616870880127
4.99600361081320443e-16 0.0368772782385349274 0.0410243421792984009
4.99600361081320443e-16 0.127581700682640076 0.178134456276893616
4.99600361081320443e-16 0.0880686268210411072 0.175736874341964722
4.99600361081320443e-16 0.242794498801231384 0.231454148888587952
4.99600361081320443e-16 0.0304964128881692886 0.0998971164226531982
4.99600361081320443e-16 0.147620171308517456 0.198437869548797607
4.99600361081320443e-16 0.140299528837203979 0.155199512839317322
4.99600361081320443e-16 0.202662184834480286 0.199604272842407227
4.99600361081320443e-16 0.138386860489845276 0.179870128631591797
4.99600361081320443e-16 0.095325961709022522 0.235612079501152039
4.99600361081320443e-16 0.0428483448922634125 0.161655619740486145
4.99600361081320443e-16 0.0669016614556312561 0.164143696427345276
4.99600361081320443e-16 0.183961629867553711 0.226629555225372314
4.99600361081320443e-16 0.158582791686058044 0.190979406237602234
4.99600361081320443e-16 0.112610504031181335 0.11610877513885498
4.99600361081320443e-16 0.0304707624018192291 0.125724852085113525
4.99600361081320443e-16 0.0186350885778665543 0.108754709362983704
4.99600361081320443e-16 0.124170511960983276 0.218072801828384399
4.99600361081320443e-16 0.10858561098575592 0.143172860145568848
4.99600361081320443e-16 0.0309939850121736526 0.0677323639392852783
4.99600361081320443e-16 0.0612224750220775604 0.105322599411010742
4.99600361081320443e-16 0.129455253481864929 0.162111908197402954
4.99600361081320443e-16 0.138345658779144287 0.19887310266494751
4.99600361081320443e-16 0.0267217662185430527 0.0840459614992141724
4.99600361081320443e-16 0.0120512591674923897 0.0221373587846755981
4.99600361081320443e-16 0.0741022005677223206 0.0961142629384994507
4.99600361081320443e-16 0.0435613654553890228 0.154150009155273438
4.99600361081320443e-16 0.0225066393613815308 0.194716915488243103
4.99600361081320443e-16 0.0757586881518363953 0.158279687166213989
4.99600361081320443e-16 0.169661954045295715 0.199588030576705933
4.99600361081320443e-16 0.0862154737114906311 0.136267080903053284
4.99600361081320443e-16 0.0258139707148075104 0.207051739096641541
4.99600361081320443e-16 0.209320351481437683 0.233349516987800598
4.99600361081320443e-16 0.130401358008384705 0.218482181429862976
4.99600361081320443e-16 0.0173740945756435394 0.234737128019332886
4.99600361081320443e-16 0.0825731977820396423 0.179505079984664917
4.99600361081320443e-16 0.0265515279024839401 0.0705036818981170654
4.99600361081320443e-16 0.191003918647766113 0.197727233171463013
4.99600361081320443e-16 0.072475925087928772 0.232248172163963318
4.99600361081320443e-16 0.0687794163823127747 0.234647512435913086
4.99600361081320443e-16 0.0170729868113994598 0.131820976734161377
4.99600361081320443e-16 0.0299099069088697433 0.138674676418304443
4.99600361081320443e-16 0.0692010149359703064 0.0754785686731338501
4.99600361081320443e-16 0.0953388512134552002 0.188317254185676575
4.99600361081320443e-16 0.0897453352808952332 0.0893206596374511719
4.99600361081320443e-16 0.00841472018510103226 0.112907543778419495
4.99600361081320443e-16 0.159932568669319153 0.175950497388839722
4.99600361081320443e-16 0.0541170984506607056 0.0897612422704696655
4.99600361081320443e-16 0.0113681163638830185 0.193579733371734619
4.99600361081320443e-16 0.0503749251365661621 0.0657811015844345093
4.99600361081320443e-16 0.0575008392333984375 0.116777695715427399
4.99600361081320443e-16 0.0134484525769948959 0.229132473468780518
4.99600361081320443e-16 0.203446686267852783 0.211793616414070129
4.99600361081320443e-16 0.0899522304534912109 0.228411838412284851
4.99600361081320443e-16 0.00692291557788848877 0.190899550914764404
4.99600361081320443e-16 0.00977578293532133102 0.0567581802606582642
4.99600361081320443e-16 0.116870187222957611 0.134655505418777466
4.99600361081320443e-16 0.00230496050789952278 0.17610013484954834
4.99600361081320443e-16 0.0619069971144199371 0.19073033332824707
4.99600361081320443e-16 0.0754388123750686646 0.145553052425384521
4.99600361081320443e-16 0.112197346985340118 0.16906680166721344
