ply
format ascii 1.0
element vertex 706
property float x
property float y
property float z
end_header
-0.0250000003725290298 0.0328347533941268921 0.0190355125814676285
-0.0250000003725290298 0.032464686781167984 0.0190813131630420685
-0.0250000003725290298 0.0320394411683082581 0.019862225279211998
-0.0250000003725290298 0.0296542271971702576 0.01097134780138731
-0.0250000003725290298 0.030877893790602684 0.0136958444491028786
-0.0250000003725290298 0.0300837978720664978 0.0140270320698618889
-0.0250000003725290298 0.0287865065038204193 0.00763256754726171494
-0.0250000003725290298 0.0300301406532526016 0.013987954705953598
-0.0250000003725290298 0.02907571941614151 0.00932120345532894135
-0.0250000003725290298 0.0329970158636569977 0.0193420834839344025
-0.0250000003725290298 0.0305059086531400681 0.0149520318955183029
-0.0250000003725290298 0.0318063758313655853 0.0195355769246816635
-0.0250000003725290298 0.031619783490896225 0.0168341770768165588
-0.0250000003725290298 0.0322968363761901855 0.0190989300608634949
-0.0250000003725290298 0.0317744389176368713 0.0182036161422729492
-0.0250000003725290298 0.0308602955192327499 0.0136981112882494926
-0.0250000003725290298 0.0316715165972709656 0.0161505676805973053
-0.0250000003725290298 0.0299470946192741394 0.0124873938038945198
-0.0250000003725290298 0.0291052684187889099 0.00833017192780971527
-0.0250000003725290298 0.030869707465171814 0.0131464563310146332
-0.0250000003725290298 0.03251638263463974 0.0185361765325069427
-0.0250000003725290298 0.0311646126210689545 0.0161037091165781021
-0.0250000003725290298 0.0319290570914745331 0.0207437407225370407
-0.0250000003725290298 0.0322575047612190247 0.0179083961993455887
-0.0250000003725290298 0.0313967503607273102 0.0179450139403343201
-0.0250000003725290298 0.0316618494689464569 0.015876254066824913
-0.0250000003725290298 0.0303521957248449326 0.0141479168087244034
-0.0250000003725290298 0.0307736489921808243 0.0156986527144908905
-0.0250000003725290298 0.0298920180648565292 0.0116885323077440262
-0.0250000003725290298 0.0315487608313560486 0.0135815143585205078
-0.0250000003725290298 0.0312955603003501892 0.0121510149911046028
-0.0250000003725290298 0.0321023017168045044 0.0152667118236422539
-0.0250000003725290298 0.032342277467250824 0.015147702768445015
-0.0250000003725290298 0.0300574656575918198 0.00896895863115787506
-0.0250000003725290298 0.0328438058495521545 0.0165558010339736938
-0.0250000003725290298 0.0312369037419557571 0.0118287624791264534
-0.0250000003725290298 0.0321401730179786682 0.015484130010008812
-0.0250000003725290298 0.0310029424726963043 0.0116018587723374367
-0.0250000003725290298 0.0307567249983549118 0.0100823799148201942
-0.0250000003725290298 0.0327577777206897736 0.0169324800372123718
-0.0250000003725290298 0.0327542498707771301 0.0162343829870223999
-0.0250000003725290298 0.0320802181959152222 0.0159252621233463287
-0.0250000003725290298 0.0333171077072620392 0.0156290289014577866
-0.0250000003725290298 0.0309216175228357315 0.0109588224440813065
-0.0250000003725290298 0.0319626070559024811 0.0152967497706413269
-0.0250000003725290298 0.0331004783511161804 0.0186100807040929794
-0.0250000003725290298 0.028911881148815155 0.00650393636897206306
-0.0250000003725290298 0.0319189317524433136 0.0125428130850195885
-0.0250000003725290298 0.0310453698039054871 0.0110036712139844894
-0.0250000003725290298 0.030399693176150322 0.0100172562524676323
-0.0250000003725290298 0.032339971512556076 0.0151837728917598724
-0.0250000003725290298 0.0296105667948722839 0.00907837320119142532
-0.0250000003725290298 0.032316744327545166 0.0140387862920761108
-0.0250000003725290298 0.0331583358347415924 0.0192751921713352203
-0.0250000003725290298 0.0323971323668956757 0.0153134940192103386
-0.0250000003725290298 0.0328722856938838959 0.0138668343424797058
-0.0250000003725290298 0.0330260805785655975 0.0138941351324319839
-0.0250000003725290298 0.0314336121082305908 0.0100944973528385162
-0.0250000003725290298 0.0325597897171974182 0.0126778045669198036
-0.0250000003725290298 0.0316085368394851685 0.0102198291569948196
-0.0250000003725290298 0.0323753617703914642 0.011076066642999649
-0.0250000003725290298 0.0312068108469247818 0.010729190893471241
-0.0250000003725290298 0.0289851706475019455 0.0061315479688346386
-0.0250000003725290298 0.0315288528800010681 0.0109464079141616821
-0.0250000003725290298 0.0309542771428823471 0.00992735382169485092
-0.0250000003725290298 0.0329653769731521606 0.0144508965313434601
-0.0250000003725290298 0.0318605639040470123 0.0116989901289343834
-0.0250000003725290298 0.0320007950067520142 0.0120799997821450233
-0.0250000003725290298 0.029531378298997879 0.00636843219399452209
-0.0250000003725290298 0.0291967000812292099 0.00610395800322294235
-0.0250000003725290298 0.031590096652507782 0.00979395210742950439
-0.0250000003725290298 0.0302140973508358002 0.00739220716059207916
-0.0250000003725290298 0.0248126760125160217 0.00220018182881176472
-0.0250000003725290298 0.0250838380306959152 0.00258241640403866768
-0.0250000003725290298 0.0264115463942289352 0.0033198515884578228
-0.0250000003725290298 0.0241641998291015625 0.00188057217746973038
-0.0250000003725290298 0.017965804785490036 0.000407865270972251892
-0.0250000003725290298 0.0200267396867275238 0.00118360947817564011
-0.0250000003725290298 0.0214483886957168579 0.00145308556966483593
-0.0250000003725290298 0.0209091287106275558 0.00063291692640632391
-0.0250000003725290298 0.0242657642811536789 0.00253652408719062805
-0.0250000003725290298 0.0212124567478895187 0.00121301296167075634
-0.0250000003725290298 0.023303251713514328 0.00189541943836957216
-0.0250000003725290298 0.0194054543972015381 0.000424849218688905239
-0.0250000003725290298 0.0269258935004472733 0.00385001790709793568
-0.0250000003725290298 0.0236985795199871063 0.0021371182519942522
-0.0250000003725290298 0.0202685017138719559 0.000511512160301208496
-0.0250000003725290298 0.0199845787137746811 0.00106027885340154171
-0.0250000003725290298 0.0208020880818367004 0.000809405406471341848
-0.0250000003725290298 0.0169891193509101868 0.000316483376082032919
-0.0250000003725290298 0.0218137521296739578 0.00256701884791254997
-0.0250000003725290298 0.0268872715532779694 0.0039762924425303936
-0.0250000003725290298 0.0181161239743232727 0.00150452263187617064
-0.0250000003725290298 0.0162817351520061493 0.0011368973646312952
-0.0250000003725290298 0.0182122252881526947 0.00083491089753806591
-0.0250000003725290298 0.0166649166494607925 3.20513499900698662e-05
-0.0250000003725290298 0.0258104279637336731 0.00367023260332643986
-0.0250000003725290298 0.0229962170124053955 0.00288590556010603905
-0.0250000003725290298 0.0175571087747812271 0.00129441835451871157
-0.0250000003725290298 0.0148625615984201431 0.000267754658125340939
-0.0250000003725290298 0.0165112260729074478 0.000182514486368745565
-0.0250000003725290298 0.0165824219584465027 0.000214524450711905956
-0.0250000003725290298 0.0170677974820137024 0.00129402126185595989
-0.0250000003725290298 0.0229254122823476791 0.00254492904059588909
-0.0250000003725290298 0.0150774130597710609 0.000795783940702676773
-0.0250000003725290298 0.0147814108058810234 0.000788560602813959122
-0.0250000003725290298 0.0217512063682079315 0.00217858399264514446
-0.0250000003725290298 0.0200131479650735855 0.00153700436931103468
-0.0250000003725290298 0.0217165499925613403 0.00273159774951636791
-0.0250000003725290298 0.0235101357102394104 0.00323740718886256218
-0.0250000003725290298 0.0157133210450410843 0.000132437213324010372
-0.0250000003725290298 0.0207320880144834518 0.00250689219683408737
-0.0250000003725290298 0.0165897868573665619 0.000686454353854060173
-0.0250000003725290298 0.0218027587980031967 0.00206517544575035572
-0.0250000003725290298 0.0158783420920372009 0.000776314525865018368
-0.0250000003725290298 0.0114771239459514618 0.00171372434124350548
-0.0250000003725290298 0.0147118326276540756 0.00185422459617257118
-0.0250000003725290298 0.0219251736998558044 0.00346770789474248886
-0.0250000003725290298 0.0240077134221792221 0.00369886192493140697
-0.0250000003725290298 0.0225925277918577194 0.00356417638249695301
-0.0250000003725290298 0.0100084161385893822 0.00161037035286426544
-0.0250000003725290298 0.0148330973461270332 0.00144035648554563522
-0.0250000003725290298 0.0194749291986227036 0.00257425545714795589
-0.0250000003725290298 0.0205548685044050217 0.00302729359827935696
-0.0250000003725290298 0.0226505324244499207 0.00318917492404580116
-0.0250000003725290298 0.0146740395575761795 0.00211936980485916138
-0.0250000003725290298 0.0132374800741672516 0.00261570559814572334
-0.0250000003725290298 0.0108799263834953308 0.00126147503033280373
-0.0250000003725290298 0.0130189182236790657 0.00184155046008527279
-0.0250000003725290298 0.0108042880892753601 0.0014411192387342453
-0.0250000003725290298 0.0222378093749284744 0.0035833215806633234
-0.0250000003725290298 0.0205677039921283722 0.00274364696815609932
-0.0250000003725290298 0.0121951764449477196 0.00232648407109081745
-0.0250000003725290298 0.0199448168277740479 0.00297062098979949951
-0.0250000003725290298 0.0137785999104380608 0.00152834923937916756
-0.0250000003725290298 0.0223302766680717468 0.00324584310874342918
-0.0250000003725290298 0.0120361372828483582 0.00102246855385601521
-0.0250000003725290298 0.0190203059464693069 0.00269196578301489353
-0.0250000003725290298 0.0114369681105017662 0.00175323430448770523
-0.0250000003725290298 0.0118029331788420677 0.00204572221264243126
-0.0250000003725290298 0.0159384571015834808 0.00151022360660135746
-0.0250000003725290298 0.0132596399635076523 0.00262139970436692238
-0.0250000003725290298 0.0215523168444633484 0.00280092284083366394
-0.0250000003725290298 0.0142056653276085854 0.00119297823403030634
-0.0250000003725290298 0.0201565809547901154 0.00336393807083368301
-0.0250000003725290298 0.0180092677474021912 0.0023807859979569912
-0.0250000003725290298 0.0142737105488777161 0.00253114895895123482
-0.0250000003725290298 0.0162861887365579605 0.001742164371535182
-0.0250000003725290298 0.0144419558346271515 0.00122507801279425621
-0.0250000003725290298 0.0143665475770831108 0.00267247948795557022
-0.0250000003725290298 0.0142289968207478523 0.00216947309672832489
-0.0250000003725290298 0.0213484000414609909 0.00344512937590479851
-0.0250000003725290298 0.0105465659871697426 0.00204251240938901901
-0.0250000003725290298 0.0171724893152713776 0.00281321187503635883
-0.0250000003725290298 0.0122618423774838448 0.00241206632927060127
-0.0250000003725290298 0.0129661168903112411 0.00089556665625423193
-0.0250000003725290298 0.0253497343510389328 0.00376458931714296341
-0.0250000003725290298 0.0193745791912078857 0.00371002382598817348
-0.0250000003725290298 0.0209059678018093109 0.00418055849149823189
-0.0250000003725290298 0.00964603852480649948 0.00389955448918044567
-0.0250000003725290298 0.0124685326591134071 0.00310114352032542229
-0.0250000003725290298 0.00750060100108385086 0.00334197445772588253
-0.0250000003725290298 0.00933590997010469437 0.00400221673771739006
-0.0250000003725290298 0.0119171459227800369 0.00254068826325237751
-0.0250000003725290298 0.00855521298944950104 0.00389847741462290287
-0.0250000003725290298 0.00815347395837306976 0.00413698563352227211
-0.0250000003725290298 0.00864788517355918884 0.00295742903836071491
-0.0250000003725290298 0.0150712067261338234 0.00344216334633529186
-0.0250000003725290298 0.00832333881407976151 0.00333196250721812248
-0.0250000003725290298 0.00840633362531661987 0.00309634278528392315
-0.0250000003725290298 0.0178359057754278183 0.0043031587265431881
-0.0250000003725290298 0.0191209204494953156 0.00376548618078231812
-0.0250000003725290298 0.0222958680242300034 0.00370792741887271404
-0.0250000003725290298 0.0200989041477441788 0.00395572604611515999
-0.0250000003725290298 0.0263158287853002548 0.00426541361957788467
-0.0250000003725290298 0.018362678587436676 0.00396800972521305084
-0.0250000003725290298 0.0062403511255979538 0.00400685565546154976
-0.0250000003725290298 0.0142381219193339348 0.00407363008707761765
-0.0250000003725290298 0.0155115025117993355 0.00329466816037893295
-0.0250000003725290298 0.0168145634233951569 0.00413935305550694466
-0.0250000003725290298 0.0176604017615318298 0.00442855246365070343
-0.0250000003725290298 0.00639883801341056824 0.00413506245240569115
-0.0250000003725290298 0.0128550808876752853 0.00341854151338338852
-0.0250000003725290298 0.0192394275218248367 0.00398529646918177605
-0.0250000003725290298 0.0193769186735153198 0.00430527329444885254
-0.0250000003725290298 0.0120096514001488686 0.00358348316513001919
-0.0250000003725290298 0.00705058407038450241 0.00345607777126133442
-0.0250000003725290298 0.0145248435437679291 0.00307539966888725758
-0.0250000003725290298 0.0125589538365602493 0.00371982366777956486
-0.0250000003725290298 0.0130928102880716324 0.00269488198682665825
-0.0250000003725290298 0.00808766856789588928 0.00445494381710886955
-0.0250000003725290298 0.00901190191507339478 0.00274146371521055698
-0.0250000003725290298 0.0191551167517900467 0.00382132036611437798
-0.0250000003725290298 0.0229684729129076004 0.00383834936656057835
-0.0250000003725290298 0.0111143691465258598 0.00316985417157411575
-0.0250000003725290298 0.00803215708583593369 0.0026105076540261507
-0.0250000003725290298 0.00638721324503421783 0.00421829801052808762
-0.0250000003725290298 0.0112830400466918945 0.0034034529235213995
-0.0250000003725290298 0.0190787166357040405 0.00365123688243329525
-0.0250000003725290298 0.0174109078943729401 0.00383520964533090591
-0.0250000003725290298 0.00632165372371673584 0.00435971980914473534
-0.0250000003725290298 0.0114045571535825729 0.00383403315208852291
-0.0250000003725290298 0.0109210191294550896 0.00428572995588183403
-0.0250000003725290298 0.00712109915912151337 0.0038613523356616497
-0.0250000003725290298 0.0137297222390770912 0.00288048502989113331
-0.0250000003725290298 0.0141382180154323578 0.00379456952214241028
-0.0250000003725290298 0.00865413900464773178 0.00375713384710252285
-0.0250000003725290298 0.0144002940505743027 0.00352188479155302048
-0.0250000003725290298 0.0178644023835659027 0.0032742770854383707
-0.0250000003725290298 0.01416776143014431 0.00427128095179796219
-0.0250000003725290298 0.0119377002120018005 0.00406436249613761902
-0.0250000003725290298 0.0227460488677024841 0.00428792834281921387
-0.0250000003725290298 0.0087933586910367012 0.00331627973355352879
-0.0250000003725290298 0.0181502159684896469 0.00385338626801967621
-0.0250000003725290298 0.00813077297061681747 0.00248774886131286621
-0.0250000003725290298 0.0105135887861251831 0.00341811240650713444
-0.0250000003725290298 0.0044379010796546936 0.00682499166578054428
-0.0250000003725290298 0.0102561591193079948 0.00482884002849459648
-0.0250000003725290298 0.0246269293129444122 0.00455638626590371132
-0.0250000003725290298 0.014046715572476387 0.00524150021374225616
-0.0250000003725290298 0.00786971207708120346 0.00558533240109682083
-0.0250000003725290298 0.0146600073203444481 0.00499047571793198586
-0.0250000003725290298 0.0160085186362266541 0.00482861138880252838
-0.0250000003725290298 0.00330603122711181641 0.00752193573862314224
-0.0250000003725290298 0.0146170211955904961 0.00544336810708045959
-0.0250000003725290298 0.00911257229745388031 0.00655615236610174179
-0.0250000003725290298 0.0161016248166561127 0.00463641388341784477
-0.0250000003725290298 0.00691896351054310799 0.00511862244457006454
-0.0250000003725290298 0.00594486203044652939 0.00521653192117810249
-0.0250000003725290298 0.00775407301262021065 0.00453294161707162857
-0.0250000003725290298 0.00791315548121929169 0.00636043725535273552
-0.0250000003725290298 0.0167883746325969696 0.00500096520408987999
-0.0250000003725290298 0.0181268732994794846 0.0049490099772810936
-0.0250000003725290298 0.0133463358506560326 0.00482615875080227852
-0.0250000003725290298 0.0169414225965738297 0.00481783179566264153
-0.0250000003725290298 0.00803726352751255035 0.00533129414543509483
-0.0250000003725290298 0.00864394009113311768 0.00459136534482240677
-0.0250000003725290298 0.00864581204950809479 0.00681523745879530907
-0.0250000003725290298 0.00997815839946269989 0.00544263143092393875
-0.0250000003725290298 0.0154824908822774887 0.00463088089600205421
-0.0250000003725290298 0.0117841055616736412 0.00582775194197893143
-0.0250000003725290298 0.00989804975688457489 0.00512323668226599693
-0.0250000003725290298 0.00508581101894378662 0.00626518996432423592
-0.0250000003725290298 0.0212678145617246628 0.00517004635185003281
-0.0250000003725290298 0.00565792107954621315 0.00510028330609202385
-0.0250000003725290298 0.00942296255379915237 0.00559880025684833527
-0.0250000003725290298 0.0138590801507234573 0.00514033716171979904
-0.0250000003725290298 0.0161748174577951431 0.00485294777899980545
-0.0250000003725290298 0.00530554912984371185 0.00528131984174251556
-0.0250000003725290298 0.00402116589248180389 0.00710352417081594467
-0.0250000003725290298 0.0130125079303979874 0.00458290334790945053
-0.0250000003725290298 0.00748438853770494461 0.00627608085051178932
-0.0250000003725290298 0.02479548379778862 0.00463371491059660912
-0.0250000003725290298 0.0115344161167740822 0.00625853380188345909
-0.0250000003725290298 0.00512602925300598145 0.00501461327075958252
-0.0250000003725290298 0.0050578853115439415 0.00637592654675245285
-0.0250000003725290298 0.0130439363420009613 0.00512104760855436325
-0.0250000003725290298 0.0174223892390727997 0.00466537196189165115
-0.0250000003725290298 0.0141733782365918159 0.00526925083249807358
-0.0250000003725290298 0.0196777936071157455 0.00480233179405331612
-0.0250000003725290298 0.0159040484577417374 0.00465551484376192093
-0.0250000003725290298 0.0161427762359380722 0.00455774134024977684
-0.0250000003725290298 0.0163295827805995941 0.00578328734263777733
-0.0250000003725290298 0.00757247162982821465 0.00534596480429172516
-0.0250000003725290298 0.00401508621871471405 0.00695775263011455536
-0.0250000003725290298 0.0193652771413326263 0.00477018207311630249
-0.0250000003725290298 0.0132152512669563293 0.00592513848096132278
-0.0250000003725290298 0.00591345410794019699 0.00472814822569489479
-0.0250000003725290298 0.0147717539221048355 0.00556692294776439667
-0.0250000003725290298 0.0192662328481674194 0.00528202438727021217
-0.0250000003725290298 0.00801634974777698517 0.00561077473685145378
-0.0250000003725290298 0.0148939201608300209 0.00603936053812503815
-0.0250000003725290298 0.0208916030824184418 0.00463664764538407326
-0.0250000003725290298 0.017384551465511322 0.00567820481956005096
-0.0250000003725290298 0.019771970808506012 0.00445478642359375954
-0.0250000003725290298 0.00446048937737941742 0.00735217705368995667
-0.0250000003725290298 0.0198562294244766235 0.00509647373110055923
-0.0250000003725290298 0.00413775444030761719 0.0064816521480679512
-0.0250000003725290298 0.0133938426151871681 0.00587316788733005524
-0.0250000003725290298 0.0180533118546009064 0.00469723716378211975
-0.0250000003725290298 0.0140612656250596046 0.00549763115122914314
-0.0250000003725290298 0.0124098211526870728 0.00536361942067742348
-0.0250000003725290298 0.0118828825652599335 0.00560251204296946526
-0.0250000003725290298 0.0137351416051387787 0.00449332362040877342
-0.0250000003725290298 0.0106093622744083405 0.00557409180328249931
-0.0250000003725290298 0.0121348192915320396 0.00637311395257711411
-0.0250000003725290298 0.0120561541989445686 0.00607513356953859329
-0.0250000003725290298 0.00885170232504606247 0.00463107135146856308
-0.0250000003725290298 0.00416791252791881561 0.00731552997604012489
-0.0250000003725290298 0.00752178486436605453 0.00642782170325517654
-0.0250000003725290298 0.00632633781060576439 0.00499342754483222961
-0.0250000003725290298 0.0245279185473918915 0.00481097539886832237
-0.0250000003725290298 0.0183766894042491913 0.0045171552337706089
-0.0250000003725290298 0.0124891549348831177 0.00491177476942539215
-0.0250000003725290298 0.00631114747375249863 0.00919008255004882812
-0.0250000003725290298 0.00668070651590824127 0.00907918345183134079
-0.0250000003725290298 0.00386049784719944 0.00835639424622058868
-0.0250000003725290298 0.00940858200192451477 0.00741672981530427933
-0.0250000003725290298 0.0164521597325801849 0.00613407837226986885
-0.0250000003725290298 0.00585125666111707687 0.00872653163969516754
-0.0250000003725290298 0.0182286426424980164 0.00591645156964659691
-0.0250000003725290298 0.00194771029055118561 0.0108908815309405327
-0.0250000003725290298 0.0119946766644716263 0.00730718951672315598
-0.0250000003725290298 0.0181470718234777451 0.00571734039112925529
-0.0250000003725290298 0.010135602205991745 0.00793997198343276978
-0.0250000003725290298 0.0122244516387581825 0.00829048082232475281
-0.0250000003725290298 0.00638478109613060951 0.00762632722035050392
-0.0250000003725290298 0.0208123568445444107 0.00560633605346083641
-0.0250000003725290298 0.0153697635978460312 0.00645230989903211594
-0.0250000003725290298 0.0107887769117951393 0.00662722904235124588
-0.0250000003725290298 0.0101369163021445274 0.00772864604368805885
-0.0250000003725290298 0.0204049460589885712 0.0060430220328271389
-0.0250000003725290298 0.0179810188710689545 0.00575302820652723312
-0.0250000003725290298 0.0107652395963668823 0.00699062971398234367
-0.0250000003725290298 0.00701858382672071457 0.0086613725870847702
-0.0250000003725290298 0.00311761908233165741 0.00880260299891233444
-0.0250000003725290298 0.00241464795544743538 0.00834405701607465744
-0.0250000003725290298 0.0106050567701458931 0.0076279742643237114
-0.0250000003725290298 0.0035935472697019577 0.010133642703294754
-0.0250000003725290298 0.00282952841371297836 0.00962244533002376556
-0.0250000003725290298 0.0169755294919013977 0.00603920267894864082
-0.0250000003725290298 0.00362604577094316483 0.00898671802133321762
-0.0250000003725290298 0.00591397378593683243 0.008999641053378582
-0.0250000003725290298 0.00768754445016384125 0.00947224069386720657
-0.0250000003725290298 0.0093358941376209259 0.00867212284356355667
-0.0250000003725290298 0.00234631448984146118 0.0108244903385639191
-0.0250000003725290298 0.0140265282243490219 0.00696433708071708679
-0.0250000003725290298 0.0164508819580078125 0.007055655587464571
-0.0250000003725290298 0.0181421283632516861 0.00579256797209382057
-0.0250000003725290298 0.0217982232570648193 0.00555501878261566162
-0.0250000003725290298 0.0171683579683303833 0.00591656845062971115
-0.0250000003725290298 0.0190467052161693573 0.00621528364717960358
-0.0250000003725290298 0.0104679130017757416 0.0087316734716296196
-0.0250000003725290298 0.0170840434730052948 0.00711780134588479996
-0.0250000003725290298 0.0144397392868995667 0.00720045622438192368
-0.0250000003725290298 0.0236005242913961411 0.00529944850131869316
-0.0250000003725290298 0.00649479543790221214 0.00791666004806756973
-0.0250000003725290298 0.0162222795188426971 0.00692976079881191254
-0.0250000003725290298 0.0145361227914690971 0.00711165601387619972
-0.0250000003725290298 0.0115322358906269073 0.00858445465564727783
-0.0250000003725290298 0.00127895176410675049 0.0111319711431860924
-0.0250000003725290298 0.00879059731960296631 0.00914261490106582642
-0.0250000003725290298 0.00956958625465631485 0.00857821479439735413
-0.0250000003725290298 0.00700640026479959488 0.00817250832915306091
-0.0250000003725290298 0.00944562256336212158 0.00758439674973487854
-0.0250000003725290298 0.0197573192417621613 0.00549787282943725586
-0.0250000003725290298 0.0170274730771780014 0.00649757450446486473
-0.0250000003725290298 0.015153505839407444 0.0065137878991663456
-0.0250000003725290298 0.0127948764711618423 0.00647464534267783165
-0.0250000003725290298 0.0190513748675584793 0.0055482303723692894
-0.0250000003725290298 0.00501912180334329605 0.00839269999414682388
-0.0250000003725290298 0.00146179087460041046 0.0107566416263580322
-0.0250000003725290298 0.00248287990689277649 0.00926712900400161743
-0.0250000003725290298 0.0188641082495450974 0.00613778457045555115
-0.0250000003725290298 0.00369885796681046486 0.00827623158693313599
-0.0250000003725290298 0.0022204183042049408 0.0109477872028946877
-0.0250000003725290298 0.0149330385029315948 0.00639004120603203773
-0.0250000003725290298 0.0100230220705270767 0.00673956284299492836
-0.0250000003725290298 0.0054021105170249939 0.0082884524017572403
-0.0250000003725290298 0.00370965152978897095 0.00932253152132034302
-0.0250000003725290298 0.00931190513074398041 0.00875372998416423798
-0.0250000003725290298 0.0203985944390296936 0.00608705542981624603
-0.0250000003725290298 0.00906416680663824081 0.0087961265817284584
-0.0250000003725290298 0.00752814114093780518 0.00841774418950080872
-0.0250000003725290298 0.00256134197115898132 0.0092453882098197937
-0.0250000003725290298 0.00611079856753349304 0.00925567001104354858
-0.0250000003725290298 0.0140025867149233818 0.0077674398198723793
-0.0250000003725290298 0.00249597802758216858 0.0106091946363449097
-0.0250000003725290298 0.0022963574156165123 0.00956287607550621033
-0.0250000003725290298 0.00749373994767665863 0.00931759737432003021
-0.0250000003725290298 0.00877212546765804291 0.00934044830501079559
-0.0250000003725290298 0.00214629247784614563 0.00887533277273178101
-0.0250000003725290298 0.00346312182955443859 0.00768682453781366348
-0.0250000003725290298 0.00132944434881210327 0.0104987528175115585
-0.0250000003725290298 0.0029779486358165741 0.0108683221042156219
-0.0250000003725290298 0.0112642496824264526 0.00674870889633893967
-0.0250000003725290298 0.0100641548633575439 0.00901329237967729568
-0.0250000003725290298 0.0179772526025772095 0.00672448519617319107
-0.0250000003725290298 0.00938492454588413239 0.00885692983865737915
-0.0250000003725290298 0.00687997322529554367 0.00860584061592817307
-0.0250000003725290298 0.0197799298912286758 0.00606175605207681656
-0.0250000003725290298 0.0115776779130101204 0.0084413355216383934
-0.0250000003725290298 0.0142973326146602631 0.00685598375275731087
-0.0250000003725290298 0.0076368432492017746 0.008423597551882267
-0.0250000003725290298 0.0149809345602989197 0.00698043126612901688
-0.0250000003725290298 0.0112467352300882339 0.007486680056899786
-0.0250000003725290298 0.00763046927750110626 0.0096447281539440155
-0.0250000003725290298 0.00815478060394525528 0.00754902185872197151
-0.0250000003725290298 0.0142986010760068893 0.00693789450451731682
-0.0250000003725290298 0.00551477354019880295 0.0113656502217054367
-0.0250000003725290298 0.0125386053696274757 0.00960505753755569458
-0.0250000003725290298 0.0240117833018302917 0.00555416475981473923
-0.0250000003725290298 0.0201203282922506332 0.00649759732186794281
-0.0250000003725290298 0.00962865538895130157 0.00966180302202701569
-0.0250000003725290298 0.00168974511325359344 0.0124275041744112968
-0.0250000003725290298 0.0114549538120627403 0.00946721155196428299
-0.0250000003725290298 0.0202132910490036011 0.00702162180095911026
-0.0250000003725290298 0.00268148398026823997 0.0115315672010183334
-0.0250000003725290298 0.00239884527400135994 0.0113335885107517242
-0.0250000003725290298 0.0134457387030124664 0.00928779132664203644
-0.0250000003725290298 0.00299443677067756653 0.0130417551845312119
-0.0250000003725290298 0.0149131603538990021 0.00801850203424692154
-0.0250000003725290298 0.0115246092900633812 0.00877429917454719543
-0.0250000003725290298 0.0114479251205921173 0.00955705251544713974
-0.0250000003725290298 0.00410816259682178497 0.0112145114690065384
-0.0250000003725290298 0.00228808261454105377 0.0118086216971278191
-0.0250000003725290298 0.0144975762814283371 0.0089121675118803978
-0.0250000003725290298 0.00887436792254447937 0.0107600092887878418
-0.0250000003725290298 0.0134108234196901321 0.00875078514218330383
-0.0250000003725290298 0.0093600274994969368 0.0105494465678930283
-0.0250000003725290298 0.00336487032473087311 0.0118016898632049561
-0.0250000003725290298 0.00466775614768266678 0.0116110099479556084
-0.0250000003725290298 0.00904749240726232529 0.00949674844741821289
-0.0250000003725290298 0.00514530204236507416 0.0113450894132256508
-0.0250000003725290298 0.0223564170300960541 0.00601977529004216194
-0.0250000003725290298 0.00961678102612495422 0.00975318904966115952
-0.0250000003725290298 0.00975393503904342651 0.00929438415914773941
-0.0250000003725290298 0.00849886145442724228 0.010519055649638176
-0.0250000003725290298 0.0146848028525710106 0.00793305505067110062
-0.0250000003725290298 0.00312560237944126129 0.01265699602663517
-0.0250000003725290298 0.0023272242397069931 0.0120702506974339485
-0.0250000003725290298 0.00899582263082265854 0.010065457783639431
-0.0250000003725290298 0.00943234842270612717 0.0104757025837898254
-0.0250000003725290298 0.00168293062597513199 0.0116134881973266602
-0.0250000003725290298 0.0129732945933938026 0.00936659239232540131
-0.0250000003725290298 0.0166468098759651184 0.00805512163788080215
-0.0250000003725290298 0.00454133003950119019 0.0121624069288372993
-0.0250000003725290298 0.0257107261568307877 0.00504337158054113388
-0.0250000003725290298 0.00143735110759735107 0.0128036476671695709
-0.0250000003725290298 0.00725755095481872559 0.0110275615006685257
-0.0250000003725290298 0.00177416810765862465 0.0116813536733388901
-0.0250000003725290298 0.0223449245095252991 0.00618591951206326485
-0.0250000003725290298 0.0115105053409934044 0.00929209589958190918
-0.0250000003725290298 0.0123172188177704811 0.00943906605243682861
-0.0250000003725290298 0.00537876039743423462 0.0116337714716792107
-0.0250000003725290298 0.0152737163007259369 0.0078730415552854538
-0.0250000003725290298 0.00770699605345726013 0.0107005797326564789
-0.0250000003725290298 0.00489153340458869934 0.0121740736067295074
-0.0250000003725290298 0.0160834062844514847 0.00777092063799500465
-0.0250000003725290298 0.00374381034635007381 0.0107273394241929054
-0.0250000003725290298 0.00812750402837991714 0.0103294411674141884
-0.0250000003725290298 0.00953897833824157715 0.00942963454872369766
-0.0250000003725290298 0.00533593446016311646 0.0115837305784225464
-0.0250000003725290298 0.0121041126549243927 0.00911732763051986694
-0.0250000003725290298 0.00415793992578983307 0.0120473131537437439
-0.0250000003725290298 0.00481011811643838882 0.0117339584976434708
-0.0250000003725290298 0.0075991656631231308 0.0105355409905314445
-0.0250000003725290298 0.00723139010369777679 0.0112420106306672096
-0.0250000003725290298 0.00158796180039644241 0.0119829112663865089
-0.0250000003725290298 0.00978540070354938507 0.00912481546401977539
-0.0250000003725290298 0.00568739231675863266 0.0103773949667811394
-0.0250000003725290298 0.0195487737655639648 0.00712205981835722923
-0.0250000003725290298 0.0195431821048259735 0.00695513421669602394
-0.0250000003725290298 0.0213019717484712601 0.00634659267961978912
-0.0250000003725290298 0.0249755363911390305 0.0051941676065325737
-0.0250000003725290298 0.0166065506637096405 0.00783673301339149475
-0.0250000003725290298 0.00265550706535577774 0.0111439973115921021
-0.0250000003725290298 0.00856016855686903 0.00947363302111625671
-0.0250000003725290298 0.0051936618983745575 0.0118354596197605133
-0.0250000003725290298 0.0113606899976730347 0.00890459399670362473
-0.0250000003725290298 0.0030893571674823761 0.0141796022653579712
-0.0250000003725290298 0.00200932100415229797 0.0152110578492283821
-0.0250000003725290298 0.00290032476186752319 0.014607270248234272
-0.0250000003725290298 0.0105682313442230225 0.0107586327940225601
-0.0250000003725290298 0.0121044833213090897 0.0101362457498908043
-0.0250000003725290298 0.0163796171545982361 0.00842144712805747986
-0.0250000003725290298 0.00600997358560562134 0.0138806533068418503
-0.0250000003725290298 0.0062270238995552063 0.0121908746659755707
-0.0250000003725290298 0.0181450545787811279 0.00852752290666103363
-0.0250000003725290298 0.0075531424954533577 0.0128771327435970306
-0.0250000003725290298 0.0047593945637345314 0.0127696385607123375
-0.0250000003725290298 0.00494493637233972549 0.012423916719853878
-0.0250000003725290298 0.0215640254318714142 0.00711641460657119751
-0.0250000003725290298 0.0203127544373273849 0.00716154510155320168
-0.0250000003725290298 0.00699805282056331635 0.0130448844283819199
-0.0250000003725290298 0.00735617708414793015 0.0126138255000114441
-0.0250000003725290298 0.021988309919834137 0.00685620401054620743
-0.0250000003725290298 0.00202511809766292572 0.0152168963104486465
-0.0250000003725290298 0.0168688166886568069 0.00910447351634502411
-0.0250000003725290298 0.00507786218076944351 0.0127870254218578339
-0.0250000003725290298 0.0149418562650680542 0.00938399787992238998
-0.0250000003725290298 0.0161261036992073059 0.00908534321933984756
-0.0250000003725290298 0.0173774920403957367 0.00855483673512935638
-0.0250000003725290298 0.0195444487035274506 0.00803205277770757675
-0.0250000003725290298 0.0128803150728344917 0.0101181827485561371
-0.0250000003725290298 0.00496792979538440704 0.0142543390393257141
-0.0250000003725290298 0.00952529720962047577 0.0114590553566813469
-0.0250000003725290298 0.00987805984914302826 0.0112180039286613464
-0.0250000003725290298 0.00311361858621239662 0.0130924135446548462
-0.0250000003725290298 0.00548741873353719711 0.0123968161642551422
-0.0250000003725290298 0.00742889195680618286 0.0123425759375095367
-0.0250000003725290298 0.00324508082121610641 0.0134970340877771378
-0.0250000003725290298 0.00200797198340296745 0.0134837962687015533
-0.0250000003725290298 0.00196838472038507462 0.0141123039647936821
-0.0250000003725290298 0.000564053654670715332 0.0160807110369205475
-0.0250000003725290298 0.0224002636969089508 0.00664035789668560028
-0.0250000003725290298 0.00775967910885810852 0.0128708351403474808
-0.0250000003725290298 0.00875730253756046295 0.0111304996535181999
-0.0250000003725290298 0.00799510814249515533 0.0120846927165985107
-0.0250000003725290298 0.0228445585817098618 0.00634302105754613876
-0.0250000003725290298 0.00428894767537713051 0.0130898114293813705
-0.0250000003725290298 0.0049599185585975647 0.0143359191715717316
-0.0250000003725290298 0.0161655768752098083 0.00878864433616399765
-0.0250000003725290298 0.00668628700077533722 0.0127005539834499359
-0.0250000003725290298 0.00333812180906534195 0.0142252109944820404
-0.0250000003725290298 0.0197883285582065582 0.00773893389850854874
-0.0250000003725290298 0.00382759422063827515 0.0144096342846751213
-0.0250000003725290298 0.00153026683256030083 0.0139466989785432816
-0.0250000003725290298 0.00615092134103178978 0.0125558292493224144
-0.0250000003725290298 0.00645970040932297707 0.0125162201002240181
-0.0250000003725290298 0.0015550367534160614 0.0145716015249490738
-0.0250000003725290298 0.0130695728585124016 0.0103865442797541618
-0.0250000003725290298 0.0181152541190385818 0.00837205350399017334
-0.0250000003725290298 0.00787953659892082214 0.0132128093391656876
-0.0250000003725290298 0.00523192761465907097 0.0127964410930871964
-0.0250000003725290298 0.0125414049252867699 0.0105913188308477402
-0.0250000003725290298 0.0165930911898612976 0.00908708292990922928
-0.0250000003725290298 0.00937583204358816147 0.0108712539076805115
-0.0250000003725290298 0.00744685716927051544 0.0126947779208421707
-0.0250000003725290298 0.0179019495844841003 0.00800470355898141861
-0.0250000003725290298 0.000631867442280054092 0.0145481619983911514
-0.0250000003725290298 0.0173374880105257034 0.00815963931381702423
-0.0250000003725290298 0.0114649487659335136 0.0113315144553780556
-0.0250000003725290298 0.0100456271320581436 0.012089315801858902
-0.0250000003725290298 0.00329021736979484558 0.0144396135583519936
-0.0250000003725290298 0.00858747214078903198 0.0111750513315200806
-0.0250000003725290298 0.000468809157609939575 0.0162784233689308167
-0.0250000003725290298 0.00674098031595349312 0.0123810293152928352
-0.0250000003725290298 0.00377579452469944954 0.0130133861675858498
-0.0250000003725290298 0.00914829503744840622 0.0117658879607915878
-0.0250000003725290298 0.019563235342502594 0.00733711849898099899
-0.0250000003725290298 0.00221643224358558655 0.0153790926560759544
-0.0250000003725290298 0.00194964930415153503 0.0140888635069131851
-0.0250000003725290298 0.0181889850646257401 0.00796324014663696289
-0.0250000003725290298 0.00197614589706063271 0.0135943479835987091
-0.0250000003725290298 0.016437143087387085 0.00870192795991897583
-0.0250000003725290298 0.00492290453985333443 0.0128619130700826645
0.0124999992549419403 0.0216506365686655045 0.0166999995708465576
0.00609266478568315506 0.0131647819653153419 0.0166999995708465576
-0.00218977103941142559 0.00649653095752000809 0.0166999995708465576
-0.0118471123278141022 0.00204667286016047001 0.0166999995708465576
-0.0183443669229745865 0.000514709099661558867 0.0166999995708465576
-0.0250000003725290298 -3.50761086842510394e-15 0.0166999995708465576
-0.0250000003725290298 -3.50761086842510394e-15 0.0166999995708465576
-0.0250000003725290298 0.000502197362948209047 0.0207646265625953674
-0.0250000003725290298 0.00199211854487657547 0.024610007181763649
-0.0250000003725290298 0.00438982760533690453 0.0279849302023649216
-0.0250000003725290298 0.00754996994510293007 0.0306702163070440292
-0.0250000003725290298 0.011275487020611763 0.0324944518506526947
-0.0250000003725290298 0.0153337540104985237 0.0333440192043781281
-0.0250000003725290298 0.0194731764495372772 0.0331681370735168457
-0.0250000003725290298 0.0234391819685697556 0.0319798365235328674
-0.0250000003725290298 0.0269892308861017227 0.02985377237200737
-0.0250000003725290298 0.0299067441374063492 0.026921149343252182
-0.0250000003725290298 0.0320136807858943939 0.0233619213104248047
-0.0250000003725290298 0.0331812389194965363 0.019394218921661377
-0.0250000003725290298 0.0333379097282886505 0.0152612840756773949
-0.0250000003725290298 0.0324740968644618988 0.0112165864557027817
-0.0250000003725290298 0.0306427218019962311 0.00750812888145446777
-0.0250000003725290298 0.0279558058828115463 0.00436319177970290184
-0.0250000003725290298 0.0245773922652006149 0.00197462388314306736
-0.0250000003725290298 0.0207135584205389023 0.000489468045998364687
-0.0250000003725290298 0.0166003424674272537 2.97353523137644515e-07
-0.0250000003725290298 0.0124901887029409409 0.000539322732947766781
-0.0250000003725290298 0.00863725412636995316 0.00207529030740261078
-0.0250000003725290298 0.00528169749304652214 0.00451343506574630737
-0.0250000003725290298 0.0026331939734518528 0.00769916828721761703
-0.0250000003725290298 0.000854493293445557356 0.0114264888688921928
-0.0250000003725290298 0.000213864987017586827 0.0140359140932559967
0.0124999992549419403 0.0216506365686655045 0.0166999995708465576
0.00609266478568315506 0.0131647819653153419 0.0166999995708465576
-0.00218977103941142559 0.00649653095752000809 0.0166999995708465576
-0.0118471123278141022 0.00204667286016047001 0.0166999995708465576
-0.0183443669229745865 0.000514709099661558867 0.0166999995708465576
0.0120650827884674072 0.0219017341732978821 0.0207646265625953674
0.010774773545563221 0.0226466953754425049 0.024610007181763649
0.00869829673320055008 0.0238455496728420258 0.0279849302023649216
0.00596153270453214645 0.0254256203770637512 0.0306702163070440292
0.00273514073342084885 0.0272883791476488113 0.0324944518506526947
-0.000779421825427561998 0.0293175112456083298 0.0333440192043781281
-0.00436426745727658272 0.0313872247934341431 0.0331681370735168457
-0.00779892830178141594 0.0333702266216278076 0.0319798365235328674
-0.0108733614906668663 0.035145249217748642 0.02985377237200737
-0.0134000023826956749 0.0366040058434009552 0.026921149343252182
-0.0152246616780757904 0.037657473236322403 0.0233619213104248047
-0.0162357967346906662 0.0382412523031234741 0.019394218921661377
-0.016371479257941246 0.0383195914328098297 0.0152612840756773949
-0.0156233962625265121 0.0378876850008964539 0.0112165864557027817
-0.0140373781323432922 0.0369719937443733215 0.00750812888145446777
-0.0117104398086667061 0.035628538578748703 0.00436319177970290184
-0.00878464709967374802 0.0339393317699432373 0.00197462388314306736
-0.00543846981599926949 0.032007414847612381 0.000489468045998364687
-0.00187632022425532341 0.0299508068710565567 2.97353523137644515e-07
0.00168317777570337057 0.0278957299888134003 0.000539322732947766781
0.00501991715282201767 0.0259692631661891937 0.00207529030740261078
0.00792591460049152374 0.0242914836853742599 0.00451343506574630737
0.010219586081802845 0.0229672323912382126 0.00769916828721761703
0.0117599861696362495 0.0220778826624155045 0.0114264888688921928
0.0123147862032055855 0.0217575673013925552 0.0140359140932559967
0.00865843147039413452 0.0178892575204372406 0.0227309521287679672
0.00573205994442105293 0.0135142980143427849 0.0207646265625953674
0.00528340134769678116 0.013949158601462841 0.0227309521287679672
0.00637498684227466583 0.0175262913107872009 0.0257989130914211273
0.00466221524402499199 0.0145512418821454048 0.024610007181763649
-0.00474096601828932762 0.00904016382992267609 0.0269266162067651749
-0.0128512149676680565 0.00226328312419354916 0.0207646265625953674
-0.00358482729643583298 0.0177798140794038773 0.0319903232157230377
-0.013450106605887413 0.00273994891904294491 0.0227309521287679672
-0.0184215586632490158 0.00101093703415244818 0.0207646265625953674
-0.0136870229616761208 0.00357195991091430187 0.024610007181763649
-0.00712485471740365028 0.0123406089842319489 0.0306702163070440292
-0.018517596647143364 0.00162833509966731071 0.0227309521287679672
-0.00802782271057367325 0.0139045966789126396 0.0316985026001930237
-0.0206957515329122543 0.00161086150910705328 0.0233685597777366638
-0.0175333265215158463 0.00338907027617096901 0.0257989130914211273
-0.00898755993694067001 0.0155669106170535088 0.0324944518506526947
-0.00998903810977935791 0.0173015203326940536 0.0330457426607608795
-0.0131796449422836304 0.010824812576174736 0.0313808359205722809
-0.0110166370868682861 0.0190813727676868439 0.0333440192043781281
-0.0137930996716022491 0.0299454852938652039 0.0306596476584672928
-0.0150692369788885117 0.0261006820946931839 0.0319798365235328674
-0.0140964062884449959 0.0244156904518604279 0.0326972715556621552
-0.0158180315047502518 0.0323586910963058472 0.0279780980199575424
-0.0159898698329925537 0.027695266529917717 0.0310270730406045914
-0.016844211146235466 0.0291750282049179077 0.02985377237200737
-0.0173568837344646454 0.0341926105320453644 0.0246051400899887085
-0.0176191851496696472 0.0305173210799694061 0.0284780655056238174
-0.0186313632875680923 0.0258034225553274155 0.031369965523481369
-0.0130862900987267494 0.0226661171764135361 0.0331681370735168457
-0.0183029267936944962 0.0317015983164310455 0.026921149343252182
-0.0183156430721282959 0.0353352092206478119 0.0207475163042545319
-0.0188849624246358871 0.0327097140252590179 0.0252069812268018723
-0.0197810698300600052 0.0289622433483600616 0.0289578754454851151
-0.0193563643842935562 0.033526204526424408 0.0233619213104248047
-0.0186356250196695328 0.0357165448367595673 0.0166416801512241364
-0.0197098981589078903 0.0341385416686534882 0.0214143469929695129
-0.0206924844533205032 0.031466357409954071 0.0257942602038383484
-0.0199401266872882843 0.0345373116433620453 0.019394218921661377
-0.0182972177863121033 0.0353132523596286774 0.0125394221395254135
-0.0200435128062963486 0.0347163788974285126 0.0173326209187507629
-0.0213099587708711624 0.0331628695130348206 0.0220731087028980255
-0.0200184620916843414 0.0346729904413223267 0.0152612840756773949
-0.0173211619257926941 0.0341500416398048401 0.00869230646640062332
-0.0198653619736433029 0.0344078131020069122 0.0132120940834283829
-0.0215957239270210266 0.0339480079710483551 0.0180224757641553879
-0.019586566835641861 0.0339249297976493835 0.0112165864557027817
-0.015767199918627739 0.0322981104254722595 0.00533614214509725571
-0.0191863663494586945 0.0332317575812339783 0.00930546596646308899
-0.0215322691947221756 0.0337736643850803375 0.0138907376676797867
-0.0186709053814411163 0.0323389545083045959 0.00750812888145446777
-0.0137302586808800697 0.0298705939203500748 0.00267664622515439987
-0.0180480964481830597 0.031260218471288681 0.00585221406072378159
-0.0211234837770462036 0.0326505266129970551 0.00993128400295972824
-0.0173274856060743332 0.0300120823085308075 0.00436319177970290184
-0.0165201090276241302 0.0286136660724878311 0.00306398305110633373
-0.0203944016247987747 0.0306473765522241592 0.00638685096055269241
-0.0156383253633975983 0.0270863734185695648 0.00197462388314306736
-0.0146956313401460648 0.0254535786807537079 0.00111197459045797586
-0.0193895921111106873 0.0278866589069366455 0.0034746627788990736
-0.0137064633890986443 0.0237402897328138351 0.000489468045998364687
-0.00351608567871153355 0.0176978912204504013 0.00145709514617919922
0.00600579753518104553 0.0178295858204364777 0.00690491637215018272
-0.00959489401429891586 0.0166188441216945648 0.000539322732947766781
-0.0106142004951834679 0.0183843336999416351 0.000141734781209379435
-0.00860784761607646942 0.0149092292413115501 0.00118714570999145508
0.00711019942536950111 0.0169223044067621231 0.00926789361983537674
0.00443953275680541992 0.014767075888812542 0.00823864992707967758
-0.00766848120838403702 0.0132821984589099884 0.00207529030740261078
0.00511175906285643578 0.0141155226156115532 0.0100848432630300522
-0.0140090510249137878 0.0131036071106791496 0.000943931110668927431
-0.0116499131545424461 0.0201782416552305222 2.97353523137644515e-07
0.00561382155865430832 0.0136289000511169434 0.0120279025286436081
-0.00501286657527089119 0.00949998944997787476 0.00581862963736057281
0.00587972300127148628 0.0133711760863661766 0.0135667966678738594
-0.0176211856305599213 0.00385871692560613155 0.00690491637215018272
-0.0128816487267613411 0.00236608670093119144 0.0122297657653689384
-0.0185543373227119446 0.00186453177593648434 0.0100848432630300522
-0.0137719530612230301 0.00387021899223327637 0.00823864992707967758
-0.0135155702009797096 0.00296984519809484482 0.0100848432630300522
-0.0207322835922241211 0.00196471181698143482 0.00926789361983537674
-0.0184468682855367661 0.00117364455945789814 0.0120279025286436081
-0.00304796569980680943 0.0248813778162002563 0.0332730598747730255
-0.0209803953766822815 0.0205047708004713058 0.0330391190946102142
-0.00820854213088750839 0.0292116031050682068 0.000669605913572013378
-0.020243300125002861 0.016324460506439209 1.87823734449921176e-05
-0.0135322185233235359 0.00789587013423442841 0.00380820455029606819
-0.00310861715115606785 0.00714396964758634567 0.0109201483428478241
-0.00887065567076206207 0.0271720103919506073 0.0329640842974185944
-0.0120544023811817169 0.0208788365125656128 0.0333849266171455383
-0.0174944885075092316 0.0152900256216526031 0.0332268737256526947
-0.00538590503856539726 0.0236872769892215729 3.8784659409429878e-05
-0.0126859946176409721 0.0219727866351604462 0.000116906405310146511
-0.0194125361740589142 0.0224483516067266464 0.000770003593061119318
0.0124999992549419403 0.0216506365686655045 0.0166999995708465576
0.0120650827884674072 0.0219017341732978821 0.0207646265625953674
0.010774773545563221 0.0226466953754425049 0.024610007181763649
0.00869829673320055008 0.0238455496728420258 0.0279849302023649216
0.00596153270453214645 0.0254256203770637512 0.0306702163070440292
0.00273514073342084885 0.0272883791476488113 0.0324944518506526947
-0.000779421825427561998 0.0293175112456083298 0.0333440192043781281
-0.00436426745727658272 0.0313872247934341431 0.0331681370735168457
-0.00779892830178141594 0.0333702266216278076 0.0319798365235328674
-0.0108733614906668663 0.035145249217748642 0.02985377237200737
-0.0134000023826956749 0.0366040058434009552 0.026921149343252182
-0.0152246616780757904 0.037657473236322403 0.0233619213104248047
-0.0162357967346906662 0.0382412523031234741 0.019394218921661377
