ply
format ascii 1.0
element vertex 694
property float x
property float y
property float z
end_header
-0.0239604674279689789 0.0451720133423805237 -0.0163579694926738739
-0.0322995744645595551 0.0427899807691574097 -0.0179021265357732773
-0.0120291272178292274 0.0473258644342422485 -0.0171777345240116119
-0.0327808894217014313 0.0434859320521354675 -0.0159785039722919464
-0.0356427878141403198 0.042780216783285141 -0.0162385143339633942
-0.0138083938509225845 0.0473623573780059814 -0.0161916743963956833
-0.000967206433415412903 0.0503125712275505066 -0.0155473984777927399
0.00264109205454587936 0.0509248562157154083 -0.0158897042274475098
-0.0358643680810928345 0.0428374819457530975 -0.015988396480679512
-0.0201224125921726227 0.0454140231013298035 -0.0177104417234659195
-0.0206934120506048203 0.0458943173289299011 -0.0162623729556798935
-0.0233432520180940628 0.0446203351020812988 -0.0180017631500959396
-0.0174849908798933029 0.0466442666947841644 -0.0160704106092453003
-0.00801340118050575256 0.0483633950352668762 -0.0166986938565969467
-0.00741422176361083984 0.0486340075731277466 -0.0163475386798381805
-0.0364618599414825439 0.041926305741071701 -0.0178873483091592789
-0.0314124114811420441 0.0436647385358810425 -0.016237303614616394
-0.0205487217754125595 0.0452549159526824951 -0.0178795494139194489
-0.0294201504439115524 0.0439213328063488007 -0.0166230536997318268
-0.0278447754681110382 0.0434962846338748932 -0.0184445865452289581
-0.0374992862343788147 0.0421952903270721436 -0.0167142022401094437
-0.017487669363617897 0.0467369109392166138 -0.0158453360199928284
-0.0140302609652280807 0.0475331097841262817 -0.0156673304736614227
0.0156214842572808266 -0.0138491289690136909 -0.0396674945950508118
0.036878049373626709 -0.00903245992958545685 -0.0385284796357154846
0.0094652269035577774 -0.0157236754894256592 -0.0397042036056518555
0.0369846820831298828 -0.00823726505041122437 -0.03899412602186203
0.00776452291756868362 -0.0160876624286174774 -0.0398084111511707306
0.0395118854939937592 -0.00777632091194391251 -0.0387904159724712372
0.0190245192497968674 -0.012975592166185379 -0.0395477600395679474
0.0402364730834960938 -0.0067094690166413784 -0.0393034182488918304
0.0380770787596702576 -0.00987298320978879929 -0.037784285843372345
0.0223613474518060684 -0.0129724154248833656 -0.0389086604118347168
0.036590036004781723 -0.00810378603637218475 -0.0391515418887138367
0.036024831235408783 -0.00949899852275848389 -0.0384071767330169678
0.0406659506261348724 -0.00692090019583702087 -0.0390916578471660614
0.0239621512591838837 -0.0115271303802728653 -0.0394846871495246887
0.0181893128901720047 -0.0140104480087757111 -0.0390755683183670044
0.030760638415813446 -0.0106953168287873268 -0.0386871360242366791
0.032069079577922821 -0.0101155107840895653 -0.0387902259826660156
0.00612888205796480179 0.0488297492265701294 -0.0206736791878938675
-0.0220570974051952362 0.0435986369848251343 -0.0199964381754398346
-0.0107395360246300697 0.0438877679407596588 -0.0221300385892391205
-0.0366580784320831299 0.0413107350468635559 -0.0192119535058736801
-0.0106019880622625351 0.0400002673268318176 -0.0261551253497600555
0.000157959293574094772 0.0454189404845237732 -0.0228968579322099686
-0.00621612463146448135 0.0428430698812007904 -0.024175301194190979
0.00936419516801834106 0.0485507436096668243 -0.0216553118079900742
-0.0123529806733131409 0.0461233183741569519 -0.0194858256727457047
-0.0189896877855062485 0.0450145229697227478 -0.0192000139504671097
-0.018393389880657196 0.0430565923452377319 -0.0213404335081577301
-0.00218119053170084953 0.0439747758209705353 -0.0238787587732076645
0.0065310322679579258 0.0476333089172840118 -0.0219897404313087463
0.000749893486499786377 0.0475334525108337402 -0.0208507124334573746
-0.00551768206059932709 0.0476036928594112396 -0.0194323807954788208
-0.016938135027885437 0.0422522313892841339 -0.0224797073751688004
-0.0161641072481870651 0.0442373566329479218 -0.0206056516617536545
-0.0183178428560495377 0.0400501713156700134 -0.0244466383010149002
-0.0102113736793398857 0.0450881868600845337 -0.0210096947848796844
-0.00025208108127117157 0.0444722883403301239 -0.0237817540764808655
0.000673578120768070221 0.0462937764823436737 -0.0221084505319595337
-0.0109599186107516289 0.0431127212941646576 -0.0228792913258075714
-0.0124414041638374329 0.0392491854727268219 -0.0265320166945457458
0.00573709048330783844 0.0499533489346504211 -0.0194347035139799118
-0.0224497541785240173 0.0421783328056335449 -0.0213718786835670471
-0.00500656012445688248 0.0421618707478046417 -0.0251352228224277496
-0.0205378253012895584 0.0430987291038036346 -0.0208365451544523239
-0.00938714668154716492 0.046018548309803009 -0.0202305037528276443
-0.00789273437112569809 0.0394401997327804565 -0.0273126475512981415
-0.0196412522345781326 0.0443674735724925995 -0.0197251085191965103
0.00441851979121565819 0.0478854328393936157 -0.0212768930941820145
-0.00179265998303890228 0.0450821295380592346 -0.0228240787982940674
-0.0270670000463724136 0.0411673709750175476 -0.0214192606508731842
-0.0121850790455937386 0.0420232079923152924 -0.0237359479069709778
0.010777447372674942 0.0506640970706939697 -0.019786762073636055
-0.00613759923726320267 0.0408559553325176239 -0.0262345112860202789
-0.0301200002431869507 0.0417986772954463959 -0.0201146844774484634
-0.00719590485095977783 0.0418422818183898926 -0.0249934680759906769
-0.00628820993006229401 0.0404068566858768463 -0.0266637410968542099
-0.015335623174905777 0.044641740620136261 -0.0203679725527763367
-0.0111150825396180153 0.0412157438695430756 -0.0247956663370132446
-0.0132647361606359482 0.0445222482085227966 -0.0209355670958757401
0.00300333602353930473 0.0461327880620956421 -0.0227742958813905716
0.000285994261503219604 0.0475823096930980682 -0.0207008626312017441
-0.00600659288465976715 0.0467803776264190674 -0.0201735682785511017
-0.0103700701147317886 0.0391874238848686218 -0.0270403698086738586
-0.0237391181290149689 0.0404476858675479889 -0.0228737015277147293
-0.0285159945487976074 0.0410510972142219543 -0.021227547898888588
-0.0159762650728225708 0.0454129651188850403 -0.0194377154111862183
0.00195411313325166702 0.0456039160490036011 -0.0230925194919109344
-0.00195985008031129837 0.0477229617536067963 -0.0200739409774541855
-0.00584594160318374634 0.0433391965925693512 -0.0237448941916227341
-0.0345437712967395782 0.040883772075176239 -0.0201048888266086578
-0.028738413006067276 0.0422736108303070068 -0.0199232921004295349
-0.00760265905410051346 0.0437711402773857117 -0.0229236409068107605
-0.0133921094238758087 0.0404859855771064758 -0.0250566489994525909
-0.0123406937345862389 0.0429071076214313507 -0.0227940641343593597
-0.00638489006087183952 0.0420478023588657379 -0.0249564237892627716
0.0166196338832378387 0.0523698590695858002 -0.0192883666604757309
-0.0105386050418019295 0.0435328632593154907 -0.0225379634648561478
-0.030145157128572464 0.0409094728529453278 -0.0210232026875019073
0.00592585280537605286 0.0497996360063552856 -0.0196332316845655441
-0.00311562488786876202 0.0419664271175861359 -0.0257422272115945816
-0.0130352452397346497 0.0415917336940765381 -0.0239968188107013702
-0.0039793066680431366 0.0461518503725528717 -0.0212549790740013123
0.00943349301815032959 0.0494630336761474609 -0.0207325499504804611
-0.014243805781006813 0.0427197329699993134 -0.0225778967142105103
-0.00604668352752923965 0.0421536006033420563 -0.0249203275889158249
0.00261280220001935959 0.0482484661042690277 -0.0205159410834312439
-0.0142044909298419952 0.0451463982462882996 -0.0200922321528196335
-0.0241092164069414139 0.0404121279716491699 -0.0228307563811540604
-0.00967460125684738159 0.0411310009658336639 -0.0251921471208333969
-0.00775375403463840485 0.0437929928302764893 -0.0228687301278114319
-0.012681134045124054 0.0328981578350067139 -0.0333874709904193878
-0.019839918240904808 0.0337374247610569 -0.0319486819207668304
-0.0227096229791641235 0.0333944223821163177 -0.0320461541414260864
-0.0125366542488336563 0.0344010666012763977 -0.0319082960486412048
-0.027182016521692276 0.032752595841884613 -0.0323045141994953156
-0.0145293176174163818 0.0328508354723453522 -0.0332779921591281891
-0.0161551609635353088 0.0312085598707199097 -0.0347700789570808411
-0.00712222792208194733 0.0336979515850543976 -0.0330643206834793091
-0.0215391181409358978 0.0320122726261615753 -0.0335168056190013885
-0.0080031268298625946 0.0367660112679004669 -0.0299451909959316254
-0.0190668478608131409 0.0358404070138931274 -0.0299272369593381882
-0.0187511518597602844 0.0343125239014625549 -0.0314701423048973083
-0.0187823697924613953 0.0359117574989795685 -0.0298805106431245804
-0.03559141606092453 0.0325065590441226959 -0.0318368636071681976
-0.013399139977991581 0.0366046056151390076 -0.0296486187726259232
-0.0141738587990403175 0.0351469479501247406 -0.0310295466333627701
-0.0142577849328517914 0.0310941059142351151 -0.0350442565977573395
-0.0182211548089981079 0.0354499034583568573 -0.0303863324224948883
-0.00994406640529632568 0.0320810005068778992 -0.0344300493597984314
-0.0105636827647686005 0.0310941711068153381 -0.0353568755090236664
-0.0169170424342155457 0.031494632363319397 -0.0344217084348201752
-0.0106349270790815353 0.0342674069106578827 -0.0322019010782241821
-0.0321147739887237549 0.0332421436905860901 -0.0314011834561824799
-0.0313450470566749573 0.0327281840145587921 -0.0319763645529747009
-0.021024780347943306 0.0347735770046710968 -0.0308201760053634644
-0.0085900723934173584 0.0324869789183139801 -0.0341417789459228516
-0.0159439742565155029 0.0342536941170692444 -0.0317661352455615997
-0.0101030413061380386 0.0310258213430643082 -0.0354636907577514648
-0.0183634199202060699 0.032478824257850647 -0.0333226248621940613
-0.00974436849355697632 0.0356374494731426239 -0.0309177245944738388
-0.0138656403869390488 0.0374031178653240204 -0.0288167372345924377
-0.0108250752091407776 0.0367584191262722015 -0.0297138653695583344
-0.0107361152768135071 0.0329042375087738037 -0.0335460714995861053
-0.024823896586894989 0.0349377840757369995 -0.0303356535732746124
-0.0220428667962551117 0.0325720980763435364 -0.0329186208546161652
-0.00857250485569238663 0.0350635349750518799 -0.0315864384174346924
-0.0100940465927124023 0.0338510088622570038 -0.0326608940958976746
-0.0162848196923732758 0.0336064919829368591 -0.0323795303702354431
-0.0105259949341416359 0.0344608277082443237 -0.0320191793143749237
0.0192380622029304504 0.0372348912060260773 -0.0372320897877216339
0.0130927227437496185 0.034722745418548584 -0.0375413037836551666
0.0185607876628637314 0.0361175499856472015 -0.0377777814865112305
0.00769538711756467819 0.034015946090221405 -0.0369000695645809174
0.021335262805223465 0.0358093008399009705 -0.038516215980052948
0.0132120121270418167 0.034833226352930069 -0.0374977365136146545
0.0157950818538665771 0.0357328951358795166 -0.0374628789722919464
0.00994448177516460419 0.0334189534187316895 -0.0377099588513374329
0.00991327501833438873 0.0339831635355949402 -0.0373603180050849915
0.0129977855831384659 0.0348436124622821808 -0.037448883056640625
0.0063385949470102787 0.0336686745285987854 -0.0368421077728271484
0.0236124731600284576 0.0382374376058578491 -0.0374902263283729553
0.0193747952580451965 0.0358211025595664978 -0.0381198301911354065
0.0228990372270345688 0.0376088470220565796 -0.0377312302589416504
-0.0252462662756443024 0.0152618000283837318 -0.0430747009813785553
-0.0375823266804218292 0.0150461671873927116 -0.0427811853587627411
-0.0257547665387392044 0.0163664501160383224 -0.0427114143967628479
-0.0124791562557220459 0.0188418515026569366 -0.0423197746276855469
-0.0359951294958591461 0.014382517896592617 -0.0430370047688484192
-0.0239581074565649033 0.0172791741788387299 -0.042476210743188858
-0.025637919083237648 0.0171351321041584015 -0.0424724072217941284
-0.0370697528123855591 0.0153592852875590324 -0.0426974557340145111
-0.0172532480210065842 0.0173081830143928528 -0.0426635518670082092
-0.0333728156983852386 0.0131575167179107666 -0.0435001961886882782
-0.0339407399296760559 0.0160513892769813538 -0.0425708778202533722
-0.0117489881813526154 0.0186373032629489899 -0.0424056798219680786
-0.0266517475247383118 0.0158257465809583664 -0.0428556501865386963
-0.0303922388702630997 0.0161349289119243622 -0.0426485203206539154
-0.0253943465650081635 -0.040395740419626236 -0.0178319439291954041
-0.0370812229812145233 -0.0413691513240337372 -0.0183704905211925507
-0.0241171270608901978 -0.0402919910848140717 -0.0177667345851659775
-0.0250518582761287689 -0.0405312180519104004 -0.0174202192574739456
-0.0349540971219539642 -0.0413594655692577362 -0.0178681276738643646
-0.0352245718240737915 -0.0410897210240364075 -0.0185862127691507339
-0.0344857200980186462 -0.0411240793764591217 -0.0183206405490636826
-0.0253938362002372742 -0.0411156937479972839 -0.0160936694592237473
-0.0168899986892938614 -0.039761565625667572 -0.0172610152512788773
-0.0267519839107990265 -0.0409002751111984253 -0.0169494394212961197
-0.0254518203437328339 -0.0410637818276882172 -0.0162333305925130844
-0.0370718836784362793 -0.0424305237829685211 -0.0158057510852813721
-0.0234486274421215057 -0.0402291305363178253 -0.0177532639354467392
-0.027043558657169342 -0.0412322506308555603 -0.0162200145423412323
-0.0275971964001655579 -0.0411217175424098969 -0.0166237205266952515
-0.0338517576456069946 -0.0413404963910579681 -0.0176414567977190018
-0.0301031526178121567 -0.0405430123209953308 -0.0186402611434459686
-0.0355693213641643524 -0.0412435196340084076 -0.0183001123368740082
-0.00954781658947467804 -0.0392211936414241791 -0.0167508590966463089
-0.0173745974898338318 -0.0399231016635894775 -0.0169907901436090469
-0.022202610969543457 -0.0383274108171463013 -0.0212542023509740829
-0.00112165417522192001 -0.0338431671261787415 -0.0249436423182487488
0.00076622283086180687 -0.0371145717799663544 -0.0188087224960327148
-0.00614433689042925835 -0.0368609577417373657 -0.0206332225352525711
0.00697258580476045609 -0.0351973474025726318 -0.0209458395838737488
-0.0100286826491355896 -0.0364658087491989136 -0.0221033822745084763
0.00340533768758177757 -0.035960853099822998 -0.0203132592141628265
-0.00248220330104231834 -0.0346400216221809387 -0.0238123033195734024
-0.0119875762611627579 -0.0372646301984786987 -0.0210879035294055939
-0.0142055964097380638 -0.0378787629306316376 -0.0204491950571537018
0.00355789484456181526 -0.0322824269533157349 -0.0267577245831489563
0.00517639657482504845 -0.0344726741313934326 -0.0225796215236186981
-0.0101706162095069885 -0.0377031490206718445 -0.0199536737054586411
-0.0236336328089237213 -0.037266850471496582 -0.0234064050018787384
-0.0312193389981985092 -0.0385678932070732117 -0.02262897789478302
-0.0162019804120063782 -0.0368202663958072662 -0.022710505872964859
-0.00927473790943622589 -0.0377782583236694336 -0.0196428131312131882
-0.000681621022522449493 -0.0363660156726837158 -0.0204150788486003876
-0.0183338411152362823 -0.0373796001076698303 -0.0221510753035545349
-0.0126731246709823608 -0.038151957094669342 -0.019662708044052124
-0.00662711728364229202 -0.037519652396440506 -0.0195700414478778839
-0.0110375285148620605 -0.0365744605660438538 -0.0221133101731538773
-0.0311872810125350952 -0.0384570546448230743 -0.0228176955133676529
-0.0122620910406112671 -0.0370691530406475067 -0.0214867312461137772
-0.0302264485508203506 -0.0384261906147003174 -0.0226804129779338837
-0.0029864208772778511 -0.0348184742033481598 -0.0235987305641174316
-0.00915391184389591217 -0.0380307957530021667 -0.0191741958260536194
0.00217938655987381935 -0.0351459681987762451 -0.0219921227544546127
0.00462745176628232002 -0.0323315262794494629 -0.0264580100774765015
-0.00715909712016582489 -0.0364657826721668243 -0.0215311869978904724
-0.00925723183900117874 -0.0352337770164012909 -0.0241181999444961548
-0.00908546149730682373 -0.0371264219284057617 -0.0207524560391902924
-0.0308366343379020691 -0.0382553637027740479 -0.0231027901172637939
-0.0244394708424806595 -0.0384241789579391479 -0.0215299353003501892
-0.00353665370494127274 -0.0354176610708236694 -0.0226537492126226425
-0.0109076667577028275 -0.0374667644500732422 -0.0205167531967163086
-0.00269570108503103256 -0.0369192250072956085 -0.0198429450392723083
-0.00417756382375955582 -0.0374899283051490784 -0.0191338825970888138
0.00329146138392388821 -0.0341189168393611908 -0.0235782023519277573
-0.0341755449771881104 -0.038839828222990036 -0.0227398332208395004
-0.00332188885658979416 -0.0351344272494316101 -0.0231094732880592346
-0.0141441170126199722 -0.0380140431225299835 -0.0201988127082586288
-0.000877005979418754578 -0.037661336362361908 -0.0181739721447229385
0.00555604323744773865 -0.0352550707757472992 -0.0211267117410898209
0.00252561923116445541 -0.032334107905626297 -0.0268726032227277756
-0.0130801303312182426 -0.0352731943130493164 -0.0248111672699451447
-0.0162686258554458618 -0.0358342453837394714 -0.0244594253599643707
0.00388940027914941311 -0.0339697673916816711 -0.0237215049564838409
-0.00959303230047225952 -0.0378523841500282288 -0.0195758100599050522
-0.00759282149374485016 -0.0348177589476108551 -0.0245185848325490952
0.0066800103522837162 -0.0337092280387878418 -0.0236236210912466049
-0.0219184868037700653 -0.0379590913653373718 -0.0218458771705627441
0.00023131445050239563 -0.0350625962018966675 -0.0225273501127958298
-0.000519275665283203125 -0.0373542681336402893 -0.0186431519687175751
-0.0121561409905552864 -0.0364837571978569031 -0.0224960409104824066
-0.0243725217878818512 -0.0370377898216247559 -0.0239569526165723801
-0.00139622297137975693 -0.0377090387046337128 -0.0181935559958219528
-0.00953075103461742401 -0.0354219153523445129 -0.0238415803760290146
-0.00276524899527430534 -0.0331364311277866364 -0.0264983586966991425
-0.0186367612332105637 -0.0353024974465370178 -0.0257404036819934845
-0.012778235599398613 -0.0340539589524269104 -0.0267247911542654037
-0.0138083314523100853 -0.034812580794095993 -0.0257057137787342072
-0.00266836700029671192 -0.033194277435541153 -0.0263914540410041809
-0.0250625386834144592 -0.0361718498170375824 -0.025445474311709404
-0.00688314251601696014 -0.0334826968610286713 -0.0266402401030063629
-0.0346739254891872406 -0.0369317531585693359 -0.0258524380624294281
-0.0340898707509040833 -0.0369129404425621033 -0.0257847625762224197
-0.0160062648355960846 -0.0353429317474365234 -0.0252392012625932693
-0.0198314599692821503 -0.0353908129036426544 -0.0258006248623132706
-0.0331587456166744232 -0.0379901863634586334 -0.0239393003284931183
-0.0150614269077777863 -0.0348490439355373383 -0.0258570220321416855
-0.024624314159154892 -0.0359776802361011505 -0.0256772600114345551
-0.00443277182057499886 -0.0334569327533245087 -0.0262728966772556305
-0.0366103053092956543 -0.0380578823387622833 -0.0244074482470750809
-0.0149631444364786148 -0.0350947305560112 -0.0254551097750663757
-0.0204182416200637817 -0.035578802227973938 -0.0256032645702362061
-0.0304713994264602661 -0.0362477190792560577 -0.0262265335768461227
-0.0323294326663017273 -0.0425768047571182251 -0.0138364890590310097
-0.0275424234569072723 -0.0417529381811618805 -0.014845576137304306
-0.0287999436259269714 -0.0416994504630565643 -0.0154366567730903625
-0.0364905074238777161 -0.0432308167219161987 -0.0131564168259501457
-0.0215016044676303864 -0.0407419353723526001 -0.0160280745476484299
-0.0306290313601493835 -0.0426619797945022583 -0.0129964761435985565
-0.0308159440755844116 -0.0420041866600513458 -0.0151456240564584732
-0.00584486965090036392 -0.0391361266374588013 -0.015874866396188736
-0.0337322130799293518 -0.042862970381975174 -0.0133988587185740471
-0.0252003781497478485 -0.0415939167141914368 -0.0145651288330554962
-0.0341669321060180664 -0.0428124815225601196 -0.0137046976014971733
-0.0276098065078258514 -0.0418814718723297119 -0.0144604472443461418
-0.0116335609927773476 -0.0397805981338024139 -0.0157704893499612808
-0.0130192618817090988 -0.0401838868856430054 -0.0149556305259466171
-0.0371506065130233765 -0.0431733988225460052 -0.0135597400367259979
-0.0147902602329850197 -0.0401504747569561005 -0.0156551022082567215
0.000319057609885931015 -0.0382645130157470703 -0.0165739692747592926
-0.0288203787058591843 -0.0416129417717456818 -0.0157179087400436401
-0.0240099560469388962 -0.0414147935807704926 -0.0147343762218952179
-0.0200313106179237366 -0.0412812381982803345 -0.0138246947899460793
-0.030628744512796402 -0.0444410629570484161 -0.00527663994580507278
-0.0328090302646160126 -0.0447343736886978149 -0.00437334505841135979
-0.0322454720735549927 -0.0444815568625926971 -0.00595164578408002853
-0.03081553615629673 -0.0443750135600566864 -0.00589201133698225021
-0.0344625189900398254 -0.0447221025824546814 -0.00547159276902675629
-0.0217301305383443832 -0.0439909249544143677 -0.00328797521069645882
-0.0286727510392665863 -0.0445892475545406342 -0.00296186329796910286
-0.0349732786417007446 -0.0447021238505840302 -0.00593384075909852982
-0.0374372079968452454 -0.0448999777436256409 -0.00592820439487695694
-0.014832761138677597 -0.0436321310698986053 -0.00182169058825820684
-0.0309593621641397476 -0.0444810725748538971 -0.0051736077293753624
-0.0349852666258811951 -0.0449902266263961792 -0.00375213799998164177
-0.00972147658467292786 -0.0433773398399353027 -0.000650834059342741966
-0.0256844665855169296 -0.0434035137295722961 -0.00724535249173641205
-0.0130398962646722794 -0.043265610933303833 -0.00246517965570092201
-0.0204547606408596039 -0.0437934212386608124 -0.00371496519073843956
-0.000665148254483938217 -0.0401687994599342346 -0.00808080937713384628
-0.00713508948683738708 -0.0412889420986175537 -0.00687894178554415703
0.00737207941710948944 -0.0394330769777297974 -0.00729474984109401703
-0.00650656362995505333 -0.0408297665417194366 -0.00821336265653371811
-0.0220333002507686615 -0.0433575175702571869 -0.00588652072474360466
-0.0180521439760923386 -0.0422522649168968201 -0.00807184819132089615
0.00488620158284902573 -0.0396659150719642639 -0.00751951523125171661
-0.0292307771742343903 -0.0440327711403369904 -0.00653346674516797066
-0.00817913282662630081 -0.0418586470186710358 -0.00533321686089038849
-0.0272160042077302933 -0.0434110239148139954 -0.00785628892481327057
-0.0148720573633909225 -0.0431269891560077667 -0.00370902800932526588
-0.00745673477649688721 -0.0425071679055690765 -0.00277882814407348633
0.00348960142582654953 -0.0403391197323799133 -0.00576072139665484428
-0.0092383604496717453 -0.0419444367289543152 -0.00547564402222633362
0.0147536378353834152 -0.0382070355117321014 -0.00848548486828804016
0.00685446150600910187 -0.0399191975593566895 -0.00582055933773517609
0.00298581831157207489 -0.0405214764177799225 -0.0053365030325949192
-0.0120361736044287682 -0.0425794757902622223 -0.00443231174722313881
-0.00679137557744979858 -0.0425514467060565948 -0.00234819808974862099
-0.0306058730930089951 -0.0441908463835716248 -0.00655604107305407524
-0.0281785614788532257 -0.0438908413052558899 -0.00658906111493706703
-0.0188973173499107361 -0.0426231324672698975 -0.00713444594293832779
-0.0142530743032693863 -0.0434347875416278839 -0.00238182768225669861
-0.0177245773375034332 -0.0436165928840637207 -0.00319392513483762741
-0.00366912409663200378 -0.0425030216574668884 -0.00121779646724462509
-0.00338730961084365845 -0.0420739911496639252 -0.002591665368527174
-0.00881750974804162979 -0.0420453883707523346 -0.00494973454624414444
-0.0143939219415187836 -0.0431792661547660828 -0.00332847516983747482
-0.0126618435606360435 -0.0427391305565834045 -0.0041376948356628418
-0.0179224349558353424 -0.0432606711983680725 -0.00451321527361869812
0.00331644993275403976 -0.0402468889951705933 -0.00615330226719379425
-0.0226892605423927307 -0.0434207729995250702 -0.00593952462077140808
-0.0201415084302425385 -0.0426507033407688141 -0.00755614740774035454
-0.0112795578315854073 -0.0416701436042785645 -0.00727796275168657303
-0.0261926539242267609 -0.0439803339540958405 -0.00545199960470199585
-0.0170542765408754349 -0.0422008372843265533 -0.00783551856875419617
-0.0172618739306926727 -0.0435660332441329956 -0.00317717529833316803
-0.00751128420233726501 -0.0413511469960212708 -0.00681922165676951408
-0.004063422791659832 -0.0416917875409126282 -0.00420122919604182243
-0.00854580290615558624 -0.0426146611571311951 -0.00285824202001094818
-0.0363035425543785095 -0.0445050150156021118 -0.00783406104892492294
-0.0216448977589607239 -0.0427195318043231964 -0.0079422537237405777
-0.0188214518129825592 -0.0426319390535354614 -0.00707229273393750191
-0.000875298865139484406 -0.040332406759262085 -0.00759960850700736046
-0.00852002948522567749 -0.0430188588798046112 -0.00144274905323982239
-0.00967461150139570236 -0.0419938787817955017 -0.00548526877537369728
-0.022656882181763649 -0.0431736782193183899 -0.00678481860086321831
0.0112184267491102219 -0.0380107350647449493 -0.0115268910303711891
-0.00213431287556886673 -0.0397499576210975647 -0.0107853757217526436
-0.00322048459202051163 -0.0390155203640460968 -0.0151592632755637169
-0.014053630642592907 -0.0406987853348255157 -0.0131795806810259819
0.00447580590844154358 -0.0389585196971893311 -0.0108003932982683182
0.00108818616718053818 -0.0388935506343841553 -0.0131749175488948822
-0.00369846541434526443 -0.0397596433758735657 -0.0116808712482452393
-0.0185467489063739777 -0.0412567183375358582 -0.013068297877907753
-0.0110863195732235909 -0.0408667773008346558 -0.0105373319238424301
-0.0137400031089782715 -0.0409137383103370667 -0.0119020137935876846
-0.0145090650767087936 -0.0409463047981262207 -0.0122015587985515594
0.00741414353251457214 -0.037451375275850296 -0.0166558008641004562
-0.000996160320937633514 -0.0386279299855232239 -0.0157782100141048431
0.00828098878264427185 -0.0386071577668190002 -0.0102813467383384705
-0.00727486703544855118 -0.0400195606052875519 -0.0125246867537498474
0.0114304916933178902 -0.0377692356705665588 -0.0126213887706398964
-0.00862852670252323151 -0.0405312776565551758 -0.0107516031712293625
-0.0125631978735327721 -0.0410177186131477356 -0.0106650218367576599
-0.00678152125328779221 -0.0399845615029335022 -0.0124039687216281891
-0.010478699579834938 -0.0401859581470489502 -0.0136169549077749252
-0.0280882604420185089 -0.0424543693661689758 -0.0127670112997293472
0.000865559093654155731 -0.039384152740240097 -0.0108257438987493515
-0.00763621274381875992 -0.0399276651442050934 -0.0132081033661961555
0.00840587262064218521 -0.0379234403371810913 -0.0136671708896756172
-0.00957352854311466217 -0.0405035652220249176 -0.0114625385031104088
0.00731031689792871475 -0.0374299250543117523 -0.016827072948217392
-0.00882229302078485489 -0.0404878370463848114 -0.0110885128378868103
0.0103826653212308884 -0.0383592583239078522 -0.010267200879752636
0.0071402830071747303 -0.0377590581774711609 -0.0152635769918560982
0.00847302563488483429 -0.0384470894932746887 -0.0109757073223590851
0.0141477780416607857 -0.0379303917288780212 -0.0101647237315773964
-0.00109944678843021393 -0.0395063571631908417 -0.0113936765119433403
0.00389803340658545494 -0.0386608503758907318 -0.0126561969518661499
-0.00638309121131896973 -0.0399070344865322113 -0.0125558348372578621
0.00268425978720188141 -0.0386938303709030151 -0.0132221784442663193
-0.0166229195892810822 -0.0408149026334285736 -0.0141432136297225952
-1.30888074636459351e-05 -0.0384730733931064606 -0.0159685499966144562
-0.0153510523959994316 -0.0412799268960952759 -0.0110210692510008812
0.00943860597908496857 -0.0378294475376605988 -0.0135193802416324615
0.000485071912407875061 -0.0387739688158035278 -0.0141444774344563484
-0.00721768196672201157 -0.0396375767886638641 -0.0144239077344536781
-0.00253615342080593109 -0.0388861149549484253 -0.0154011333361268044
-0.00395194720476865768 -0.0394487492740154266 -0.0134077854454517365
-0.00276444666087627411 -0.0390184260904788971 -0.0148691609501838684
0.0114387618377804756 -0.0383948273956775665 -0.00944941118359565735
0.00495873019099235535 -0.0391695909202098846 -0.00944027677178382874
-0.0234345439821481705 -0.0448598191142082214 -0.000202979936148039997
-0.0369524657726287842 -0.0451841726899147034 -0.00340956798754632473
-0.0288320519030094147 -0.0450492128729820251 -0.00011120147246401757
-0.0352052710950374603 -0.0452323444187641144 -0.000930915295612066984
-0.0300498642027378082 -0.0450704768300056458 -0.000582395296078175306
-0.0365743674337863922 -0.045177806168794632 -0.00325784669257700443
-0.0365725047886371613 -0.0360986478626728058 -0.0272355116903781891
-0.0111517179757356644 -0.0331308506429195404 -0.0277178920805454254
-0.0248389337211847305 -0.0354373753070831299 -0.0265350136905908585
-0.0359217822551727295 -0.0366440713405609131 -0.0264383051544427872
-0.0334509499371051788 -0.0358926281332969666 -0.0270883664488792419
-0.0201652776449918747 -0.0342446528375148773 -0.0274667292833328247
-0.0261658281087875366 -0.0343297086656093597 -0.0281547307968139648
-0.029808972030878067 -0.0360350832343101501 -0.0264179427176713943
-0.0337278731167316437 -0.0351622253656387329 -0.0280768033117055893
-0.0249511189758777618 -0.0351313240826129913 -0.0269486755132675171
-0.0352598465979099274 -0.0364374220371246338 -0.0266194120049476624
-0.0358882434666156769 -0.0366605110466480255 -0.026412423700094223
-0.0243531502783298492 -0.0349284335970878601 -0.027133401483297348
-0.0158965121954679489 -0.0334212146699428558 -0.0279712453484535217
-0.015409223735332489 -0.0341437011957168579 -0.0269651114940643311
-0.0350888893008232117 -0.0361190959811210632 -0.0270113702863454819
-0.0308954194188117981 -0.0360716432332992554 -0.0265149455517530441
-0.015634290874004364 -0.0336755216121673584 -0.0276050232350826263
-0.0122893005609512329 -0.0334996916353702545 -0.0273887999355792999
-0.0212010368704795837 -0.0186680126935243607 -0.0404994115233421326
-0.0252110268920660019 -0.0206613671034574509 -0.0396728664636611938
-0.0275543034076690674 -0.0187756810337305069 -0.0407779775559902191
-0.0301152374595403671 -0.0209943708032369614 -0.0397578030824661255
-0.0323917828500270844 -0.0216452479362487793 -0.0395388603210449219
-0.0343692079186439514 -0.0203038286417722702 -0.040341351181268692
-0.0214150175452232361 -0.0203289240598678589 -0.0396460071206092834
-0.0336472094058990479 -0.0220074839890003204 -0.0394164025783538818
-0.0110298097133636475 -0.0178621318191289902 -0.0403832457959651947
-0.0081830192357301712 -0.0180486347526311874 -0.0401362143456935883
-0.0182862915098667145 -0.0190745014697313309 -0.0401342734694480896
-0.0138447973877191544 -0.0192767269909381866 -0.0397950634360313416
-0.0365553498268127441 -0.0206320211291313171 -0.0402856394648551941
-0.00948801077902317047 -0.0182484593242406845 -0.0401009134948253632
-0.0359224267303943634 -0.019848257303237915 -0.0406603328883647919
-0.0194415729492902756 -0.0188264399766921997 -0.0403242595493793488
-0.0157532468438148499 -0.0181929711252450943 -0.0404597856104373932
-0.0350421704351902008 -0.0222567655146121979 -0.03936009481549263
0.00209057331085205078 -0.0164871662855148315 -0.0403300076723098755
-0.00151949375867843628 -0.0162144117057323456 -0.0406061559915542603
0.00170158781111240387 -0.0149448402225971222 -0.0409194007515907288
-0.00812763534486293793 -0.0133058046922087669 -0.0420028641819953918
-0.00533831305801868439 -0.0159084778279066086 -0.0409047156572341919
-0.000938560813665390015 -0.013100646436214447 -0.0417297482490539551
-0.0256381146609783173 -0.012884434312582016 -0.0430088117718696594
-0.00414519943296909332 -0.0147410044446587563 -0.0412786491215229034
-0.00886695273220539093 -0.0110238101333379745 -0.042882874608039856
-0.00352858658879995346 -0.00976325292140245438 -0.0430900007486343384
-0.00396857596933841705 -0.00751783512532711029 -0.0439419485628604889
-0.000394169241189956665 -0.0148834986612200737 -0.0410438366234302521
0.00124227628111839294 -0.0143713280558586121 -0.0411538444459438324
-0.0030034512747079134 -0.00766472192481160164 -0.0438407622277736664
-0.0137239126488566399 -0.00984148681163787842 -0.0435560122132301331
-0.0313658230006694794 -0.0147329522296786308 -0.0426031015813350677
-0.00917961075901985168 -0.010293763130903244 -0.0431681014597415924
-0.00144756212830543518 -0.0156659204512834549 -0.0408055558800697327
-0.00192664191126823425 -0.01219978928565979 -0.0421109497547149658
-0.0113730877637863159 -0.012155480682849884 -0.0425859317183494568
-0.025967136025428772 -0.0130828339606523514 -0.0429514013230800629
-0.0136676989495754242 -0.0160551406443119049 -0.041254829615354538
-0.000972618348896503448 -0.00818760506808757782 -0.0435487516224384308
-0.0142850149422883987 -0.0111893117427825928 -0.0430846847593784332
-0.0188876688480377197 -0.0126575669273734093 -0.0427650213241577148
0.000740474089980125427 -0.0125264609232544899 -0.0418606288731098175
-0.0156915187835693359 -0.0127985747531056404 -0.0425576977431774139
0.00146114826202392578 -0.0110801123082637787 -0.0423606522381305695
-0.0297428164631128311 -0.0136313401162624359 -0.0429318025708198547
-0.00969141721725463867 -0.0102735152468085289 -0.0432004407048225403
-0.0185921955853700638 -0.0148996831849217415 -0.0419213064014911652
-0.00829899776726961136 -0.00855016522109508514 -0.0437703169882297516
-0.00767372734844684601 -0.0137134399265050888 -0.0418300442397594452
-0.00148429721593856812 -0.0160115603357553482 -0.0406794846057891846
-0.0104380715638399124 -0.0122341681271791458 -0.0425114370882511139
-0.00146721489727497101 -0.0115788178518414497 -0.0423183441162109375
-0.0155042912811040878 -0.0113904401659965515 -0.0430694818496704102
-0.00757022807374596596 -0.00823882687836885452 -0.0438500978052616119
-0.00636335602030158043 -0.00795341096818447113 -0.0438970848917961121
-0.000302963890135288239 -0.00985001120716333389 -0.0429013147950172424
-0.0089728059247136116 -0.0100195920094847679 -0.0432594791054725647
-0.0301778726279735565 -0.0157613623887300491 -0.042165018618106842
-0.0100022275000810623 -0.0116545623168349266 -0.0427046753466129303
0.00130863860249519348 -0.0118368556722998619 -0.0420881360769271851
0.000385820865631103516 -0.0160370804369449615 -0.0405792556703090668
-0.00761373154819011688 -0.014168059453368187 -0.0416589677333831787
-0.00874464027583599091 -0.0157093778252601624 -0.0411437302827835083
-0.0136282313615083694 -0.0116714704781770706 -0.0428744480013847351
-0.000255490653216838837 -0.00919990893453359604 -0.043139483779668808
-0.0150169804692268372 -0.0152491843327879906 -0.0416184626519680023
-0.00769641436636447906 -0.0127381179481744766 -0.042191922664642334
-0.0223345533013343811 -0.0108273569494485855 -0.0435573719441890717
-0.0254582054913043976 -0.012480064295232296 -0.0431468598544597626
-0.0343787446618080139 -0.0135546205565333366 -0.0431234575808048248
-0.0333901047706604004 -0.0138979814946651459 -0.042980290949344635
-0.0341277942061424255 -0.0132302707061171532 -0.0432168170809745789
-0.0261955615133047104 -0.0124352611601352692 -0.0431870408356189728
-0.02535996213555336 -0.0113776577636599541 -0.0434908531606197357
-0.028748881071805954 -0.0114355478435754776 -0.0435923822224140167
-0.0240529756993055344 -0.0113775655627250671 -0.0434446893632411957
-0.0218462720513343811 -0.0105814635753631592 -0.0436176136136054993
-0.0337301194667816162 -0.0125569291412830353 -0.0434149913489818573
-0.0262887291610240936 -0.0115499049425125122 -0.0434693880379199982
-0.0231606774032115936 -0.0106352735310792923 -0.0436471104621887207
-0.035628780722618103 -0.0122624188661575317 -0.0435749217867851257
-0.0322895534336566925 -0.0119983553886413574 -0.0435401313006877899
-0.0054736696183681488 -0.00728537235409021378 -0.0440778359770774841
-0.020610785111784935 -0.00973794236779212952 -0.0438398160040378571
-0.0284420046955347061 -0.00827960669994354248 -0.0443795919418334961
-0.0100500769913196564 -0.00669994903728365898 -0.0443286672234535217
-0.0328049845993518829 -0.0092845037579536438 -0.0442520752549171448
-0.0361437872052192688 -0.00923728104680776596 -0.0443353056907653809
-0.0363143235445022583 -0.0111683588474988937 -0.0439112409949302673
-0.0207260940223932266 -0.00831844378262758255 -0.0442028194665908813
-0.00469412282109260559 -0.00645300978794693947 -0.0442666336894035339
-0.0374733619391918182 -0.0100097153335809708 -0.0441931746900081635
-0.0128363501280546188 -0.00709416996687650681 -0.0443020649254322052
-0.0342301540076732635 -0.0105826789513230324 -0.0439955592155456543
-0.0258866250514984131 -0.00889280065894126892 -0.0441880598664283752
-0.0361909307539463043 -0.00888451468199491501 -0.0444144830107688904
-0.018676484003663063 -0.00774738658219575882 -0.0442846491932868958
-0.0280144773423671722 -0.0080624707043170929 -0.0444183759391307831
-0.0139356683939695358 -0.00738216564059257507 -0.0442622266709804535
-0.0355651192367076874 -0.00789018906652927399 -0.0446211062371730804
-0.00885447114706039429 -0.00744249066337943077 -0.0441381186246871948
-0.0113751981407403946 -0.0261417180299758911 -0.0348587930202484131
-0.0317934192717075348 -0.0262720249593257904 -0.0364624224603176117
-0.00683941319584846497 -0.0255066193640232086 -0.0349676497280597687
-0.0327559560537338257 -0.0265169180929660797 -0.0363548323512077332
-0.00745312497019767761 -0.0259738098829984665 -0.0346603840589523315
-0.021895410493016243 -0.027103617787361145 -0.0349985025823116302
-0.00404291599988937378 -0.0256156958639621735 -0.0346506275236606598
-0.00285693630576133728 -0.0255103670060634613 -0.0346324928104877472
-0.00953836925327777863 -0.0253654047846794128 -0.0353011935949325562
-0.0361906029284000397 -0.0260270796716213226 -0.0370172522962093353
-0.0119173265993595123 -0.0255623534321784973 -0.0353485643863677979
-0.0311935488134622574 -0.0272520165890455246 -0.0356604345142841339
-0.0304677896201610565 -0.0273374766111373901 -0.0355343073606491089
-0.0325332321226596832 -0.0259077120572328568 -0.0368036851286888123
-0.0360416695475578308 -0.026946650817990303 -0.0362992472946643829
-0.0270046871155500412 -0.0259059686213731766 -0.036343742161989212
-0.0355406515300273895 -0.0273880232125520706 -0.0359187833964824677
-0.011234009638428688 -0.0253046136349439621 -0.0354893133044242859
-0.0084652584046125412 -0.025590093806385994 -0.0350392535328865051
-0.0266509037464857101 -0.0241040345281362534 -0.0375815778970718384
-0.00500111468136310577 -0.0217732377350330353 -0.0374428965151309967
-0.0338462591171264648 -0.0254097003489732742 -0.0372596755623817444
-0.0134709030389785767 -0.0241594910621643066 -0.0364753901958465576
-0.015528552234172821 -0.0243082158267498016 -0.0365390181541442871
-0.00892286002635955811 -0.0241790544241666794 -0.0360933765769004822
0.00517240725457668304 -0.0221280995756387711 -0.0363727807998657227
-0.0145184211432933807 -0.0217755809426307678 -0.0382123030722141266
-0.032091628760099411 -0.0248298440128564835 -0.0375193655490875244
-0.0246231760829687119 -0.0246251840144395828 -0.0370561480522155762
-0.0223013907670974731 -0.023130074143409729 -0.0379041656851768494
-0.00499398820102214813 -0.0228916369378566742 -0.036667264997959137
-0.001921873539686203 -0.0241120494902133942 -0.0355726368725299835
-0.00295712053775787354 -0.0237390492111444473 -0.0359149947762489319
-0.020135004073381424 -0.0244273468852043152 -0.0368296504020690918
-0.014692382887005806 -0.0238569434732198715 -0.0367840081453323364
-0.00397305469959974289 -0.0197171010076999664 -0.0387845151126384735
-0.0135862017050385475 -0.0211605709046125412 -0.0385629832744598389
-0.0105263963341712952 -0.0232552103698253632 -0.0368635095655918121
-0.00614592991769313812 -0.0245754960924386978 -0.0355936698615550995
0.00251451879739761353 -0.0205554738640785217 -0.0376779399812221527
-0.000791333615779876709 -0.024450402706861496 -0.0352465622127056122
-0.00266632437705993652 -0.0234645791351795197 -0.0360816456377506256
-0.0239358097314834595 -0.0240850653499364853 -0.0373747646808624268
0.00659408420324325562 -0.0244774967432022095 -0.0346294678747653961
-0.00200284458696842194 -0.0234578531235456467 -0.0360325537621974945
-0.00708109326660633087 -0.0228205136954784393 -0.0368856377899646759
-0.00577749824151396751 -0.0203657858073711395 -0.0384811572730541229
-0.0126639921218156815 -0.0251484215259552002 -0.0357246845960617065
-0.000955453142523765564 -0.0215547662228345871 -0.0372665412724018097
0.00337357819080352783 -0.0216356031596660614 -0.0368598103523254395
-0.00243747234344482422 -0.0227681584656238556 -0.0365457236766815186
-0.000527065247297286987 -0.0236087813973426819 -0.0358083993196487427
-0.0264343507587909698 -0.0256329160183668137 -0.0365045182406902313
-0.00274548213928937912 -0.0183936674147844315 -0.0396022051572799683
-0.0145362634211778641 -0.0233612600713968277 -0.0371148698031902313
-0.0101310797035694122 -0.023479485884308815 -0.0366760604083538055
-0.000366001855581998825 -0.0187491420656442642 -0.0391630865633487701
0.00123547017574310303 -0.0240844897925853729 -0.0353359431028366089
-0.00926258694380521774 -0.0206990800797939301 -0.0385325290262699127
0.00441307201981544495 -0.02348334901034832 -0.0354951061308383942
-0.000424057245254516602 -0.0244750604033470154 -0.0351997241377830505
-0.00704687461256980896 -0.0239790752530097961 -0.0360799804329872131
-0.0126508790999650955 -0.0220023244619369507 -0.0379038751125335693
-0.0183409322053194046 -0.0224401485174894333 -0.0380614325404167175
-0.0260664299130439758 -0.0444682277739048004 -0.00238845567218959332
-0.0237516202032566071 -0.0448148548603057861 -0.00052735721692442894
-0.0119303278625011444 -0.0436387844383716583 -0.000381603487767279148
-0.0213252715766429901 -0.0447193346917629242 -3.40794213116168976e-05
-0.0311248954385519028 -0.0449393764138221741 -0.00255280546844005585
-0.0266763269901275635 -0.0445458889007568359 -0.00234202388674020767
-0.0169382989406585693 -0.0442114248871803284 -0.000206990167498588562
-0.0252387076616287231 -0.0428925715386867523 -0.00906669721007347107
-0.0294413585215806961 -0.0435173623263835907 -0.00853561609983444214
-0.0335200019180774689 -0.0440661497414112091 -0.00827992241829633713
-0.0363952629268169403 -0.04379301518201828 -0.0110773695632815361
-0.0100845061242580414 -0.0412039756774902344 -0.00843572244048118591
-0.0236019939184188843 -0.0427018553018569946 -0.00903617870062589645
-0.0262038521468639374 -0.042636435478925705 -0.0107476888224482536
-0.00664927810430526733 -0.0405619144439697266 -0.00946248322725296021
-0.0343692302703857422 -0.0435342788696289062 -0.0111418198794126511
0.00919841043651103973 -0.0387695431709289551 -0.00892220623791217804
-0.0144979683682322502 -0.0414326079189777374 -0.00980671774595975876
-0.0320005565881729126 -0.0435477942228317261 -0.00979144126176834106
-0.0175966415554285049 -0.041742861270904541 -0.0100937681272625923
-0.00980729050934314728 -0.0411160439252853394 -0.00868154875934123993
-0.0268800742924213409 -0.0429384186863899231 -0.00975335296243429184
-0.0336242541670799255 -0.0439861305058002472 -0.00869769416749477386
-0.0367017164826393127 -0.0441752113401889801 -0.00951988250017166138
-0.00802859663963317871 -0.0408341065049171448 -0.00898529496043920517
-0.0127672888338565826 -0.0412196926772594452 -0.00982521846890449524
-0.0120464302599430084 -0.0414270274341106415 -0.00849737972021102905
-0.0285758078098297119 -0.0434872172772884369 -0.00820045825093984604
-0.0369530543684959412 -0.0437969118356704712 -0.011363442987203598
-0.0275880955159664154 -0.0220597889274358749 -0.0389779657125473022
-0.0254526734352111816 -0.0228221472352743149 -0.0383453890681266785
-0.0146895051002502441 -0.0199705623090267181 -0.0394219048321247101
-0.0346612744033336639 -0.0247648023068904877 -0.0377410463988780975
-0.0236454922705888748 -0.0220538415014743805 -0.0387105941772460938
-0.0323378704488277435 -0.0241783447563648224 -0.0379548892378807068
-0.0333216041326522827 -0.0225549750030040741 -0.0390568152070045471
0.00290207192301750183 -0.0170993693172931671 -0.0400412678718566895
-0.0343479663133621216 -0.0234081204980611801 -0.038583856076002121
-0.029858764261007309 -0.0233427546918392181 -0.0383167453110218048
-0.0306473691016435623 -0.0239391978830099106 -0.0379909835755825043
-0.0317588746547698975 -0.0218694526702165604 -0.0393860898911952972
-0.0182277988642454147 -0.0200535617768764496 -0.0396123789250850677
-0.0311620049178600311 -0.0241804923862218857 -0.0378726460039615631
-0.0267459731549024582 -0.021183699369430542 -0.0394782163202762604
-0.0283445399254560471 -0.0227073598653078079 -0.0386174209415912628
-0.0178505443036556244 -0.0207986496388912201 -0.0391117297112941742
-0.0262145102024078369 -0.0216546822339296341 -0.0391415953636169434
-0.0206823907792568207 -0.0274243112653493881 -0.0346480682492256165
-0.011901436373591423 -0.0265539698302745819 -0.0345789901912212372
-0.0180898252874612808 -0.0277982652187347412 -0.0340496525168418884
-0.02487143874168396 -0.0284872278571128845 -0.0340876206755638123
-0.0319922007620334625 -0.029051072895526886 -0.0342736765742301941
-0.0296293720602989197 -0.0306971222162246704 -0.0325325019657611847
-0.0375542193651199341 -0.0295829400420188904 -0.0343352258205413818
-0.0256746299564838409 -0.0296953693032264709 -0.033060029149055481
-0.0221860706806182861 -0.0287149325013160706 -0.033614031970500946
-0.0217877384275197983 -0.0290882755070924759 -0.0332326926290988922
-0.027546517550945282 -0.0281447842717170715 -0.0346653051674365997
-0.0100547019392251968 -0.0271962061524391174 -0.0338083803653717041
-0.0272547081112861633 -0.0295252520591020584 -0.0333717949688434601
-0.0352901555597782135 -0.0305590406060218811 -0.0332175679504871368
-0.0185820814222097397 -0.0279342252761125565 -0.0339736640453338623
-0.0198127180337905884 -0.0282829571515321732 -0.0337756015360355377
-0.0162879005074501038 -0.0284652896225452423 -0.0332607515156269073
-0.0292423628270626068 -0.0285181775689125061 -0.0344905555248260498
-0.00933258421719074249 -0.0272279046475887299 -0.0337080880999565125
-0.0140603799372911453 -0.00501090195029973984 -0.044621545821428299
-0.0134266167879104614 -0.00327274482697248459 -0.0447691865265369415
-0.00550689361989498138 -0.00257087615318596363 -0.0446768775582313538
-0.0167113728821277618 0.00034097826573997736 -0.0451673716306686401
-0.00260389875620603561 0.00240379804745316505 -0.0450778305530548096
-0.02580280601978302 -0.00272058392874896526 -0.0450654253363609314
-0.00824846047908067703 -6.66716368868947029e-06 -0.0449675619602203369
-0.00192965008318424225 0.00306058838032186031 -0.0451250001788139343
-0.00610224343836307526 -0.00512734614312648773 -0.044453054666519165
-0.0238955467939376831 -0.0022453793790191412 -0.0450714156031608582
-0.0283363033086061478 -0.00356833846308290958 -0.0450375117361545563
-0.0134790763258934021 -0.00102778500877320766 -0.0449771396815776825
-0.0117152761667966843 -0.00203487533144652843 -0.0448493510484695435
-0.0213749650865793228 -0.0018659752095118165 -0.045056413859128952
-0.00840859487652778625 -0.00377831864170730114 -0.044623110443353653
-0.0108807235956192017 -0.00049458799185231328 -0.0449747703969478607
-0.00394601654261350632 0.00132105196826159954 -0.0450046434998512268
-0.0040358174592256546 0.00228901766240596771 -0.0450956374406814575
-0.0211327634751796722 9.19629746931605041e-06 -0.0452244393527507782
-0.0241189971566200256 -0.00297509622760117054 -0.0450085848569869995
-0.005664043128490448 -0.00440161768347024918 -0.0445112548768520355
-0.0289822798222303391 -0.00437448592856526375 -0.0449760183691978455
-0.00161223975010216236 0.00444486597552895546 -0.0452462919056415558
-0.0206983275711536407 0.000201333255972713232 -0.0452335365116596222
-0.0180943869054317474 -0.00358183146454393864 -0.0448332317173480988
-0.0110343042761087418 -0.000693619076628237963 -0.0449594706296920776
-0.00173532590270042419 -0.00260718818753957748 -0.0445987619459629059
-0.0111191216856241226 0.00102237891405820847 -0.0451193153858184814
-0.0218364298343658447 -0.000996915623545646667 -0.0451456606388092041
-0.00631432700902223587 0.00226274784654378891 -0.045138385146856308
