ply
format ascii 1.0
element vertex 732
property float x
property float y
property float z
end_header
1.1190115213394165 4.99600361081320443e-16 0.126772969961166382
2.98398566246032715 4.99600361081320443e-16 0.055447310209274292
1.10050034523010254 4.99600361081320443e-16 0.0700807198882102966
0.565886259078979492 4.99600361081320443e-16 0.00602817721664905548
0.782115280628204346 4.99600361081320443e-16 0.132040336728096008
3.5829622745513916 4.99600361081320443e-16 0.0130511224269866943
0.593096256256103516 4.99600361081320443e-16 0.0214179698377847672
3.53471207618713379 4.99600361081320443e-16 0.0107733756303787231
0.829166173934936523 4.99600361081320443e-16 0.148562163114547729
1.4291146993637085 4.99600361081320443e-16 0.0693253204226493835
0.439405590295791626 4.99600361081320443e-16 0.115180306136608124
0.497804492712020874 4.99600361081320443e-16 0.0300118867307901382
0.6353568434715271 4.99600361081320443e-16 0.0569421276450157166
3.00143241882324219 4.99600361081320443e-16 0.0260614007711410522
0.839307129383087158 4.99600361081320443e-16 0.140978649258613586
3.2862861156463623 4.99600361081320443e-16 0.0247371643781661987
3.48476791381835938 4.99600361081320443e-16 0.00659923255443572998
0.608014941215515137 4.99600361081320443e-16 0.0353251658380031586
0.12337106466293335 4.99600361081320443e-16 0.161381453275680542
3.25073456764221191 4.99600361081320443e-16 0.0230013579130172729
0.791368603706359863 4.99600361081320443e-16 0.0363829396665096283
0.416475564241409302 4.99600361081320443e-16 0.0417478866875171661
2.93099117279052734 4.99600361081320443e-16 0.0276443660259246826
0.117829650640487671 4.99600361081320443e-16 0.0224545989185571671
2.91610217094421387 4.99600361081320443e-16 0.0193170160055160522
2.13812994956970215 4.99600361081320443e-16 0.0735742971301078796
0.283812105655670166 4.99600361081320443e-16 0.149292200803756714
1.06730473041534424 4.99600361081320443e-16 0.00444995611906051636
4.07630157470703125 4.99600361081320443e-16 0.00197084248065948486
1.07607555389404297 4.99600361081320443e-16 0.129278913140296936
0.0645072460174560547 4.99600361081320443e-16 0.000665730098262429237
1.6934128999710083 4.99600361081320443e-16 0.109796471893787384
2.14869236946105957 4.99600361081320443e-16 0.075093880295753479
2.17053532600402832 4.99600361081320443e-16 0.089998878538608551
1.41463291645050049 4.99600361081320443e-16 0.037939220666885376
0.0151554644107818604 4.99600361081320443e-16 0.183573603630065918
0.149529293179512024 4.99600361081320443e-16 0.146066084504127502
1.08878946304321289 4.99600361081320443e-16 0.0799697786569595337
2.31365013122558594 4.99600361081320443e-16 0.0384232252836227417
2.25275516510009766 4.99600361081320443e-16 0.0408724918961524963
0.849032461643218994 4.99600361081320443e-16 0.0707157924771308899
0.0849553197622299194 4.99600361081320443e-16 0.0968864560127258301
1.14867794513702393 4.99600361081320443e-16 0.0558486431837081909
1.0769963264465332 4.99600361081320443e-16 0.0767563804984092712
1.69283819198608398 4.99600361081320443e-16 0.0282151922583580017
1.61253738403320312 4.99600361081320443e-16 0.122593678534030914
1.56508088111877441 4.99600361081320443e-16 0.120902687311172485
1.32158219814300537 4.99600361081320443e-16 0.0175662524998188019
0.657553613185882568 4.99600361081320443e-16 0.0129006598144769669
0.607826948165893555 4.99600361081320443e-16 0.0948752164840698242
3.15448975563049316 4.99600361081320443e-16 0.0533311069011688232
1.28873145580291748 4.99600361081320443e-16 0.111519061028957367
0.312321573495864868 4.99600361081320443e-16 0.170856863260269165
2.69081616401672363 4.99600361081320443e-16 0.00935747474431991577
2.18428683280944824 4.99600361081320443e-16 0.0496939718723297119
2.31400918960571289 4.99600361081320443e-16 0.0663173124194145203
0.923556506633758545 4.99600361081320443e-16 0.102440088987350464
0.828919053077697754 4.99600361081320443e-16 0.0172156095504760742
1.33847367763519287 4.99600361081320443e-16 0.110835187137126923
1.41526281833648682 4.99600361081320443e-16 0.00691238045692443848
0.0826027467846870422 4.99600361081320443e-16 0.0704701170325279236
1.5496441125869751 4.99600361081320443e-16 0.0544357001781463623
1.46269869804382324 4.99600361081320443e-16 0.114334933459758759
2.62511920928955078 4.99600361081320443e-16 0.0767088308930397034
2.60726451873779297 4.99600361081320443e-16 0.00707287341356277466
2.5826117992401123 4.99600361081320443e-16 0.0126985833048820496
1.17661952972412109 4.99600361081320443e-16 0.0683842301368713379
0.335074126720428467 4.99600361081320443e-16 0.067452646791934967
1.43872153759002686 4.99600361081320443e-16 0.0267033874988555908
1.82383787631988525 4.99600361081320443e-16 0.0523055568337440491
3.1534724235534668 4.99600361081320443e-16 0.00433163344860076904
0.333579778671264648 4.99600361081320443e-16 0.0288732647895812988
0.468707382678985596 4.99600361081320443e-16 0.0800224840641021729
0.931353330612182617 4.99600361081320443e-16 0.0972347855567932129
0.348842889070510864 4.99600361081320443e-16 0.00419310666620731354
0.361018896102905273 4.99600361081320443e-16 0.114239484071731567
1.28998196125030518 4.99600361081320443e-16 0.0474135018885135651
2.11534786224365234 4.99600361081320443e-16 0.0328821465373039246
0.655063509941101074 4.99600361081320443e-16 0.0620572678744792938
2.58854818344116211 4.99600361081320443e-16 0.0361672192811965942
0.50759422779083252 4.99600361081320443e-16 0.0751227587461471558
0.0683245137333869934 4.99600361081320443e-16 0.103085510432720184
2.53966164588928223 4.99600361081320443e-16 0.00520748645067214966
0.529048383235931396 4.99600361081320443e-16 0.101756200194358826
0.201215833425521851 4.99600361081320443e-16 0.00703989807516336441
0.872036755084991455 4.99600361081320443e-16 0.147767871618270874
0.968937575817108154 4.99600361081320443e-16 0.0368899442255496979
0.939154744148254395 4.99600361081320443e-16 0.0866849273443222046
0.161378860473632812 4.99600361081320443e-16 0.164091512560844421
0.449358582496643066 4.99600361081320443e-16 0.141278117895126343
1.01213729381561279 4.99600361081320443e-16 0.0508733280003070831
1.03247499465942383 4.99600361081320443e-16 0.0834610015153884888
3.56701517105102539 4.99600361081320443e-16 0.0268725305795669556
2.60222172737121582 4.99600361081320443e-16 0.061515122652053833
0.43661653995513916 4.99600361081320443e-16 0.0975000783801078796
1.51595461368560791 4.99600361081320443e-16 0.056217484176158905
0.766876757144927979 4.99600361081320443e-16 0.113153740763664246
3.08010578155517578 4.99600361081320443e-16 0.0413547754287719727
0.80161130428314209 4.99600361081320443e-16 0.11987728625535965
0.191488116979598999 4.99600361081320443e-16 0.18352605402469635
2.45245909690856934 4.99600361081320443e-16 0.0801502391695976257
1.30089008808135986 4.99600361081320443e-16 0.0661707520484924316
1.64239025115966797 4.99600361081320443e-16 0.0244593843817710876
1.55667829513549805 4.99600361081320443e-16 0.0885082334280014038
2.28932571411132812 4.99600361081320443e-16 0.0689327344298362732
0.385921657085418701 4.99600361081320443e-16 0.154502511024475098
0.648230969905853271 4.99600361081320443e-16 0.101629994809627533
1.86381733417510986 4.99600361081320443e-16 0.0212877914309501648
0.678303182125091553 4.99600361081320443e-16 0.134541481733322144
1.29051971435546875 4.99600361081320443e-16 0.121965542435646057
0.511619150638580322 4.99600361081320443e-16 0.000906964763998985291
3.08755064010620117 4.99600361081320443e-16 0.0244586169719696045
0.191962972283363342 4.99600361081320443e-16 0.14211156964302063
0.402647882699966431 4.99600361081320443e-16 0.10498945415019989
2.78316545486450195 4.99600361081320443e-16 0.0540584325790405273
1.77396500110626221 4.99600361081320443e-16 0.0759277641773223877
2.76781105995178223 4.99600361081320443e-16 0.0498667806386947632
1.90101325511932373 4.99600361081320443e-16 0.100188799202442169
0.981161415576934814 4.99600361081320443e-16 0.142048567533493042
0.456712216138839722 4.99600361081320443e-16 0.0107814539223909378
2.15892934799194336 4.99600361081320443e-16 0.0284073278307914734
1.54586899280548096 4.99600361081320443e-16 0.0346733331680297852
0.14612261950969696 4.99600361081320443e-16 0.087396964430809021
0.0556480810046195984 4.99600361081320443e-16 0.071688137948513031
0.385753393173217773 4.99600361081320443e-16 0.149080023169517517
0.143470481038093567 4.99600361081320443e-16 0.183476284146308899
1.99836468696594238 4.99600361081320443e-16 0.064075469970703125
1.96482503414154053 4.99600361081320443e-16 0.00061753392219543457
2.07993602752685547 4.99600361081320443e-16 0.0978316739201545715
0.0300919078290462494 4.99600361081320443e-16 0.0465853586792945862
4.08590173721313477 4.99600361081320443e-16 0.00441960990428924561
2.08729219436645508 4.99600361081320443e-16 0.0858129560947418213
2.92812013626098633 4.99600361081320443e-16 0.0119526982307434082
1.39233267307281494 4.99600361081320443e-16 0.0495051592588424683
0.808955192565917969 4.99600361081320443e-16 0.162016838788986206
2.36957144737243652 4.99600361081320443e-16 0.0706689953804016113
1.8037571907043457 4.99600361081320443e-16 0.0111819803714752197
0.625814259052276611 4.99600361081320443e-16 0.121902063488960266
0.925135433673858643 4.99600361081320443e-16 0.01617397740483284
0.52417302131652832 4.99600361081320443e-16 0.122413672506809235
1.24669218063354492 4.99600361081320443e-16 0.0541837029159069061
2.46483969688415527 4.99600361081320443e-16 0.0217079445719718933
0.288323432207107544 4.99600361081320443e-16 0.105257906019687653
0.517440140247344971 4.99600361081320443e-16 0.103916771709918976
0.893882632255554199 4.99600361081320443e-16 0.125181466341018677
0.791252315044403076 4.99600361081320443e-16 0.0760484188795089722
0.503088176250457764 4.99600361081320443e-16 0.0770736485719680786
3.4975128173828125 4.99600361081320443e-16 0.035220801830291748
0.18374808132648468 4.99600361081320443e-16 0.164912626147270203
2.4217526912689209 4.99600361081320443e-16 0.0870726704597473145
3.8916325569152832 4.99600361081320443e-16 0.000612586736679077148
1.43999981880187988 4.99600361081320443e-16 0.0646815821528434753
0.064749985933303833 4.99600361081320443e-16 0.0619884282350540161
1.2981417179107666 4.99600361081320443e-16 0.0948243439197540283
1.951873779296875 4.99600361081320443e-16 0.0589368641376495361
0.177429348230361938 4.99600361081320443e-16 0.125221118330955505
0.810550868511199951 4.99600361081320443e-16 0.00312121585011482239
0.89329063892364502 4.99600361081320443e-16 0.131359338760375977
1.52210414409637451 4.99600361081320443e-16 0.074373297393321991
0.0944028571248054504 4.99600361081320443e-16 0.0288694854825735092
1.35627973079681396 4.99600361081320443e-16 0.0556816235184669495
0.201773539185523987 4.99600361081320443e-16 0.180013611912727356
1.53076791763305664 4.99600361081320443e-16 0.0465586110949516296
2.51662969589233398 4.99600361081320443e-16 0.0685191527009010315
3.53885197639465332 4.99600361081320443e-16 0.0364850163459777832
2.3321528434753418 4.99600361081320443e-16 0.0592878535389900208
0.968468844890594482 4.99600361081320443e-16 0.0410149134695529938
2.70714831352233887 4.99600361081320443e-16 0.0709433406591415405
0.145194157958030701 4.99600361081320443e-16 0.13893967866897583
1.58413589000701904 4.99600361081320443e-16 0.0361374765634536743
2.53399372100830078 4.99600361081320443e-16 0.0229910984635353088
2.43247461318969727 4.99600361081320443e-16 0.0511079058051109314
2.5105278491973877 4.99600361081320443e-16 0.0238082930445671082
2.88505315780639648 4.99600361081320443e-16 0.0473017096519470215
0.864740908145904541 4.99600361081320443e-16 0.068962782621383667
3.03088521957397461 4.99600361081320443e-16 0.0462556630373001099
2.54128122329711914 4.99600361081320443e-16 0.0687980130314826965
0.957923471927642822 4.99600361081320443e-16 0.0775158926844596863
0.864488184452056885 4.99600361081320443e-16 0.0736709088087081909
3.91257357597351074 4.99600361081320443e-16 0.00324907898902893066
1.04975152015686035 4.99600361081320443e-16 0.122751981019973755
2.11800193786621094 4.99600361081320443e-16 0.0941835567355155945
0.60409700870513916 4.99600361081320443e-16 0.114682219922542572
1.91995429992675781 4.99600361081320443e-16 0.0139981880784034729
1.5034564733505249 4.99600361081320443e-16 0.0425160378217697144
0.890858590602874756 4.99600361081320443e-16 0.115282833576202393
1.40120601654052734 4.99600361081320443e-16 0.128848880529403687
3.34872245788574219 4.99600361081320443e-16 0.0254386812448501587
1.83203136920928955 4.99600361081320443e-16 0.000163696706295013428
3.3921360969543457 4.99600361081320443e-16 0.00222516059875488281
1.76128101348876953 4.99600361081320443e-16 0.0750471130013465881
1.69084179401397705 4.99600361081320443e-16 0.0170008242130279541
1.9735419750213623 4.99600361081320443e-16 0.0731314569711685181
2.04852747917175293 4.99600361081320443e-16 0.029345683753490448
3.13730144500732422 4.99600361081320443e-16 0.0343954414129257202
0.595622539520263672 4.99600361081320443e-16 0.0498604252934455872
1.64284944534301758 4.99600361081320443e-16 0.0408668443560600281
0.910210728645324707 4.99600361081320443e-16 0.0660249292850494385
0.839928269386291504 4.99600361081320443e-16 0.0965700075030326843
3.75262212753295898 4.99600361081320443e-16 0.00207147002220153809
1.35455858707427979 4.99600361081320443e-16 0.0873315706849098206
2.64455151557922363 4.99600361081320443e-16 0.0746023133397102356
1.89113819599151611 4.99600361081320443e-16 0.0957703515887260437
1.32501780986785889 4.99600361081320443e-16 0.110550582408905029
0.482050150632858276 4.99600361081320443e-16 0.149181798100471497
1.15507602691650391 4.99600361081320443e-16 0.0389958769083023071
0.118841074407100677 4.99600361081320443e-16 0.155689507722854614
1.70751345157623291 4.99600361081320443e-16 0.103021562099456787
0.936942934989929199 4.99600361081320443e-16 0.104251787066459656
2.85894060134887695 4.99600361081320443e-16 0.0254433006048202515
1.50160682201385498 4.99600361081320443e-16 0.0298604294657707214
1.9889984130859375 4.99600361081320443e-16 0.00880457460880279541
0.217321261763572693 4.99600361081320443e-16 0.0656367763876914978
0.852647185325622559 4.99600361081320443e-16 0.151695430278778076
0.764180302619934082 4.99600361081320443e-16 0.132253184914588928
1.18317556381225586 4.99600361081320443e-16 0.0589628368616104126
1.95450985431671143 4.99600361081320443e-16 0.037204258143901825
3.0896155834197998 4.99600361081320443e-16 0.0263690799474716187
1.43323314189910889 4.99600361081320443e-16 0.0117160305380821228
0.236166581511497498 4.99600361081320443e-16 0.15300266444683075
2.32207918167114258 4.99600361081320443e-16 0.0856580361723899841
2.0544579029083252 4.99600361081320443e-16 0.0281997695565223694
0.598474621772766113 4.99600361081320443e-16 0.142522513866424561
2.60141634941101074 4.99600361081320443e-16 0.0468373596668243408
1.81645321846008301 4.99600361081320443e-16 0.0123574584722518921
2.84357666969299316 4.99600361081320443e-16 0.0622684359550476074
0.546648681163787842 4.99600361081320443e-16 0.0385635867714881897
1.50419533252716064 4.99600361081320443e-16 0.0913274660706520081
2.53038191795349121 4.99600361081320443e-16 0.0042813420295715332
0.60872352123260498 4.99600361081320443e-16 0.120491519570350647
0.535464942455291748 4.99600361081320443e-16 0.0361581705510616302
1.3281245231628418 4.99600361081320443e-16 0.0941146835684776306
1.70398044586181641 4.99600361081320443e-16 0.0629037767648696899
2.37570786476135254 4.99600361081320443e-16 0.0886811837553977966
2.9074556827545166 4.99600361081320443e-16 0.0437043309211730957
2.23390913009643555 4.99600361081320443e-16 0.0645762085914611816
3.06671237945556641 4.99600361081320443e-16 0.0566568821668624878
1.12753963470458984 4.99600361081320443e-16 0.138097971677780151
0.648048222064971924 4.99600361081320443e-16 0.0567472577095031738
1.22646939754486084 4.99600361081320443e-16 0.116912513971328735
2.69011330604553223 4.99600361081320443e-16 0.0156253352761268616
3.93781852722167969 4.99600361081320443e-16 0.0961946621537208557
4.11428213119506836 4.99600361081320443e-16 0.16709621250629425
4.11673927307128906 4.99600361081320443e-16 0.0355037152767181396
3.74041199684143066 4.99600361081320443e-16 0.0980923399329185486
4.27556276321411133 4.99600361081320443e-16 0.0469042807817459106
3.94536495208740234 4.99600361081320443e-16 0.187689825892448425
2.51916217803955078 4.99600361081320443e-16 0.148887515068054199
2.22797822952270508 4.99600361081320443e-16 0.192337587475776672
3.7758486270904541 4.99600361081320443e-16 0.0819306522607803345
3.23142004013061523 4.99600361081320443e-16 0.16118757426738739
2.32421731948852539 4.99600361081320443e-16 0.15108036994934082
2.10288047790527344 4.99600361081320443e-16 0.16173967719078064
2.00141048431396484 4.99600361081320443e-16 0.14664575457572937
2.64356136322021484 4.99600361081320443e-16 0.175454497337341309
2.73874855041503906 4.99600361081320443e-16 0.145399391651153564
4.11100006103515625 4.99600361081320443e-16 0.187180221080780029
3.43327045440673828 4.99600361081320443e-16 0.189670830965042114
3.77476310729980469 4.99600361081320443e-16 0.155863001942634583
3.14531230926513672 4.99600361081320443e-16 0.113201163709163666
4.13640499114990234 4.99600361081320443e-16 0.0582436025142669678
4.09567117691040039 4.99600361081320443e-16 0.0866708159446716309
4.11707592010498047 4.99600361081320443e-16 0.159108087420463562
2.89140987396240234 4.99600361081320443e-16 0.193717435002326965
3.80738329887390137 4.99600361081320443e-16 0.0490635484457015991
0.835091829299926758 4.99600361081320443e-16 0.176826730370521545
2.4016718864440918 4.99600361081320443e-16 0.185708940029144287
3.08427309989929199 4.99600361081320443e-16 0.125861614942550659
3.70008611679077148 4.99600361081320443e-16 0.0549305379390716553
3.49807262420654297 4.99600361081320443e-16 0.105515427887439728
3.08473968505859375 4.99600361081320443e-16 0.139536231756210327
2.4584040641784668 4.99600361081320443e-16 0.160652756690979004
4.09801864624023438 4.99600361081320443e-16 0.174576237797737122
3.69481587409973145 4.99600361081320443e-16 0.156545683741569519
0.545051813125610352 4.99600361081320443e-16 0.175371095538139343
1.15869808197021484 4.99600361081320443e-16 0.187990456819534302
2.12471580505371094 4.99600361081320443e-16 0.121120423078536987
2.03127431869506836 4.99600361081320443e-16 0.163834244012832642
0.996771574020385742 4.99600361081320443e-16 0.190495878458023071
3.15256166458129883 4.99600361081320443e-16 0.155147701501846313
3.53948116302490234 4.99600361081320443e-16 0.101937755942344666
3.87701106071472168 4.99600361081320443e-16 0.0747903436422348022
3.31879091262817383 4.99600361081320443e-16 0.101186864078044891
2.94455528259277344 4.99600361081320443e-16 0.0987404137849807739
4.31971931457519531 4.99600361081320443e-16 0.196923553943634033
2.66437005996704102 4.99600361081320443e-16 0.166314303874969482
0.91826939582824707 4.99600361081320443e-16 0.192213445901870728
3.86475682258605957 4.99600361081320443e-16 0.190613254904747009
3.3086552619934082 4.99600361081320443e-16 0.198296740651130676
3.6267540454864502 4.99600361081320443e-16 0.145997315645217896
1.81489896774291992 4.99600361081320443e-16 0.16227307915687561
3.82319235801696777 4.99600361081320443e-16 0.0642696470022201538
3.05887365341186523 4.99600361081320443e-16 0.0672185719013214111
3.9873507022857666 4.99600361081320443e-16 0.0261918008327484131
0.821297168731689453 4.99600361081320443e-16 0.174773350358009338
2.53475046157836914 4.99600361081320443e-16 0.173807159066200256
2.28037571907043457 4.99600361081320443e-16 0.198994025588035583
0.536219358444213867 4.99600361081320443e-16 0.177791386842727661
1.80582213401794434 4.99600361081320443e-16 0.198836103081703186
4.12626838684082031 4.99600361081320443e-16 0.0483541786670684814
4.18097400665283203 4.99600361081320443e-16 0.0483258068561553955
3.67790794372558594 4.99600361081320443e-16 0.129469960927963257
2.92811751365661621 4.99600361081320443e-16 0.089296296238899231
2.25948977470397949 4.99600361081320443e-16 0.14888375997543335
2.14864015579223633 4.99600361081320443e-16 0.153959795832633972
3.45707821846008301 4.99600361081320443e-16 0.180858507752418518
2.86973309516906738 4.99600361081320443e-16 0.181132763624191284
2.62326574325561523 4.99600361081320443e-16 0.186173677444458008
3.02798080444335938 4.99600361081320443e-16 0.187826558947563171
2.83728933334350586 4.99600361081320443e-16 0.164240658283233643
0.264279365539550781 4.99600361081320443e-16 0.194908872246742249
3.73196506500244141 4.99600361081320443e-16 0.0768857821822166443
2.31852507591247559 4.99600361081320443e-16 0.104908302426338196
3.63805627822875977 4.99600361081320443e-16 0.0912550017237663269
4.22870874404907227 4.99600361081320443e-16 0.0232416242361068726
3.3834526538848877 4.99600361081320443e-16 0.130284637212753296
1.69789338111877441 4.99600361081320443e-16 0.171473428606987
0.45749974250793457 4.99600361081320443e-16 0.186726093292236328
3.23638367652893066 4.99600361081320443e-16 0.172024324536323547
2.13512730598449707 4.99600361081320443e-16 0.179040461778640747
0.352633476257324219 4.99600361081320443e-16 0.194319337606430054
2.71811437606811523 4.99600361081320443e-16 0.158595800399780273
2.48081851005554199 4.99600361081320443e-16 0.0951770469546318054
0.49700474739074707 4.99600361081320443e-16 0.194412931799888611
3.88146853446960449 4.99600361081320443e-16 0.0429740250110626221
1.19559264183044434 4.99600361081320443e-16 0.149251952767372131
3.71008777618408203 4.99600361081320443e-16 0.140133649110794067
3.70094871520996094 4.99600361081320443e-16 0.0350970625877380371
3.3766331672668457 4.99600361081320443e-16 0.114354066550731659
3.37518596649169922 4.99600361081320443e-16 0.188955292105674744
1.55663299560546875 4.99600361081320443e-16 0.156285181641578674
3.75002264976501465 4.99600361081320443e-16 0.163607135415077209
3.52729916572570801 4.99600361081320443e-16 0.134668797254562378
2.71589779853820801 4.99600361081320443e-16 0.193347766995429993
2.41886496543884277 4.99600361081320443e-16 0.168764948844909668
2.60894536972045898 4.99600361081320443e-16 0.123749054968357086
1.73502826690673828 4.99600361081320443e-16 0.16805635392665863
4.14264678955078125 4.99600361081320443e-16 0.107718668878078461
2.41620445251464844 4.99600361081320443e-16 0.125211000442504883
4.15719270706176758 4.99600361081320443e-16 0.180586963891983032
2.96758317947387695 4.99600361081320443e-16 0.0653112232685089111
4.27739715576171875 4.99600361081320443e-16 0.0385261029005050659
3.17920064926147461 4.99600361081320443e-16 0.163800865411758423
2.70579290390014648 4.99600361081320443e-16 0.119161680340766907
3.58017206192016602 4.99600361081320443e-16 0.0505069196224212646
3.47335052490234375 4.99600361081320443e-16 0.130956873297691345
4.22390460968017578 4.99600361081320443e-16 0.124207653105258942
1.84343767166137695 4.99600361081320443e-16 0.127323657274246216
1.54371762275695801 4.99600361081320443e-16 0.181214198470115662
3.40535402297973633 4.99600361081320443e-16 0.145021796226501465
3.5683448314666748 4.99600361081320443e-16 0.0908120498061180115
4.06841564178466797 4.99600361081320443e-16 0.031267702579498291
3.54788565635681152 4.99600361081320443e-16 0.167555063962936401
2.19567656517028809 4.99600361081320443e-16 0.173773482441902161
1.49051737785339355 4.99600361081320443e-16 0.194080859422683716
3.94019031524658203 4.99600361081320443e-16 0.0410816222429275513
3.67969679832458496 4.99600361081320443e-16 0.162608087062835693
3.59863638877868652 4.99600361081320443e-16 0.15297853946685791
2.85144138336181641 4.99600361081320443e-16 0.14033527672290802
1.45757269859313965 4.99600361081320443e-16 0.170835569500923157
2.9794614315032959 4.99600361081320443e-16 0.0735001266002655029
2.69920921325683594 4.99600361081320443e-16 0.147904813289642334
2.81542229652404785 4.99600361081320443e-16 0.122535131871700287
3.54693770408630371 4.99600361081320443e-16 0.140975773334503174
4.32616662979125977 4.99600361081320443e-16 0.0383175313472747803
1.42985916137695312 4.99600361081320443e-16 0.137413576245307922
3.75394773483276367 4.99600361081320443e-16 0.153902739286422729
0.633282661437988281 4.99600361081320443e-16 0.196239948272705078
3.92043614387512207 4.99600361081320443e-16 0.112437985837459564
4.13454151153564453 4.99600361081320443e-16 0.133706063032150269
4.19478940963745117 4.99600361081320443e-16 0.0309350043535232544
2.42268991470336914 4.99600361081320443e-16 0.119269303977489471
3.35343027114868164 4.99600361081320443e-16 0.172809064388275146
0.474478721618652344 4.99600361081320443e-16 0.18434751033782959
2.35842800140380859 4.99600361081320443e-16 0.135582983493804932
2.63068866729736328 4.99600361081320443e-16 0.129288196563720703
4.1919407844543457 4.99600361081320443e-16 0.0708829611539840698
2.03611421585083008 4.99600361081320443e-16 0.137834712862968445
3.25308752059936523 4.99600361081320443e-16 0.0558642446994781494
3.28256511688232422 4.99600361081320443e-16 0.156268373131752014
1.27184724807739258 4.99600361081320443e-16 0.179051816463470459
3.47328376770019531 4.99600361081320443e-16 0.069230198860168457
3.11511373519897461 4.99600361081320443e-16 0.186386466026306152
0.970529556274414062 4.99600361081320443e-16 0.182878971099853516
4.13285207748413086 4.99600361081320443e-16 0.150905594229698181
3.49694108963012695 4.99600361081320443e-16 0.15251535177230835
3.76032137870788574 4.99600361081320443e-16 0.0861845612525939941
3.93363094329833984 4.99600361081320443e-16 0.0808380171656608582
4.01426267623901367 4.99600361081320443e-16 0.0244687646627426147
1.3872220516204834 4.99600361081320443e-16 0.178834199905395508
2.34661006927490234 4.99600361081320443e-16 0.196958631277084351
3.51473021507263184 4.99600361081320443e-16 0.121563993394374847
3.82715320587158203 4.99600361081320443e-16 0.0657084882259368896
2.88186979293823242 4.99600361081320443e-16 0.15379682183265686
0.685153722763061523 4.99600361081320443e-16 0.183050185441970825
2.98665618896484375 4.99600361081320443e-16 0.102504327893257141
4.23624706268310547 4.99600361081320443e-16 0.113249480724334717
2.52143955230712891 4.99600361081320443e-16 0.168196365237236023
1.49138259887695312 4.99600361081320443e-16 0.171162039041519165
4.11433935165405273 4.99600361081320443e-16 0.0752894207835197449
3.705413818359375 4.99600361081320443e-16 0.0412773936986923218
2.35315465927124023 4.99600361081320443e-16 0.0917758271098136902
4.02127838134765625 4.99600361081320443e-16 0.195453718304634094
3.7957618236541748 4.99600361081320443e-16 0.134556829929351807
4.20350170135498047 4.99600361081320443e-16 0.151623904705047607
4.31419229507446289 4.99600361081320443e-16 0.133660271763801575
2.79826927185058594 4.99600361081320443e-16 0.185337379574775696
2.19643187522888184 4.99600361081320443e-16 0.164864718914031982
2.67755031585693359 4.99600361081320443e-16 0.182100608944892883
1.7691340446472168 4.99600361081320443e-16 0.162146300077438354
2.85338735580444336 4.99600361081320443e-16 0.0867915898561477661
2.87173199653625488 4.99600361081320443e-16 0.161563053727149963
4.01728916168212891 4.99600361081320443e-16 0.187682092189788818
3.3358299732208252 4.99600361081320443e-16 0.159516245126724243
2.58213472366333008 4.99600361081320443e-16 0.088789917528629303
1.2497408390045166 4.99600361081320443e-16 0.159558579325675964
4.09780311584472656 4.99600361081320443e-16 0.177283719182014465
1.81172466278076172 4.99600361081320443e-16 0.14558042585849762
1.0871729850769043 4.99600361081320443e-16 0.188811138272285461
1.67883920669555664 4.99600361081320443e-16 0.132981076836585999
2.96977138519287109 4.99600361081320443e-16 0.150367945432662964
2.64233565330505371 4.99600361081320443e-16 0.155605703592300415
2.63790035247802734 4.99600361081320443e-16 0.12902437150478363
3.51847100257873535 4.99600361081320443e-16 0.0631483346223831177
1.94356012344360352 4.99600361081320443e-16 0.153929561376571655
2.51852750778198242 4.99600361081320443e-16 0.110866867005825043
3.97977161407470703 4.99600361081320443e-16 0.0445763319730758667
1.54865097999572754 4.99600361081320443e-16 0.168399006128311157
4.03348159790039062 4.99600361081320443e-16 0.100428804755210876
3.0783698558807373 4.99600361081320443e-16 0.13263365626335144
0.823137283325195312 4.99600361081320443e-16 0.186729311943054199
2.6634831428527832 4.99600361081320443e-16 0.161308348178863525
3.36681842803955078 4.99600361081320443e-16 0.0925992876291275024
0.448601961135864258 4.99600361081320443e-16 0.188317328691482544
4.2714691162109375 4.99600361081320443e-16 0.08675413578748703
3.57011270523071289 4.99600361081320443e-16 0.0475870519876480103
1.53779315948486328 4.99600361081320443e-16 0.142883583903312683
1.93002033233642578 4.99600361081320443e-16 0.167553961277008057
0.900506734848022461 4.99600361081320443e-16 0.197663724422454834
3.78870868682861328 4.99600361081320443e-16 0.0639947354793548584
3.99453830718994141 4.99600361081320443e-16 0.0214495658874511719
3.46965789794921875 4.99600361081320443e-16 0.0670416057109832764
2.96669197082519531 4.99600361081320443e-16 0.145462676882743835
0.82711482048034668 4.99600361081320443e-16 0.167928546667098999
4.1990814208984375 4.99600361081320443e-16 0.0697534531354904175
3.52649569511413574 4.99600361081320443e-16 0.133532553911209106
3.40727829933166504 4.99600361081320443e-16 0.154788106679916382
0.895677804946899414 4.99600361081320443e-16 0.159427374601364136
3.60919642448425293 4.99600361081320443e-16 0.0876050740480422974
3.04955816268920898 4.99600361081320443e-16 0.080923132598400116
1.33472466468811035 4.99600361081320443e-16 0.164141461253166199
1.71201014518737793 4.99600361081320443e-16 0.171682924032211304
2.47745370864868164 4.99600361081320443e-16 0.0998466387391090393
1.55125808715820312 4.99600361081320443e-16 0.170737877488136292
2.54191875457763672 4.99600361081320443e-16 0.17708548903465271
0.541872501373291016 4.99600361081320443e-16 0.177400082349777222
4.32689952850341797 4.99600361081320443e-16 0.0043023228645324707
2.84023928642272949 4.99600361081320443e-16 0.106339588761329651
4.16396808624267578 4.99600361081320443e-16 0.0248223543167114258
4.01587724685668945 4.99600361081320443e-16 0.0540419071912765503
3.66508674621582031 4.99600361081320443e-16 0.0469512790441513062
3.54214859008789062 4.99600361081320443e-16 0.0386861264705657959
1.73442339897155762 4.99600361081320443e-16 0.130537182092666626
2.78466653823852539 4.99600361081320443e-16 0.0838322192430496216
4.01321268081665039 4.99600361081320443e-16 0.060878068208694458
2.460845947265625 4.99600361081320443e-16 0.143165796995162964
2.1594235897064209 4.99600361081320443e-16 0.184588044881820679
1.87572669982910156 4.99600361081320443e-16 0.172998949885368347
2.5965425968170166 4.99600361081320443e-16 0.198805063962936401
3.7264258861541748 4.99600361081320443e-16 0.1640595942735672
0.775374174118041992 4.99600361081320443e-16 0.176473945379257202
3.54594111442565918 4.99600361081320443e-16 0.19026552140712738
3.29683089256286621 4.99600361081320443e-16 0.162096232175827026
2.36798620223999023 4.99600361081320443e-16 0.12682679295539856
2.58211541175842285 4.99600361081320443e-16 0.180625930428504944
2.43608784675598145 4.99600361081320443e-16 0.116957925260066986
3.02588844299316406 4.99600361081320443e-16 0.194429367780685425
3.08054876327514648 4.99600361081320443e-16 0.14622730016708374
3.39209771156311035 4.99600361081320443e-16 0.0867501646280288696
1.72208094596862793 4.99600361081320443e-16 0.13707965612411499
2.85969638824462891 4.99600361081320443e-16 0.0699675083160400391
3.47987985610961914 4.99600361081320443e-16 0.102869562804698944
2.15012097358703613 4.99600361081320443e-16 0.198117926716804504
1.0674746036529541 4.99600361081320443e-16 0.199956536293029785
3.97970962524414062 4.99600361081320443e-16 0.10961749404668808
2.21343541145324707 4.99600361081320443e-16 0.168982341885566711
3.90044856071472168 4.99600361081320443e-16 0.0893347263336181641
2.36286258697509766 4.99600361081320443e-16 0.151674643158912659
2.23167133331298828 4.99600361081320443e-16 0.113734528422355652
3.86278510093688965 4.99600361081320443e-16 0.175815209746360779
3.90771770477294922 4.99600361081320443e-16 0.128051131963729858
3.83415365219116211 4.99600361081320443e-16 0.029929429292678833
2.62273359298706055 4.99600361081320443e-16 0.187278807163238525
3.30472946166992188 4.99600361081320443e-16 0.0889968499541282654
1.29493427276611328 4.99600361081320443e-16 0.159559249877929688
3.85172247886657715 4.99600361081320443e-16 0.17902904748916626
3.04519772529602051 4.99600361081320443e-16 0.188645049929618835
3.44945859909057617 4.99600361081320443e-16 0.0965927392244338989
4.27741479873657227 4.99600361081320443e-16 0.191115021705627441
0.854665756225585938 4.99600361081320443e-16 0.184163615107536316
2.94545555114746094 4.99600361081320443e-16 0.107685551047325134
0.911459445953369141 4.99600361081320443e-16 0.188664019107818604
3.89711761474609375 4.99600361081320443e-16 0.181971624493598938
3.70315313339233398 4.99600361081320443e-16 0.130989238619804382
1.30876731872558594 4.99600361081320443e-16 0.144238919019699097
2.70588874816894531 4.99600361081320443e-16 0.114412121474742889
1.11038041114807129 4.99600361081320443e-16 0.177519321441650391
4.07499217987060547 4.99600361081320443e-16 0.0711167454719543457
3.07447004318237305 4.99600361081320443e-16 0.0956869646906852722
0.863742828369140625 4.99600361081320443e-16 0.185854792594909668
3.49796438217163086 4.99600361081320443e-16 0.103832550346851349
3.44242715835571289 4.99600361081320443e-16 0.179902896285057068
3.13893508911132812 4.99600361081320443e-16 0.0632905960083007812
2.24852633476257324 4.99600361081320443e-16 0.119566939771175385
0.498394489288330078 4.99600361081320443e-16 0.189152464270591736
2.63575363159179688 4.99600361081320443e-16 0.199044406414031982
3.13058567047119141 4.99600361081320443e-16 0.103702396154403687
2.18800854682922363 4.99600361081320443e-16 0.19544684886932373
3.80462050437927246 4.99600361081320443e-16 0.0399339497089385986
2.05357217788696289 4.99600361081320443e-16 0.139443546533584595
3.4877619743347168 4.99600361081320443e-16 0.0951188951730728149
2.50115537643432617 4.99600361081320443e-16 0.19605545699596405
2.85942363739013672 4.99600361081320443e-16 0.0978473648428916931
2.47591829299926758 4.99600361081320443e-16 0.123740166425704956
4.25144004821777344 4.99600361081320443e-16 0.0922611355781555176
2.28413581848144531 4.99600361081320443e-16 0.156310379505157471
1.73025369644165039 4.99600361081320443e-16 0.179932549595832825
1.40036654472351074 4.99600361081320443e-16 0.143251776695251465
4.10783004760742188 4.99600361081320443e-16 0.141882002353668213
3.10104084014892578 4.99600361081320443e-16 0.130428940057754517
3.87624073028564453 4.99600361081320443e-16 0.0421066731214523315
0.743308067321777344 4.99600361081320443e-16 0.17106550931930542
3.11876130104064941 4.99600361081320443e-16 0.196618109941482544
4.22364425659179688 4.99600361081320443e-16 0.118568301200866699
4.1686253547668457 4.99600361081320443e-16 0.137417197227478027
2.93840360641479492 4.99600361081320443e-16 0.179552212357521057
3.28438758850097656 4.99600361081320443e-16 0.132896512746810913
3.94635486602783203 4.99600361081320443e-16 0.172764599323272705
4.11591863632202148 4.99600361081320443e-16 0.0308715403079986572
3.20656251907348633 4.99600361081320443e-16 0.103070162236690521
1.06138491630554199 4.99600361081320443e-16 0.176655799150466919
2.86946678161621094 4.99600361081320443e-16 0.197428598999977112
2.56378030776977539 4.99600361081320443e-16 0.1845703125
2.47329521179199219 4.99600361081320443e-16 0.137966379523277283
2.57285070419311523 4.99600361081320443e-16 0.130301445722579956
3.71008205413818359 4.99600361081320443e-16 0.198793128132820129
3.83902430534362793 4.99600361081320443e-16 0.189438015222549438
1.90288901329040527 4.99600361081320443e-16 0.165664851665496826
2.65948009490966797 4.99600361081320443e-16 0.189748302102088928
3.92076921463012695 4.99600361081320443e-16 0.0958947539329528809
3.67763853073120117 4.99600361081320443e-16 0.0305039137601852417
3.64782214164733887 4.99600361081320443e-16 0.125589370727539062
2.81143617630004883 4.99600361081320443e-16 0.197774544358253479
4.09203243255615234 4.99600361081320443e-16 0.18555845320224762
2.91599130630493164 4.99600361081320443e-16 0.110910594463348389
2.30990099906921387 4.99600361081320443e-16 0.114312194287776947
2.99560070037841797 4.99600361081320443e-16 0.0698438286781311035
3.71861457824707031 4.99600361081320443e-16 0.172717288136482239
3.93347740173339844 4.99600361081320443e-16 0.0463216453790664673
3.50743007659912109 4.99600361081320443e-16 0.0473009347915649414
2.55172538757324219 4.99600361081320443e-16 0.0930032134056091309
1.28097963333129883 4.99600361081320443e-16 0.161691159009933472
1.78949069976806641 4.99600361081320443e-16 0.185235872864723206
3.45592832565307617 4.99600361081320443e-16 0.198935627937316895
2.31617283821105957 4.99600361081320443e-16 0.18905620276927948
2.31148099899291992 4.99600361081320443e-16 0.191368713974952698
3.18745708465576172 4.99600361081320443e-16 0.112045221030712128
2.79992127418518066 4.99600361081320443e-16 0.149601370096206665
2.45483541488647461 4.99600361081320443e-16 0.173106759786605835
3.85463142395019531 4.99600361081320443e-16 0.107611969113349915
4.31217861175537109 4.99600361081320443e-16 0.117739245295524597
1.73390913009643555 4.99600361081320443e-16 0.183344706892967224
4.28209495544433594 4.99600361081320443e-16 0.0458103567361831665
3.01676702499389648 4.99600361081320443e-16 0.187888562679290771
2.19542646408081055 4.99600361081320443e-16 0.17602500319480896
2.85875988006591797 4.99600361081320443e-16 0.168445304036140442
2.17822051048278809 4.99600361081320443e-16 0.1832103431224823
0.826758623123168945 4.99600361081320443e-16 0.172869220376014709
3.85429596900939941 4.99600361081320443e-16 0.199875384569168091
1.54858303070068359 4.99600361081320443e-16 0.174987167119979858
3.90562176704406738 4.99600361081320443e-16 0.0495752990245819092
4.32400226593017578 4.99600361081320443e-16 0.0770432949066162109
4.17819070816040039 4.99600361081320443e-16 0.0950011834502220154
0.738853931427001953 4.99600361081320443e-16 0.176799014210700989
3.50353646278381348 4.99600361081320443e-16 0.153462916612625122
2.2559359073638916 4.99600361081320443e-16 0.120910592377185822
2.34038281440734863 4.99600361081320443e-16 0.177464187145233154
2.44915533065795898 4.99600361081320443e-16 0.138047695159912109
3.28979730606079102 4.99600361081320443e-16 0.066740766167640686
0.869545936584472656 4.99600361081320443e-16 0.183408275246620178
4.14491653442382812 4.99600361081320443e-16 0.193715661764144897
1.33665657043457031 4.99600361081320443e-16 0.159508734941482544
4.32500791549682617 4.99600361081320443e-16 0.000658556818962097168
2.56986594200134277 4.99600361081320443e-16 0.121173769235610962
2.80279350280761719 4.99600361081320443e-16 0.186270013451576233
0.99499058723449707 4.99600361081320443e-16 0.161194846034049988
4.17243432998657227 4.99600361081320443e-16 0.0447668731212615967
4.15605688095092773 4.99600361081320443e-16 0.136906683444976807
2.43583798408508301 4.99600361081320443e-16 0.149261072278022766
3.27935457229614258 4.99600361081320443e-16 0.118380658328533173
2.6794276237487793 4.99600361081320443e-16 0.0978972464799880981
2.92921876907348633 4.99600361081320443e-16 0.179979577660560608
3.69060039520263672 4.99600361081320443e-16 0.128795430064201355
2.84942770004272461 4.99600361081320443e-16 0.162332475185394287
3.98643612861633301 4.99600361081320443e-16 0.124515973031520844
2.53082394599914551 4.99600361081320443e-16 0.131020441651344299
1.87881779670715332 4.99600361081320443e-16 0.193612053990364075
2.45593595504760742 4.99600361081320443e-16 0.170986279845237732
3.67497968673706055 4.99600361081320443e-16 0.0779367834329605103
3.75828838348388672 4.99600361081320443e-16 0.0277690142393112183
4.12402486801147461 4.99600361081320443e-16 0.146283894777297974
1.23701572418212891 4.99600361081320443e-16 0.166612386703491211
3.65948319435119629 4.99600361081320443e-16 0.198927447199821472
4.25483179092407227 4.99600361081320443e-16 0.187141552567481995
0.692379951477050781 4.99600361081320443e-16 0.194431349635124207
2.74855971336364746 4.99600361081320443e-16 0.121272221207618713
2.70657110214233398 4.99600361081320443e-16 0.149387836456298828
3.63196158409118652 4.99600361081320443e-16 0.107681162655353546
2.71083712577819824 4.99600361081320443e-16 0.17657095193862915
3.28169393539428711 4.99600361081320443e-16 0.168833762407302856
3.63743758201599121 4.99600361081320443e-16 0.183413833379745483
1.7197413444519043 4.99600361081320443e-16 0.174478098750114441
4.10972023010253906 4.99600361081320443e-16 0.0623274445533752441
2.56457138061523438 4.99600361081320443e-16 0.17631252110004425
2.53154420852661133 4.99600361081320443e-16 0.121953949332237244
2.58965587615966797 4.99600361081320443e-16 0.128800004720687866
4.05821323394775391 4.99600361081320443e-16 0.186222270131111145
2.91575145721435547 4.99600361081320443e-16 0.108709670603275299
3.93953943252563477 4.99600361081320443e-16 0.104972280561923981
2.58851051330566406 4.99600361081320443e-16 0.12332441657781601
4.18588161468505859 4.99600361081320443e-16 0.0928285494446754456
0.855220794677734375 4.99600361081320443e-16 0.17649368941783905
4.09469318389892578 4.99600361081320443e-16 0.166475608944892883
3.07026386260986328 4.99600361081320443e-16 0.122387483716011047
2.00318574905395508 4.99600361081320443e-16 0.117295779287815094
4.25655126571655273 4.99600361081320443e-16 0.131296128034591675
3.89564943313598633 4.99600361081320443e-16 0.0889770388603210449
2.86650943756103516 4.99600361081320443e-16 0.17028491199016571
3.88131093978881836 4.99600361081320443e-16 0.107858046889305115
2.29412245750427246 4.99600361081320443e-16 0.15773579478263855
3.27721261978149414 4.99600361081320443e-16 0.147324070334434509
4.16522741317749023 4.99600361081320443e-16 0.0838252827525138855
1.64502048492431641 4.99600361081320443e-16 0.191772758960723877
3.18210172653198242 4.99600361081320443e-16 0.163293614983558655
2.91274785995483398 4.99600361081320443e-16 0.0836769118905067444
2.5890812873840332 4.99600361081320443e-16 0.189371585845947266
1.40382695198059082 4.99600361081320443e-16 0.153399080038070679
2.16620206832885742 4.99600361081320443e-16 0.189972355961799622
3.31477975845336914 4.99600361081320443e-16 0.0828926116228103638
4.15463542938232422 4.99600361081320443e-16 0.0572095215320587158
2.60858392715454102 4.99600361081320443e-16 0.176054224371910095
3.96533894538879395 4.99600361081320443e-16 0.0875277668237686157
3.99256110191345215 4.99600361081320443e-16 0.0896980687975883484
1.02616786956787109 4.99600361081320443e-16 0.177576199173927307
2.13364148139953613 4.99600361081320443e-16 0.103167168796062469
2.44148492813110352 4.99600361081320443e-16 0.160224989056587219
3.52585172653198242 4.99600361081320443e-16 0.104648619890213013
3.36657524108886719 4.99600361081320443e-16 0.115494571626186371
3.26963305473327637 4.99600361081320443e-16 0.0815835818648338318
0.34845423698425293 4.99600361081320443e-16 0.188596859574317932
2.84117650985717773 4.99600361081320443e-16 0.129395589232444763
0.868605136871337891 4.99600361081320443e-16 0.163744956254959106
2.69881558418273926 4.99600361081320443e-16 0.175287395715713501
3.87139272689819336 4.99600361081320443e-16 0.169368267059326172
3.47370648384094238 4.99600361081320443e-16 0.102105475962162018
2.46615004539489746 4.99600361081320443e-16 0.186962530016899109
3.43263363838195801 4.99600361081320443e-16 0.138623952865600586
1.13677406311035156 4.99600361081320443e-16 0.15840110182762146
1.56840109825134277 4.99600361081320443e-16 0.128278434276580811
3.37263822555541992 4.99600361081320443e-16 0.146211802959442139
4.19702911376953125 4.99600361081320443e-16 0.12637290358543396
3.51809263229370117 4.99600361081320443e-16 0.0826001390814781189
1.6120450496673584 4.99600361081320443e-16 0.149144440889358521
1.9520716667175293 4.99600361081320443e-16 0.189135223627090454
2.67123031616210938 4.99600361081320443e-16 0.0857542902231216431
4.03048992156982422 4.99600361081320443e-16 0.0152522921562194824
1.54334640502929688 4.99600361081320443e-16 0.149191185832023621
3.86103343963623047 4.99600361081320443e-16 0.198783218860626221
1.31291460990905762 4.99600361081320443e-16 0.191435918211936951
3.43891215324401855 4.99600361081320443e-16 0.0553168952465057373
1.97715950012207031 4.99600361081320443e-16 0.171053364872932434
0.860562324523925781 4.99600361081320443e-16 0.199352815747261047
3.06698751449584961 4.99600361081320443e-16 0.134062826633453369
1.23783707618713379 4.99600361081320443e-16 0.176874086260795593
2.14394831657409668 4.99600361081320443e-16 0.151109844446182251
4.04749345779418945 4.99600361081320443e-16 0.158633440732955933
3.05804443359375 4.99600361081320443e-16 0.122083172202110291
1.95204329490661621 4.99600361081320443e-16 0.135881245136260986
3.91407370567321777 4.99600361081320443e-16 0.165914922952651978
1.78711915016174316 4.99600361081320443e-16 0.176857143640518188
3.79832339286804199 4.99600361081320443e-16 0.0577246546745300293
1.28881597518920898 4.99600361081320443e-16 0.146477773785591125
4.28382778167724609 4.99600361081320443e-16 0.0941955000162124634
2.08612251281738281 4.99600361081320443e-16 0.195343226194381714
3.6377723217010498 4.99600361081320443e-16 0.178703710436820984
1.81893324851989746 4.99600361081320443e-16 0.149645864963531494
3.28589153289794922 4.99600361081320443e-16 0.0940203070640563965
2.01821470260620117 4.99600361081320443e-16 0.195472061634063721
2.80965018272399902 4.99600361081320443e-16 0.126681983470916748
1.64677691459655762 4.99600361081320443e-16 0.183637499809265137
1.61808061599731445 4.99600361081320443e-16 0.161401450634002686
3.71699237823486328 4.99600361081320443e-16 0.165953055024147034
2.47260522842407227 4.99600361081320443e-16 0.185239210724830627
3.75960755348205566 4.99600361081320443e-16 0.194699719548225403
3.58025932312011719 4.99600361081320443e-16 0.188261300325393677
3.29423785209655762 4.99600361081320443e-16 0.0634935647249221802
3.94376373291015625 4.99600361081320443e-16 0.0193182229995727539
4.3203272819519043 4.99600361081320443e-16 0.00149355828762054443
3.98533201217651367 4.99600361081320443e-16 0.104766152799129486
1.62008285522460938 4.99600361081320443e-16 0.195058718323707581
4.27276515960693359 4.99600361081320443e-16 0.125517487525939941
4.17071628570556641 4.99600361081320443e-16 0.0501587092876434326
3.40680313110351562 4.99600361081320443e-16 0.129478096961975098
4.25671195983886719 4.99600361081320443e-16 0.072805941104888916
3.99289393424987793 4.99600361081320443e-16 0.133192300796508789
2.9118046760559082 4.99600361081320443e-16 0.148832410573959351
1.8399055004119873 4.99600361081320443e-16 0.128654226660728455
2.31503009796142578 4.99600361081320443e-16 0.127628624439239502
2.01306796073913574 4.99600361081320443e-16 0.152614444494247437
2.97887992858886719 4.99600361081320443e-16 0.114251799881458282
4.01097869873046875 4.99600361081320443e-16 0.074671819806098938
4.31390762329101562 4.99600361081320443e-16 0.0942168831825256348
3.49124598503112793 4.99600361081320443e-16 0.0512206107378005981
3.77424526214599609 4.99600361081320443e-16 0.104797206819057465
2.87569904327392578 4.99600361081320443e-16 0.141524061560630798
3.31449604034423828 4.99600361081320443e-16 0.0689484477043151855
3.31351232528686523 4.99600361081320443e-16 0.198267325758934021
2.44023370742797852 4.99600361081320443e-16 0.161629229784011841
2.85857486724853516 4.99600361081320443e-16 0.128500953316688538
4.11601877212524414 4.99600361081320443e-16 0.0286032259464263916
1.93102502822875977 4.99600361081320443e-16 0.174939095973968506
3.58976626396179199 4.99600361081320443e-16 0.102058127522468567
