ply
format ascii 1.0
element vertex 954
property float x
property float y
property float z
end_header
9.99200722162640886e-16 0.292540252208709717 0.3658103346824646
9.99200722162640886e-16 0.264496654272079468 0.448169022798538208
9.99200722162640886e-16 0.00947545468807220459 0.400522500276565552
9.99200722162640886e-16 0.0215733218938112259 0.323592692613601685
9.99200722162640886e-16 0.255780816078186035 0.313210546970367432
9.99200722162640886e-16 0.201397061347961426 0.274103313684463501
9.99200722162640886e-16 0.116614222526550293 0.395849287509918213
9.99200722162640886e-16 0.343179494142532349 0.412344813346862793
9.99200722162640886e-16 0.231359228491783142 0.326107442378997803
9.99200722162640886e-16 0.112855322659015656 0.290723145008087158
9.99200722162640886e-16 0.0796225294470787048 0.232540518045425415
9.99200722162640886e-16 0.191833838820457458 0.249661535024642944
9.99200722162640886e-16 0.0689949393272399902 0.28881371021270752
9.99200722162640886e-16 0.0924367532134056091 0.325411230325698853
9.99200722162640886e-16 0.254609942436218262 0.348678231239318848
9.99200722162640886e-16 0.129745647311210632 0.23738408088684082
9.99200722162640886e-16 0.178209766745567322 0.360207498073577881
9.99200722162640886e-16 0.270993351936340332 0.422738730907440186
9.99200722162640886e-16 0.164894387125968933 0.495824515819549561
9.99200722162640886e-16 0.289628207683563232 0.449434429407119751
9.99200722162640886e-16 0.255088001489639282 0.371921002864837646
9.99200722162640886e-16 0.289891421794891357 0.386232823133468628
9.99200722162640886e-16 0.320097357034683228 0.404666095972061157
9.99200722162640886e-16 0.12455885112285614 0.28712308406829834
9.99200722162640886e-16 0.332035630941390991 0.432604849338531494
9.99200722162640886e-16 0.0775348544120788574 0.313371419906616211
9.99200722162640886e-16 0.0529576539993286133 0.208244562149047852
9.99200722162640886e-16 0.240277692675590515 0.462857693433761597
9.99200722162640886e-16 0.0887992009520530701 0.135519146919250488
9.99200722162640886e-16 0.0090528540313243866 0.0710256695747375488
9.99200722162640886e-16 0.112463094294071198 0.242554247379302979
9.99200722162640886e-16 0.253863066434860229 0.498950749635696411
9.99200722162640886e-16 0.318036645650863647 0.394929081201553345
9.99200722162640886e-16 0.381346583366394043 0.481046825647354126
9.99200722162640886e-16 0.166956126689910889 0.283469796180725098
9.99200722162640886e-16 0.0190598815679550171 0.0988253653049468994
9.99200722162640886e-16 0.0238062255084514618 0.0565253496170043945
9.99200722162640886e-16 0.0827740132808685303 0.319784879684448242
9.99200722162640886e-16 0.342043429613113403 0.489625453948974609
9.99200722162640886e-16 0.308513253927230835 0.428278267383575439
9.99200722162640886e-16 0.0277221184223890305 0.384432882070541382
9.99200722162640886e-16 0.220074877142906189 0.462284713983535767
9.99200722162640886e-16 0.0998964682221412659 0.262232482433319092
9.99200722162640886e-16 0.0117134079337120056 0.179297298192977905
9.99200722162640886e-16 0.0583038367331027985 0.167020797729492188
9.99200722162640886e-16 0.0330020003020763397 0.368572741746902466
9.99200722162640886e-16 0.013473966158926487 0.263716965913772583
9.99200722162640886e-16 0.227285519242286682 0.339526712894439697
9.99200722162640886e-16 0.154119014739990234 0.351430654525756836
9.99200722162640886e-16 0.175353586673736572 0.337906152009963989
9.99200722162640886e-16 0.22716793417930603 0.468620449304580688
9.99200722162640886e-16 0.139052286744117737 0.213713467121124268
9.99200722162640886e-16 0.337430328130722046 0.477606594562530518
9.99200722162640886e-16 0.103056415915489197 0.401471853256225586
9.99200722162640886e-16 0.105171427130699158 0.429017215967178345
9.99200722162640886e-16 0.0583794564008712769 0.137637138366699219
9.99200722162640886e-16 0.245109781622886658 0.331329464912414551
9.99200722162640886e-16 0.226969599723815918 0.424127429723739624
9.99200722162640886e-16 0.0417154058814048767 0.343160450458526611
9.99200722162640886e-16 0.0711245909333229065 0.137590289115905762
9.99200722162640886e-16 0.269136190414428711 0.325646907091140747
9.99200722162640886e-16 0.178433835506439209 0.400803238153457642
9.99200722162640886e-16 0.0700538903474807739 0.150959968566894531
9.99200722162640886e-16 0.128963425755500793 0.321590602397918701
9.99200722162640886e-16 0.0988997519016265869 0.36332392692565918
9.99200722162640886e-16 0.218748778104782104 0.468719154596328735
9.99200722162640886e-16 0.153909727931022644 0.415612697601318359
9.99200722162640886e-16 0.119382455945014954 0.347609817981719971
9.99200722162640886e-16 0.156470775604248047 0.477282047271728516
9.99200722162640886e-16 0.0181339047849178314 0.0342061519622802734
9.99200722162640886e-16 0.0495423302054405212 0.211897283792495728
9.99200722162640886e-16 0.16086144745349884 0.312876373529434204
9.99200722162640886e-16 0.107718557119369507 0.349278688430786133
9.99200722162640886e-16 0.0274454709142446518 0.342582672834396362
9.99200722162640886e-16 0.0290181338787078857 0.461329460144042969
9.99200722162640886e-16 0.156385853886604309 0.246965229511260986
9.99200722162640886e-16 0.196154952049255371 0.253031790256500244
9.99200722162640886e-16 0.0599390380084514618 0.184192895889282227
9.99200722162640886e-16 0.107830129563808441 0.424988299608230591
9.99200722162640886e-16 0.0423197560012340546 0.321045815944671631
9.99200722162640886e-16 0.0438143759965896606 0.237009555101394653
9.99200722162640886e-16 0.313754767179489136 0.474042683839797974
9.99200722162640886e-16 0.171418055891990662 0.341864556074142456
9.99200722162640886e-16 0.037080865353345871 0.262145102024078369
9.99200722162640886e-16 0.224237442016601562 0.343206793069839478
9.99200722162640886e-16 0.398534268140792847 0.47937890887260437
9.99200722162640886e-16 0.0694972798228263855 0.425418347120285034
9.99200722162640886e-16 0.0404222831130027771 0.397200703620910645
9.99200722162640886e-16 0.175310835242271423 0.38162878155708313
9.99200722162640886e-16 0.28989526629447937 0.369289994239807129
9.99200722162640886e-16 0.0619571954011917114 0.439392775297164917
9.99200722162640886e-16 0.190072640776634216 0.30194130539894104
9.99200722162640886e-16 0.112852655351161957 0.299069672822952271
9.99200722162640886e-16 0.0589026473462581635 0.366482079029083252
9.99200722162640886e-16 0.285549670457839966 0.46568763256072998
9.99200722162640886e-16 0.0127102555707097054 0.294075429439544678
9.99200722162640886e-16 0.321227818727493286 0.483408659696578979
9.99200722162640886e-16 0.0152115738019347191 0.145409315824508667
9.99200722162640886e-16 0.140446007251739502 0.35483020544052124
9.99200722162640886e-16 0.00974174682050943375 0.376964807510375977
9.99200722162640886e-16 0.254242151975631714 0.483211904764175415
9.99200722162640886e-16 0.365253984928131104 0.438909024000167847
9.99200722162640886e-16 0.182999610900878906 0.434962987899780273
9.99200722162640886e-16 0.0809777230024337769 0.485011160373687744
9.99200722162640886e-16 0.265661388635635376 0.39103776216506958
9.99200722162640886e-16 0.316261917352676392 0.411195367574691772
9.99200722162640886e-16 0.0739037096500396729 0.180132836103439331
9.99200722162640886e-16 0.17292042076587677 0.280952155590057373
9.99200722162640886e-16 0.148370295763015747 0.342711031436920166
9.99200722162640886e-16 0.0166119802743196487 0.116968721151351929
9.99200722162640886e-16 0.0547724254429340363 0.457851827144622803
9.99200722162640886e-16 0.0010647621238604188 0.268942892551422119
9.99200722162640886e-16 0.266734063625335693 0.377138793468475342
9.99200722162640886e-16 0.358966976404190063 0.450930684804916382
9.99200722162640886e-16 0.0528267771005630493 0.0868538022041320801
9.99200722162640886e-16 0.19754365086555481 0.396818846464157104
9.99200722162640886e-16 0.148300856351852417 0.286459207534790039
9.99200722162640886e-16 0.330754101276397705 0.435371041297912598
9.99200722162640886e-16 0.0668677836656570435 0.115700364112854004
9.99200722162640886e-16 0.0751462802290916443 0.123052805662155151
9.99200722162640886e-16 0.269068062305450439 0.476514548063278198
9.99200722162640886e-16 0.358920007944107056 0.436189174652099609
9.99200722162640886e-16 0.0941789969801902771 0.443561911582946777
9.99200722162640886e-16 0.191490322351455688 0.407251417636871338
9.99200722162640886e-16 0.162987619638442993 0.395363539457321167
9.99200722162640886e-16 0.0667682662606239319 0.256019353866577148
9.99200722162640886e-16 0.189198866486549377 0.258218824863433838
9.99200722162640886e-16 0.00664086500182747841 0.159006297588348389
9.99200722162640886e-16 0.170852988958358765 0.472928375005722046
9.99200722162640886e-16 0.0500381439924240112 0.356473922729492188
9.99200722162640886e-16 0.205058783292770386 0.432565569877624512
9.99200722162640886e-16 0.28148573637008667 0.457209765911102295
9.99200722162640886e-16 0.37189146876335144 0.457426726818084717
9.99200722162640886e-16 0.178441554307937622 0.2337513267993927
9.99200722162640886e-16 0.359561532735824585 0.466073989868164062
9.99200722162640886e-16 0.0709789618849754333 0.138724714517593384
9.99200722162640886e-16 0.290797114372253418 0.362415075302124023
9.99200722162640886e-16 0.0436223261058330536 0.387392252683639526
9.99200722162640886e-16 0.0148649532347917557 0.375384032726287842
9.99200722162640886e-16 0.0915062800049781799 0.180924832820892334
9.99200722162640886e-16 0.257658004760742188 0.35971444845199585
9.99200722162640886e-16 0.0436978563666343689 0.105692863464355469
9.99200722162640886e-16 0.106043733656406403 0.190437465906143188
9.99200722162640886e-16 0.151992201805114746 0.247921168804168701
9.99200722162640886e-16 0.246772527694702148 0.422332167625427246
9.99200722162640886e-16 0.0706042274832725525 0.16672554612159729
9.99200722162640886e-16 0.0308379810303449631 0.482285529375076294
9.99200722162640886e-16 0.157391458749771118 0.441674858331680298
9.99200722162640886e-16 0.306554645299911499 0.44881904125213623
9.99200722162640886e-16 0.219115942716598511 0.301126658916473389
9.99200722162640886e-16 0.0980456024408340454 0.187493801116943359
9.99200722162640886e-16 0.120935849845409393 0.328637778759002686
9.99200722162640886e-16 0.197467237710952759 0.269334137439727783
9.99200722162640886e-16 0.183776065707206726 0.339436560869216919
9.99200722162640886e-16 0.351089745759963989 0.442695051431655884
9.99200722162640886e-16 0.105046786367893219 0.246010780334472656
9.99200722162640886e-16 0.110480368137359619 0.219801068305969238
9.99200722162640886e-16 0.280563503503799438 0.40168607234954834
9.99200722162640886e-16 0.1795540452003479 0.479008585214614868
9.99200722162640886e-16 0.0537939146161079407 0.348916172981262207
9.99200722162640886e-16 0.145992577075958252 0.276475876569747925
9.99200722162640886e-16 0.169580146670341492 0.245704799890518188
9.99200722162640886e-16 0.226460754871368408 0.422700792551040649
9.99200722162640886e-16 0.19312615692615509 0.4999733567237854
9.99200722162640886e-16 0.138057023286819458 0.367517024278640747
9.99200722162640886e-16 0.226604387164115906 0.328972578048706055
9.99200722162640886e-16 0.323961824178695679 0.441065698862075806
9.99200722162640886e-16 0.137276932597160339 0.453584402799606323
9.99200722162640886e-16 0.36293560266494751 0.48894810676574707
9.99200722162640886e-16 0.194947138428688049 0.43284761905670166
9.99200722162640886e-16 0.0670405477285385132 0.088315814733505249
9.99200722162640886e-16 0.265586644411087036 0.434611141681671143
9.99200722162640886e-16 0.0502497181296348572 0.495442599058151245
9.99200722162640886e-16 0.241241365671157837 0.337932050228118896
9.99200722162640886e-16 0.0766897499561309814 0.141127973794937134
9.99200722162640886e-16 0.122051320970058441 0.331252872943878174
9.99200722162640886e-16 0.354954838752746582 0.485998809337615967
9.99200722162640886e-16 0.0649381428956985474 0.390350222587585449
9.99200722162640886e-16 0.150501921772956848 0.384378582239151001
9.99200722162640886e-16 0.100418351590633392 0.44256591796875
9.99200722162640886e-16 0.0843844860792160034 0.296022772789001465
9.99200722162640886e-16 0.09363604336977005 0.180540382862091064
9.99200722162640886e-16 0.125924214720726013 0.332465469837188721
9.99200722162640886e-16 0.0364527218043804169 0.0586774647235870361
9.99200722162640886e-16 0.233365640044212341 0.368622541427612305
9.99200722162640886e-16 0.13744296133518219 0.342616498470306396
9.99200722162640886e-16 0.0674700140953063965 0.20417708158493042
9.99200722162640886e-16 0.0227964799851179123 0.335357367992401123
9.99200722162640886e-16 0.0256398692727088928 0.218225538730621338
9.99200722162640886e-16 0.150637924671173096 0.370743036270141602
9.99200722162640886e-16 0.219569846987724304 0.366874277591705322
9.99200722162640886e-16 0.229204967617988586 0.292965710163116455
9.99200722162640886e-16 0.00569938868284225464 0.225067049264907837
9.99200722162640886e-16 0.000605890934821218252 0.421923041343688965
9.99200722162640886e-16 0.0519729629158973694 0.186057120561599731
9.99200722162640886e-16 0.106762431561946869 0.166258513927459717
9.99200722162640886e-16 0.284614682197570801 0.478707253932952881
9.99200722162640886e-16 0.0227789226919412613 0.101307690143585205
9.99200722162640886e-16 0.119392059743404388 0.459594130516052246
9.99200722162640886e-16 0.194618403911590576 0.337110161781311035
9.99200722162640886e-16 0.261851400136947632 0.350696712732315063
9.99200722162640886e-16 0.295327842235565186 0.379664748907089233
9.99200722162640886e-16 0.177742570638656616 0.27428513765335083
9.99200722162640886e-16 0.270922303199768066 0.4580191969871521
9.99200722162640886e-16 0.076594226062297821 0.479171127080917358
9.99200722162640886e-16 0.0457277409732341766 0.381424546241760254
9.99200722162640886e-16 0.0565001890063285828 0.272596538066864014
9.99200722162640886e-16 0.235299661755561829 0.376314759254455566
9.99200722162640886e-16 0.18316224217414856 0.438212156295776367
9.99200722162640886e-16 0.0836478322744369507 0.231036782264709473
9.99200722162640886e-16 0.0523267351090908051 0.416191518306732178
9.99200722162640886e-16 0.141747727990150452 0.207612127065658569
9.99200722162640886e-16 0.185397893190383911 0.478711217641830444
9.99200722162640886e-16 0.143853023648262024 0.364355921745300293
9.99200722162640886e-16 0.129976853728294373 0.243685811758041382
9.99200722162640886e-16 0.0517379343509674072 0.297310143709182739
9.99200722162640886e-16 0.120049133896827698 0.229216217994689941
9.99200722162640886e-16 0.307273030281066895 0.404636681079864502
9.99200722162640886e-16 0.0638501271605491638 0.0781273245811462402
9.99200722162640886e-16 0.20959983766078949 0.32127845287322998
9.99200722162640886e-16 0.0920678824186325073 0.299408912658691406
9.99200722162640886e-16 0.0660472363233566284 0.100148975849151611
9.99200722162640886e-16 0.0917163193225860596 0.368218660354614258
9.99200722162640886e-16 0.160427317023277283 0.366971492767333984
9.99200722162640886e-16 0.0784605741500854492 0.153562277555465698
9.99200722162640886e-16 0.0714128464460372925 0.154421418905258179
9.99200722162640886e-16 0.322273164987564087 0.443713605403900146
9.99200722162640886e-16 0.276419520378112793 0.449239969253540039
9.99200722162640886e-16 0.105443954467773438 0.36141851544380188
9.99200722162640886e-16 0.328819185495376587 0.427062511444091797
9.99200722162640886e-16 0.150783821940422058 0.42079007625579834
9.99200722162640886e-16 0.313852459192276001 0.403288185596466064
9.99200722162640886e-16 0.0111961206421256065 0.142019122838973999
9.99200722162640886e-16 0.154026389122009277 0.333093523979187012
9.99200722162640886e-16 0.108321987092494965 0.194141179323196411
9.99200722162640886e-16 0.077390722930431366 0.260569512844085693
9.99200722162640886e-16 0.139944568276405334 0.341377139091491699
9.99200722162640886e-16 0.106994830071926117 0.401910245418548584
9.99200722162640886e-16 0.152066200971603394 0.294796526432037354
9.99200722162640886e-16 0.15710216760635376 0.472579300403594971
9.99200722162640886e-16 0.0408995822072029114 0.273736119270324707
9.99200722162640886e-16 0.193658068776130676 0.494698137044906616
9.99200722162640886e-16 0.149294763803482056 0.231428951025009155
9.99200722162640886e-16 0.0879261940717697144 0.413289964199066162
9.99200722162640886e-16 0.0195458699017763138 0.259353011846542358
9.99200722162640886e-16 0.278028041124343872 0.444519937038421631
9.99200722162640886e-16 0.0766021609306335449 0.412163436412811279
9.99200722162640886e-16 0.0855025127530097961 0.228268444538116455
9.99200722162640886e-16 0.247402042150497437 0.447442710399627686
9.99200722162640886e-16 0.391548305749893188 0.48207700252532959
9.99200722162640886e-16 0.0638170316815376282 0.410848915576934814
9.99200722162640886e-16 0.0618128702044487 0.293161451816558838
9.99200722162640886e-16 0.283839762210845947 0.438858062028884888
9.99200722162640886e-16 0.0759430527687072754 0.332001328468322754
0.0204160884022712708 0 0.173548579216003418
0.302645564079284668 0 0.107987254858016968
0.0925332754850387573 0 0.173368483781814575
0.0273422636091709137 0 0.357970327138900757
0.440534740686416626 0 0.0771782845258712769
0.0982757359743118286 0 0.16622576117515564
0.145954325795173645 0 0.266982167959213257
0.390058219432830811 0 0.198177367448806763
0.201912820339202881 0 0.00383609533309936523
0.182381957769393921 0 0.316133081912994385
0.566271424293518066 0 0.0998742580413818359
0.442713707685470581 0 0.276813328266143799
0.187164872884750366 0 0.0834778696298599243
0.181934356689453125 0 0.0977424979209899902
0.770616054534912109 0 0.102660000324249268
0.270950883626937866 0 0.117133393883705139
0.00109204987529665232 0 0.450703859329223633
0.460029184818267822 0 0.131212830543518066
0.381916433572769165 0 0.2057160884141922
0.404062449932098389 0 0.06038627028465271
0.253252416849136353 0 0.140193209052085876
0.290203094482421875 0 0.0166974961757659912
0.766357719898223877 0 0.0497294366359710693
0.576505899429321289 0 0.0500437617301940918
0.261773794889450073 0 0.0458401590585708618
0.227810576558113098 0 0.0961927399039268494
0.130703285336494446 0 0.39075353741645813
0.792147994041442871 0 0.00136470794677734375
0.152571722865104675 0 0.291866391897201538
0.298558175563812256 0 0.0338431596755981445
0.0916652381420135498 0 0.275658369064331055
0.304254472255706787 0 0.114038318395614624
0.366259157657623291 0 0.193324297666549683
0.0247205477207899094 0 0.175724506378173828
0.8274993896484375 0 0.02420845627784729
0.113833203911781311 0 0.341852366924285889
0.476890265941619873 0 0.19967535138130188
0.846332192420959473 0 0.0751718878746032715
0.20743107795715332 0 0.121594905853271484
0.110058031976222992 0 0.330522090196609497
0.222481891512870789 0 0.364196032285690308
0.586291849613189697 0 0.0647476613521575928
0.482186734676361084 0 0.0883476436138153076
0.146937981247901917 0 0.196904897689819336
0.371114224195480347 0 0.197382077574729919
0.408758044242858887 0 0.109547734260559082
0.19708666205406189 0 0.152872338891029358
0.373408466577529907 0 0.176440462470054626
0.568249821662902832 0 0.106364727020263672
0.188631042838096619 0 0.381241112947463989
0.0320224650204181671 0 0.322860836982727051
0.020038895308971405 0 0.369189471006393433
0.578845381736755371 0 0.196459382772445679
0.0206202007830142975 0 0.0782135576009750366
0.451677083969116211 0 0.00165319442749023438
0.223631873726844788 0 0.0826189443469047546
0.314221560955047607 0 0.156866341829299927
0.198606804013252258 0 0.371250897645950317
0.683445453643798828 0 0.114545166492462158
0.18666529655456543 0 0.0413204431533813477
0.523467838764190674 0 0.145948231220245361
0.609042704105377197 0 0.0949503481388092041
0.135197550058364868 0 0.425445318222045898
0.189357653260231018 0 0.203947126865386963
0.493312537670135498 0 0.00395128130912780762
0.423005431890487671 0 0.168629005551338196
0.656437933444976807 0 0.0497968494892120361
0.286154508590698242 0 0.231329023838043213
0.28487047553062439 0 0.311310350894927979
0.0922972336411476135 0 0.0637502819299697876
0.296979218721389771 0 0.0844501107931137085
0.905969381332397461 0 0.0394221246242523193
0.588956117630004883 0 0.203732669353485107
0.0172182973474264145 0 0.109079211950302124
0.332998156547546387 0 0.206976592540740967
0.569519758224487305 0 0.0954822897911071777
0.317308127880096436 0 0.261373907327651978
0.0841029733419418335 0 0.334942221641540527
0.0406714007258415222 0 0.438117355108261108
0.251274287700653076 0 0.312964469194412231
0.138647109270095825 0 0.304738044738769531
0.157683476805686951 0 0.153429269790649414
0.556203246116638184 0 0.16984856128692627
0.212359800934791565 0 0.188340663909912109
0.234594926238059998 0 0.279774248600006104
0.000186436402145773172 0 0.175258785486221313
0.765742063522338867 0 0.0973304510116577148
0.773745357990264893 0 0.0711026489734649658
0.260331839323043823 0 0.0134546607732772827
0.283631503582000732 0 0.0507715046405792236
0.0908774435520172119 0 0.397823870182037354
0.0199540797621011734 0 0.168171048164367676
0.761513411998748779 0 0.0213871300220489502
0.0173157341778278351 0 0.235992431640625
0.19806373119354248 0 0.349013596773147583
0.140494644641876221 0 0.321968108415603638
0.397718131542205811 0 0.172781229019165039
0.549349188804626465 0 0.0479971766471862793
0.31362152099609375 0 0.27657434344291687
0.272547274827957153 0 0.354440748691558838
0.124741449952125549 0 0.283059030771255493
0.743574798107147217 0 0.0993714332580566406
0.169031113386154175 0 0.111546978354454041
0.305379509925842285 0 0.000519573688507080078
0.423174470663070679 0 0.160670891404151917
0.128398895263671875 0 0.298680245876312256
0.81157761812210083 0 0.0078334510326385498
0.435040861368179321 0 0.20979820191860199
0.137380406260490417 0 0.383929431438446045
0.390348315238952637 0 0.239457786083221436
0.768458187580108643 0 0.00918278098106384277
0.877919256687164307 0 0.0175297558307647705
0.464515119791030884 0 0.0669897645711898804
0.441115111112594604 0 0.0392858535051345825
0.38923114538192749 0 0.0319688916206359863
0.728382468223571777 0 0.129791289567947388
0.561438679695129395 0 0.110832929611206055
0.368317365646362305 0 0.221996515989303589
0.380275040864944458 0 0.0992385894060134888
0.723452210426330566 0 0.0428116023540496826
0.0887000411748886108 0 0.172849148511886597
0.488201439380645752 0 0.243583589792251587
0.330998808145523071 0 0.011713758111000061
0.22467099130153656 0 0.17450869083404541
0.111532948911190033 0 0.134706452488899231
0.438924282789230347 0 0.0865034013986587524
0.050992816686630249 0 0.213465973734855652
0.718443930149078369 0 0.0311760604381561279
0.000989358872175216675 0 0.454299598932266235
0.50938260555267334 0 0.238510161638259888
0.0351104289293289185 0 0.111437313258647919
0.266847431659698486 0 0.134944498538970947
0.00821769144386053085 0 0.0108690261840820312
0.0135323451831936836 0 0.223226398229598999
0.391589522361755371 0 0.126929938793182373
0.115542702376842499 0 0.0916919708251953125
0.0100179426372051239 0 0.332322627305984497
0.1423482745885849 0 0.110701687633991241
0.108733035624027252 0 0.107888802886009216
0.596183598041534424 0 0.183639019727706909
0.145736947655677795 0 0.299185901880264282
0.730080783367156982 0 0.111363530158996582
0.311003059148788452 0 0.305393815040588379
0.284076690673828125 0 0.344214051961898804
0.121553577482700348 0 0.237854614853858948
0.338700056076049805 0 0.0266064703464508057
0.555716753005981445 0 0.215667992830276489
0.0753087252378463745 0 0.3758564293384552
0.0942892283201217651 0 0.297092527151107788
0.255790919065475464 0 0.135066404938697815
0.164140582084655762 0 0.280526578426361084
0.168441995978355408 0 0.25400426983833313
0.885643303394317627 0 0.0346299111843109131
0.435696333646774292 0 0.18486766517162323
0.371499329805374146 0 0.0996838659048080444
0.12795044481754303 0 0.125797301530838013
0.0652804747223854065 0 0.0779679268598556519
0.623157918453216553 0 0.07038155198097229
0.146968185901641846 0 0.37644919753074646
0.0370573177933692932 0 0.346862703561782837
0.106086947023868561 0 0.379571259021759033
0.635591745376586914 0 0.0203998684883117676
0.76855623722076416 0 0.0691392421722412109
0.221795886754989624 0 0.318778097629547119
0.446818739175796509 0 0.158947274088859558
0.310043424367904663 0 0.118005916476249695
0.59378516674041748 0 0.0762067139148712158
0.605423569679260254 0 0.0912823677062988281
0.496275603771209717 0 0.0416917204856872559
0.0443452261388301849 0 0.0545305460691452026
0.544794082641601562 0 0.150080651044845581
0.073870435357093811 0 0.0870858654379844666
0.341421782970428467 0 0.323550611734390259
0.0792138129472732544 0 0.229994773864746094
0.347086489200592041 0 0.0744039714336395264
0.0277658551931381226 0 0.330338001251220703
0.702354073524475098 0 0.140054285526275635
0.45982205867767334 0 0.0504067838191986084
0.0769967660307884216 0 0.41453242301940918
0.290426343679428101 0 0.213930591940879822
0.112191468477249146 0 0.0872867554426193237
0.477680623531341553 0 0.23018309473991394
0.689004182815551758 0 0.132348239421844482
0.289718180894851685 0 0.262983500957489014
0.749377608299255371 0 0.118664801120758057
0.347996324300765991 0 0.140882983803749084
0.167405202984809875 0 0.272431224584579468
0.663212835788726807 0 0.08847084641456604
0.646359801292419434 0 0.156023502349853516
0.821713089942932129 0 0.0788120627403259277
0.518917262554168701 0 0.205676823854446411
0.260718286037445068 0 0.0887968838214874268
0.0533099658787250519 0 0.0511241629719734192
0.0802956372499465942 0 0.0175489708781242371
0.416672348976135254 0 0.111474990844726562
0.121065996587276459 0 0.347717046737670898
0.375564724206924438 0 0.19808487594127655
0.629423260688781738 0 0.132094293832778931
0.553979694843292236 0 0.039739757776260376
0.303219377994537354 0 0.347019612789154053
0.225734129548072815 0 0.110264979302883148
0.852849304676055908 0 0.0340401530265808105
0.684341847896575928 0 0.151740163564682007
0.637598335742950439 0 0.0340624153614044189
0.216534093022346497 0 0.109786294400691986
0.164346262812614441 0 0.0500436201691627502
0.0889541879296302795 0 0.266166180372238159
0.10126832127571106 0 0.160416886210441589
0.60383683443069458 0 0.0281695425510406494
0.525290310382843018 0 0.0457765161991119385
0.357776015996932983 0 0.220870569348335266
0.108817525207996368 0 0.261559486389160156
0.0966030135750770569 0 0.185600891709327698
0.545791983604431152 0 0.178247630596160889
0.00943108834326267242 0 0.129167154431343079
0.435990959405899048 0 0.0528378039598464966
0.358787775039672852 0 0.0469657480716705322
0.0158887729048728943 0 0.475833684206008911
0.0960302799940109253 0 0.188683003187179565
0.201157987117767334 0 0.327423661947250366
0.177663087844848633 0 0.0616720616817474365
0.273355275392532349 0 0.350285887718200684
0.397874444723129272 0 0.00850553810596466064
0.319741338491439819 0 0.32061004638671875
0.230523437261581421 0 0.0956385880708694458
0.263569533824920654 0 0.177988052368164062
0.226767957210540771 0 0.197219699621200562
0.645523786544799805 0 0.0208603143692016602
0.0777366310358047485 0 0.119549386203289032
0.0755400508642196655 0 0.408222436904907227
0.257980883121490479 0 0.263221770524978638
0.15135464072227478 0 0.3311004638671875
0.615159571170806885 0 0.0987947285175323486
0.237451285123825073 0 0.256472110748291016
0.776419341564178467 0 0.0897749364376068115
0.0330733917653560638 0 0.408317923545837402
0.0575189106166362762 0 0.296909898519515991
0.66059190034866333 0 0.00622856616973876953
0.302043050527572632 0 0.34066849946975708
0.533405721187591553 0 0.147135466337203979
0.0231459718197584152 0 0.350406378507614136
0.641135215759277344 0 0.0829133093357086182
0.292722970247268677 0 0.127768084406852722
0.0905279666185379028 0 0.228476405143737793
0.475952446460723877 0 0.184643775224685669
0.297521889209747314 0 0.271988719701766968
0.759887814521789551 0 0.0416429638862609863
0.0641051828861236572 0 0.440963923931121826
0.0198862571269273758 0 0.235579460859298706
0.623071253299713135 0 0.156039625406265259
0.15399634838104248 0 0.388976395130157471
0.344614207744598389 0 0.0859527587890625
0.273458510637283325 0 0.0936575084924697876
0.593921482563018799 0 0.146476387977600098
0.524384438991546631 0 0.0984497964382171631
0.0661369860172271729 0 0.448517084121704102
0.453773379325866699 0 0.107155501842498779
0.632323145866394043 0 0.150934845209121704
0.0923733636736869812 0 0.269190371036529541
0.882915854454040527 0 0.00737732648849487305
0.503273248672485352 0 0.0527546107769012451
0.128253519535064697 0 0.42911568284034729
0.333009392023086548 0 0.161386087536811829
0.345195531845092773 0 0.00430223345756530762
0.408830702304840088 0 0.271509289741516113
0.295156180858612061 0 0.121727913618087769
0.626373589038848877 0 0.185950487852096558
0.330158054828643799 0 0.0205889344215393066
0.310788720846176147 0 0.319670498371124268
0.222296983003616333 0 0.17486850917339325
0.4902019202709198 0 0.0772338658571243286
0.36600494384765625 0 0.295557200908660889
0.845235943794250488 0 0.000345855951309204102
0.155960336327552795 0 0.105492822825908661
0.711735665798187256 0 0.0539917051792144775
0.010801476426422596 0 0.116687841713428497
0.172649085521697998 0 0.290424466133117676
0.341413915157318115 0 0.0216032564640045166
0.198242709040641785 0 0.156609565019607544
0.0209937915205955505 0 0.399296969175338745
0.433383584022521973 0 0.1123238205909729
0.192056626081466675 0 0.157693490386009216
0.706053316593170166 0 0.00755730271339416504
0.136187732219696045 0 0.41363072395324707
0.347598999738693237 0 0.226467922329902649
0.438530474901199341 0 0.112141147255897522
0.863085389137268066 0 0.0133385062217712402
0.0106608141213655472 0 0.366653472185134888
0.1982269287109375 0 0.113062351942062378
0.041752990335226059 0 0.0865172743797302246
0.279190182685852051 0 0.169453680515289307
0.0492750778794288635 0 0.180167242884635925
0.474172711372375488 0 0.00505974888801574707
0.126841709017753601 0 0.341815352439880371
0.264587491750717163 0 0.252989411354064941
0.477933913469314575 0 0.0998458117246627808
0.0102829253301024437 0 0.340379685163497925
0.125491589307785034 0 0.421995699405670166
0.250363826751708984 0 0.310962319374084473
0.491461813449859619 0 0.154472887516021729
0.2137736976146698 0 0.231954768300056458
0.361074715852737427 0 0.280589878559112549
0.0487294383347034454 0 0.33933866024017334
0.202595129609107971 0 0.209568023681640625
0.145915180444717407 0 0.287528634071350098
0.0894493758678436279 0 0.403790652751922607
0.411969125270843506 0 0.058833390474319458
0.362461507320404053 0 0.216397494077682495
0.188064947724342346 0 0.0980193838477134705
0.924370527267456055 0 0.000815808773040771484
0.345496803522109985 0 0.0648752301931381226
0.496426284313201904 0 0.0950821936130523682
0.0837103500962257385 0 9.98787581920623779e-05
0.394242346286773682 0 0.295024245977401733
0.0329470597207546234 0 0.444146811962127686
0.0966858565807342529 0 0.25756525993347168
0.381763339042663574 0 0.163718104362487793
0.294498831033706665 0 0.199521467089653015
0.509763419628143311 0 0.163067728281021118
0.202094763517379761 0 0.0521799176931381226
0.395443379878997803 0 0.112837880849838257
0.781552672386169434 0 0.0468596220016479492
0.505734860897064209 0 0.000182569026947021484
0.198504284024238586 0 0.0327058061957359314
0.433554679155349731 0 0.198858365416526794
0.515480279922485352 0 0.0428454279899597168
0.220106929540634155 0 0.322324454784393311
0.60166478157043457 0 0.170622497797012329
0.514814317226409912 0 0.0112555027008056641
0.342934459447860718 0 0.275144398212432861
0.420878797769546509 0 0.206400439143180847
0.316393733024597168 0 0.175528526306152344
0.910247504711151123 0 0.00189605355262756348
0.448306053876876831 0 0.213851943612098694
0.431938201189041138 0 0.21396230161190033
0.198928937315940857 0 0.364233285188674927
0.836988329887390137 0 0.0544571280479431152
0.459416300058364868 0 0.257019162178039551
0.527766585350036621 0 0.126847922801971436
0.466859579086303711 0 0.197812020778656006
0.278230071067810059 0 0.348779231309890747
0.190393298864364624 0 0.259480118751525879
0.303141981363296509 0 0.320365965366363525
0.362194299697875977 0 0.147116363048553467
0.954880893230438232 0 0.00989347696304321289
0.825461268424987793 0 0.0122246146202087402
0.310802280902862549 0 0.0927981734275817871
0.810154080390930176 0 0.00423544645309448242
0.554930686950683594 0 0.0934237539768218994
0.407981276512145996 0 0.265604972839355469
0.62086331844329834 0 0.112338036298751831
0.0899626612663269043 0 0.446448355913162231
0.526939809322357178 0 0.162375777959823608
0.448206335306167603 0 0.208834871649742126
0.0776623785495758057 0 0.305768191814422607
0.509692072868347168 0 0.0881368517875671387
0.164021074771881104 0 0.128781557083129883
0.196813434362411499 0 0.240422710776329041
0.825467586517333984 0 0.0101745724678039551
0.455303102731704712 0 0.0373002141714096069
0.097676008939743042 0 0.191095873713493347
0.746845364570617676 0 0.112546831369400024
0.109390899538993835 0 0.0524512901902198792
0.141296520829200745 0 0.279761373996734619
0.00771028781309723854 0 0.393361598253250122
0.39465939998626709 0 0.0387370884418487549
0.14704546332359314 0 0.0721645504236221313
0.153008446097373962 0 0.225931167602539062
0.390436679124832153 0 0.0154748409986495972
0.796805441379547119 0 0.0694399178028106689
0.199026793241500854 0 0.051795467734336853
0.00726818665862083435 0 0.129818946123123169
0.32371637225151062 0 0.287977755069732666
0.287236124277114868 0 0.0330705493688583374
0.344130367040634155 0 0.0714385658502578735
0.139102905988693237 0 0.224988415837287903
0.123841062188148499 0 0.307306826114654541
0.867291390895843506 0 0.00381410121917724609
0.478935867547988892 0 0.155937537550926208
0.13810265064239502 0 0.418230831623077393
0.860637903213500977 0 0.0171889364719390869
0.088613756000995636 0 0.164755016565322876
0.620864033699035645 0 0.188041180372238159
0.49621465802192688 0 0.00454007089138031006
0.0882737264037132263 0 0.388351649045944214
0.380216747522354126 0 0.30873262882232666
0.418868422508239746 0 0.220832467079162598
0.379060894250869751 0 0.291319906711578369
0.121461749076843262 0 0.406367480754852295
0.0934291034936904907 0 0.100437842309474945
0.486999928951263428 0 0.000321447849273681641
0.161147415637969971 0 0.38825574517250061
0.534160196781158447 0 0.162112116813659668
0.161110267043113708 0 0.287662148475646973
0.965717077255249023 0 0.0122018754482269287
0.675979495048522949 0 0.0691585242748260498
0.0956356003880500793 0 0.164003342390060425
0.00317984097637236118 0 0.154554098844528198
0.0124286487698554993 0 0.0803440213203430176
0.2531699538230896 0 0.362217873334884644
0.421953916549682617 0 0.19146806001663208
0.734340429306030273 0 0.0060672461986541748
0.566806018352508545 0 0.158795595169067383
0.218001529574394226 0 0.336444884538650513
0.309931933879852295 0 0.305942058563232422
0.171925663948059082 0 0.301984548568725586
0.397201448678970337 0 0.232567951083183289
0.287962198257446289 0 0.0514922142028808594
0.121123090386390686 0 0.0403179749846458435
0.178126096725463867 0 0.117482542991638184
0.128189653158187866 0 0.419930398464202881
0.795568466186523438 0 0.0677964687347412109
0.118292540311813354 0 0.134207919239997864
0.211502015590667725 0 0.215943366289138794
0.661056637763977051 0 0.135457932949066162
0.617528021335601807 0 0.187808305025100708
0.215751826763153076 0 0.216822594404220581
0.351983368396759033 0 0.0430856645107269287
0.0487296804785728455 0 0.11148206889629364
0.741411268711090088 0 0.0825742781162261963
0.77867656946182251 0 0.0499998331069946289
0.60203176736831665 0 0.0166328847408294678
0.145029142498970032 0 0.183851063251495361
0.458343148231506348 0 0.0755820870399475098
0.0708185061812400818 0 0.335348457098007202
0.206476479768753052 0 0.324849247932434082
0.217882990837097168 0 0.231645077466964722
0.728363871574401855 0 0.0435226559638977051
0.377235442399978638 0 0.168147996068000793
0.329173475503921509 0 0.327669918537139893
0.773995697498321533 0 0.0530951321125030518
0.242189168930053711 0 0.343870282173156738
0.181753560900688171 0 0.243905097246170044
0.138208061456680298 0 0.405692696571350098
0.0172164216637611389 0 0.0795443207025527954
0.238223537802696228 0 0.286692529916763306
0.785139262676239014 0 0.0396130681037902832
0.0698572546243667603 0 0.155926793813705444
0.144044727087020874 0 0.146436676383018494
0.0296902600675821304 0 0.212492614984512329
0.274417400360107422 0 0.0118431448936462402
0.604079902172088623 0 0.168600857257843018
0.0324861817061901093 0 0.388861298561096191
0.872865140438079834 0 0.0136930644512176514
0.0935871824622154236 0 0.208547815680503845
0.30469125509262085 0 0.0410739779472351074
0.279481291770935059 0 0.201328516006469727
0.240374714136123657 0 0.220014914870262146
0.411078691482543945 0 0.0970399975776672363
0.342044174671173096 0 0.29266771674156189
0.706994414329528809 0 0.112078875303268433
0.287905514240264893 0 0.240882039070129395
0.105375267565250397 0 0.389924615621566772
0.152434214949607849 0 0.180721104145050049
0.148106232285499573 0 0.357236534357070923
0.541081130504608154 0 0.0481469333171844482
0.345552593469619751 0 0.126490697264671326
0.192466259002685547 0 0.0692745745182037354
0.204484209418296814 0 0.244751572608947754
0.268517196178436279 0 0.05153694748878479
0.5712127685546875 0 0.183381527662277222
0.144019603729248047 0 0.0918840169906616211
0.320187538862228394 0 0.233877852559089661
0.289586633443832397 0 0.218661084771156311
0.39634096622467041 0 0.143110573291778564
0.853813409805297852 0 0.0646496117115020752
0.712701201438903809 0 0.0808365941047668457
0.275711894035339355 0 0.18833586573600769
0.411984801292419434 0 0.118425905704498291
0.338586151599884033 0 0.0430100560188293457
0.139026805758476257 0 0.20870518684387207
0.421715438365936279 0 0.250594735145568848
0.64599078893661499 0 0.0813353955745697021
0.576332926750183105 0 0.118605762720108032
0.640443921089172363 0 0.17401537299156189
0.38527834415435791 0 0.227654248476028442
0.153196796774864197 0 0.338475823402404785
0.272402584552764893 0 0.10979732871055603
0.08078012615442276 0 0.417505502700805664
0.199313923716545105 0 0.161974042654037476
0.0752971991896629333 0 0.416109055280685425
0.275253117084503174 0 0.221056073904037476
0.627411305904388428 0 0.144639045000076294
0.123337432742118835 0 0.128599017858505249
0.529282450675964355 0 0.183111399412155151
0.530192434787750244 0 0.0353952348232269287
0.409555613994598389 0 0.231024831533432007
0.0419790931046009064 0 0.031831793487071991
0.453434109687805176 0 0.194927096366882324
0.106777451932430267 0 0.349427133798599243
0.37049567699432373 0 0.241567254066467285
0.277263760566711426 0 0.0944707691669464111
0.748520791530609131 0 0.0752221643924713135
0.537982404232025146 0 0.188729345798492432
0.0683152452111244202 0 0.103620782494544983
0.373891532421112061 0 0.1525096595287323
0.502910614013671875 0 0.0948619842529296875
0.703877031803131104 0 0.0588398575782775879
0.397800415754318237 0 0.121661379933357239
0.345094084739685059 0 0.239691495895385742
0.176768764853477478 0 0.352120518684387207
0.495736002922058105 0 0.136946707963943481
0.746380507946014404 0 0.105335801839828491
0.0735092535614967346 0 0.318733185529708862
0.711391687393188477 0 0.0434716641902923584
0.0382266193628311157 0 0.0905774161219596863
0.0407450981438159943 0 0.0317775234580039978
0.859003186225891113 0 0.0132499635219573975
0.675451993942260742 0 0.0722049474716186523
0.332849115133285522 0 0.299089550971984863
0.341073960065841675 0 0.210541173815727234
0.373519241809844971 0 0.0688582956790924072
0.0402415581047534943 0 0.0329756662249565125
0.0048737269826233387 0 0.297604888677597046
0.142349496483802795 0 0.0225216671824455261
0.108144424855709076 0 0.149257287383079529
0.250940442085266113 0 0.325930356979370117
0.11933600902557373 0 0.19236224889755249
0.649213969707489014 0 0.0383420884609222412
0.723263740539550781 0 0.0590796172618865967
0.867477834224700928 0 0.0384693741798400879
0.340881168842315674 0 0.100022345781326294
0.338837355375289917 0 0.267234385013580322
0.656501293182373047 0 0.00959864258766174316
0.217333897948265076 0 0.354894727468490601
0.20588018000125885 0 0.271808385848999023
0.096270538866519928 0 0.00350863859057426453
0.237141549587249756 0 0.0445694029331207275
0.690666079521179199 0 0.0824010968208312988
0.553279876708984375 0 0.209170162677764893
0.110021427273750305 0 0.0363554880023002625
0.597063899040222168 0 0.0156459808349609375
0.035716082900762558 0 0.327459990978240967
0.138677626848220825 0 0.326075434684753418
0.42437860369682312 0 0.25495225191116333
0.832463860511779785 0 0.0603136420249938965
0.210748940706253052 0 0.295205354690551758
0.551454126834869385 0 0.0911569297313690186
0.145693376660346985 0 0.112980179488658905
0.777653396129608154 0 0.0655792355537414551
0.191639155149459839 0 0.328510522842407227
0.194774314761161804 0 0.39407762885093689
0.221904367208480835 0 0.359191238880157471
0.252691984176635742 0 0.202934086322784424
0.00612689787521958351 0 0.241622999310493469
0.0934829115867614746 0 0.264873474836349487
0.366667509078979492 0 0.179639756679534912
0.61106950044631958 0 0.140355348587036133
0.652995526790618896 0 0.127543240785598755
0.140236660838127136 0 0.428569525480270386
0.126318112015724182 0 0.263466566801071167
0.1131305992603302 0 0.0621889978647232056
0.218139469623565674 0 0.235728174448013306
0.177438512444496155 0 0.154405653476715088
0.632732391357421875 0 0.0195674896240234375
0.761456310749053955 0 0.0193909406661987305
0.345999985933303833 0 0.0269381552934646606
0.538247287273406982 0 0.0640292465686798096
0.284546613693237305 0 0.200174331665039062
0.204373419284820557 0 0.224691450595855713
0.253052055835723877 0 0.350617557764053345
0.310376852750778198 0 0.269341647624969482
0.448820263147354126 0 0.226799800992012024
0.393690139055252075 0 0.0537935942411422729
0.481192201375961304 0 0.167487725615501404
0.349567383527755737 0 0.156090810894966125
0.287058532238006592 0 0.237540274858474731
0.267734885215759277 0 0.0624856352806091309
0.385395407676696777 0 0.0830394923686981201
0.374916493892669678 0 0.159965038299560547
0.490335583686828613 0 0.242349952459335327
0.313145250082015991 0 0.192002549767494202
0.886900961399078369 0 0.0176120996475219727
0.363933205604553223 0 0.158434838056564331
0.344163119792938232 0 0.0885598957538604736
0.267850786447525024 0 0.108502164483070374
0.283603698015213013 0 0.162018224596977234
0.365045100450515747 0 0.182367488741874695
0.484171152114868164 0 0.112484067678451538
0.513456284999847412 0 0.173163920640945435
0.785429179668426514 0 0.0567662417888641357
0.561650276184082031 0 0.0421653389930725098
0.931734085083007812 0 0.024197995662689209
0.233014419674873352 0 0.378633975982666016
0.398963451385498047 0 0.124910354614257812
0.791847467422485352 0 0.0965379178524017334
0.499081462621688843 0 0.0592658668756484985
0.247719421982765198 0 0.106528483331203461
0.720822691917419434 0 0.055596470832824707
0.168163567781448364 0 0.112572833895683289
0.0198929887264966965 0 0.0340247452259063721
0.502499282360076904 0 0.11545071005821228
0.845819056034088135 0 0.0493953227996826172
0.198533624410629272 0 0.307029545307159424
0.130773872137069702 0 0.388388991355895996
0.292824208736419678 0 0.16545221209526062
0.0167453624308109283 0 0.121681287884712219
0.240886703133583069 0 0.20323646068572998
0.099209323525428772 0 0.315965980291366577
0.487306416034698486 0 0.221907049417495728
0.0417460910975933075 0 0.378128498792648315
0.553009510040283203 0 0.0344216823577880859
0.469036012887954712 0 0.00567422807216644287
0.29524800181388855 0 0.0225861817598342896
0.186470925807952881 0 0.156828075647354126
0.304880648851394653 0 0.15261976420879364
0.519539713859558105 0 0.151880055665969849
0.20223701000213623 0 0.0837699174880981445
0.0448035635054111481 0 0.260295897722244263
0.195573389530181885 0 0.336968958377838135
0.569701135158538818 0 0.123445332050323486
0.777245044708251953 0 0.0479919910430908203
0.435562819242477417 0 0.118706300854682922
0.248303711414337158 0 0.197251051664352417
0.449338972568511963 0 0.0775986313819885254
0.529249191284179688 0 0.194396167993545532
0.295124232769012451 0 0.164909511804580688
0.0688306987285614014 0 0.286388039588928223
0.0203682705760002136 0 0.252600222826004028
0.519876539707183838 0 0.131826728582382202
0.0962116047739982605 0 0.290031701326370239
0.773168623447418213 0 0.0961436033248901367
0.559793174266815186 0 0.0799887478351593018
0.561460375785827637 0 0.170605659484863281
0.00753525644540786743 0 0.114742234349250793
0.00087052671005949378 0 0.313959091901779175
0.255529344081878662 0 0.324623256921768188
0.253253340721130371 0 0.291402250528335571
0.0565654151141643524 0 0.161412149667739868
0.562371194362640381 0 0.139626294374465942
0.285284489393234253 0 0.302884936332702637
0.105972409248352051 0 0.441575497388839722
0.771002113819122314 0 0.0701990723609924316
0.0701745599508285522 0 0.334356069564819336
0.0522387176752090454 0 0.0188066288828849792
0.374408990144729614 0 0.294268906116485596
0.204862400889396667 0 0.0305700972676277161
0.174288585782051086 0 0.125726699829101562
0.707503020763397217 0 0.0897189080715179443
0.143181487917900085 0 0.0656264200806617737
0.669562220573425293 0 0.0431912839412689209
0.201344266533851624 0 0.206475764513015747
0.148391559720039368 0 0.0798156782984733582
0.415687620639801025 0 0.0596840977668762207
0.607617020606994629 0 0.0571535825729370117
0.379620820283889771 0 0.0500196665525436401
0.249849081039428711 0 0.24523472785949707
0.686833202838897705 0 0.0260201394557952881
0.207287520170211792 0 0.253639876842498779
0.511186122894287109 0 0.0431902408599853516
0.71694570779800415 0 0.0941362679004669189
0.300593584775924683 0 0.137273862957954407
0.364030241966247559 0 0.241097092628479004
0.734463512897491455 0 0.0244500637054443359
0.542161822319030762 0 0.0357375144958496094
0.209897682070732117 0 0.286497771739959717
0.702007114887237549 0 0.103582769632339478
0.150909408926963806 0 0.0851433351635932922
0.16775338351726532 0 0.384790658950805664
0.45443040132522583 0 0.253282815217971802
0.603074908256530762 0 0.150338441133499146
0.359298229217529297 0 0.144243419170379639
0.279410511255264282 0 0.0545660108327865601
0.220933213829994202 0 0.263965100049972534
0.156128093600273132 0 0.189651697874069214
0.117654718458652496 0 0.431853592395782471
0.132805943489074707 0 0.164478331804275513
0.5095406174659729 0 0.0639289915561676025
0.541021943092346191 0 0.0184736251831054688
0.362438410520553589 0 0.251550197601318359
0.0670523717999458313 0 0.0611296854913234711
0.18727816641330719 0 0.135321974754333496
0.106915824115276337 0 0.0686037540435791016
0.112073227763175964 0 0.336808711290359497
0.483414620161056519 0 0.247267410159111023
0.154788970947265625 0 0.159392595291137695
0.264307230710983276 0 0.0793295353651046753
0.724109888076782227 0 0.00819301605224609375
0.177160054445266724 0 0.35171198844909668
0.788086056709289551 0 0.105096280574798584
0.509895205497741699 0 0.130682051181793213
0.162747219204902649 0 0.327910304069519043
0.0573047138750553131 0 0.424021393060684204
0.133608028292655945 0 0.0454741492867469788
0.235195785760879517 0 0.15069262683391571
0.102670922875404358 0 0.42310747504234314
0.196691036224365234 0 0.234484314918518066
0.119029976427555084 0 0.0785752683877944946
0.0502063333988189697 0 0.0895016342401504517
0.0429293066263198853 0 0.168532490730285645
0.236388221383094788 0 0.341583788394927979
0.0604749433696269989 0 0.442458510398864746
0.193424493074417114 0 0.348874330520629883
0.683422982692718506 0 0.118058979511260986
0.0207460504025220871 0 0.299821436405181885
0.312110871076583862 0 0.171357408165931702
0.0301991496235132217 0 0.22380279004573822
0.0442479215562343597 0 0.347883135080337524
0.625485062599182129 0 0.0145978927612304688
0.119889125227928162 0 0.187214940786361694
