ply
format ascii 1.0
element vertex 703
property float x
property float y
property float z
end_header
0.0351999998092651367 0.0125070493668317795 -0.00382132665254175663
0.0351999998092651367 -0.00445613637566566467 -0.0102293947711586952
0.0351999998092651367 -0.00388753972947597504 -0.0116123370826244354
0.0351999998092651367 0.0206813793629407883 -0.00248698028735816479
0.0351999998092651367 0.0209068655967712402 -0.00436497386544942856
0.0351999998092651367 -0.00347460992634296417 -0.0100274877622723579
0.0351999998092651367 0.016341131180524826 -0.00244602421298623085
0.0351999998092651367 0.0205478016287088394 -0.00297911814413964748
0.0351999998092651367 0.00954435300081968307 -0.00734756141901016235
0.0351999998092651367 0.0139135606586933136 -0.00410851370543241501
0.0351999998092651367 -0.00187872163951396942 -0.0112054888159036636
0.0351999998092651367 0.0052357502281665802 -0.00787585601210594177
0.0351999998092651367 0.00746596232056617737 -0.00597830023616552353
0.0351999998092651367 0.0121832219883799553 -0.0041270330548286438
0.0351999998092651367 0.0127325532957911491 -0.00544999865815043449
0.0351999998092651367 0.012578851543366909 -0.00503867771476507187
0.0351999998092651367 -0.00368752144277095795 -0.0104596503078937531
0.0351999998092651367 -0.00925384461879730225 -0.0127227865159511566
0.0351999998092651367 -0.00334720686078071594 -0.0107032638043165207
0.0351999998092651367 0.0101281879469752312 -0.005705216433852911
0.0351999998092651367 0.00196433812379837036 -0.00993769615888595581
0.0351999998092651367 0.0135470861569046974 -0.00531318783760070801
0.0351999998092651367 -0.00636600330471992493 -0.0118590807542204857
0.0351999998092651367 0.00293437764048576355 -0.00890605337917804718
0.0351999998092651367 0.0124080805107951164 -0.00460369978100061417
0.0351999998092651367 0.00729035027325153351 -0.00657504424452781677
0.0351999998092651367 0.0203008539974689484 -0.00226164399646222591
0.0351999998092651367 -0.0027532670646905899 -0.0109857721254229546
0.0351999998092651367 0.0204289872199296951 -0.0019715519156306982
0.0351999998092651367 0.0205453112721443176 -0.00261010322719812393
0.0351999998092651367 -5.26625663042068481e-05 -0.00957937072962522507
0.0351999998092651367 0.00141030363738536835 -0.00949219614267349243
0.0351999998092651367 0.0179979912936687469 -0.00602193595841526985
0.0351999998092651367 0.0160121507942676544 -0.00636655185371637344
0.0351999998092651367 0.00537826679646968842 -0.00857310369610786438
0.0351999998092651367 -0.00303460285067558289 -0.0104834344238042831
0.0351999998092651367 0.00493357889354228973 -0.00771510275080800056
0.0351999998092651367 0.00484287738800048828 -0.00751265231519937515
0.0351999998092651367 0.0134245725348591805 -0.00404843781143426895
0.0351999998092651367 0.000936016440391540527 -0.0100001348182559013
0.0351999998092651367 -0.011544298380613327 -0.0132535770535469055
0.0351999998092651367 0.00133177824318408966 -0.00814267247915267944
0.0351999998092651367 0.0121810790151357651 -0.00721676135435700417
0.0351999998092651367 0.0135507835075259209 -0.00639114249497652054
0.0351999998092651367 -0.00555786304175853729 -0.0106764305382966995
0.0351999998092651367 0.000763103365898132324 -0.0096292588859796524
0.0351999998092651367 0.0220715012401342392 -0.00118378887418657541
0.0351999998092651367 0.0131276566535234451 -0.00633171666413545609
0.0351999998092651367 -0.00465005077421665192 -0.0119029246270656586
0.0351999998092651367 0.0175296664237976074 -0.00398199772462248802
0.0351999998092651367 0.0217953529208898544 -0.00398351158946752548
0.0351999998092651367 0.00459985621273517609 -0.00774528319016098976
0.0351999998092651367 0.0222433805465698242 -0.000827553332783281803
0.0351999998092651367 0.00525725632905960083 -0.00923658907413482666
0.0351999998092651367 0.0158012118190526962 -0.00618565734475851059
0.0351999998092651367 0.00340700149536132812 -0.00807967223227024078
0.0351999998092651367 0.0220576878637075424 -0.00224980455823242664
0.0351999998092651367 0.0132109923288226128 -0.00711864791810512543
0.0351999998092651367 0.0147617049515247345 -0.00301846535876393318
0.0351999998092651367 -0.00409628637135028839 -0.0116056408733129501
0.0351999998092651367 0.0166142154484987259 -0.00469837337732315063
0.0351999998092651367 0.010259636677801609 -0.00762197142466902733
0.0351999998092651367 0.00834410637617111206 -0.00544125493615865707
0.0351999998092651367 0.0196933429688215256 -0.00482645723968744278
0.0351999998092651367 0.00137187913060188293 -0.00966316461563110352
0.0351999998092651367 0.00927236303687095642 -0.00775518361479043961
0.0351999998092651367 0.0103051429614424706 -0.00591120962053537369
0.0351999998092651367 0.00172604434192180634 -0.00951305404305458069
0.0351999998092651367 -0.00472220033407211304 -0.0119288694113492966
0.0351999998092651367 0.00700536184012889862 -0.00681598205119371414
0.0351999998092651367 0.0201211683452129364 -0.00130904791876673698
0.0351999998092651367 0.0213921815156936646 -0.00504004256799817085
0.0351999998092651367 -0.00227711163461208344 -0.00992043130099773407
0.0351999998092651367 0.0151415728032588959 -0.00655773980543017387
0.0351999998092651367 -0.00412598066031932831 -0.0107048060745000839
0.0351999998092651367 -0.00215956009924411774 -0.0121885985136032104
0.0351999998092651367 0.0126213273033499718 -0.0112173501402139664
0.0351999998092651367 0.0141259636729955673 -0.00900825392454862595
0.0351999998092651367 0.0168656185269355774 -0.00787946023046970367
0.0351999998092651367 -0.00220615789294242859 -0.0129440566524863243
0.0351999998092651367 0.00792332272976636887 -0.00883001089096069336
0.0351999998092651367 0.00540097430348396301 -0.0120611544698476791
0.0351999998092651367 0.00764832179993391037 -0.0112804053351283073
0.0351999998092651367 0.0176746305078268051 -0.00796782318502664566
0.0351999998092651367 0.0188233070075511932 -0.00709227705374360085
0.0351999998092651367 0.00394487194716930389 -0.0123491529375314713
0.0351999998092651367 0.01861552894115448 -0.00815378129482269287
0.0351999998092651367 -0.0150922425091266632 -0.0145551934838294983
0.0351999998092651367 -0.00109745748341083527 -0.0123021751642227173
0.0351999998092651367 -0.000779515132308006287 -0.0109656164422631264
0.0351999998092651367 0.0131191648542881012 -0.0107267964631319046
0.0351999998092651367 0.0109000429511070251 -0.0095030004158616066
0.0351999998092651367 -0.00452956743538379669 -0.012900741770863533
0.0351999998092651367 -0.0010850168764591217 -0.0118776280432939529
0.0351999998092651367 0.0120750190690159798 -0.00999563559889793396
0.0351999998092651367 -0.00837456807494163513 -0.0131250135600566864
0.0351999998092651367 0.0150699149817228317 -0.00968934595584869385
0.0351999998092651367 -0.000126207247376441956 -0.0109634511172771454
0.0351999998092651367 -0.00685426779091358185 -0.013641837053000927
0.0351999998092651367 0.0179002955555915833 -0.00719810463488101959
0.0351999998092651367 0.0119437752291560173 -0.0101789999753236771
0.0351999998092651367 0.014262733981013298 -0.0110436873510479927
0.0351999998092651367 0.00378907844424247742 -0.0104133114218711853
0.0351999998092651367 -0.00236954353749752045 -0.0130387488752603531
0.0351999998092651367 0.00903176050633192062 -0.0102266296744346619
0.0351999998092651367 0.00208978354930877686 -0.01212291419506073
0.0351999998092651367 0.0158982574939727783 -0.0107299769297242165
0.0351999998092651367 0.0192164015024900436 -0.00633848924189805984
0.0351999998092651367 0.0207005683332681656 -0.00671938760206103325
0.0351999998092651367 0.00484197959303855896 -0.0104077961295843124
0.0351999998092651367 0.0194957256317138672 -0.0084341512992978096
0.0351999998092651367 0.0155427511781454086 -0.00826208759099245071
0.0351999998092651367 0.000149542465806007385 -0.011956503614783287
0.0351999998092651367 0.0180713161826133728 -0.00793249160051345825
0.0351999998092651367 0.00157686322927474976 -0.0110530387610197067
0.0351999998092651367 0.0104236211627721786 -0.0106704039499163628
0.0351999998092651367 0.0162639468908309937 -0.00954499654471874237
0.0351999998092651367 0.0117613105103373528 -0.00836188532412052155
0.0351999998092651367 0.0194885805249214172 -0.00966450944542884827
0.0351999998092651367 0.0159462261945009232 -0.00840381253510713577
0.0351999998092651367 0.0150285921990871429 -0.00855422951281070709
0.0351999998092651367 -0.00704567506909370422 -0.0126010756939649582
0.0351999998092651367 -0.00240628421306610107 -0.0130219403654336929
0.0351999998092651367 0.0169252343475818634 -0.00845639966428279877
0.0351999998092651367 0.00934648048132658005 -0.0107049020007252693
0.0351999998092651367 0.00452239066362380981 -0.0115949884057044983
0.0351999998092651367 0.00108727440237998962 -0.0125684067606925964
0.0351999998092651367 0.00261558778584003448 -0.010393558070063591
0.0351999998092651367 0.0133575815707445145 -0.010570199228823185
0.0351999998092651367 -0.00864837877452373505 -0.0129276365041732788
0.0351999998092651367 0.0181379113346338272 -0.00662786047905683517
0.0351999998092651367 0.00330429151654243469 -0.0115615641698241234
0.0351999998092651367 0.0187334902584552765 -0.00848791841417551041
0.0351999998092651367 0.020033765584230423 -0.00839080661535263062
0.0351999998092651367 0.000767426565289497375 -0.011530749499797821
0.0351999998092651367 0.00253380089998245239 -0.0108041446655988693
0.0351999998092651367 0.02053043432533741 -0.00612450111657381058
0.0351999998092651367 0.00399369373917579651 -0.0117274513468146324
0.0351999998092651367 0.00282524712383747101 -0.0113359550014138222
0.0351999998092651367 0.01869155652821064 -0.00909524783492088318
0.0351999998092651367 0.0180708467960357666 -0.0083669731393456459
0.0351999998092651367 0.0115366587415337563 -0.010999603196978569
0.0351999998092651367 0.00315534882247447968 -0.0120098590850830078
0.0351999998092651367 0.00111629068851470947 -0.0126475607976317406
0.0351999998092651367 0.00394592061638832092 -0.0120840538293123245
0.0351999998092651367 0.0113561404868960381 -0.00884492695331573486
0.0351999998092651367 0.0130667174234986305 -0.0131853586062788963
0.0351999998092651367 0.0174776539206504822 -0.0108044799417257309
0.0351999998092651367 -0.00206674076616764069 -0.0133007196709513664
0.0351999998092651367 0.00252760015428066254 -0.0144055383279919624
0.0351999998092651367 0.000233311206102371216 -0.0149123333394527435
0.0351999998092651367 0.0116395484656095505 -0.0123799210414290428
0.0351999998092651367 0.00822055898606777191 -0.0130683863535523415
0.0351999998092651367 -0.000191107392311096191 -0.0143759045749902725
0.0351999998092651367 0.0121855493634939194 -0.01150498166680336
0.0351999998092651367 0.018847685307264328 -0.0112828873097896576
0.0351999998092651367 0.00759514980018138885 -0.0122881243005394936
0.0351999998092651367 0.0187171641737222672 -0.0107992691919207573
0.0351999998092651367 0.00124103575944900513 -0.0142453014850616455
0.0351999998092651367 0.00718817580491304398 -0.0125548001378774643
0.0351999998092651367 -0.00531936623156070709 -0.0138596855103969574
0.0351999998092651367 0.0012617204338312149 -0.0144057273864746094
0.0351999998092651367 0.0111793335527181625 -0.0129381809383630753
0.0351999998092651367 -0.0022924523800611496 -0.0145054981112480164
0.0351999998092651367 0.0179790426045656204 -0.0122376885265111923
0.0351999998092651367 0.0116881299763917923 -0.0134206041693687439
0.0351999998092651367 0.00132962316274642944 -0.0131572745740413666
0.0351999998092651367 0.00921559706330299377 -0.0132622970268130302
0.0351999998092651367 0.00428449548780918121 -0.0148299550637602806
0.0351999998092651367 0.0162821710109710693 -0.0118869394063949585
0.0351999998092651367 0.00963837653398513794 -0.013090561144053936
0.0351999998092651367 0.00435568392276763916 -0.0146791087463498116
0.0351999998092651367 0.0143355857580900192 -0.0145888281986117363
0.0351999998092651367 0.0179640110582113266 -0.0112572172656655312
0.0351999998092651367 0.0145423281937837601 -0.0123986238613724709
0.0351999998092651367 0.00312642659991979599 -0.0136132277548313141
0.0351999998092651367 -0.0105862785130739212 -0.0144262956455349922
0.0351999998092651367 0.00979186594486236572 -0.0147753981873393059
0.0351999998092651367 0.00941803772002458572 -0.012216661125421524
0.0351999998092651367 -0.00105045735836029053 -0.0133933555334806442
0.0351999998092651367 0.00722606200724840164 -0.0128375031054019928
0.0351999998092651367 -0.00171322189271450043 -0.0135649703443050385
0.0351999998092651367 0.00400256551802158356 -0.0135690048336982727
0.0351999998092651367 0.0152444392442703247 -0.013504447415471077
0.0351999998092651367 0.0152912698686122894 -0.0144576271995902061
0.0351999998092651367 0.0110574010759592056 -0.0119077460840344429
0.0351999998092651367 -0.0149797797203063965 -0.0147826671600341797
0.0351999998092651367 0.0148798190057277679 -0.0118039501830935478
0.0351999998092651367 0.00617336668074131012 -0.0146772591397166252
0.0351999998092651367 0.00361690018326044083 -0.0146738495677709579
0.0351999998092651367 0.00816889107227325439 -0.0131627479568123817
0.0351999998092651367 0.00751976482570171356 -0.0134656401351094246
0.0351999998092651367 0.00702076125890016556 -0.0140286600217223167
0.0351999998092651367 -0.013505423441529274 -0.0148277636617422104
0.0351999998092651367 0.00290922075510025024 -0.0130178853869438171
0.0351999998092651367 0.0162700042128562927 -0.0129514820873737335
0.0351999998092651367 0.0107665229588747025 -0.0137148071080446243
0.0351999998092651367 0.00476280134171247482 -0.0137793608009815216
0.0351999998092651367 0.00666797161102294922 -0.0139709264039993286
0.0351999998092651367 0.0149712413549423218 -0.0119089130312204361
0.0351999998092651367 0.0122413178905844688 -0.0146669000387191772
0.0351999998092651367 0.00590164773166179657 -0.0145445382222533226
0.0351999998092651367 0.0128057999536395073 -0.0144281471148133278
0.0351999998092651367 0.0177977606654167175 -0.0115037905052304268
0.0351999998092651367 0.0158442221581935883 -0.0120466090738773346
0.0351999998092651367 0.00690491870045661926 -0.0132564296945929527
0.0351999998092651367 -0.00410823337733745575 -0.0157379377633333206
0.0351999998092651367 0.0126543808728456497 -0.0171840284019708633
0.0351999998092651367 -0.000437557697296142578 -0.0155545724555850029
0.0351999998092651367 0.00902104005217552185 -0.017165040597319603
0.0351999998092651367 -0.00778886117041110992 -0.0149603076279163361
0.0351999998092651367 0.0112522570416331291 -0.0167044829577207565
0.0351999998092651367 -0.00259586982429027557 -0.0150384381413459778
0.0351999998092651367 0.0149711417034268379 -0.0164057295769453049
0.0351999998092651367 0.0064952620305120945 -0.0174411069601774216
0.0351999998092651367 -0.00958031974732875824 -0.0157224442809820175
0.0351999998092651367 0.00713765434920787811 -0.0168986227363348007
0.0351999998092651367 -0.0116395642980933189 -0.0152383046224713326
0.0351999998092651367 0.0136173944920301437 -0.0162698160856962204
0.0351999998092651367 -0.000530901364982128143 -0.0162928886711597443
0.0351999998092651367 0.00252839922904968262 -0.0167786777019500732
0.0351999998092651367 0.00307657849043607712 -0.0159332435578107834
0.0351999998092651367 -0.00140456575900316238 -0.0155477654188871384
0.0351999998092651367 0.0127973463386297226 -0.0179433710873126984
0.0351999998092651367 -0.0127195408567786217 -0.0153604857623577118
0.0351999998092651367 -0.0105856060981750488 -0.0152860106900334358
0.0351999998092651367 -0.00324707105755805969 -0.0158037189394235611
0.0351999998092651367 -0.00596359558403491974 -0.016073908656835556
0.0351999998092651367 0.0127145852893590927 -0.0153152765706181526
0.0351999998092651367 0.00518508953973650932 -0.0173804927617311478
0.0351999998092651367 0.0125614926218986511 -0.01637992262840271
0.0351999998092651367 0.00956806913018226624 -0.0176427792757749557
0.0351999998092651367 0.00722566479817032814 -0.0165335033088922501
0.0351999998092651367 4.09288331866264343e-05 -0.0162131767719984055
0.0351999998092651367 0.0132216187193989754 -0.016116216778755188
0.0351999998092651367 0.00486861355602741241 -0.0153964003548026085
0.0351999998092651367 0.00464734714478254318 -0.0159532129764556885
0.0351999998092651367 -0.00275392457842826843 -0.0156471878290176392
0.0351999998092651367 -0.0119147319346666336 -0.0154091082513332367
0.0351999998092651367 0.0140817416831851006 -0.0159712657332420349
0.0351999998092651367 8.41980800032615662e-05 -0.0163731686770915985
0.0351999998092651367 0.00147505104541778564 -0.0158417820930480957
0.0351999998092651367 0.00724214594811201096 -0.0171693954616785049
0.0351999998092651367 0.00903566740453243256 -0.0168311223387718201
0.0351999998092651367 0.001374819315969944 -0.0153120588511228561
0.0351999998092651367 -0.0116642527282238007 -0.0154525665566325188
0.0351999998092651367 0.0141995381563901901 -0.0154491383582353592
0.0351999998092651367 0.00187486223876476288 -0.0155442599207162857
0.0351999998092651367 -0.00696357153356075287 -0.0152124352753162384
0.0351999998092651367 -0.00247274618595838547 -0.0160509683191776276
0.0351999998092651367 2.14036554098129272e-05 -0.0150388311594724655
0.0351999998092651367 0.00790183432400226593 -0.0172838848084211349
0.0351999998092651367 -0.00283170957118272781 -0.0161916743963956833
0.0351999998092651367 0.0125976977869868279 -0.0166501812636852264
0.0351999998092651367 0.0040177186019718647 -0.0189054664224386215
0.0351999998092651367 -0.00273287389427423477 -0.0168932992964982986
0.0351999998092651367 0.00244295224547386169 -0.0183189790695905685
0.0351999998092651367 -0.00821575429290533066 -0.0167656391859054565
0.0351999998092651367 -0.00525489356368780136 -0.0165627487003803253
0.0351999998092651367 0.00924535281956195831 -0.0183010883629322052
0.0351999998092651367 0.00441614817827939987 -0.0193618815392255783
0.0351999998092651367 -0.00153252203017473221 -0.018029654398560524
0.0351999998092651367 0.0049573434516787529 -0.0199258793145418167
0.0351999998092651367 0.00738582760095596313 -0.0181332919746637344
0.0351999998092651367 0.000235085375607013702 -0.0183649882674217224
0.0351999998092651367 0.00717310095205903053 -0.0203824657946825027
0.0351999998092651367 0.00771438749507069588 -0.0198438465595245361
0.0351999998092651367 0.00056872982531785965 -0.0180927664041519165
0.0351999998092651367 0.00100797973573207855 -0.0182217322289943695
0.0351999998092651367 0.0054538375698029995 -0.0182397682219743729
0.0351999998092651367 -0.000592413358390331268 -0.0186127405613660812
0.0351999998092651367 -0.00398087780922651291 -0.0173940174281597137
0.0351999998092651367 -0.00536191929131746292 -0.0176508128643035889
0.0351999998092651367 0.00218967441469430923 -0.0179391726851463318
0.0351999998092651367 0.00986341573297977448 -0.0193220824003219604
0.0351999998092651367 0.00283188652247190475 -0.0181105826050043106
0.0351999998092651367 0.00126550672575831413 -0.0185418762266635895
0.0351999998092651367 -0.00278515089303255081 -0.0177864115685224533
0.0351999998092651367 -0.00271956529468297958 -0.0166641063988208771
0.0351999998092651367 -0.00159159023314714432 -0.0168328620493412018
0.0351999998092651367 0.000501188449561595917 -0.0178723912686109543
0.0351999998092651367 0.00479150237515568733 -0.0191604103893041611
0.0351999998092651367 0.00428218161687254906 -0.0178855489939451218
0.0351999998092651367 0.00921973958611488342 -0.0193844027817249298
0.0351999998092651367 -0.0130784567445516586 -0.0158213954418897629
0.0351999998092651367 -0.00753856264054775238 -0.0162281934171915054
0.0351999998092651367 0.00768656749278306961 -0.0189616549760103226
0.0351999998092651367 0.00524735450744628906 -0.0185957048088312149
0.0351999998092651367 -0.00549639295786619186 -0.0163250919431447983
0.0351999998092651367 0.00955876335501670837 -0.0183851271867752075
0.0351999998092651367 -0.00107137486338615417 -0.0177944246679544449
0.0351999998092651367 0.00275617488659918308 -0.0201179329305887222
0.0351999998092651367 -0.00144495442509651184 -0.0200571771711111069
0.0351999998092651367 0.0035669403150677681 -0.0206751115620136261
0.0351999998092651367 -0.00269341561943292618 -0.0187979433685541153
0.0351999998092651367 0.00470925075933337212 -0.0211883708834648132
0.0351999998092651367 -0.00997746363282203674 -0.0167684759944677353
0.0351999998092651367 0.000104212667793035507 -0.0202667601406574249
0.0351999998092651367 0.00349522125907242298 -0.0204247664660215378
0.0351999998092651367 0.000496631953865289688 -0.0197073705494403839
0.0351999998092651367 -0.00665488839149475098 -0.0187675934284925461
0.0351999998092651367 0.00638920115306973457 -0.0209131874144077301
0.0351999998092651367 -0.00135798798874020576 -0.0189584121108055115
0.0351999998092651367 -6.56512565910816193e-05 -0.0199962332844734192
0.0351999998092651367 -0.00361812859773635864 -0.0195300504565238953
0.0351999998092651367 0.00489838561043143272 -0.0214450433850288391
0.0351999998092651367 0.00749553320929408073 -0.0209910478442907333
0.0351999998092651367 -0.00174134876579046249 -0.0204650368541479111
0.0351999998092651367 -0.0134865604341030121 -0.0157756488770246506
0.0351999998092651367 -0.00811208691447973251 -0.0173356160521507263
0.0351999998092651367 -0.00754575105383992195 -0.0172590836882591248
0.0351999998092651367 -0.00495612248778343201 -0.0184627249836921692
0.0351999998092651367 0.00241686007939279079 -0.020310351625084877
0.0351999998092651367 -0.00665436591953039169 -0.0177533626556396484
0.0351999998092651367 0.00358627410605549812 -0.0211784839630126953
0.0351999998092651367 0.00093611888587474823 -0.0198652222752571106
0.0351999998092651367 -0.00315902242437005043 -0.0186373647302389145
0.0351999998092651367 -0.00190902396570891142 -0.0216427389532327652
0.0351999998092651367 -0.00562631199136376381 -0.0205101612955331802
0.0351999998092651367 -0.0130175361409783363 -0.0165167078375816345
0.0351999998092651367 -0.00420961296185851097 -0.0201009493321180344
0.0351999998092651367 -0.00621549366042017937 -0.019792705774307251
0.0351999998092651367 -0.0111478660255670547 -0.0172122772783041
0.0351999998092651367 -0.00421988870948553085 -0.0213586930185556412
0.0351999998092651367 0.000320764840580523014 -0.0222608167678117752
0.0351999998092651367 -0.00386595912277698517 -0.0201007891446352005
0.0351999998092651367 -0.00131264061201363802 -0.021345086395740509
0.0351999998092651367 -0.00367162120528519154 -0.0200518909841775894
0.0351999998092651367 -0.00300705805420875549 -0.0215800181031227112
0.0351999998092651367 -0.00478207971900701523 -0.0199530646204948425
0.0351999998092651367 -0.01103970967233181 -0.0177485272288322449
0.0351999998092651367 -0.00453057792037725449 -0.0203949715942144394
0.0351999998092651367 0.00187189551070332527 -0.0222227573394775391
0.0351999998092651367 -0.0121081061661243439 -0.0178966280072927475
0.0351999998092651367 -0.0103304795920848846 -0.0183725710958242416
0.0351999998092651367 -0.0108693577349185944 -0.0188224650919437408
0.0351999998092651367 -0.00669859442859888077 -0.0210163183510303497
0.0351999998092651367 -0.00890656933188438416 -0.0198894627392292023
0.0351999998092651367 -0.0127035034820437431 -0.0175004191696643829
0.0351999998092651367 -0.00317966099828481674 -0.0222168993204832077
0.0351999998092651367 -0.00920006074011325836 -0.019887927919626236
0.0351999998092651367 -0.0122766615822911263 -0.0185508672147989273
0.0351999998092651367 -0.0128496354445815086 -0.0177443809807300568
0.0351999998092651367 -0.0132450144737958908 -0.0180378369987010956
0.0351999998092651367 -0.0199584681540727615 -0.00925338733941316605
0.0351999998092651367 -0.0198420602828264236 -0.00963625218719244003
0.0351999998092651367 -0.0185212548822164536 -0.0119681954383850098
0.0351999998092651367 -0.0193599667400121689 -0.00993145722895860672
0.0351999998092651367 -0.0204515755176544189 -0.0064812125638127327
0.0351999998092651367 -0.0221852213144302368 -0.00239335768856108189
0.0351999998092651367 -0.0177279189229011536 -0.0128025347366929054
0.0351999998092651367 -0.0175327956676483154 -0.0134847089648246765
0.0351999998092651367 -0.0216403044760227203 -0.00384942186065018177
0.0351999998092651367 -0.0198443606495857239 -0.00791188795119524002
0.0351999998092651367 -0.0216873176395893097 -0.00219573639333248138
0.0351999998092651367 -0.0211496278643608093 -0.00592846469953656197
0.0397477969527244568 -0.0224196296185255051 -0.000661913305521011353
0.0396709255874156952 -0.0224142801016569138 -0.000705963233485817909
0.0416106358170509338 -0.0223304964601993561 -0.00139599828980863094
0.0402367785573005676 -0.0223632827401161194 -0.00112598249688744545
0.041564449667930603 -0.0223184507340192795 -0.00149519555270671844
0.0423211492598056793 -0.0223149731755256653 -0.0015238315099850297
0.0399914085865020752 -0.0221752207726240158 -0.00267479987815022469
0.0400868430733680725 -0.0223992150276899338 -0.00083004264160990715
0.0415829271078109741 -0.0222194008529186249 -0.00231093820184469223
0.0424320362508296967 -0.0220869202166795731 -0.00340202869847416878
0.0421169549226760864 -0.0219785068184137344 -0.00429487880319356918
0.0400277078151702881 -0.022486317902803421 -0.000112681649625301361
0.0423956364393234253 -0.0220532286912202835 -0.00367949064821004868
0.0371110774576663971 -0.0224121846258640289 -0.00072323530912399292
0.0373830609023571014 -0.022396039217710495 -0.000856197671964764595
0.0395511463284492493 -0.0224978718906641006 -1.7544720321893692e-05
0.0417428985238075256 -0.0224988851696252823 -9.19308513402938843e-06
0.0400470234453678131 -0.0219062566757202148 -0.00488991290330886841
0.0366622656583786011 -0.0222527142614126205 -0.0020365880336612463
0.0353826768696308136 -0.0224434174597263336 -0.000466010533273220062
0.0414506867527961731 -0.0219525620341300964 -0.00450854562222957611
0.0396007038652896881 -0.0220971312373876572 -0.0033179230522364378
0.0356380268931388855 -0.0222834814339876175 -0.00178318656980991364
0.0357358790934085846 -0.0224296301603317261 -0.000579558778554201126
0.0364058911800384521 -0.0221883859485387802 -0.00256637693382799625
0.0384946949779987335 -0.0221737120300531387 -0.00268721836619079113
0.0400895141065120697 -0.021942460909485817 -0.00459173694252967834
0.0352044887840747833 -0.0222439281642436981 -0.0021089410874992609
0.0394602306187152863 -0.0219553075730800629 -0.00448593823239207268
0.0355664268136024475 -0.0220163688063621521 -0.00398305477574467659
0.0402026474475860596 -0.0219126231968402863 -0.00483748316764831543
0.0354624278843402863 -0.022410193458199501 -0.00073962286114692688
0.0391659028828144073 -0.0218537915498018265 -0.00532199675217270851
0.0355173796415328979 -0.0219031907618045807 -0.00491515733301639557
0.0396597310900688171 -0.0201119892299175262 -0.00995731819421052933
0.0402087941765785217 -0.0203913673758506775 -0.00922065507620573044
0.0382281988859176636 -0.0206559151411056519 -0.00852310378104448318
0.0372769832611083984 -0.0203455351293087006 -0.00934151001274585724
0.0370921455323696136 -0.0204590018838644028 -0.00904232077300548553
0.040347568690776825 -0.0201058965176343918 -0.00997338257730007172
0.0377042293548583984 -0.0211214683949947357 -0.00729553727433085442
0.0376936309039592743 -0.0208952669054269791 -0.00789198186248540878
0.0419279076159000397 -0.0200011692941188812 -0.0102495253086090088
0.0356114357709884644 -0.0214602518826723099 -0.00640224013477563858
0.0373644791543483734 -0.0206838939338922501 -0.00844932906329631805
0.0366019308567047119 -0.0204200707376003265 -0.00914497487246990204
0.0422518290579319 -0.0200581401586532593 -0.0100993085652589798
0.0392718091607093811 -0.0201560314744710922 -0.00984118878841400146
0.0371088609099388123 -0.0206343252211809158 -0.00858002901077270508
0.0398397333920001984 -0.020475117489695549 -0.00899982545524835587
0.0418416485190391541 -0.0207572989165782928 -0.008255775086581707
0.0407126098871231079 -0.021730838343501091 -0.00568876415491104126
0.0382287614047527313 -0.0215523019433021545 -0.00615952210500836372
0.0380423069000244141 -0.0217728987336158752 -0.00557785667479038239
0.0417906343936920166 -0.020960003137588501 -0.00772128673270344734
0.0411669462919235229 -0.0203684568405151367 -0.00928106997162103653
0.0397764258086681366 -0.0213345438241958618 -0.00673370389267802238
0.0422043502330780029 -0.0215730853378772736 -0.00610472168773412704
0.0422645621001720428 -0.0215825363993644714 -0.00607980042695999146
0.0420652329921722412 -0.0214012172073125839 -0.00655790278688073158
0.0409261323511600494 -0.0213160421699285507 -0.00678249262273311615
0.0395138189196586609 -0.0208505410701036453 -0.00800991430878639221
0.0405776947736740112 -0.0214074049144983292 -0.00654158368706703186
0.0400345921516418457 -0.0209891367703676224 -0.00764446845278143883
0.0397373214364051819 -0.0209874305874109268 -0.00764896534383296967
0.0418377220630645752 -0.0216422677040100098 -0.00592229887843132019
0.0376190878450870514 -0.021538563072681427 -0.00619575288146734238
0.0385601036250591278 -0.0175113268196582794 -0.0139498347416520119
0.0354439914226531982 -0.0175589919090270996 -0.0138807827606797218
0.0385257303714752197 -0.0175495762377977371 -0.0138944238424301147
0.0416452027857303619 -0.0171096324920654297 -0.0145317921414971352
0.0381852239370346069 -0.0177452657371759415 -0.0136109162122011185
0.0358526967465877533 -0.0188244674354791641 -0.0120474239811301231
0.0391998104751110077 -0.0181067436933517456 -0.013087226077914238
0.0362594909965991974 -0.0189834386110305786 -0.011817113496363163
0.0387603677809238434 -0.0183761082589626312 -0.0126969851553440094
0.0356156527996063232 -0.0194665230810642242 -0.0111172469332814217
0.0403490960597991943 -0.016981789842247963 -0.0147170023992657661
0.0381561517715454102 -0.0186567995697259903 -0.0122903333976864815
0.03562883660197258 -0.0171009320765733719 -0.0145443947985768318
0.0383509732782840729 -0.017912713810801506 -0.0133683281019330025
0.0378142520785331726 -0.0174251124262809753 -0.0140747390687465668
0.036376170814037323 -0.0188678298145532608 -0.0119846044108271599
0.037731710821390152 -0.0184817146509885788 -0.012543986551463604
0.041553206741809845 -0.0176437962800264359 -0.0137579217553138733
0.0420982390642166138 -0.0174820944666862488 -0.0139921875670552254
0.04276290163397789 -0.0172983333468437195 -0.0142584117129445076
0.0379385165870189667 -0.0194111652672290802 -0.0111974477767944336
0.0405285544693470001 -0.0181647986173629761 -0.0130031174048781395
0.0362375304102897644 -0.0197160225361585617 -0.010755784809589386
0.0423825196921825409 -0.0176612939685583115 -0.0137325730174779892
0.0399847589433193207 -0.0191587526351213455 -0.0115631278604269028
0.0428403355181217194 -0.0172267481684684753 -0.0143621191382408142
0.0404570028185844421 -0.0186885129660367966 -0.0122443884611129761
0.0426841005682945251 -0.0174124892801046371 -0.0140930246561765671
0.0426708832383155823 -0.0176299307495355606 -0.0137780094519257545
0.0399914421141147614 -0.0197870153933763504 -0.010652933269739151
0.0402398407459259033 -0.0187366269528865814 -0.012174682691693306
0.0416925288736820221 -0.0194974746555089951 -0.0110724037513136864
0.0423548445105552673 -0.0175173338502645493 -0.0139411324635148048
0.0393287055194377899 -0.0197050664573907852 -0.0107716573402285576
0.0396898277103900909 -0.0142991114407777786 -0.0171726122498512268
0.0388728268444538116 -0.0137982610613107681 -0.0176163259893655777
0.0421352274715900421 -0.0129145029932260513 -0.0183992683887481689
0.0378776639699935913 -0.0138317719101905823 -0.0175866391509771347
0.0369415022432804108 -0.0159157812595367432 -0.015740368515253067
0.0356991030275821686 -0.0137930857017636299 -0.0176209118217229843
0.0397662781178951263 -0.0139893554151058197 -0.0174470320343971252
0.0372121594846248627 -0.0155771104618906975 -0.0160404033958911896
0.0390457585453987122 -0.0131020257249474525 -0.0182331372052431107
0.0377948693931102753 -0.0150061789900064468 -0.016546204686164856
0.0400138236582279205 -0.0134139489382505417 -0.0179567970335483551
0.0372109077870845795 -0.0134183429181575775 -0.0179529059678316116
0.0385641753673553467 -0.0131267737597227097 -0.0182112120091915131
0.0382404997944831848 -0.0145352007821202278 -0.0169634558260440826
0.0373110510408878326 -0.015082191675901413 -0.0164788644760847092
0.0359449982643127441 -0.0139982197433710098 -0.0174391791224479675
0.0412603616714477539 -0.014775620773434639 -0.0167504623532295227
0.0426795743405818939 -0.0132535304874181747 -0.0180989149957895279
0.0369363017380237579 -0.0167546253651380539 -0.0149972178041934967
0.0420011654496192932 -0.0144600467756390572 -0.0170300360769033432
0.0412345491349697113 -0.0163683518767356873 -0.0153394266963005066
0.0405511930584907532 -0.0149540305137634277 -0.0165924057364463806
0.0393461287021636963 -0.0164384152740240097 -0.0152773521840572357
0.0403885431587696075 -0.0153139494359493256 -0.0162735432386398315
0.0400820225477218628 -0.0152417393401265144 -0.0163375157862901688
0.0404676720499992371 -0.0157562177628278732 -0.0158817283809185028
0.0396775528788566589 -0.0148650966584682465 -0.0166711937636137009
0.0407552905380725861 -0.0139911118894815445 -0.0174454748630523682
0.0404442362487316132 -0.0149117344990372658 -0.0166298747062683105
0.0397953055799007416 -0.0144609920680522919 -0.0170291978865861893
0.0388365574181079865 -0.016220996156334877 -0.0154699720442295074
0.0413656048476696014 -0.0162294134497642517 -0.0154625140130519867
0.0373193472623825073 -0.00839435029774904251 -0.0208196677267551422
0.0398037321865558624 -0.0087698809802532196 -0.0206225737929344177
0.0360898561775684357 -0.010461738333106041 -0.0197346191853284836
0.0361192487180233002 -0.00836080219596624374 -0.0208372753113508224
0.0394561514258384705 -0.00855304766446352005 -0.0207363776862621307
0.0376911386847496033 -0.010667736642062664 -0.0196265019476413727
0.0353702418506145477 -0.0107743497937917709 -0.0195705480873584747
0.0359102301299571991 -0.0114807970821857452 -0.0191997755318880081
0.0400421991944313049 -0.00815887190401554108 -0.0209432560950517654
0.0371936969459056854 -0.00957406498491764069 -0.0202005058526992798
0.0360437743365764618 -0.011709519661962986 -0.0190797336399555206
0.035312112420797348 -0.0114705879241228104 -0.0192051343619823456
0.0354661419987678528 -0.0125628449022769928 -0.0186318736523389816
0.03959617018699646 -0.00965095870196819305 -0.0201601479202508926
0.0352072268724441528 -0.00799596495926380157 -0.0210287570953369141
0.0375297069549560547 -0.0109537495300173759 -0.0194763913750648499
0.0389041788876056671 -0.0118062375113368034 -0.0190289728343486786
0.0400907993316650391 -0.0110469618812203407 -0.019427470862865448
0.0400716327130794525 -0.010348035953938961 -0.019794294610619545
0.0406262166798114777 -0.012310463935136795 -0.0187643319368362427
0.0405731759965419769 -0.0119360331445932388 -0.0189608484506607056
0.0376999936997890472 -0.0122975986450910568 -0.0187710858881473541
0.0415167137980461121 -0.0116518689319491386 -0.0191099904477596283
0.0415837839245796204 -0.0121544664725661278 -0.0188462082296609879
0.0410642772912979126 -0.00927025917917490005 -0.0203599557280540466
0.0416745878756046295 -0.00878364779055118561 -0.0206153485924005508
0.0419088155031204224 -0.00963712204247713089 -0.0201674103736877441
0.0403880737721920013 -0.00973634328693151474 -0.0201153364032506943
0.03688812255859375 -0.0123800039291381836 -0.0187278371304273605
0.0427522473037242889 -0.0111782783642411232 -0.0193585511296987534
0.0381115823984146118 -0.0125891063362360001 -0.0186180900782346725
0.0409688316285610199 -0.0121157281100749969 -0.0188665371388196945
0.0410253889858722687 -0.0105745038017630577 -0.0196754354983568192
0.041039440780878067 -0.00274418061599135399 -0.0223280377686023712
0.0361648052930831909 -0.00579599104821681976 -0.0215758327394723892
0.0380113981664180756 -0.00375230750069022179 -0.0220795553177595139
0.0413490571081638336 -0.00274225161410868168 -0.0223285127431154251
0.0379639044404029846 -0.00572164170444011688 -0.0215941593050956726
0.0365985371172428131 -0.00497286953032016754 -0.0217787139117717743
0.0387251600623130798 -0.00426302989944815636 -0.0219536740332841873
0.0364831387996673584 -0.00429712189361453056 -0.0219452716410160065
0.0365740172564983368 -0.00276489206589758396 -0.0223229322582483292
0.0404249876737594604 -0.00298379594460129738 -0.022268977016210556
0.0363191105425357819 -0.00353553658351302147 -0.0221329852938652039
0.0364729985594749451 -0.00299660000018775463 -0.0222658216953277588
0.0366864167153835297 -0.00358573882840573788 -0.0221206117421388626
0.0369006507098674774 -0.00596858654171228409 -0.0215332917869091034
0.0374440252780914307 -0.00532900355756282806 -0.0216909348964691162
0.0353116728365421295 -0.00689036492258310318 -0.0213060937821865082
0.0370404906570911407 -0.00279975426383316517 -0.0223143398761749268
0.0381245501339435577 -0.00717868562787771225 -0.0212350282818078995
0.0387566499412059784 -0.00711617898195981979 -0.021250436082482338
0.0408649779856204987 -0.00663832388818264008 -0.0213682167232036591
0.0419038310647010803 -0.00353202852420508862 -0.0221338514238595963
0.0416443981230258942 -0.00489169685170054436 -0.021798720583319664
0.0385410338640213013 -0.00583932641893625259 -0.0215651523321866989
0.0418711677193641663 -0.0072153070941567421 -0.0212260037660598755
0.042185172438621521 -0.00785130821168422699 -0.0210692416876554489
0.0418381355702877045 -0.0037819982971996069 -0.0220722388476133347
0.0413040034472942352 -0.00615509273484349251 -0.0214873217046260834
0.0382704511284828186 -0.00660221045836806297 -0.0213771164417266846
0.0366562232375144958 -0.00750010553747415543 -0.0211558043956756592
0.041351955384016037 -0.00706684868782758713 -0.0212625935673713684
0.0422816388309001923 -0.00727788778021931648 -0.0212105773389339447
0.0427063703536987305 -0.00557529693469405174 -0.0216302294284105301
0.039625018835067749 -0.00555339362472295761 -0.0216356273740530014
0.0361849628388881683 -0.0019453603308647871 -0.0223359502851963043
0.0360403768718242645 -0.000728491460904479027 -0.0223359502851963043
0.0418595336377620697 0.00253971060737967491 -0.0223359502851963043
0.037054009735584259 0.000269443728029727936 -0.0223359502851963043
0.0391614809632301331 0.00120369053911417723 -0.0223359502851963043
0.0391097143292427063 0.00127510854508727789 -0.0223359502851963043
0.0389737114310264587 0.00133478909265249968 -0.0223359502851963043
0.0362007468938827515 0.00136744754854589701 -0.0223359502851963043
0.0360764004290103912 -0.000323174521327018738 -0.0223359502851963043
0.0362885594367980957 -0.000461152521893382072 -0.0223359502851963043
0.0413309633731842041 0.00233885040506720543 -0.0223359502851963043
0.0382068566977977753 0.00170914363116025925 -0.0223359502851963043
0.0370226800441741943 0.000449630199000239372 -0.0223359502851963043
0.0380877740681171417 0.000779053312726318836 -0.0223359502851963043
0.0401678606867790222 0.000793949118815362453 -0.0223359502851963043
0.0358100347220897675 -0.00186551432125270367 -0.0223359502851963043
0.0354079380631446838 -0.000752617139369249344 -0.0223359502851963043
0.0390449352562427521 -0.00193699216470122337 -0.0223359502851963043
0.0415752455592155457 -0.000435220659710466862 -0.0223359502851963043
0.0417167060077190399 0.000880943494848906994 -0.0223359502851963043
0.0400970727205276489 -0.00173225998878479004 -0.0223359502851963043
0.0407995805144309998 0.000548799987882375717 -0.0223359502851963043
0.0415290817618370056 -0.00171883637085556984 -0.0223359502851963043
0.039536602795124054 -0.00244977162219583988 -0.0223359502851963043
0.0385018996894359589 -0.00199240166693925858 -0.0223359502851963043
0.0386307872831821442 -0.00267830141820013523 -0.0223359502851963043
0.0419248156249523163 -0.00249067461118102074 -0.0223359502851963043
0.0405470095574855804 0.00047242350410670042 -0.0223359502851963043
0.0391802974045276642 -0.00106350751593708992 -0.0223359502851963043
0.0367177575826644897 -0.00241910247132182121 -0.0223359502851963043
0.0424377024173736572 -0.000559071078896522522 -0.0223359502851963043
0.040473397821187973 -0.000295457080937922001 -0.0223359502851963043
0.0385055132210254669 -0.00175284966826438904 -0.0223359502851963043
0.0426461994647979736 -0.00139277894049882889 -0.0223359502851963043
0.0419432185590267181 0.00785824749618768692 -0.0210675317794084549
0.0363164618611335754 0.00649495748803019524 -0.0214035529643297195
0.0396593809127807617 0.00722762709483504295 -0.0212229657918214798
0.0368650257587432861 0.00629149423912167549 -0.0214537028223276138
0.0389054268598556519 0.00542146293446421623 -0.0216681454330682755
0.0398880168795585632 0.00652448926120996475 -0.021396273747086525
0.0395112708210945129 0.00610409257933497429 -0.0214998926967382431
0.0378668196499347687 0.00509707815945148468 -0.0217480994760990143
0.0385639555752277374 0.00626507867127656937 -0.021460212767124176
0.0378996580839157104 0.00754518108442425728 -0.0211446955800056458
0.0365308336913585663 0.00661749579012393951 -0.0213733501732349396
0.038876805454492569 0.00708098104223608971 -0.0212591104209423065
0.0414967834949493408 0.00723042013123631477 -0.0212222784757614136
0.0372830331325531006 0.00555060012266039848 -0.0216363165527582169
0.0374941788613796234 0.00619863579049706459 -0.0214765891432762146
0.0385219864547252655 0.00499729719012975693 -0.0217726938426494598
0.035817854106426239 0.00689490744844079018 -0.0213049743324518204
0.0415656194090843201 0.00333826849237084389 -0.0221816077828407288
0.0362898223102092743 0.00307422224432229996 -0.0222466886043548584
0.0397554598748683929 0.00392412766814231873 -0.0220372062176465988
0.0411954037845134735 0.00666896719485521317 -0.0213606636971235275
0.0425368361175060272 0.00626339763402938843 -0.0214606281369924545
0.0369824431836605072 0.00352158490568399429 -0.0221364237368106842
0.0385383516550064087 0.00309897074475884438 -0.0222405903041362762
0.0419769883155822754 0.0069741448387503624 -0.0212854444980621338
0.0428071692585945129 0.00517805665731430054 -0.0217281412333250046
0.0422222167253494263 0.00555826351046562195 -0.0216344278305768967
0.0363545455038547516 0.00276533840224146843 -0.0223228204995393753
0.0375619456171989441 0.00324405566789209843 -0.0222048293799161911
0.0399928092956542969 0.00283529330044984818 -0.0223055798560380936
0.036368250846862793 0.00343305803835391998 -0.0221582427620887756
0.0414788424968719482 0.00473983306437730789 -0.0218361541628837585
0.0428908802568912506 0.00351858208887279034 -0.0221371632069349289
0.0361583828926086426 0.00282059470191597939 -0.0223092027008533478
0.0355716943740844727 0.00877510011196136475 -0.0206198357045650482
0.0356637053191661835 0.0123727601021528244 -0.0187316369265317917
0.0359342955052852631 0.010709693655371666 -0.0196044817566871643
0.037281230092048645 0.0100534185767173767 -0.0199489220976829529
0.0364088006317615509 0.0120812645182013512 -0.0188846252858638763
0.0385452881455421448 0.0106610879302024841 -0.0196299925446510315
0.039264727383852005 0.0113367531448602676 -0.0192753765732049942
0.0355236604809761047 0.00867204181849956512 -0.020673925057053566
0.0352475084364414215 0.00825232360512018204 -0.0208942089229822159
0.0360061526298522949 0.00959337875247001648 -0.0201903693377971649
0.0369124896824359894 0.0113090230152010918 -0.0192899294197559357
0.0375334396958351135 0.0107347546145319939 -0.0195913296192884445
0.0360885821282863617 0.00993585027754306793 -0.0200106259435415268
0.0372310802340507507 0.0101573588326573372 -0.0198943689465522766
0.035201098769903183 0.0111946985125541687 -0.0193499308079481125
0.0372367091476917267 0.0126705057919025421 -0.0185753684490919113
0.0364581681787967682 0.0115556614473462105 -0.0191604830324649811
0.0420904792845249176 0.0111565236002206802 -0.0193699691444635391
0.0376922562718391418 0.00877577159553766251 -0.0206194818019866943
0.0374464690685272217 0.00862750597298145294 -0.0206972993910312653
0.0425710380077362061 0.00801646150648593903 -0.0210179984569549561
0.0418261289596557617 0.011084691621363163 -0.0194076672196388245
0.0425242185592651367 0.00822724401950836182 -0.0209073722362518311
0.0401726402342319489 0.00951888412237167358 -0.0202294681221246719
0.0382095798850059509 0.00932648032903671265 -0.020330449566245079
0.0411385372281074524 0.00955290161073207855 -0.020211612805724144
0.0425595305860042572 0.00816761981695890427 -0.0209386646747589111
0.0419048070907592773 0.00849250238388776779 -0.0207681544125080109
0.0418517179787158966 0.0119640910997986794 -0.0189461223781108856
0.037541557103395462 0.00848626811057329178 -0.0207714252173900604
0.0413829274475574493 0.00974382553249597549 -0.0201114099472761154
0.0411650463938713074 0.0100994603708386421 -0.0199247561395168304
0.0404761359095573425 0.00892381928861141205 -0.020541781559586525
0.0379600226879119873 0.0158259384334087372 -0.015819961205124855
0.0371620580554008484 0.0143125653266906738 -0.0171606931835412979
0.0362728238105773926 0.0165035929530858994 -0.0152196120470762253
0.0382684506475925446 0.0158670209348201752 -0.0157835669815540314
0.0400978587567806244 0.0161848850548267365 -0.0155019629746675491
0.0391889400780200958 0.0167777556926012039 -0.0149767240509390831
0.0359795838594436646 0.0165377222001552582 -0.0151893757283687592
0.0372935347259044647 0.0142975505441427231 -0.0171739943325519562
0.0406451001763343811 0.0163037292659282684 -0.0153966760262846947
0.0382860451936721802 0.0162108968943357468 -0.0154789183288812637
0.0425523854792118073 0.0166597217321395874 -0.0150812938809394836
0.0365270711481571198 0.0146007770672440529 -0.0169053599238395691
0.0372410863637924194 0.0162759702652692795 -0.0154212675988674164
0.0360742472112178802 0.0135184619575738907 -0.0178642068058252335
0.0361644476652145386 0.0147373732179403305 -0.016784345731139183
0.0399285629391670227 0.0153063656762242317 -0.0162802636623382568
0.0407055020332336426 0.01465651486068964 -0.0168559793382883072
0.0404979586601257324 0.0134761286899447441 -0.0179017111659049988
0.0425951331853866577 0.0144945792853832245 -0.0169994421303272247
0.0403762869536876678 0.0153620103374123573 -0.0162309650331735611
0.0404803007841110229 0.0133361499756574631 -0.0180257223546504974
0.0382256284356117249 0.0130208488553762436 -0.0183050539344549179
0.0402227453887462616 0.013143809512257576 -0.0181961208581924438
0.04267922043800354 0.0140181947499513626 -0.0174214839935302734
0.0419160611927509308 0.0140659324824810028 -0.0173791907727718353
0.0425667949020862579 0.0158565361052751541 -0.0157928522676229477
0.0414760522544384003 0.0158405080437660217 -0.0158070530742406845
0.0421137511730194092 0.0151698868721723557 -0.0164011716842651367
0.0418203286826610565 0.0128837861120700836 -0.018426479771733284
0.0428495258092880249 0.0139506198465824127 -0.0174813475459814072
0.040340472012758255 0.0145463868975639343 -0.0169535446912050247
0.0372537970542907715 0.0129659995436668396 -0.0183536484837532043
0.0422135293483734131 0.0146660469472408295 -0.0168475359678268433
0.0364461429417133331 0.0180672053247690201 -0.013144507072865963
0.0377786308526992798 0.0196530893445014954 -0.0108469575643539429
0.0361888669431209564 0.0183140989392995834 -0.0127868195995688438
0.0381346680223941803 0.0193326473236083984 -0.0113111985847353935
0.0379373691976070404 0.0192837025970220566 -0.0113821076229214668
0.0361503660678863525 0.0180571191012859344 -0.0131591185927391052
0.0371954701840877533 0.019255559891462326 -0.0114228790625929832
0.0387443415820598602 0.0192491263151168823 -0.011432199738919735
0.0412633493542671204 0.0195039659738540649 -0.0110630011186003685
0.0379269681870937347 0.0188899897038936615 -0.0119524989277124405
0.0354812406003475189 0.0188191011548042297 -0.0120551986619830132
0.0369673483073711395 0.0187487583607435226 -0.0121571077033877373
0.03609418123960495 0.0192046705633401871 -0.0114966053515672684
0.0375605560839176178 0.0198663212358951569 -0.0105380378663539886
