ply
format ascii 1.0
element vertex 755
property float x
property float y
property float z
end_header
0.0338897556066513062 0.356507986783981323 0.28320002555847168
0.0137440413236618042 0.391401171684265137 0.395093023777008057
0.0225449614226818085 0.376157641410827637 0.37329062819480896
0.0192690305411815643 0.38183167576789856 0.350526988506317139
0.183045804500579834 0.0981637239456176758 0.0990637540817260742
0.187423378229141235 0.0905815958976745605 0.123453706502914429
0.0502998046576976776 0.328085124492645264 0.0641478598117828369
0.0994461029767990112 0.242961764335632324 0.156952664256095886
0.0793161541223526001 0.277827620506286621 0.386636525392532349
0.0450908802449703217 0.337107181549072266 0.349365979433059692
0.178636983036994934 0.105800002813339233 0.0163968205451965332
0.127332061529159546 0.194662183523178101 0.27122730016708374
0.0486591048538684845 0.330926895141601562 0.472305119037628174
0.00845687277615070343 0.400558769702911377 0.512079000473022461
0.19638274610042572 0.0750636160373687744 0.0399941205978393555
0.138042792677879333 0.176110759377479553 0.178671061992645264
0.107063218951225281 0.229768618941307068 0.0593732297420501709
0.00775134284049272537 0.401780754327774048 0.469049930572509766
0.111540608108043671 0.222013607621192932 0.294095873832702637
0.00302159739658236504 0.409972876310348511 0.00697186682373285294
0.0255163609981536865 0.371011048555374146 0.474224448204040527
0.205418214201927185 0.0594138205051422119 0.0254591703414916992
0.0138175841420888901 0.391273796558380127 0.191971063613891602
0.132786571979522705 0.18521474301815033 0.0775310695171356201
0.00429170671850442886 0.407772988080978394 0.465676337480545044
0.208998575806617737 0.0532124936580657959 0.0276826620101928711
0.190287604928016663 0.0856206715106964111 0.0606964230537414551
0.0373692773282527924 0.350481331348419189 0.297148644924163818
0.0790505483746528625 0.278287678956985474 0.386904001235961914
0.0463495664298534393 0.334927082061767578 0.104747787117958069
0.0696852207183837891 0.294508814811706543 0.237505584955215454
8.94469048944301903e-05 0.415051490068435669 0.279296010732650757
0.043611917644739151 0.339668810367584229 0.155706152319908142
0.0237439461052417755 0.374080926179885864 0.0337440744042396545
0.0324751026928424835 0.358958214521408081 0.00998045504093170166
0.206992059946060181 0.0566878616809844971 0.0164000391960144043
0.0643486529588699341 0.303751945495605469 0.140058264136314392
0.180831700563430786 0.101998656988143921 0.145340889692306519
0.00945110339671373367 0.398836702108383179 0.139508187770843506
0.125912174582481384 0.197121486067771912 0.024114459753036499
0.163080587983131409 0.132744282484054565 0.123348504304885864
0.103840574622154236 0.235350370407104492 0.0777120590209960938
0.0696856081485748291 0.294508129358291626 0.398461282253265381
0.146959438920021057 0.160666763782501221 0.137419998645782471
0.129497244954109192 0.190911978483200073 0.222817927598953247
0.103551574051380157 0.235850930213928223 0.137121468782424927
0.156926184892654419 0.143403977155685425 0.146786421537399292
0.153129115700721741 0.149980634450912476 0.104594945907592773
0.0892436057329177856 0.260632902383804321 0.21462714672088623
0.119134068489074707 0.208861425518989563 0.174858212471008301
0.0727506428956985474 0.289199382066726685 0.395651936531066895
0.0345792397856712341 0.355313777923583984 0.130872517824172974
0.0530394352972507477 0.323339968919754028 0.268068253993988037
0.0859304219484329224 0.266371488571166992 0.0577475875616073608
0.0856671035289764404 0.266827553510665894 0.0370262265205383301
0.0474743135273456573 0.332978993654251099 0.23046383261680603
0.139524132013320923 0.173545002937316895 0.219287216663360596
0.086849309504032135 0.264779925346374512 0.102678671479225159
0.0800072476267814636 0.276630640029907227 0.152928665280342102
0.163068667054176331 0.132764935493469238 0.381636261940002441
0.0886465311050415039 0.261667072772979736 0.418004274368286133
0.229047790169715881 0.01848645880818367 0.150349199771881104
0.0809793770313262939 0.274946868419647217 0.538626790046691895
0.217670068144798279 0.0381931178271770477 0.0749349594116210938
0.236638575792312622 0.00533892121165990829 0.234121322631835938
0.230514258146286011 0.0159464702010154724 0.562574267387390137
0.18786776065826416 0.0898119136691093445 0.220670551061630249
0.196832165122032166 0.0742851942777633667 0.291582643985748291
0.113763779401779175 0.218162968754768372 0.365536540746688843
0.165636301040649414 0.128317698836326599 0.19473758339881897
0.191629365086555481 0.0832966715097427368 0.532938897609710693
0.123490437865257263 0.201316013932228088 0.584707558155059814
0.228116318583488464 0.0200998056679964066 0.0863215923309326172
0.205067679286003113 0.0600209608674049377 0.436032354831695557
0.233012959361076355 0.0116186086088418961 0.429697990417480469
0.176430821418762207 0.109621144831180573 0.246738731861114502
0.0453639328479766846 0.336634248495101929 0.526808023452758789
0.168742969632148743 0.122936822474002838 0.245626568794250488
0.119681745767593384 0.207912832498550415 0.497898668050765991
0.2055797278881073 0.0591340884566307068 0.242939651012420654
0.150954887270927429 0.153746485710144043 0.397943705320358276
0.111526042222976685 0.222038820385932922 0.587238073348999023
0.0973462760448455811 0.246598765254020691 0.585245311260223389
0.196377813816070557 0.075072169303894043 0.551066100597381592
0.0746835023164749146 0.285851597785949707 0.452034533023834229
0.153355687856674194 0.14958818256855011 0.559213876724243164
0.21107541024684906 0.0496153272688388824 0.265634864568710327
0.231463581323623657 0.0143022174015641212 0.143622100353240967
0.21148364245891571 0.0489082597196102142 0.404072552919387817
0.149559319019317627 0.156163662672042847 0.512749373912811279
0.187472060322761536 0.0904972702264785767 0.490800797939300537
0.165431350469589233 0.128672659397125244 0.265446066856384277
0.190791547298431396 0.084747806191444397 0.598046839237213135
0.135334834456443787 0.180801033973693848 0.54212111234664917
0.223004996776580811 0.0289528239518404007 0.167300105094909668
0.206668302416801453 0.0572486221790313721 0.205351918935775757
0.221511945128440857 0.031538836658000946 0.0797646641731262207
0.165868654847145081 0.127915248274803162 0.506363868713378906
0.213850423693656921 0.0448088981211185455 0.163171768188476562
0.194612428545951843 0.0781298726797103882 0.427626371383666992
0.184040725231170654 0.0964405089616775513 0.142902404069900513
0.210456475615501404 0.0506873540580272675 0.490268051624298096
0.123320899903774261 0.20160965621471405 0.549981474876403809
0.175316870212554932 0.111550569534301758 0.44001239538192749
0.0880633890628814697 0.262677103281021118 0.394194483757019043
0.17758101224899292 0.107628963887691498 0.337613403797149658
0.155857652425765991 0.145254716277122498 0.46604493260383606
0.221701532602310181 0.0312104783952236176 0.20970579981803894
0.112441778182983398 0.220452725887298584 0.380568474531173706
0.113555833697319031 0.218523159623146057 0.509277701377868652
0.137046873569488525 0.177835717797279358 0.553951740264892578
0.0930954068899154663 0.253961443901062012 0.478396177291870117
0.158671706914901733 0.140380650758743286 0.339823782444000244
0.233968406915664673 0.0099637424573302269 0.20941433310508728
0.223246961832046509 0.0285337157547473907 0.138811081647872925
0.185125023126602173 0.094562433660030365 0.496016234159469604
0.0961609035730361938 0.248651847243309021 0.495809763669967651
0.120658665895462036 0.206220760941505432 0.437305480241775513
0.20993196964263916 0.0515958331525325775 0.13623318076133728
0.0470817834138870239 0.333658844232559204 0.485879719257354736
0.20677417516708374 0.0570652373135089874 0.158439964056015015
0.110456615686416626 0.223891124129295349 0.550495445728302002
0.236206263303756714 0.00608768034726381302 0.467426598072052002
0.172855556011199951 0.115813650190830231 0.424599289894104004
0.16612514853477478 0.127470999956130981 0.327016681432723999
0.235538095235824585 0.00724497484043240547 0.265739411115646362
0.1841563880443573 0.0962401479482650757 0.390150189399719238
0.0593268722295761108 0.312449872493743896 0.561281263828277588
0.104495882987976074 0.234215348958969116 0.59153217077255249
0.191015779972076416 0.0843594223260879517 0.239190757274627686
0.229466170072555542 0.0177618041634559631 0.381373226642608643
0.0311246961355209351 0.361297190189361572 0.541136562824249268
0.0295113325119018555 0.364091575145721436 0.554173529148101807
0.204970657825469971 0.0601890124380588531 0.115715146064758301
0.0824287682771682739 0.272436469793319702 0.489991307258605957
0.152726665139198303 0.150677695870399475 0.452277898788452148
0.150147467851638794 0.155144989490509033 0.250244319438934326
0.227939561009407043 0.0204059425741434097 0.130137652158737183
0.0888289809226989746 0.261351048946380615 0.524720609188079834
0.0410402268171310425 0.34412306547164917 0.564867615699768066
0.0731499791145324707 0.288507699966430664 0.46167418360710144
0.196365758776664734 0.0750930383801460266 0.163584798574447632
0.208659574389457703 0.0537996701896190643 0.49692004919052124
0.164624437689781189 0.130070269107818604 0.521295428276062012
0.204986900091171265 0.0601608678698539734 0.425865054130554199
0.142998009920120239 0.167528137564659119 0.571088731288909912
0.235042303800582886 0.00810370780527591705 0.557138800621032715
0.162757158279418945 0.133304476737976074 0.442681968212127686
0.202065244317054749 0.0652213096618652344 0.113326400518417358
0.153483688831329346 0.149366512894630432 0.573730945587158203
0.107459470629692078 0.229082286357879639 0.342613816261291504
0.121194019913673401 0.20529349148273468 0.30266803503036499
0.178772419691085815 0.105565421283245087 0.446982622146606445
0.188973411917686462 0.0878968760371208191 0.351936280727386475
0.157193481922149658 0.142940983176231384 0.209362447261810303
0.174830019474029541 0.112393811345100403 0.25181049108505249
0.0887414664030075073 0.261502623558044434 0.388756364583969116
0.186949938535690308 0.0914016067981719971 0.414503961801528931
0.135579213500022888 0.180377766489982605 0.470258593559265137
0.143345251679420471 0.166926681995391846 0.505407631397247314
0.234734281897544861 0.00863721035420894623 0.408350855112075806
0.130777493119239807 0.188694551587104797 0.503474533557891846
0.195973992347717285 0.0757715851068496704 0.243629872798919678
0.232892155647277832 0.0118278646841645241 0.257408976554870605
0.118072472512722015 0.210700139403343201 0.436926454305648804
0.14225846529006958 0.168809026479721069 0.455012679100036621
0.0856315195560455322 0.266889184713363647 0.419736862182617188
0.148454785346984863 0.158076778054237366 0.581405460834503174
0.220401853322982788 0.0334615744650363922 0.48757702112197876
0.121116161346435547 0.205428361892700195 0.391739338636398315
0.151991382241249084 0.151951238512992859 0.569839358329772949
0.19655938446521759 0.0747576653957366943 0.245958298444747925
0.140035226941108704 0.172659769654273987 0.257450908422470093
0.175173461437225342 0.111798956990242004 0.218836754560470581
0.219862937927246094 0.0343949869275093079 0.562988579273223877
0.180091574788093567 0.103280581533908844 0.358957469463348389
0.156934648752212524 0.143389314413070679 0.465330898761749268
0.0457817167043685913 0.335910618305206299 0.493569105863571167
0.164555281400680542 0.130190074443817139 0.481786787509918213
0.11015591025352478 0.224411949515342712 0.381511688232421875
0.183270886540412903 0.0977738872170448303 0.339000433683395386
0.0552236437797546387 0.319556832313537598 0.487825512886047363
0.0927204787731170654 0.254610806703567505 0.592106044292449951
0.238425359129905701 0.00224413652904331684 0.262742310762405396
0.142412334680557251 0.168542549014091492 0.560198485851287842
0.113044902682304382 0.219408109784126282 0.463254272937774658
0.175237491726875305 0.111688047647476196 0.208904176950454712
0.23338828980922699 0.0109685314819216728 0.365534871816635132
0.229439675807952881 0.0178076997399330139 0.545103251934051514
0.126776993274688721 0.195623576641082764 0.294553637504577637
0.075244903564453125 0.284879207611083984 0.542804181575775146
0.124786674976348877 0.199070870876312256 0.371253162622451782
0.203438341617584229 0.0628430545330047607 0.262055844068527222
0.0823124349117279053 0.27263796329498291 0.594605445861816406
0.0967819094657897949 0.247576266527175903 0.493274062871932983
0.22675187885761261 0.0224630683660507202 0.596625208854675293
0.211280420422554016 0.0492602549493312836 0.374947249889373779
0.129713475704193115 0.190537482500076294 0.475549131631851196
0.202190026640892029 0.065005183219909668 0.258717954158782959
0.0992206931114196777 0.243352189660072327 0.569562613964080811
0.186457186937332153 0.0922550931572914124 0.455024242401123047
0.208535000681877136 0.0540154241025447845 0.493663370609283447
0.195646882057189941 0.0763381719589233398 0.321654438972473145
0.138695970177650452 0.174979433417320251 0.36660158634185791
0.063376203179359436 0.305436283349990845 0.545041322708129883
0.238250464200973511 0.00254704291000962257 0.209489643573760986
0.0733490437269210815 0.288162916898727417 0.581674456596374512
0.208762317895889282 0.0536217130720615387 0.286725521087646484
0.0673447996377944946 0.298562496900558472 0.568871676921844482
0.0738517343997955322 0.287292242050170898 0.519286692142486572
0.0502034276723861694 0.328252047300338745 0.518950521945953369
0.1654205322265625 0.128691419959068298 0.571415245532989502
0.128520950675010681 0.192602962255477905 0.465231418609619141
0.167907893657684326 0.124383196234703064 0.520199298858642578
0.187981933355331421 0.0896141678094863892 0.509112298488616943
0.201233357191085815 0.0666621550917625427 0.224173665046691895
0.121736690402030945 0.204353570938110352 0.365089625120162964
0.229955345392227173 0.0169145185500383377 0.325700044631958008
0.063283771276473999 0.305596381425857544 0.557964026927947998
0.212554872035980225 0.0470528528094291687 0.401060700416564941
0.174688786268234253 0.112638428807258606 0.413312286138534546
0.225595831871032715 0.0244653895497322083 0.301875442266464233
0.232537105679512024 0.012442820705473423 0.0648897886276245117
0.180150672793388367 0.103178225457668304 0.498855501413345337
0.193759292364120483 0.0796075537800788879 0.391306161880493164
0.215659022331237793 0.0416763275861740112 0.447265118360519409
0.177679717540740967 0.107458002865314484 0.328985780477523804
0.197622627019882202 0.072916083037853241 0.344027042388916016
0.232052028179168701 0.0132829984650015831 0.556423425674438477
0.212614312767982483 0.0469499044120311737 0.162852644920349121
0.203879967331886292 0.0620781257748603821 0.584563076496124268
0.10728965699672699 0.229376420378684998 0.542216718196868896
0.212129533290863037 0.0477895624935626984 0.146811604499816895
0.107341185212135315 0.229287177324295044 0.458045005798339844
0.239221811294555664 0.000864637433551251888 0.526696860790252686
0.202122241258621216 0.0651225969195365906 0.274235457181930542
0.176086261868476868 0.110217936336994171 0.220305114984512329
0.176717668771743774 0.109124325215816498 0.223263055086135864
0.0292549878358840942 0.364535599946975708 0.549349308013916016
0.182182967662811279 0.0996582061052322388 0.460980534553527832
0.114565297961235046 0.216774716973304749 0.402227163314819336
0.18106958270072937 0.101586639881134033 0.340159595012664795
0.128955304622650146 0.191850662231445312 0.429938673973083496
0.193137407302856445 0.0806846842169761658 0.427120447158813477
0.223104432225227356 0.0287805944681167603 0.293075621128082275
0.11112600564956665 0.222731724381446838 0.593612432479858398
0.159143298864364624 0.139563828706741333 0.401973545551300049
0.186000928282737732 0.0930453389883041382 0.152785032987594604
0.1385650634765625 0.17520613968372345 0.299320876598358154
0.2094288170337677 0.0524673014879226685 0.433190912008285522
0.114396959543228149 0.217066287994384766 0.585283398628234863
0.164538487792015076 0.130219146609306335 0.552157104015350342
0.227475225925445557 0.0212102066725492477 0.280899643898010254
0.131767570972442627 0.186979681253433228 0.275885343551635742
0.0250677615404129028 0.37178802490234375 0.580590546131134033
0.199407696723937988 0.0698242932558059692 0.541047871112823486
0.185779914259910583 0.0934281572699546814 0.543751120567321777
0.126415610313415527 0.196249499917030334 0.44529426097869873
0.17594495415687561 0.11046271026134491 0.564746975898742676
0.108618900179862976 0.227074116468429565 0.455815970897674561
0.215755045413970947 0.0415100045502185822 0.329285413026809692
0.0513196885585784912 0.326318651437759399 0.476908862590789795
0.231532841920852661 0.0141822313889861107 0.377122044563293457
0.198817208409309387 0.0708470344543457031 0.500258445739746094
0.119171932339668274 0.208795845508575439 0.428301870822906494
0.179608166217803955 0.104117855429649353 0.524154424667358398
0.177808657288551331 0.107234671711921692 0.321724951267242432
0.0459281802177429199 0.335656940937042236 0.597787141799926758
0.224489882588386536 0.0263809319585561752 0.527004063129425049
0.209298059344291687 0.052693784236907959 0.527690708637237549
0.197850510478019714 0.0725213885307312012 0.257106244564056396
0.189895674586296082 0.0862994790077209473 0.503020942211151123
0.141106769442558289 0.170803815126419067 0.566314458847045898
0.100029408931732178 0.241951465606689453 0.407907932996749878
0.224037393927574158 0.0271646622568368912 0.3177814781665802
0.0522871911525726318 0.32464289665222168 0.484028518199920654
0.0362258255481719971 0.352461814880371094 0.541092455387115479
0.227906480431556702 0.0204632449895143509 0.589058041572570801
0.188070520758628845 0.0894607231020927429 0.591636121273040771
0.0785779207944869995 0.279106318950653076 0.508619546890258789
0.169789969921112061 0.121123366057872772 0.252476155757904053
0.129462659358978271 0.190971896052360535 0.551724553108215332
0.109245926141738892 0.225988090038299561 0.524785935878753662
0.205664843320846558 0.0589866526424884796 0.314497441053390503
0.179796606302261353 0.103791475296020508 0.279072731733322144
0.213622868061065674 0.0452030301094055176 0.357329189777374268
0.157651513814926147 0.142147645354270935 0.43962407112121582
0.144953548908233643 0.164141044020652771 0.27683374285697937
0.127717390656471252 0.193994775414466858 0.412818104028701782
0.234941780567169189 0.00827783159911632538 0.138250499963760376
0.172698825597763062 0.11608511209487915 0.333815544843673706
0.154543444514274597 0.147530972957611084 0.248581498861312866
0.213523104786872864 0.045375823974609375 0.28014257550239563
0.189258143305778503 0.0874037221074104309 0.452540457248687744
0.0753831565380096436 0.28463977575302124 0.531110107898712158
0.105693116784095764 0.232141688466072083 0.513198256492614746
0.228160277009010315 0.0200236700475215912 0.275999128818511963
0.0771728157997131348 0.281540006399154663 0.594173073768615723
0.205651149153709412 0.0590103790163993835 0.454260110855102539
0.181552693247795105 0.100749872624874115 0.336096763610839844
0.23821568489074707 0.00260729808360338211 0.0495687723159790039
0.141655474901199341 0.169853463768959045 0.498127788305282593
0.231326565146446228 0.0145395230501890182 0.452228516340255737
0.174363940954208374 0.113201051950454712 0.21528923511505127
0.130240991711616516 0.189623787999153137 0.348745256662368774
0.182132497429847717 0.0997456163167953491 0.379795670509338379
0.175253063440322876 0.111661069095134735 0.578157246112823486
0.194680869579315186 0.0780113264918327332 0.490883916616439819
0.230633839964866638 0.0157393496483564377 0.425439059734344482
0.146322369575500488 0.161770179867744446 0.526541292667388916
0.0949123203754425049 0.250814437866210938 0.515452146530151367
0.153162881731987 0.149922147393226624 0.462328732013702393
0.194228857755661011 0.0787942484021186829 0.217370837926864624
0.233851581811904907 0.0101660946384072304 0.119485825300216675
0.0565327703952789307 0.317289382219314575 0.482755899429321289
0.123563103377819061 0.201190158724784851 0.472392648458480835
0.0258821249008178711 0.370377540588378906 0.598391115665435791
0.181226462125778198 0.101314917206764221 0.159370899200439453
0.0479399263858795166 0.332172513008117676 0.529829144477844238
0.199639812111854553 0.0694222599267959595 0.351888835430145264
0.0684930384159088135 0.2965736985206604 0.557155132293701172
0.22589421272277832 0.02394857257604599 0.476690560579299927
0.19324098527431488 0.08050527423620224 0.239284396171569824
0.0907400846481323242 0.258040934801101685 0.392177104949951172
0.151858806610107422 0.152180850505828857 0.417957901954650879
0.199222773313522339 0.0701445713639259338 0.154760062694549561
0.165372207760810852 0.128775119781494141 0.389927566051483154
0.188700199127197266 0.0883700922131538391 0.197043776512145996
0.0603278577327728271 0.310716122388839722 0.595636963844299316
0.234415873885154724 0.00918870978057384491 0.571326792240142822
0.153897643089294434 0.148649513721466064 0.467896938323974609
0.173844188451766968 0.114101320505142212 0.360577791929244995
0.0976367294788360596 0.2460956871509552 0.450703591108322144
0.235186979174613953 0.00785312429070472717 0.473365604877471924
0.0623956918716430664 0.307134568691253662 0.581110239028930664
0.200352907180786133 0.068187125027179718 0.424828290939331055
0.211805537343025208 0.0483507327735424042 0.432625889778137207
0.229884102940559387 0.0170379225164651871 0.512413084506988525
0.226241320371627808 0.0233473572880029678 0.255605876445770264
0.0715464204549789429 0.291285127401351929 0.48225054144859314
0.142763793468475342 0.16793377697467804 0.449625074863433838
0.222331851720809937 0.0301187131553888321 0.484345883131027222
0.173581868410110474 0.11455564945936203 0.476472556591033936
0.190894097089767456 0.0845701918005943298 0.468286007642745972
0.23148578405380249 0.0142637509852647781 0.510432898998260498
0.107488468289375305 0.229032069444656372 0.390001177787780762
0.165499746799468994 0.128554195165634155 0.341320663690567017
0.20341472327709198 0.0628839507699012756 0.203487217426300049
0.0791460424661636353 0.278122305870056152 0.439732670783996582
0.0557007193565368652 0.318730533123016357 0.520270347595214844
0.123911559581756592 0.200586616992950439 0.490496635437011719
0.0852427482604980469 0.267562538385391235 0.4203072190284729
0.224684610962867737 0.0260436609387397766 0.0657289028167724609
0.164007812738418579 0.131138280034065247 0.344130545854568481
0.235016927123069763 0.00814766064286231995 0.481907784938812256
0.231878221035003662 0.0135840419679880142 0.209266126155853271
0.222864687442779541 0.0291958265006542206 0.0958404541015625
0.199410974979400635 0.0698186084628105164 0.262380212545394897
0.22961483895778656 0.0175042953342199326 0.226777613162994385
0.23647741973400116 0.00561804370954632759 0.522937476634979248
0.0754299461841583252 0.284558713436126709 0.505586802959442139
0.177676528692245483 0.107463546097278595 0.351858854293823242
0.120972096920013428 0.205677881836891174 0.437127172946929932
0.106575101613998413 0.230614051222801208 0.449953198432922363
0.12174997478723526 0.204330563545227051 0.567792177200317383
0.221832737326622009 0.0309832058846950531 0.118612766265869141
0.220837444067001343 0.0327071137726306915 0.0781973600387573242
0.193218991160392761 0.0805433690547943115 0.145291835069656372
0.142007753252983093 0.169243291020393372 0.462580829858779907
0.19339028000831604 0.0802466794848442078 0.35978168249130249
0.225600823760032654 0.0244567282497882843 0.449308097362518311
0.15372350811958313 0.148951113224029541 0.322447329759597778
0.162509262561798096 0.133733823895454407 0.42448800802230835
0.177992492914199829 0.106916278600692749 0.205929189920425415
0.170352786779403687 0.120148561894893646 0.292425751686096191
0.218746289610862732 0.036329071968793869 0.0668638944625854492
0.13634103536605835 0.179058268666267395 0.552215099334716797
0.196529299020767212 0.0748097822070121765 0.570777297019958496
0.200800716876983643 0.0674115344882011414 0.287755429744720459
0.210274577140808105 0.0510024204850196838 0.100059539079666138
0.0838354676961898804 0.27000001072883606 0.482668697834014893
0.170562192797660828 0.1197858527302742 0.360195279121398926
0.179456323385238647 0.104380860924720764 0.232995390892028809
0.120486527681350708 0.206518903374671936 0.383741080760955811
0.235420644283294678 0.00744842551648616791 0.38749992847442627
0.227566331624984741 0.0210523996502161026 0.15198826789855957
0.102522015571594238 0.237634167075157166 0.567797482013702393
0.174893170595169067 0.112284436821937561 0.494903594255447388
0.161489471793174744 0.13550017774105072 0.215472221374511719
0.198605164885520935 0.0712142959237098694 0.420608282089233398
0.215937018394470215 0.0411948412656784058 0.263181120157241821
0.214412420988082886 0.0438355095684528351 0.520728826522827148
0.219549611210823059 0.034937683492898941 0.213065057992935181
0.017215430736541748 0.385388582944869995 0.558916389942169189
0.109621867537498474 0.225336939096450806 0.510765254497528076
0.118987798690795898 0.209114775061607361 0.34758073091506958
0.148346364498138428 0.158264577388763428 0.522777378559112549
0.193691164255142212 0.0797255560755729675 0.402307480573654175
0.128350436687469482 0.19289831817150116 0.376687884330749512
0.153791487216949463 0.148833379149436951 0.558969259262084961
0.13850778341293335 0.175305381417274475 0.338534742593765259
0.236809492111206055 0.0050428612157702446 0.357273340225219727
0.0738305747509002686 0.287328869104385376 0.501882672309875488
0.232482641935348511 0.0125371599569916725 0.0782143473625183105
0.15010620653629303 0.155216440558433533 0.395355641841888428
0.166975229978561401 0.125998616218566895 0.517639398574829102
0.229181423783302307 0.0182550046592950821 0.327609062194824219
0.215532168745994568 0.0418960452079772949 0.0826798677444458008
0.208711817860603333 0.0537091642618179321 0.513365209102630615
0.232748657464981079 0.0120764104649424553 0.0205221176147460938
0.154983147978782654 0.14676937460899353 0.497074753046035767
0.172472044825553894 0.116477914154529572 0.461028158664703369
0.219832733273506165 0.0344473086297512054 0.144213169813156128
0.0619851946830749512 0.307845562696456909 0.589752435684204102
0.216177776455879211 0.0407778285443782806 0.489620625972747803
0.20053333044052124 0.0678746327757835388 0.568707406520843506
0.169661685824394226 0.121345557272434235 0.355191886425018311
0.183064550161361694 0.0981312766671180725 0.550139665603637695
0.215790688991546631 0.0414482839405536652 0.176317065954208374
0.174101740121841431 0.113655216991901398 0.267038047313690186
0.193659365177154541 0.0797806233167648315 0.286686986684799194
0.143198281526565552 0.167181238532066345 0.313623607158660889
0.148735150694847107 0.157591164112091064 0.499902039766311646
0.219315364956855774 0.0353434160351753235 0.0858185291290283203
0.199605464935302734 0.0694817230105400085 0.364740252494812012
0.149693608283996582 0.155931055545806885 0.386501193046569824
0.237873703241348267 0.00319960853084921837 0.0953075885772705078
0.233616217970848083 0.0105737484991550446 0.303725212812423706
0.204790353775024414 0.0605013184249401093 0.295111954212188721
0.192870348691940308 0.0811472460627555847 0.119312137365341187
0.215686336159706116 0.0416290201246738434 0.186136186122894287
0.229170694947242737 0.0182735864073038101 0.553177893161773682
0.0940274596214294434 0.252347081899642944 0.507140934467315674
0.238736733794212341 0.00170481705572456121 0.396126985549926758
0.0665490478277206421 0.299940764904022217 0.451080858707427979
0.15842360258102417 0.140810370445251465 0.239763528108596802
0.16938510537147522 0.121824599802494049 0.234757363796234131
0.188386514782905579 0.0889134034514427185 0.493942111730575562
0.136828035116195679 0.178214758634567261 0.44062119722366333
0.185679420828819275 0.0936022102832794189 0.325920403003692627
0.19373677670955658 0.0796465426683425903 0.563878297805786133
0.197268128395080566 0.0735301151871681213 0.365844011306762695
0.178764209151268005 0.105579622089862823 0.272617191076278687
0.110694035887718201 0.223479911684989929 0.496520787477493286
0.171695664525032043 0.117822639644145966 0.194315880537033081
0.191250205039978027 0.0839533880352973938 0.308402776718139648
0.193013995885848999 0.0808984190225601196 0.245405912399291992
0.175903469324111938 0.110534526407718658 0.355550408363342285
0.235832542181015015 0.00673498492687940598 0.574989080429077148
0.212220326066017151 0.0476323030889034271 0.482406407594680786
0.0448620468378067017 0.337503552436828613 0.570250928401947021
0.124589502811431885 0.19941239058971405 0.404979109764099121
0.202632665634155273 0.064238525927066803 0.430791169404983521
0.224374860525131226 0.0265801586210727692 0.414731740951538086
0.223625048995018005 0.0278788600116968155 0.28445020318031311
0.0724704116582870483 0.28968474268913269 0.526824712753295898
0.132808864116668701 0.18517613410949707 0.356855154037475586
0.0530986785888671875 0.323237359523773193 0.534939110279083252
0.206130295991897583 0.0581804849207401276 0.472918868064880371
0.06645965576171875 0.300095617771148682 0.514942348003387451
0.146981358528137207 0.160628810524940491 0.299513339996337891
0.190879195928573608 0.084596000611782074 0.394361257553100586
0.21069490909576416 0.0502743721008300781 0.465886592864990234
0.0904974043369293213 0.258461266756057739 0.460745096206665039
0.162688165903091431 0.133423998951911926 0.488991022109985352
0.0716280043125152588 0.291143834590911865 0.569910287857055664
0.17649000883102417 0.109518624842166901 0.47029915452003479
0.103408098220825195 0.236099421977996826 0.464458882808685303
0.185737758874893188 0.0935011804103851318 0.359111547470092773
0.0263391584157943726 0.369585931301116943 0.564360439777374268
0.187292233109474182 0.0908087566494941711 0.302900433540344238
0.0711187869310379028 0.292025834321975708 0.56583714485168457
0.22221606969833374 0.0303192678838968277 0.328081876039505005
0.173039078712463379 0.115495786070823669 0.39848598837852478
0.154263764619827271 0.14801536500453949 0.327053606510162354
0.223262488842010498 0.0285068340599536896 0.456930220127105713
0.203403890132904053 0.0629027187824249268 0.514352738857269287
0.0985524952411651611 0.24450954794883728 0.454954802989959717
0.101584509015083313 0.239257976412773132 0.447843432426452637
0.119329191744327545 0.208523467183113098 0.513608634471893311
0.0869832783937454224 0.264547884464263916 0.559128046035766602
0.1326865553855896 0.185387983918190002 0.500909388065338135
0.188201099634170532 0.0892345532774925232 0.143019437789916992
0.112712129950523376 0.219984471797943115 0.494212955236434937
0.142402902245521545 0.168558865785598755 0.512466013431549072
0.0632492601871490479 0.305656164884567261 0.570910274982452393
0.200274035334587097 0.0683237537741661072 0.178654074668884277
0.198962152004241943 0.0705959796905517578 0.115950971841812134
0.234586775302886963 0.00889271870255470276 0.0902623534202575684
0.202033981680870056 0.0652754530310630798 0.301039159297943115
0.084209054708480835 0.269352942705154419 0.557174086570739746
0.159732639789581299 0.138543069362640381 0.565694272518157959
0.237349778413772583 0.00410708785057067871 0.227166056632995605
0.104350000619888306 0.234468027949333191 0.494705766439437866
0.219673559069633484 0.0347230024635791779 0.305160731077194214
0.0987346917390823364 0.244193956255912781 0.413567483425140381
0.207788363099098206 0.0553086251020431519 0.367525100708007812
0.211963385343551636 0.048077315092086792 0.583632528781890869
0.22282758355140686 0.029260098934173584 0.586762487888336182
0.0278339087963104248 0.366996943950653076 0.58514857292175293
0.211739718914031982 0.0484647266566753387 0.155823022127151489
0.110566273331642151 0.223701179027557373 0.396459221839904785
0.127948552370071411 0.193594366312026978 0.455368220806121826
0.208693161606788635 0.0537414923310279846 0.210129708051681519
0.227023795247077942 0.0219921041280031204 0.194396436214447021
0.0936507433652877808 0.252999573945999146 0.562382996082305908
0.102481037378311157 0.237705141305923462 0.344315081834793091
0.0527383387088775635 0.323861479759216309 0.582431674003601074
0.239092141389846802 0.00108922284562140703 0.571345329284667969
0.102025017142295837 0.238494977355003357 0.498361468315124512
0.0466671884059906006 0.33437696099281311 0.555037021636962891
0.237072885036468506 0.00458666076883673668 0.349047541618347168
0.167823165655136108 0.124529965221881866 0.523984611034393311
0.2196207195520401 0.0348145179450511932 0.320936858654022217
0.0629938691854476929 0.306098520755767822 0.449278742074966431
0.184163138270378113 0.096228472888469696 0.142624974250793457
0.0285836458206176758 0.365698397159576416 0.595782816410064697
0.20287749171257019 0.0638144537806510925 0.126366347074508667
0.193118035793304443 0.080718211829662323 0.277590453624725342
0.238672301173210144 0.00181641825474798679 0.541847765445709229
0.23768731951713562 0.00352244265377521515 0.476294279098510742
0.121782995760440826 0.204273372888565063 0.597573637962341309
0.187534362077713013 0.0903893709182739258 0.393415749073028564
0.189291000366210938 0.0873468071222305298 0.266586065292358398
0.0988623946905136108 0.2439727783203125 0.387718766927719116
0.221393033862113953 0.0317448005080223083 0.196010053157806396
0.18889734148979187 0.0880286321043968201 0.572546243667602539
0.204455509781837463 0.0610812678933143616 0.576135575771331787
0.22651343047618866 0.0228760596364736557 0.254436761140823364
0.105272889137268066 0.232869535684585571 0.381211578845977783
0.147883608937263489 0.159066066145896912 0.301240921020507812
0.0970014333724975586 0.247196033596992493 0.503607869148254395
0.0890206247568130493 0.261019110679626465 0.574046134948730469
0.223558634519577026 0.0279938988387584686 0.0687955617904663086
0.19933927059173584 0.0699427947402000427 0.128561288118362427
0.127308204770088196 0.194703489542007446 0.284011155366897583
0.184948548674583435 0.0948681160807609558 0.598797976970672607
0.142692595720291138 0.168057113885879517 0.581217169761657715
0.0871790200471878052 0.264208823442459106 0.470841199159622192
0.056210637092590332 0.317847341299057007 0.474197238683700562
0.222716763615608215 0.0294520556926727295 0.553258419036865234
0.156106621026992798 0.144823476672172546 0.408239901065826416
0.127496182918548584 0.194377914071083069 0.41787111759185791
0.213777288794517517 0.0449355766177177429 0.352786839008331299
0.14326813817024231 0.167060226202011108 0.288139581680297852
0.188033312559127808 0.0895251557230949402 0.534393429756164551
0.164041757583618164 0.131079494953155518 0.303426474332809448
0.133451879024505615 0.184062391519546509 0.368865668773651123
0.185802951455116272 0.0933882370591163635 0.399742662906646729
0.121604606509208679 0.204582348465919495 0.574690699577331543
0.23619997501373291 0.00609859172254800797 0.125848352909088135
0.204408645629882812 0.0611624307930469513 0.203198373317718506
0.20632779598236084 0.0578384064137935638 0.526392102241516113
0.215763002634048462 0.0414962433278560638 0.331564933061599731
0.201407924294471741 0.0663598179817199707 0.467630654573440552
0.224207460880279541 0.026870090514421463 0.463080465793609619
0.0577228367328643799 0.315228134393692017 0.556278586387634277
0.0885572284460067749 0.261821717023849487 0.458344161510467529
0.128206178545951843 0.193148165941238403 0.532463550567626953
0.0969065278768539429 0.24736042320728302 0.430651187896728516
0.23907981812953949 0.00111057446338236332 0.589383602142333984
0.18705517053604126 0.0912193506956100464 0.35531318187713623
0.15041583776473999 0.154680147767066956 0.350722670555114746
0.15302625298500061 0.150158792734146118 0.487463057041168213
0.192203670740127563 0.0823019593954086304 0.570220649242401123
0.176274150609970093 0.109892524778842926 0.379060596227645874
0.219718456268310547 0.0346452370285987854 0.316066145896911621
0.187324315309524536 0.0907531827688217163 0.332205295562744141
0.158325925469398499 0.140979558229446411 0.434847652912139893
0.191190838813781738 0.0840562283992767334 0.169136345386505127
0.0553136914968490601 0.319400876760482788 0.483881354331970215
0.11458684504032135 0.216737404465675354 0.409563779830932617
0.104442685842514038 0.234307482838630676 0.49680742621421814
0.144574329257011414 0.164797872304916382 0.531166911125183105
0.158766001462936401 0.140217304229736328 0.579088330268859863
0.114093810319900513 0.217591360211372375 0.321187704801559448
0.137634426355361938 0.17681807279586792 0.46990889310836792
0.167061001062393188 0.125850066542625427 0.480196356773376465
0.122477434575557709 0.203070580959320068 0.438185065984725952
0.0704630464315414429 0.293161600828170776 0.59504401683807373
0.170569390058517456 0.119773402810096741 0.357719004154205322
0.194554716348648071 0.0782298222184181213 0.570160150527954102
0.195828691124916077 0.0760232731699943542 0.268457740545272827
0.145027667284011841 0.164012670516967773 0.247762322425842285
0.0868839770555496216 0.264719873666763306 0.4640389084815979
0.0605017989873886108 0.310414880514144897 0.593651473522186279
0.158286094665527344 0.141048535704612732 0.460427403450012207
0.157976418733596802 0.141584903001785278 0.431554973125457764
0.115431793034076691 0.215273916721343994 0.505900025367736816
0.174878180027008057 0.112310402095317841 0.306959360837936401
0.0454580038785934448 0.336471319198608398 0.585400640964508057
0.104254394769668579 0.234633609652519226 0.431620985269546509
0.218200027942657471 0.0372752025723457336 0.0654665231704711914
0.117251202464103699 0.212122619152069092 0.308203071355819702
0.191248714923858643 0.0839559733867645264 0.174046337604522705
0.135358557105064392 0.180759966373443604 0.387118518352508545
0.0208528190851211548 0.379088491201400757 0.562306463718414307
0.19388483464717865 0.079390108585357666 0.450260460376739502
0.0465029925107955933 0.334661364555358887 0.53748166561126709
0.192356184124946594 0.0820377916097640991 0.35394752025604248
0.205647051334381104 0.0590174645185470581 0.324417918920516968
0.196760818362236023 0.0744087770581245422 0.309543073177337646
0.129817932844161987 0.190356552600860596 0.351790010929107666
0.173904955387115479 0.113996066153049469 0.377105385065078735
0.207916095852851868 0.0550873950123786926 0.081368863582611084
0.160783708095550537 0.136722579598426819 0.254943400621414185
0.151619285345077515 0.152595743536949158 0.230464756488800049
0.17976631224155426 0.103843942284584045 0.577752590179443359
0.230894744396209717 0.015287443995475769 0.577337801456451416
0.0701206177473068237 0.293754696846008301 0.51980137825012207
0.209202975034713745 0.0528584830462932587 0.289943486452102661
0.198441237211227417 0.0714982375502586365 0.464791715145111084
0.234715729951858521 0.00866935029625892639 0.262055546045303345
0.168956607580184937 0.122566781938076019 0.429171562194824219
0.192268803715705872 0.0821891352534294128 0.431510746479034424
0.235281780362129211 0.00768892839550971985 0.0374279022216796875
0.0313570797443389893 0.360894680023193359 0.57229381799697876
0.0740832537412643433 0.28689122200012207 0.486178994178771973
0.201996102929115295 0.0653410553932189941 0.225380986928939819
0.141644269227981567 0.169872865080833435 0.400387704372406006
0.208215221762657166 0.0545692965388298035 0.0910122990608215332
0.0701634436845779419 0.293680518865585327 0.444031298160552979
0.216038256883621216 0.0410194993019104004 0.593614041805267334
0.0486946403980255127 0.330865323543548584 0.580289959907531738
0.146779119968414307 0.160979092121124268 0.426223635673522949
0.0916753113269805908 0.256421089172363281 0.471238911151885986
0.113350287079811096 0.218879163265228271 0.582330822944641113
0.149768084287643433 0.155802085995674133 0.577394723892211914
0.207508444786071777 0.0557934604585170746 0.422294735908508301
0.237567991018295288 0.00372912199236452579 0.0736911296844482422
0.415301889181137085 0.101372294127941132 0.0437477231025695801
0.245669841766357422 0.00343458005227148533 0.314183354377746582
0.672639966011047363 0.249947428703308105 0.0595757961273193359
0.512039303779602051 0.157224014401435852 0.151145502924919128
0.449746221303939819 0.121258862316608429 0.0345895439386367798
0.436869323253631592 0.113824337720870972 0.0504059791564941406
0.365483283996582031 0.07260933518409729 0.295390605926513672
0.883103549480438232 0.371459424495697021 0.0433537960052490234
0.721021890640258789 0.27788090705871582 0.0879423022270202637
0.248783007264137268 0.00523197604343295097 0.0951796621084213257
0.675561666488647461 0.251634299755096436 0.0968097448348999023
0.480909168720245361 0.139250904321670532 0.363051950931549072
0.700258016586303711 0.265892833471298218 0.203583985567092896
0.286794066429138184 0.0271778181195259094 0.0384370870888233185
0.408809185028076172 0.0976237207651138306 0.358170866966247559
0.763674020767211914 0.302506297826766968 0.166775673627853394
0.776260435581207275 0.309773117303848267 0.0792151987552642822
0.551423192024230957 0.179962471127510071 0.0295129269361495972
0.275216758251190186 0.0204935986548662186 0.230152338743209839
0.5195656418800354 0.161569386720657349 0.3543434739112854
0.434287399053573608 0.11233365535736084 0.388301193714141846
0.243309944868087769 0.00207207933999598026 0.166467219591140747
0.419414818286895752 0.103746920824050903 0.301422774791717529
0.386121541261672974 0.0845249146223068237 0.257654339075088501
0.334076166152954102 0.0544763095676898956 0.258970499038696289
0.907047569751739502 0.385283589363098145 0.0418097972869873047
0.925495028495788574 0.39593428373336792 0.0463026165962219238
0.716686367988586426 0.275377780199050903 0.0161529183387756348
0.423826992511749268 0.106294311583042145 0.153425425291061401
0.452526599168777466 0.122864134609699249 0.076590418815612793
0.453628897666931152 0.123500548303127289 0.272750765085220337
0.523741185665130615 0.163980156183242798 0.048359110951423645
0.328516721725463867 0.0512665510177612305 0.248668760061264038
0.27003103494644165 0.0174995996057987213 0.307992607355117798
0.414674609899520874 0.101010136306285858 0.233058810234069824
0.810658276081085205 0.329632848501205444 0.0221410691738128662
0.444561004638671875 0.118265159428119659 0.194404095411300659
0.448794305324554443 0.12070927768945694 0.29842609167098999
0.689201533794403076 0.259509295225143433 0.0287048220634460449
0.713601052761077881 0.273596495389938354 0.0693781077861785889
0.710684478282928467 0.271912574768066406 0.0386922955513000488
0.420992493629455566 0.104657791554927826 0.0754184573888778687
0.436132252216339111 0.113398805260658264 0.419499248266220093
0.636405885219573975 0.229027554392814636 0.280712008476257324
0.282072573900222778 0.0244518369436264038 0.550865054130554199
0.414833128452301025 0.101101666688919067 0.210346788167953491
0.248788133263587952 0.00523493858054280281 0.30841594934463501
0.272545754909515381 0.0189514942467212677 0.0115692745894193649
0.499768674373626709 0.150139540433883667 0.103930950164794922
0.709517538547515869 0.271238863468170166 0.183928370475769043
0.310342550277709961 0.0407736115157604218 0.278661757707595825
0.364848792552947998 0.0722430124878883362 0.165950611233711243
0.91685938835144043 0.390948504209518433 0.0541578531265258789
0.508549511432647705 0.155209198594093323 0.362450838088989258
0.771519124507904053 0.307035714387893677 0.140691459178924561
0.41490212082862854 0.101141490042209625 0.270375758409500122
0.409343838691711426 0.0979323983192443848 0.277582347393035889
0.716381609439849854 0.27520182728767395 0.18524092435836792
0.616330325603485107 0.217436835169792175 0.226256012916564941
0.387466669082641602 0.085301518440246582 0.424796700477600098
0.243124514818191528 0.00196502706967294216 0.316975802183151245
0.366080969572067261 0.0729544088244438171 0.108901657164096832
0.313953936100006104 0.0428586713969707489 0.0547912530601024628
0.380491018295288086 0.0812741145491600037 0.199437513947486877
0.504002809524536133 0.152584120631217957 0.113394439220428467
0.540163993835449219 0.173461943864822388 0.153111353516578674
0.519391655921936035 0.161468937993049622 0.306059360504150391
0.749294757843017578 0.294204384088516235 0.00187772512435913086
0.525644600391387939 0.165079101920127869 0.185250222682952881
0.919444859027862549 0.392441213130950928 0.0218989253044128418
0.536661505699157715 0.17143973708152771 0.318610608577728271
0.372458159923553467 0.0766362994909286499 0.00732018798589706421
0.330694228410720825 0.0525237433612346649 0.270786702632904053
0.760464131832122803 0.300653070211410522 0.164225965738296509
0.424338340759277344 0.106589518487453461 0.148888394236564636
0.473307400941848755 0.134862005710601807 0.253876268863677979
0.793742954730987549 0.319866716861724854 0.0798844993114471436
0.325080364942550659 0.0492825508117675781 0.168197870254516602
0.523381650447845459 0.163772553205490112 0.188529178500175476
0.624639987945556641 0.222234457731246948 0.0410380065441131592
0.738442361354827881 0.287938714027404785 0.175329744815826416
0.560378670692443848 0.185132920742034912 0.294465363025665283
0.567858219146728516 0.189451307058334351 0.344816297292709351
0.606420516967773438 0.211715385317802429 0.104689717292785645
0.448793113231658936 0.120708592236042023 0.283366292715072632
0.534096479415893555 0.169958814978599548 0.298245549201965332
0.613695323467254639 0.215915516018867493 0.238442718982696533
0.295976519584655762 0.0324793346226215363 0.260291367769241333
0.443582624197006226 0.117700293660163879 0.253780722618103027
0.454249769449234009 0.123859010636806488 0.063746914267539978
0.29937368631362915 0.0344406925141811371 0.192908152937889099
0.815140068531036377 0.33222043514251709 0.154146969318389893
0.27294689416885376 0.019183080643415451 0.531892240047454834
0.685061335563659668 0.257118970155715942 0.0131196975708007812
0.59976273775100708 0.207871466875076294 0.295519083738327026
0.328769862651824951 0.0514126904308795929 0.197658389806747437
0.589989900588989258 0.202229112386703491 0.275220185518264771
0.545532107353210449 0.176561221480369568 0.144384250044822693
0.280752986669540405 0.0236899703741073608 0.40195012092590332
0.370328158140182495 0.0754065439105033875 0.240111827850341797
0.392482727766036987 0.0881975665688514709 0.326878368854522705
0.42547154426574707 0.107243791222572327 0.4424552321434021
0.415241718292236328 0.101337552070617676 0.310285508632659912
0.698870003223419189 0.265091478824615479 0.190686345100402832
0.352649033069610596 0.0651994198560714722 0.112083487212657928
0.281848549842834473 0.0243224892765283585 0.330214560031890869
0.367833167314529419 0.0739660486578941345 0.272830069065093994
0.438412696123123169 0.114715412259101868 0.0426848232746124268
0.371782600879669189 0.0762462690472602844 0.358789443969726562
0.722951650619506836 0.278995096683502197 0.0289585590362548828
0.419341772794723511 0.103704743087291718 0.239097744226455688
0.422986507415771484 0.105809040367603302 0.242109760642051697
0.421814531087875366 0.105132393538951874 0.332774758338928223
0.27784314751625061 0.0220099575817584991 0.335832893848419189
0.826607465744018555 0.33884119987487793 0.0437485277652740479
0.303645133972167969 0.0369068458676338196 0.124862000346183777
0.42722630500793457 0.108256906270980835 0.31678396463394165
0.64442145824432373 0.233655378222465515 0.0677798986434936523
0.261276304721832275 0.012445022352039814 0.0268400218337774277
0.37542310357093811 0.0783481299877166748 0.0665719881653785706
0.243643999099731445 0.00226494879461824894 0.472734689712524414
0.549435853958129883 0.178815066814422607 0.281853914260864258
0.247955158352851868 0.0047540152445435524 0.232309162616729736
0.346400082111358643 0.0615915805101394653 0.399355590343475342
0.829730212688446045 0.340644091367721558 0.00377255678176879883
