ply
format ascii 1.0
element vertex 765
property float x
property float y
property float z
end_header
2.94019103050231934 0.319999992847442627 0.054043985903263092
1.89863860607147217 0.319999992847442627 0.096079021692276001
1.47666764259338379 0.319999992847442627 0.0201273858547210693
3.10485458374023438 0.319999992847442627 0.00926301814615726471
3.50650787353515625 0.319999992847442627 0.104027979075908661
3.39933872222900391 0.319999992847442627 0.058318696916103363
1.8073880672454834 0.319999992847442627 0.084376014769077301
3.548858642578125 0.319999992847442627 0.111578702926635742
2.31016635894775391 0.319999992847442627 0.109772540628910065
2.36929225921630859 0.319999992847442627 0.0511158928275108337
0.43385624885559082 0.319999992847442627 0.000361993908882141113
3.28267192840576172 0.319999992847442627 0.179052770137786865
2.1349334716796875 0.319999992847442627 0.0319005474448204041
2.19765686988830566 0.319999992847442627 0.026919439435005188
2.26700067520141602 0.319999992847442627 0.0944065079092979431
1.25549077987670898 0.319999992847442627 0.028841853141784668
2.43875408172607422 0.319999992847442627 0.0800750181078910828
3.00828099250793457 0.319999992847442627 0.0686346814036369324
1.77819907665252686 0.319999992847442627 0.0860357135534286499
3.19843244552612305 0.319999992847442627 0.11629120260477066
1.00009489059448242 0.319999992847442627 0.0171645879745483398
2.59198784828186035 0.319999992847442627 0.11744767427444458
1.26901626586914062 0.319999992847442627 0.0611365139484405518
2.02404403686523438 0.319999992847442627 0.0640202239155769348
0.864086627960205078 0.319999992847442627 0.0230841636657714844
2.87690448760986328 0.319999992847442627 0.0359168127179145813
1.42946743965148926 0.319999992847442627 0.0290101692080497742
2.42188310623168945 0.319999992847442627 0.0784575417637825012
0.574584007263183594 0.319999992847442627 0.0249075442552566528
3.51361513137817383 0.319999992847442627 0.158055663108825684
2.97987484931945801 0.319999992847442627 0.0650052726268768311
1.89299476146697998 0.319999992847442627 0.0410843417048454285
1.81446051597595215 0.319999992847442627 0.0342527031898498535
2.51863336563110352 0.319999992847442627 0.0700896382331848145
2.97063589096069336 0.319999992847442627 0.0513861924409866333
1.89663302898406982 0.319999992847442627 0.0981045663356781006
3.07226800918579102 0.319999992847442627 0.109711803495883942
2.11869144439697266 0.319999992847442627 0.0263790637254714966
1.55870926380157471 0.319999992847442627 0.0622094497084617615
1.84198260307312012 0.319999992847442627 0.0135143846273422241
0.736277341842651367 0.319999992847442627 0.0403636246919631958
0.991381645202636719 0.319999992847442627 0.0354730933904647827
3.50367116928100586 0.319999992847442627 0.0422175563871860504
2.68770337104797363 0.319999992847442627 0.0728610455989837646
2.17185592651367188 0.319999992847442627 0.110539428889751434
0.914663314819335938 0.319999992847442627 0.0340249538421630859
2.69384050369262695 0.319999992847442627 0.0397130921483039856
3.32791042327880859 0.319999992847442627 0.177481904625892639
3.41650223731994629 0.319999992847442627 0.0826495587825775146
1.24260330200195312 0.319999992847442627 0.0523950755596160889
2.71599864959716797 0.319999992847442627 0.0176211744546890259
1.42811679840087891 0.319999992847442627 0.0461646988987922668
3.40771698951721191 0.319999992847442627 0.152858823537826538
3.02037858963012695 0.319999992847442627 0.107404731214046478
2.24119281768798828 0.319999992847442627 0.0506282597780227661
2.30427455902099609 0.319999992847442627 0.0480877906084060669
2.10736846923828125 0.319999992847442627 0.0289457514882087708
3.25738358497619629 0.319999992847442627 0.127823248505592346
2.7790989875793457 0.319999992847442627 0.0117804892361164093
2.32233977317810059 0.319999992847442627 0.130356594920158386
3.43901467323303223 0.319999992847442627 0.141200602054595947
1.95854783058166504 0.319999992847442627 0.0934922471642494202
2.13098621368408203 0.319999992847442627 0.0851713493466377258
3.3565676212310791 0.319999992847442627 0.0470058657228946686
2.79195547103881836 0.319999992847442627 0.113358855247497559
1.98880290985107422 0.319999992847442627 0.0368476361036300659
3.02195477485656738 0.319999992847442627 0.109223812818527222
2.8655848503112793 0.319999992847442627 0.00591900944709777832
2.06354618072509766 0.319999992847442627 0.0253860950469970703
2.70354080200195312 0.319999992847442627 0.131061092019081116
3.27628922462463379 0.319999992847442627 0.0740969479084014893
2.19643259048461914 0.319999992847442627 0.0565265491604804993
3.1766970157623291 0.319999992847442627 0.0363655015826225281
2.85789394378662109 0.319999992847442627 0.0350700803101062775
2.37131547927856445 0.319999992847442627 0.0973233357071876526
2.05436348915100098 0.319999992847442627 0.0276364982128143311
3.47912216186523438 0.319999992847442627 0.0160204675048589706
1.49065947532653809 0.319999992847442627 0.0654393061995506287
3.36111092567443848 0.319999992847442627 0.140116423368453979
1.24607348442077637 0.319999992847442627 0.0339359790086746216
1.94819808006286621 0.319999992847442627 0.0172965675592422485
2.22194910049438477 0.319999992847442627 0.03298940509557724
1.37860822677612305 0.319999992847442627 0.0314459353685379028
2.95626163482666016 0.319999992847442627 0.0855019092559814453
3.54105734825134277 0.319999992847442627 0.194332465529441833
2.44164419174194336 0.319999992847442627 0.0293791294097900391
1.07153463363647461 0.319999992847442627 0.00606808066368103027
2.72099900245666504 0.319999992847442627 0.1286754310131073
2.09977626800537109 0.319999992847442627 0.0804341435432434082
1.96852362155914307 0.319999992847442627 0.0343637615442276001
3.14711761474609375 0.319999992847442627 0.12500309944152832
2.87378716468811035 0.319999992847442627 0.150647103786468506
3.40848946571350098 0.319999992847442627 0.0902087464928627014
1.75846397876739502 0.319999992847442627 0.0796984210610389709
2.96776771545410156 0.319999992847442627 0.166605696082115173
3.09899616241455078 0.319999992847442627 0.00455399416387081146
1.33181381225585938 0.319999992847442627 0.0334573686122894287
2.87342000007629395 0.319999992847442627 0.11377321183681488
2.72878718376159668 0.319999992847442627 0.0562947727739810944
3.5531160831451416 0.319999992847442627 0.0886665061116218567
2.25092601776123047 0.319999992847442627 0.0810265466570854187
1.43610882759094238 0.319999992847442627 0.0407342985272407532
3.07163763046264648 0.319999992847442627 0.034247957170009613
2.78730630874633789 0.319999992847442627 0.107084602117538452
2.25947666168212891 0.319999992847442627 0.096316508948802948
1.63036131858825684 0.319999992847442627 0.0673725083470344543
2.80329680442810059 0.319999992847442627 0.025336194783449173
3.35338091850280762 0.319999992847442627 0.0423572510480880737
2.45994997024536133 0.319999992847442627 0.0871122777462005615
3.49283146858215332 0.319999992847442627 0.0147295054048299789
2.14771652221679688 0.319999992847442627 0.0767737850546836853
1.8376394510269165 0.319999992847442627 0.0411109104752540588
2.87868785858154297 0.319999992847442627 0.148172065615653992
2.92078709602355957 0.319999992847442627 0.0817130059003829956
2.99378633499145508 0.319999992847442627 0.0293514616787433624
1.29380655288696289 0.319999992847442627 0.00463114678859710693
0.612540721893310547 0.319999992847442627 0.0252924710512161255
2.77684926986694336 0.319999992847442627 0.0191365852952003479
0.926172018051147461 0.319999992847442627 0.0314290523529052734
3.22004938125610352 0.319999992847442627 0.0716341137886047363
2.46251368522644043 0.319999992847442627 0.134316012263298035
0.664154052734375 0.319999992847442627 0.00902727246284484863
2.02709531784057617 0.319999992847442627 0.019610479474067688
3.38928389549255371 0.319999992847442627 0.179249420762062073
3.37973999977111816 0.319999992847442627 0.125037208199501038
1.09361696243286133 0.319999992847442627 0.0380827188491821289
2.56132197380065918 0.319999992847442627 0.139250770211219788
2.68879795074462891 0.319999992847442627 0.0638253390789031982
1.51338934898376465 0.319999992847442627 0.0814366713166236877
0.910092830657958984 0.319999992847442627 0.00816674530506134033
0.824582338333129883 0.319999992847442627 0.0306922495365142822
0.675583124160766602 0.319999992847442627 0.0290208011865615845
0.42011570930480957 0.319999992847442627 0.00821746885776519775
3.3435666561126709 0.319999992847442627 0.0669886767864227295
2.91146659851074219 0.319999992847442627 0.0244540087878704071
1.3110496997833252 0.319999992847442627 0.0729814469814300537
3.24931955337524414 0.319999992847442627 0.0379713475704193115
2.55048036575317383 0.319999992847442627 0.0901094526052474976
3.40950298309326172 0.319999992847442627 0.0240336582064628601
1.95213520526885986 0.319999992847442627 0.100764550268650055
2.97168731689453125 0.319999992847442627 0.143993765115737915
1.01730728149414062 0.319999992847442627 0.0121304243803024292
3.31718134880065918 0.319999992847442627 0.140329450368881226
3.03059744834899902 0.319999992847442627 0.128579378128051758
1.46494626998901367 0.319999992847442627 0.0498971045017242432
3.11620926856994629 0.319999992847442627 0.119918644428253174
0.485048770904541016 0.319999992847442627 0.0220640450716018677
3.52524185180664062 0.319999992847442627 0.12042362242937088
2.52688503265380859 0.319999992847442627 0.0766017287969589233
3.12482643127441406 0.319999992847442627 0.00381232798099517822
1.88569521903991699 0.319999992847442627 0.0155806466937065125
3.53924655914306641 0.319999992847442627 0.129445254802703857
1.31851625442504883 0.319999992847442627 0.0241743475198745728
1.12890982627868652 0.319999992847442627 0.0204923003911972046
2.41420078277587891 0.319999992847442627 0.00620066374540328979
2.67134332656860352 0.319999992847442627 0.0947817116975784302
2.11906337738037109 0.319999992847442627 0.0920145884156227112
2.54432439804077148 0.319999992847442627 0.0636560842394828796
2.79443955421447754 0.319999992847442627 0.0629692226648330688
2.5871734619140625 0.319999992847442627 0.0232445038855075836
2.2572472095489502 0.319999992847442627 0.0549162104725837708
1.37056946754455566 0.319999992847442627 0.00928645581007003784
3.39713835716247559 0.319999992847442627 0.0443995706737041473
1.42119646072387695 0.319999992847442627 0.0268778428435325623
2.43368911743164062 0.319999992847442627 0.0147858932614326477
2.27782964706420898 0.319999992847442627 0.120488956570625305
3.22746396064758301 0.319999992847442627 0.0186628643423318863
2.14337778091430664 0.319999992847442627 0.0365341529250144958
3.24201679229736328 0.319999992847442627 0.0639559254050254822
2.54284310340881348 0.319999992847442627 0.059869471937417984
0.866406679153442383 0.319999992847442627 0.00648145377635955811
0.474539279937744141 0.319999992847442627 0.0255555659532546997
3.3813624382019043 0.319999992847442627 0.0939502567052841187
3.52050161361694336 0.319999992847442627 0.0781072527170181274
2.01168346405029297 0.319999992847442627 0.0755361244082450867
2.23422813415527344 0.319999992847442627 0.081342749297618866
3.37763857841491699 0.319999992847442627 0.111855708062648773
3.26077699661254883 0.319999992847442627 0.0530901551246643066
2.88740968704223633 0.319999992847442627 0.0630853772163391113
1.74464643001556396 0.319999992847442627 0.0690231248736381531
1.90900158882141113 0.319999992847442627 0.0670227780938148499
0.842240095138549805 0.319999992847442627 0.025835379958152771
2.24883437156677246 0.319999992847442627 0.0346087440848350525
0.614170074462890625 0.319999992847442627 0.0217188745737075806
2.98081088066101074 0.319999992847442627 0.0968423932790756226
1.85136771202087402 0.319999992847442627 0.0713594481348991394
3.22765755653381348 0.319999992847442627 0.0642275884747505188
3.00245904922485352 0.319999992847442627 0.143896326422691345
3.31999063491821289 0.319999992847442627 0.090104028582572937
0.640269756317138672 0.319999992847442627 0.000443622469902038574
1.0541985034942627 0.319999992847442627 0.0075305551290512085
2.55680346488952637 0.319999992847442627 0.158731192350387573
1.46472728252410889 0.319999992847442627 0.126585870981216431
0.431010335683822632 0.319999992847442627 0.108205214142799377
1.57000100612640381 0.319999992847442627 0.0941796526312828064
0.114945054054260254 0.319999992847442627 0.127822145819664001
0.104425013065338135 0.319999992847442627 0.0473539531230926514
1.62478196620941162 0.319999992847442627 0.186627954244613647
1.49881124496459961 0.319999992847442627 0.124009028077125549
0.446614742279052734 0.319999992847442627 0.161745652556419373
0.621039748191833496 0.319999992847442627 0.190954715013504028
0.194747999310493469 0.319999992847442627 0.0255879312753677368
1.84099268913269043 0.319999992847442627 0.156458944082260132
2.01849126815795898 0.319999992847442627 0.148295566439628601
1.73183107376098633 0.319999992847442627 0.114515244960784912
1.76301586627960205 0.319999992847442627 0.130407556891441345
2.29448509216308594 0.319999992847442627 0.161533832550048828
0.611094117164611816 0.319999992847442627 0.0959045886993408203
0.0039411657489836216 0.319999992847442627 0.156887471675872803
0.219263210892677307 0.319999992847442627 0.0475492626428604126
0.0486761815845966339 0.319999992847442627 0.113397248089313507
0.786645829677581787 0.319999992847442627 0.146725594997406006
0.868190646171569824 0.319999992847442627 0.0805479809641838074
0.299700647592544556 0.319999992847442627 0.0282402783632278442
0.685809612274169922 0.319999992847442627 0.159131407737731934
0.476112872362136841 0.319999992847442627 0.182352796196937561
1.04044675827026367 0.319999992847442627 0.0908327847719192505
0.965719759464263916 0.319999992847442627 0.151607543230056763
0.640001118183135986 0.319999992847442627 0.0904972180724143982
0.868929922580718994 0.319999992847442627 0.190551519393920898
0.874182224273681641 0.319999992847442627 0.113567672669887543
1.46729147434234619 0.319999992847442627 0.0834391936659812927
1.47367644309997559 0.319999992847442627 0.104192875325679779
0.0943619683384895325 0.319999992847442627 0.133290186524391174
0.257419884204864502 0.319999992847442627 0.161841139197349548
0.93313068151473999 0.319999992847442627 0.126125365495681763
1.15110492706298828 0.319999992847442627 0.0831204280257225037
0.741012811660766602 0.319999992847442627 0.0746581852436065674
1.38915491104125977 0.319999992847442627 0.183525219559669495
0.48100048303604126 0.319999992847442627 0.0430512875318527222
2.18177342414855957 0.319999992847442627 0.153637334704399109
0.920652806758880615 0.319999992847442627 0.0608159005641937256
1.74904274940490723 0.319999992847442627 0.16575130820274353
0.464754551649093628 0.319999992847442627 0.0774461403489112854
2.98025274276733398 0.319999992847442627 0.184086665511131287
1.85260975360870361 0.319999992847442627 0.17133118212223053
1.55802702903747559 0.319999992847442627 0.194424152374267578
0.330913960933685303 0.319999992847442627 0.0961668863892555237
0.105838187038898468 0.319999992847442627 0.0665899664163589478
0.103061862289905548 0.319999992847442627 0.120572857558727264
0.995474755764007568 0.319999992847442627 0.0892983227968215942
0.815508723258972168 0.319999992847442627 0.126744240522384644
2.53099799156188965 0.319999992847442627 0.171515092253684998
0.231934741139411926 0.319999992847442627 0.0446722954511642456
1.14392340183258057 0.319999992847442627 0.0702357590198516846
1.01944518089294434 0.319999992847442627 0.0849769040942192078
2.42909979820251465 0.319999992847442627 0.151431173086166382
2.46897745132446289 0.319999992847442627 0.139345422387123108
1.04540765285491943 0.319999992847442627 0.158571317791938782
0.835934460163116455 0.319999992847442627 0.163240641355514526
0.709907650947570801 0.319999992847442627 0.142640724778175354
1.44381344318389893 0.319999992847442627 0.169851586222648621
1.64986050128936768 0.319999992847442627 0.177835553884506226
2.8898169994354248 0.319999992847442627 0.197204053401947021
1.09171211719512939 0.319999992847442627 0.125454440712928772
0.565584540367126465 0.319999992847442627 0.0819815918803215027
1.78379833698272705 0.319999992847442627 0.196009844541549683
1.31222951412200928 0.319999992847442627 0.107696384191513062
0.360656261444091797 0.319999992847442627 0.0755219459533691406
2.08659672737121582 0.319999992847442627 0.135759055614471436
0.573093712329864502 0.319999992847442627 0.0888442918658256531
1.48870313167572021 0.319999992847442627 0.103219687938690186
0.460535675287246704 0.319999992847442627 0.140129506587982178
0.541953563690185547 0.319999992847442627 0.181940555572509766
0.604812383651733398 0.319999992847442627 0.111604057252407074
1.26819419860839844 0.319999992847442627 0.152964383363723755
2.59586739540100098 0.319999992847442627 0.170884788036346436
2.43960905075073242 0.319999992847442627 0.186042025685310364
0.831461071968078613 0.319999992847442627 0.122419796884059906
0.348343789577484131 0.319999992847442627 0.0958793386816978455
1.77179932594299316 0.319999992847442627 0.19181513786315918
2.98228311538696289 0.319999992847442627 0.182204872369766235
1.56396377086639404 0.319999992847442627 0.101438052952289581
0.573615133762359619 0.319999992847442627 0.188485056161880493
2.07801055908203125 0.319999992847442627 0.15840853750705719
0.66670072078704834 0.319999992847442627 0.10242491215467453
1.34340906143188477 0.319999992847442627 0.138821318745613098
1.57451856136322021 0.319999992847442627 0.131617024540901184
1.09629571437835693 0.319999992847442627 0.158255428075790405
2.00324702262878418 0.319999992847442627 0.186673358082771301
0.899440526962280273 0.319999992847442627 0.179853186011314392
1.51032447814941406 0.319999992847442627 0.198664262890815735
2.97652745246887207 0.319999992847442627 0.17119501531124115
0.0160352382808923721 0.319999992847442627 0.146204233169555664
1.84101772308349609 0.319999992847442627 0.124276719987392426
0.227124199271202087 0.319999992847442627 0.136601895093917847
1.34528040885925293 0.319999992847442627 0.185176864266395569
1.93031084537506104 0.319999992847442627 0.183039009571075439
2.43843841552734375 0.319999992847442627 0.151117622852325439
1.7180018424987793 0.319999992847442627 0.168181836605072021
0.191129893064498901 0.319999992847442627 0.0212220847606658936
1.19560599327087402 0.319999992847442627 0.152572989463806152
0.154201582074165344 0.319999992847442627 0.0588573366403579712
1.91310679912567139 0.319999992847442627 0.114684991538524628
0.250326782464981079 0.319999992847442627 0.0659049451351165771
0.574580132961273193 0.319999992847442627 0.0781852230429649353
2.43845725059509277 0.319999992847442627 0.15951932966709137
0.258888959884643555 0.319999992847442627 0.143980115652084351
0.314582377672195435 0.319999992847442627 0.107468880712985992
2.2490394115447998 0.319999992847442627 0.158514261245727539
0.759294569492340088 0.319999992847442627 0.104239501059055328
3.00123405456542969 0.319999992847442627 0.19208189845085144
2.11620807647705078 0.319999992847442627 0.186129435896873474
2.61790180206298828 0.319999992847442627 0.155795887112617493
0.624711751937866211 0.319999992847442627 0.0580968409776687622
0.73507922887802124 0.319999992847442627 0.151188895106315613
1.80526721477508545 0.319999992847442627 0.118634849786758423
0.51611781120300293 0.319999992847442627 0.0924369916319847107
2.88939547538757324 0.319999992847442627 0.166747838258743286
0.270670294761657715 0.319999992847442627 0.0736868828535079956
0.688279986381530762 0.319999992847442627 0.161522269248962402
1.18722999095916748 0.319999992847442627 0.162793859839439392
0.887032806873321533 0.319999992847442627 0.171474769711494446
0.13317406177520752 0.319999992847442627 0.14846058189868927
1.62910556793212891 0.319999992847442627 0.121221892535686493
1.28608381748199463 0.319999992847442627 0.155565619468688965
1.41742551326751709 0.319999992847442627 0.0895860344171524048
0.134019315242767334 0.319999992847442627 0.0820080786943435669
1.89976584911346436 0.319999992847442627 0.19419550895690918
1.76522207260131836 0.319999992847442627 0.15909847617149353
2.31300687789916992 0.319999992847442627 0.13957551121711731
0.0814077258110046387 0.319999992847442627 0.0969979390501976013
0.794487833976745605 0.319999992847442627 0.196883320808410645
1.31828987598419189 0.319999992847442627 0.145595356822013855
2.68163919448852539 0.319999992847442627 0.15713869035243988
1.64601016044616699 0.319999992847442627 0.14815858006477356
2.42135429382324219 0.319999992847442627 0.176354587078094482
0.151444286108016968 0.319999992847442627 0.193877413868904114
1.76359844207763672 0.319999992847442627 0.162841513752937317
2.52024435997009277 0.319999992847442627 0.176756516098976135
0.609683096408843994 0.319999992847442627 0.148357748985290527
1.4939800500869751 0.319999992847442627 0.114781662821769714
0.478376537561416626 0.319999992847442627 0.156483054161071777
0.384094506502151489 0.319999992847442627 0.042697519063949585
0.75673210620880127 0.319999992847442627 0.148993626236915588
1.05649375915527344 0.319999992847442627 0.182743057608604431
2.92815804481506348 0.319999992847442627 0.178582549095153809
2.43545007705688477 0.319999992847442627 0.193248659372329712
2.2100975513458252 0.319999992847442627 0.166771084070205688
1.84407603740692139 0.319999992847442627 0.120077028870582581
1.68407022953033447 0.319999992847442627 0.181437090039253235
0.735237836837768555 0.319999992847442627 0.0982816442847251892
1.24570465087890625 0.319999992847442627 0.092120826244354248
0.698562264442443848 0.319999992847442627 0.064917832612991333
1.72529971599578857 0.319999992847442627 0.145257994532585144
0.814438819885253906 0.319999992847442627 0.102364704012870789
1.18276786804199219 0.319999992847442627 0.132993221282958984
3.12521767616271973 0.319999992847442627 0.193697109818458557
0.806275725364685059 0.319999992847442627 0.0800747871398925781
0.437501847743988037 0.319999992847442627 0.125917345285415649
1.6389002799987793 0.319999992847442627 0.183108329772949219
0.891874074935913086 0.319999992847442627 0.121463336050510406
0.504981637001037598 0.319999992847442627 0.163569033145904541
1.44448399543762207 0.319999992847442627 0.0913296490907669067
1.10352647304534912 0.319999992847442627 0.103518828749656677
0.396129131317138672 0.319999992847442627 0.0752765163779258728
0.721349120140075684 0.319999992847442627 0.162802964448928833
2.02853703498840332 0.319999992847442627 0.168767943978309631
0.455996483564376831 0.319999992847442627 0.0841059312224388123
0.596064507961273193 0.319999992847442627 0.09998340904712677
0.413448512554168701 0.319999992847442627 0.0824920535087585449
0.230668589472770691 0.319999992847442627 0.159399762749671936
0.056564774364233017 0.319999992847442627 0.0223472863435745239
0.0486992597579956055 0.319999992847442627 0.156920686364173889
3.13372564315795898 0.319999992847442627 0.193679079413414001
0.521762430667877197 0.319999992847442627 0.125136673450469971
2.01603484153747559 0.319999992847442627 0.19792039692401886
1.45127832889556885 0.319999992847442627 0.139991611242294312
1.63293790817260742 0.319999992847442627 0.110234946012496948
1.24800503253936768 0.319999992847442627 0.173554286360740662
2.27994227409362793 0.319999992847442627 0.144658610224723816
1.26553201675415039 0.319999992847442627 0.190210118889808655
0.433618277311325073 0.319999992847442627 0.175254181027412415
1.53220152854919434 0.319999992847442627 0.190641313791275024
2.1975550651550293 0.319999992847442627 0.191698223352432251
1.49551272392272949 0.319999992847442627 0.0887474790215492249
0.944013535976409912 0.319999992847442627 0.180184930562973022
0.691934287548065186 0.319999992847442627 0.126794427633285522
1.0960921049118042 0.319999992847442627 0.17577691376209259
1.74233663082122803 0.319999992847442627 0.160040497779846191
0.095701463520526886 0.319999992847442627 0.120821535587310791
1.32274115085601807 0.319999992847442627 0.130262315273284912
0.163380846381187439 0.319999992847442627 0.0294430255889892578
1.7112739086151123 0.319999992847442627 0.162305280566215515
0.0152905778959393501 0.319999992847442627 0.0289993733167648315
1.37834453582763672 0.319999992847442627 0.168353229761123657
1.99176943302154541 0.319999992847442627 0.139634847640991211
1.27861464023590088 0.319999992847442627 0.102514021098613739
2.20570015907287598 0.319999992847442627 0.162402644753456116
1.23544371128082275 0.319999992847442627 0.177557662129402161
0.0561779215931892395 0.319999992847442627 0.196716979146003723
1.48008882999420166 0.319999992847442627 0.154791191220283508
1.12196528911590576 0.319999992847442627 0.180935859680175781
1.78974366188049316 0.319999992847442627 0.165684610605239868
1.93987846374511719 0.319999992847442627 0.162837177515029907
1.10880696773529053 0.319999992847442627 0.109667122364044189
1.09166276454925537 0.319999992847442627 0.169240549206733704
0.65224534273147583 0.319999992847442627 0.149152964353561401
1.54428422451019287 0.319999992847442627 0.138406366109848022
1.71943509578704834 0.319999992847442627 0.115073703229427338
1.87891781330108643 0.319999992847442627 0.191567704081535339
0.271795034408569336 0.319999992847442627 0.0292160212993621826
2.98066377639770508 0.319999992847442627 0.188077718019485474
0.748374760150909424 0.319999992847442627 0.124131977558135986
0.310120195150375366 0.319999992847442627 0.152823835611343384
2.14472866058349609 0.319999992847442627 0.187322542071342468
0.264462858438491821 0.319999992847442627 0.150211572647094727
1.73158514499664307 0.319999992847442627 0.173490315675735474
2.55570578575134277 0.319999992847442627 0.182983353734016418
0.4015369713306427 0.319999992847442627 0.0538321733474731445
2.51357555389404297 0.319999992847442627 0.14447610080242157
3.26692008972167969 0.319999992847442627 0.189242243766784668
1.42902255058288574 0.319999992847442627 0.170051261782646179
1.04574441909790039 0.319999992847442627 0.176436305046081543
0.321242421865463257 0.319999992847442627 0.167734891176223755
1.45025622844696045 0.319999992847442627 0.093523465096950531
1.02596747875213623 0.319999992847442627 0.0598324984312057495
1.31106126308441162 0.319999992847442627 0.156644120812416077
0.538296520709991455 0.319999992847442627 0.128448724746704102
0.278453856706619263 0.319999992847442627 0.0338655710220336914
1.61393058300018311 0.319999992847442627 0.107334896922111511
2.00098085403442383 0.319999992847442627 0.122763745486736298
0.568793118000030518 0.319999992847442627 0.0502174794673919678
0.773582756519317627 0.319999992847442627 0.0834047570824623108
1.93786787986755371 0.319999992847442627 0.145502522587776184
0.839081048965454102 0.319999992847442627 0.0556953251361846924
2.91822171211242676 0.319999992847442627 0.185478329658508301
0.91980290412902832 0.319999992847442627 0.19342494010925293
2.1469118595123291 0.319999992847442627 0.186609581112861633
2.71182727813720703 0.319999992847442627 0.18528379499912262
1.1183704137802124 0.319999992847442627 0.0778838321566581726
1.71005785465240479 0.319999992847442627 0.155327796936035156
1.74349844455718994 0.319999992847442627 0.148394837975502014
2.95606327056884766 0.319999992847442627 0.187099665403366089
2.41964936256408691 0.319999992847442627 0.192703783512115479
0.613072097301483154 0.319999992847442627 0.167024821043014526
0.534061133861541748 0.319999992847442627 0.0523289144039154053
1.05938398838043213 0.319999992847442627 0.0963144302368164062
0.221980825066566467 0.319999992847442627 0.111829273402690887
0.732960700988769531 0.319999992847442627 0.181413203477859497
1.24810385704040527 0.319999992847442627 0.074546322226524353
0.729807555675506592 0.319999992847442627 0.0708771347999572754
1.49966800212860107 0.319999992847442627 0.0913834944367408752
0.0117793232202529907 0.319999992847442627 0.0601174533367156982
0.455301791429519653 0.319999992847442627 0.162015512585639954
2.19942212104797363 0.319999992847442627 0.138581946492195129
1.78818273544311523 0.319999992847442627 0.199850797653198242
2.13409209251403809 0.319999992847442627 0.16918337345123291
1.12137269973754883 0.319999992847442627 0.104520700871944427
0.362087249755859375 0.319999992847442627 0.0284953415393829346
0.222256496548652649 0.319999992847442627 0.0267554819583892822
1.34730195999145508 0.319999992847442627 0.0837042927742004395
0.919239044189453125 0.319999992847442627 0.075548805296421051
0.342126309871673584 0.319999992847442627 0.145124614238739014
0.364402174949645996 0.319999992847442627 0.173545002937316895
1.2625882625579834 0.319999992847442627 0.150060802698135376
1.57475447654724121 0.319999992847442627 0.108456097543239594
1.21109354496002197 0.319999992847442627 0.144454851746559143
1.47053730487823486 0.319999992847442627 0.198919549584388733
0.724155664443969727 0.319999992847442627 0.0520842075347900391
0.610305488109588623 0.319999992847442627 0.170922860503196716
1.72246766090393066 0.319999992847442627 0.155921578407287598
0.0340417474508285522 0.319999992847442627 0.0894232988357543945
2.27216434478759766 0.319999992847442627 0.1898956298828125
2.10927343368530273 0.319999992847442627 0.124370396137237549
2.14647626876831055 0.319999992847442627 0.189095348119735718
0.169707164168357849 0.319999992847442627 0.184297725558280945
2.94018650054931641 0.319999992847442627 0.175524383783340454
2.8217778205871582 0.319999992847442627 0.19014391303062439
1.973763108253479 0.319999992847442627 0.112316004931926727
0.247893214225769043 0.319999992847442627 0.0995989665389060974
0.506639242172241211 0.319999992847442627 0.13764972984790802
0.691151618957519531 0.319999992847442627 0.0544084608554840088
0.86605370044708252 0.319999992847442627 0.0508181750774383545
1.45840215682983398 0.319999992847442627 0.19347691535949707
1.84084522724151611 0.319999992847442627 0.171215474605560303
2.93544912338256836 0.319999992847442627 0.192404717206954956
0.357693463563919067 0.319999992847442627 0.161478355526924133
1.45208227634429932 0.319999992847442627 0.18321189284324646
1.23595869541168213 0.319999992847442627 0.172135859727859497
2.33874392509460449 0.319999992847442627 0.185828074812889099
1.07162392139434814 0.319999992847442627 0.153824746608734131
2.14897847175598145 0.319999992847442627 0.148236662149429321
1.29747724533081055 0.319999992847442627 0.129837602376937866
1.49464523792266846 0.319999992847442627 0.189916700124740601
1.71767663955688477 0.319999992847442627 0.142557546496391296
0.454608350992202759 0.319999992847442627 0.0420502424240112305
0.68738102912902832 0.319999992847442627 0.0631222426891326904
0.897018671035766602 0.319999992847442627 0.107847973704338074
1.05029559135437012 0.319999992847442627 0.117278829216957092
0.935675621032714844 0.319999992847442627 0.189558744430541992
2.84994196891784668 0.319999992847442627 0.184788227081298828
0.909974217414855957 0.319999992847442627 0.0958326011896133423
0.205355986952781677 0.319999992847442627 0.161898985505104065
0.816032230854034424 0.319999992847442627 0.0826335474848747253
0.68118363618850708 0.319999992847442627 0.0702435672283172607
1.33898842334747314 0.319999992847442627 0.0959616899490356445
0.656770646572113037 0.319999992847442627 0.10939333587884903
2.9183499813079834 0.319999992847442627 0.174329593777656555
2.5447380542755127 0.319999992847442627 0.190044626593589783
0.678210079669952393 0.319999992847442627 0.131451204419136047
1.41200137138366699 0.319999992847442627 0.104933299124240875
1.31027412414550781 0.319999992847442627 0.160488635301589966
0.653318941593170166 0.319999992847442627 0.0419281572103500366
1.16996729373931885 0.319999992847442627 0.184995770454406738
1.34690332412719727 0.319999992847442627 0.106504082679748535
1.43604612350463867 0.319999992847442627 0.105438850820064545
0.386989474296569824 0.319999992847442627 0.0356998294591903687
0.119594387710094452 0.319999992847442627 0.0360524356365203857
2.78339672088623047 0.319999992847442627 0.188574150204658508
0.243075564503669739 0.319999992847442627 0.0517182052135467529
2.44744563102722168 0.319999992847442627 0.159963488578796387
1.83865559101104736 0.319999992847442627 0.124481998383998871
2.9264216423034668 0.319999992847442627 0.177937477827072144
2.3235008716583252 0.319999992847442627 0.131510451436042786
2.17174458503723145 0.319999992847442627 0.163546964526176453
2.38232970237731934 0.319999992847442627 0.151303336024284363
2.02077269554138184 0.319999992847442627 0.16748279333114624
1.18791341781616211 0.319999992847442627 0.132209897041320801
0.436730951070785522 0.319999992847442627 0.0919386893510818481
0.384039103984832764 0.319999992847442627 0.0700766295194625854
1.97474753856658936 0.319999992847442627 0.183768674731254578
0.173884406685829163 0.319999992847442627 0.0437173396348953247
1.40016329288482666 0.319999992847442627 0.126089662313461304
0.291712462902069092 0.319999992847442627 0.0251148194074630737
1.3028714656829834 0.319999992847442627 0.100673697888851166
0.650326907634735107 0.319999992847442627 0.173645853996276855
2.00590324401855469 0.319999992847442627 0.192612484097480774
0.36011272668838501 0.319999992847442627 0.127580940723419189
0.755326211452484131 0.319999992847442627 0.124264955520629883
1.04695308208465576 0.319999992847442627 0.1583109050989151
1.15288138389587402 0.319999992847442627 0.108372896909713745
1.08221697807312012 0.319999992847442627 0.158306941390037537
0.827578723430633545 0.319999992847442627 0.142615839838981628
1.50232481956481934 0.319999992847442627 0.164982929825782776
1.06528389453887939 0.319999992847442627 0.161013633012771606
1.00853705406188965 0.319999992847442627 0.152796834707260132
0.361563801765441895 0.319999992847442627 0.169176831841468811
1.36350560188293457 0.319999992847442627 0.0812430307269096375
1.12854444980621338 0.319999992847442627 0.179891616106033325
2.5340728759765625 0.319999992847442627 0.151582255959510803
1.9110032320022583 0.319999992847442627 0.162418514490127563
0.251886516809463501 0.319999992847442627 0.0440782457590103149
2.29714536666870117 0.319999992847442627 0.129463911056518555
0.681105256080627441 0.319999992847442627 0.135137647390365601
1.36933064460754395 0.319999992847442627 0.154207125306129456
1.50603389739990234 0.319999992847442627 0.199598893523216248
3.33373165130615234 0.319999992847442627 0.194784313440322876
0.479189634323120117 0.319999992847442627 0.0983111262321472168
0.364482283592224121 0.319999992847442627 0.100110605359077454
2.40289640426635742 0.319999992847442627 0.194807454943656921
0.431201189756393433 0.319999992847442627 0.0605012774467468262
0.102139472961425781 0.319999992847442627 0.0341496914625167847
2.27119541168212891 0.319999992847442627 0.172300383448600769
0.671460449695587158 0.319999992847442627 0.106379948556423187
0.26534608006477356 0.319999992847442627 0.0361465811729431152
0.996712565422058105 0.319999992847442627 0.144017383456230164
0.571842491626739502 0.319999992847442627 0.163566231727600098
2.32981562614440918 0.319999992847442627 0.171106860041618347
1.07674968242645264 0.319999992847442627 0.174833998084068298
0.144868358969688416 0.319999992847442627 0.11416267603635788
0.776828229427337646 0.319999992847442627 0.191578969359397888
1.75947046279907227 0.319999992847442627 0.149402260780334473
0.515428304672241211 0.319999992847442627 0.131935685873031616
1.68080437183380127 0.319999992847442627 0.193060174584388733
0.257317245006561279 0.319999992847442627 0.180017739534378052
1.29777252674102783 0.319999992847442627 0.175108835101127625
0.964803397655487061 0.319999992847442627 0.188918545842170715
1.62703967094421387 0.319999992847442627 0.149063289165496826
1.0667731761932373 0.319999992847442627 0.0819332003593444824
0.688149809837341309 0.319999992847442627 0.112583264708518982
0.716300010681152344 0.319999992847442627 0.127070873975753784
0.314871877431869507 0.319999992847442627 0.167515993118286133
0.815468072891235352 0.319999992847442627 0.0938281938433647156
0.535175323486328125 0.319999992847442627 0.0973226204514503479
1.16031289100646973 0.319999992847442627 0.150959521532058716
1.79276788234710693 0.319999992847442627 0.176439166069030762
0.706039667129516602 0.319999992847442627 0.0516805946826934814
2.0308837890625 0.319999992847442627 0.153284579515457153
2.55922436714172363 0.319999992847442627 0.162928506731987
0.223440662026405334 0.319999992847442627 0.140109583735466003
0.771804273128509521 0.319999992847442627 0.0707733780145645142
2.02515292167663574 0.319999992847442627 0.185562387108802795
0.826934278011322021 0.319999992847442627 0.179192304611206055
0.50191497802734375 0.319999992847442627 0.0401268899440765381
0.318103283643722534 0.319999992847442627 0.0431293994188308716
2.03072690963745117 0.319999992847442627 0.124448038637638092
0.834975183010101318 0.319999992847442627 0.0972251296043395996
1.71612358093261719 0.319999992847442627 0.148427054286003113
0.714965105056762695 0.319999992847442627 0.0956098958849906921
1.55462181568145752 0.319999992847442627 0.176340252161026001
0.384446918964385986 0.319999992847442627 0.0513269603252410889
0.780349671840667725 0.319999992847442627 0.0474995672702789307
0.296247214078903198 0.319999992847442627 0.0872651487588882446
1.92651534080505371 0.319999992847442627 0.190461456775665283
0.936428725719451904 0.319999992847442627 0.123546697199344635
0.568233251571655273 0.319999992847442627 0.0991218090057373047
1.96776223182678223 0.319999992847442627 0.116501912474632263
0.297286182641983032 0.319999992847442627 0.134912788867950439
0.139434412121772766 0.319999992847442627 0.0303854048252105713
1.0671309232711792 0.319999992847442627 0.152748554944992065
0.0210049208253622055 0.319999992847442627 0.115153156220912933
0.630126059055328369 0.319999992847442627 0.0733384191989898682
0.900694727897644043 0.319999992847442627 0.0953324064612388611
2.07942509651184082 0.319999992847442627 0.185595214366912842
0.109836064279079437 0.319999992847442627 0.0264069437980651855
1.89496290683746338 0.319999992847442627 0.118229232728481293
1.93525052070617676 0.319999992847442627 0.179229855537414551
0.163031861186027527 0.319999992847442627 0.0109322071075439453
0.136139795184135437 0.319999992847442627 0.103922925889492035
1.03098714351654053 0.319999992847442627 0.193678855895996094
0.579143881797790527 0.319999992847442627 0.0689636170864105225
0.519688904285430908 0.319999992847442627 0.0930262207984924316
1.72744345664978027 0.319999992847442627 0.156826168298721313
2.65820646286010742 0.319999992847442627 0.188072711229324341
0.0866546183824539185 0.319999992847442627 0.151412084698677063
0.933480262756347656 0.319999992847442627 0.120502375066280365
1.39990901947021484 0.319999992847442627 0.117932215332984924
0.976670682430267334 0.319999992847442627 0.183468014001846313
0.992735683917999268 0.319999992847442627 0.107934057712554932
3.08083677291870117 0.319999992847442627 0.195365875959396362
1.00021982192993164 0.319999992847442627 0.0748230069875717163
0.291701525449752808 0.319999992847442627 0.134511739015579224
2.66755080223083496 0.319999992847442627 0.169469177722930908
0.424993366003036499 0.319999992847442627 0.0696639865636825562
1.16653823852539062 0.319999992847442627 0.172564029693603516
0.501269400119781494 0.319999992847442627 0.0827146768569946289
1.28845834732055664 0.319999992847442627 0.114225558936595917
1.51574504375457764 0.319999992847442627 0.0912424921989440918
1.18739044666290283 0.319999992847442627 0.199479028582572937
0.20061984658241272 0.319999992847442627 0.0589852780103683472
2.31644654273986816 0.319999992847442627 0.169630840420722961
2.1060490608215332 0.319999992847442627 0.143716007471084595
1.49827539920806885 0.319999992847442627 0.167248189449310303
1.37417232990264893 0.319999992847442627 0.163721635937690735
2.00080132484436035 0.319999992847442627 0.162121295928955078
1.61270630359649658 0.319999992847442627 0.165838047862052917
2.49952030181884766 0.319999992847442627 0.15857166051864624
2.50945472717285156 0.319999992847442627 0.167685315012931824
0.0499356649816036224 0.319999992847442627 0.0320539325475692749
0.923428595066070557 0.319999992847442627 0.111670665442943573
0.343550980091094971 0.319999992847442627 0.125214844942092896
0.771421909332275391 0.319999992847442627 0.131888717412948608
1.49791359901428223 0.319999992847442627 0.197807684540748596
1.28563535213470459 0.319999992847442627 0.13492169976234436
1.72143924236297607 0.319999992847442627 0.109786204993724823
2.8222658634185791 0.319999992847442627 0.199545219540596008
2.7764122486114502 0.319999992847442627 0.172354504466056824
1.17563295364379883 0.319999992847442627 0.0793489962816238403
2.4942924976348877 0.319999992847442627 0.169880837202072144
1.02444255352020264 0.319999992847442627 0.165492787957191467
2.26187777519226074 0.319999992847442627 0.134599238634109497
0.505137622356414795 0.319999992847442627 0.194109886884689331
0.80188518762588501 0.319999992847442627 0.166458666324615479
0.50781559944152832 0.319999992847442627 0.0577282607555389404
0.836947023868560791 0.319999992847442627 0.0961512550711631775
2.4842982292175293 0.319999992847442627 0.198644831776618958
0.361245155334472656 0.319999992847442627 0.0540610849857330322
2.27297735214233398 0.319999992847442627 0.186639159917831421
0.856073975563049316 0.319999992847442627 0.0508744716644287109
0.127980411052703857 0.319999992847442627 0.0806256309151649475
3.00924849510192871 0.319999992847442627 0.184756562113761902
0.931266605854034424 0.319999992847442627 0.0968255400657653809
1.84754717350006104 0.319999992847442627 0.144368976354598999
1.4890671968460083 0.319999992847442627 0.153027623891830444
0.888441801071166992 0.319999992847442627 0.129371017217636108
2.14526104927062988 0.319999992847442627 0.180235192179679871
1.06235265731811523 0.319999992847442627 0.152526572346687317
1.05241835117340088 0.319999992847442627 0.171068862080574036
0.85061800479888916 0.319999992847442627 0.150631964206695557
2.62311625480651855 0.319999992847442627 0.175556883215904236
1.25968945026397705 0.319999992847442627 0.192920669913291931
2.87551069259643555 0.319999992847442627 0.179019108414649963
0.159928083419799805 0.319999992847442627 0.13072773814201355
1.57000839710235596 0.319999992847442627 0.116843804717063904
1.6924126148223877 0.319999992847442627 0.162579089403152466
0.140262946486473083 0.319999992847442627 0.198467329144477844
0.894209146499633789 0.319999992847442627 0.0966880545020103455
0.201862171292304993 0.319999992847442627 0.174310222268104553
1.4511265754699707 0.319999992847442627 0.150478467345237732
2.99324989318847656 0.319999992847442627 0.18084561824798584
2.16893839836120605 0.319999992847442627 0.129012048244476318
2.12237191200256348 0.319999992847442627 0.157415479421615601
1.63374638557434082 0.319999992847442627 0.118308797478675842
0.149600312113761902 0.319999992847442627 0.163502112030982971
1.70541632175445557 0.319999992847442627 0.137276619672775269
1.11621034145355225 0.319999992847442627 0.165828615427017212
0.550042510032653809 0.319999992847442627 0.185097664594650269
2.69110465049743652 0.319999992847442627 0.186035484075546265
0.682412207126617432 0.319999992847442627 0.10292680561542511
0.0832792967557907104 0.319999992847442627 0.124977573752403259
2.35252904891967773 0.319999992847442627 0.135720223188400269
0.701437950134277344 0.319999992847442627 0.199641525745391846
1.17269587516784668 0.319999992847442627 0.154844686388969421
1.6854478120803833 0.319999992847442627 0.127582848072052002
0.261459141969680786 0.319999992847442627 0.0306093096733093262
1.70239293575286865 0.319999992847442627 0.121501468122005463
0.631929218769073486 0.319999992847442627 0.141739398241043091
0.0183901991695165634 0.319999992847442627 0.164972648024559021
0.274259984493255615 0.319999992847442627 0.0901794061064720154
1.12516224384307861 0.319999992847442627 0.185092836618423462
1.56899726390838623 0.319999992847442627 0.158566012978553772
0.517751932144165039 0.319999992847442627 0.0747816562652587891
1.9208303689956665 0.319999992847442627 0.193814739584922791
0.862978637218475342 0.319999992847442627 0.143316388130187988
0.654861152172088623 0.319999992847442627 0.0369804054498672485
3.11441302299499512 0.319999992847442627 0.199335724115371704
1.70289516448974609 0.319999992847442627 0.199389159679412842
0.0510892458260059357 0.319999992847442627 0.183964475989341736
2.01651644706726074 0.319999992847442627 0.144460946321487427
2.05207228660583496 0.319999992847442627 0.155445292592048645
0.863962292671203613 0.319999992847442627 0.180850788950920105
0.293271064758300781 0.319999992847442627 0.0443681776523590088
0.107957877218723297 0.319999992847442627 0.175259023904800415
1.10565602779388428 0.319999992847442627 0.102917350828647614
2.57778763771057129 0.319999992847442627 0.184273779392242432
1.76278519630432129 0.319999992847442627 0.120495222508907318
1.59381413459777832 0.319999992847442627 0.191705614328384399
0.159202337265014648 0.319999992847442627 0.00993235409259796143
2.59274911880493164 0.319999992847442627 0.177568361163139343
0.751692414283752441 0.319999992847442627 0.135921642184257507
2.03473687171936035 0.319999992847442627 0.191557988524436951
0.41447371244430542 0.319999992847442627 0.0839294716715812683
1.20067834854125977 0.319999992847442627 0.0956484079360961914
1.95226764678955078 0.319999992847442627 0.110891424119472504
1.70962309837341309 0.319999992847442627 0.125386565923690796
1.21986770629882812 0.319999992847442627 0.137603089213371277
1.06879508495330811 0.319999992847442627 0.149281561374664307
0.975868046283721924 0.319999992847442627 0.164832130074501038
1.25658047199249268 0.319999992847442627 0.178906574845314026
1.66916263103485107 0.319999992847442627 0.0958221331238746643
1.4483036994934082 0.319999992847442627 0.125530242919921875
2.54226326942443848 0.319999992847442627 0.191254034638404846
0.893215298652648926 0.319999992847442627 0.0548163056373596191
1.6137232780456543 0.319999992847442627 0.111216984689235687
0.861717820167541504 0.319999992847442627 0.133443951606750488
0.0612715072929859161 0.319999992847442627 0.0987711548805236816
0.380219459533691406 0.319999992847442627 0.122693292796611786
2.07795357704162598 0.319999992847442627 0.196622863411903381
2.95276808738708496 0.319999992847442627 0.170337319374084473
1.23867321014404297 0.319999992847442627 0.185743927955627441
1.13489627838134766 0.319999992847442627 0.164790213108062744
2.3343956470489502 0.319999992847442627 0.175358116626739502
0.590896725654602051 0.319999992847442627 0.170239850878715515
0.482465058565139771 0.319999992847442627 0.0809528157114982605
0.11189386248588562 0.319999992847442627 0.0591304749250411987
2.67076587677001953 0.319999992847442627 0.181435540318489075
0.416044533252716064 0.319999992847442627 0.0385552495718002319
0.310275763273239136 0.319999992847442627 0.0404075980186462402
3.03092408180236816 0.319999992847442627 0.189818888902664185
1.27199661731719971 0.319999992847442627 0.198883280158042908
1.36055600643157959 0.319999992847442627 0.096705019474029541
0.749159753322601318 0.319999992847442627 0.0477628111839294434
1.463889479637146 0.319999992847442627 0.199812531471252441
1.02206790447235107 0.319999992847442627 0.0700062066316604614
1.42119002342224121 0.319999992847442627 0.159738019108772278
1.66137170791625977 0.319999992847442627 0.169554591178894043
2.67003917694091797 0.319999992847442627 0.188607200980186462
1.32590961456298828 0.319999992847442627 0.0770144015550613403
1.41220784187316895 0.319999992847442627 0.146208062767982483
1.32761728763580322 0.319999992847442627 0.138464346528053284
0.264612793922424316 0.319999992847442627 0.153215855360031128
1.22308623790740967 0.319999992847442627 0.136518731713294983
2.58971905708312988 0.319999992847442627 0.152778357267379761
2.24088907241821289 0.319999992847442627 0.190132290124893188
