ply
format ascii 1.0
element vertex 710
property float x
property float y
property float z
end_header
-0.000746190547943115234 -0.0326320156455039978 -0.0770803242921829224
-0.0237210392951965332 -0.0303335376083850861 -0.0781036689877510071
0.142407998442649841 -0.0372226275503635406 -0.0750364512205123901
-0.0473158806562423706 -0.0308332145214080811 -0.0778812021017074585
-0.0333998203277587891 -0.0294886566698551178 -0.0784798339009284973
0.0450348705053329468 -0.0301793161779642105 -0.0781723335385322571
-0.0215360820293426514 -0.00609485339373350143 -0.0836890190839767456
-0.061161380261182785 -0.00501106679439544678 -0.0836890190839767456
-0.11147134006023407 0.0037992401048541069 -0.0836890190839767456
0.0803952813148498535 -0.00513489404693245888 -0.0836890190839767456
-0.124175071716308594 0.0029440801590681076 -0.0836890190839767456
0.105425499379634857 -0.00792254321277141571 -0.0836890190839767456
-0.0259483903646469116 0.000682004727423191071 -0.0836890190839767456
-0.123386114835739136 0.00450367294251918793 -0.0836890190839767456
-0.096074320375919342 0.00463085807859897614 -0.0836890190839767456
-0.104452162981033325 0.00279477518051862717 -0.0836890190839767456
-0.0543010830879211426 4.4476240873336792e-05 -0.0836890190839767456
0.0942156240344047546 -0.00834814086556434631 -0.0836890190839767456
-0.0334968715906143188 0.00100044254213571548 -0.0836890190839767456
0.0288133043795824051 -0.00867341924458742142 -0.0836890190839767456
0.0794570446014404297 -0.0058057284913957119 -0.0836890190839767456
0.0639411956071853638 -0.00612058956176042557 -0.0836890190839767456
-0.130574464797973633 -0.00544099695980548859 -0.0836890190839767456
-0.123625203967094421 0.00755310244858264923 -0.0836890190839767456
0.045666329562664032 -0.00303318630903959274 -0.0836890190839767456
0.0607773773372173309 -0.00689947744831442833 -0.0836890190839767456
-0.127991527318954468 -0.00663627684116363525 -0.0836890190839767456
-0.0580532625317573547 -0.00590125937014818192 -0.0836890190839767456
-0.12608686089515686 -0.000905532389879226685 -0.0836890190839767456
0.0090824514627456665 -0.00317079480737447739 -0.0836890190839767456
0.137340262532234192 -0.0086157284677028656 -0.0836890190839767456
-0.0445142611861228943 -0.00438905274495482445 -0.0836890190839767456
-0.0107545740902423859 -0.00813781935721635818 -0.0836890190839767456
0.0075985342264175415 -0.0031888880766928196 -0.0836890190839767456
-0.0229021087288856506 -0.00426839850842952728 -0.0836890190839767456
-0.132194861769676208 -0.00405981484800577164 -0.0836890190839767456
-0.0872375816106796265 0.00274058803915977478 -0.0836890190839767456
-0.0532565116882324219 0.000200506299734115601 -0.0836890190839767456
-0.0481239184737205505 -0.00112862279638648033 -0.0836890190839767456
0.00109331309795379639 -0.00225829705595970154 -0.0836890190839767456
-0.121602922677993774 0.00428679399192333221 -0.0836890190839767456
-0.0888506472110748291 -0.00531745189800858498 -0.0836890190839767456
-0.132990762591362 -0.00754733756184577942 -0.0836890190839767456
-0.106462210416793823 0.00254230108112096786 -0.0836890190839767456
-0.00645887479186058044 -0.00583606027066707611 -0.0836890190839767456
-0.0123717635869979858 -0.000955196097493171692 -0.0836890190839767456
-0.0475092008709907532 -0.00426440173760056496 -0.0836890190839767456
0.0966298580169677734 -0.00791045371443033218 -0.0836890190839767456
-0.03411150723695755 -0.00206832913681864738 -0.0836890190839767456
-0.0861872062087059021 -0.0042555835098028183 -0.0836890190839767456
-0.118352532386779785 -0.00169685017317533493 -0.0836890190839767456
0.0161347463726997375 -0.00770802423357963562 -0.0836890190839767456
-0.00711416453123092651 -0.0014881589449942112 -0.0836890190839767456
-0.122277148067951202 0.00198069866746664047 -0.0836890190839767456
0.00663148239254951477 -0.00518593098968267441 -0.0836890190839767456
-0.0887827202677726746 -0.00164724141359329224 -0.0836890190839767456
-0.011932864785194397 0.000680685043334960938 -0.0836890190839767456
0.0138355111703276634 -0.0081394026055932045 -0.0836890190839767456
0.0742779523134231567 -0.00865535903722047806 -0.0836890190839767456
-0.0908539667725563049 0.000908673740923404694 -0.0836890190839767456
-0.0906135216355323792 -0.00277444720268249512 -0.0836890190839767456
-0.124735735356807709 -0.00487751094624400139 -0.0836890190839767456
0.103220850229263306 -0.00646911934018135071 -0.0836890190839767456
-0.0201606824994087219 -0.00802328996360301971 -0.0836890190839767456
-0.0358848348259925842 -0.00817725807428359985 -0.0836890190839767456
-0.0316751040518283844 -0.00654901470988988876 -0.0836890190839767456
0.133321240544319153 -0.00844133365899324417 -0.0836890190839767456
0.0035361945629119873 -0.00276984088122844696 -0.0836890190839767456
0.00861445069313049316 -0.000992683228105306625 -0.0836890190839767456
-0.0743406116962432861 -0.00225624395534396172 -0.0836890190839767456
0.0193432718515396118 -0.00468355417251586914 -0.0836890190839767456
0.0426844730973243713 -0.00837850477546453476 -0.0836890190839767456
-0.0291962958872318268 -0.0060873301699757576 -0.0836890190839767456
0.054127667099237442 -0.0080999201163649559 -0.0836890190839767456
-0.107607468962669373 8.61939042806625366e-05 -0.0836890190839767456
-0.108673922717571259 0.0002984609454870224 -0.0836890190839767456
-0.0294304676353931427 -0.00548790721222758293 -0.0836890190839767456
0.139552250504493713 -0.0135153168812394142 -0.082685910165309906
0.126849368214607239 -0.0100012542679905891 -0.0834328457713127136
0.0327265486121177673 -0.0109518952667713165 -0.0832307860255241394
0.0548774898052215576 -0.013754543848335743 -0.0826350599527359009
0.0969468653202056885 -0.0141027830541133881 -0.0825610384345054626
0.0840138718485832214 -0.0164739098399877548 -0.0820570439100265503
-0.0888116508722305298 -0.010222412645816803 -0.0833858400583267212
0.134760588407516479 -0.0224793218076229095 -0.0807805508375167847
-0.0501234829425811768 -0.0132627189159393311 -0.0827395990490913391
0.0265815854072570801 -0.0105283334851264954 -0.08332081139087677
-0.077014043927192688 -0.0105245383456349373 -0.0833216235041618347
-0.130979239940643311 -0.00908879376947879791 -0.0836267992854118347
0.142574429512023926 -0.018917575478553772 -0.0815376266837120056
-0.013763919472694397 -0.0126442341133952141 -0.0828710645437240601
0.130869001150131226 -0.0167218074202537537 -0.0820043459534645081
0.132225215435028076 -0.00915761664509773254 -0.0836121663451194763
0.0837461128830909729 -0.0142990071326494217 -0.0825193300843238831
0.126282379031181335 -0.0240328703075647354 -0.0804503336548805237
0.089318200945854187 -0.0208641290664672852 -0.0811238735914230347
0.130990177392959595 -0.0185265634208917618 -0.0816207379102706909
0.11795923113822937 -0.0195755437016487122 -0.0813977643847465515
-0.00624911487102508545 -0.0109579619020223618 -0.0832294970750808716
0.0691601485013961792 -0.0122450161725282669 -0.0829559192061424255
0.0224404335021972656 -0.00938971433788537979 -0.0835628360509872437
0.13604736328125 -0.0207383222877979279 -0.0811506137251853943
0.0376577824354171753 -0.0128047773614525795 -0.0828369408845901489
-0.0117487162351608276 -0.0158461146056652069 -0.0821904838085174561
0.0131410509347915649 -0.0107008898630738258 -0.0832841396331787109
0.0526482388377189636 -0.0188961997628211975 -0.0815421640872955322
0.107024870812892914 -0.0217031911015510559 -0.0809455215930938721
0.0471343696117401123 -0.0200206153094768524 -0.0813031643629074097
0.00258430838584899902 -0.00885897595435380936 -0.0836756452918052673
0.0374718233942985535 -0.0152075495570898056 -0.0823262184858322144
-0.0140879452228546143 -0.0161783471703529358 -0.082119867205619812
0.0261535346508026123 -0.0184339210391044617 -0.0816404297947883606
-0.0156136304140090942 -0.0149414762854576111 -0.0823827683925628662
0.113405480980873108 -0.0124331507831811905 -0.0829159319400787354
-0.0915470272302627563 -0.00959155336022377014 -0.0835199356079101562
-0.0939802974462509155 -0.0103668048977851868 -0.0833551511168479919
0.12397901713848114 -0.018755761906504631 -0.081572018563747406
0.0918793231248855591 -0.0218836814165115356 -0.0809071585536003113
-0.0556043386459350586 -0.0105967959389090538 -0.0833062604069709778
0.0960857421159744263 -0.0201158225536346436 -0.0812829285860061646
-0.0861931443214416504 -0.0109170647338032722 -0.0832381844520568848
0.0916975215077400208 -0.0148083828389644623 -0.082411058247089386
0.0318584442138671875 -0.0123734893277287483 -0.0829286128282546997
-0.107762515544891357 -0.00933727901428937912 -0.0835739821195602417
0.0408486872911453247 -0.0139718446880578995 -0.0825888738036155701
0.000107988715171813965 -0.0156257729977369308 -0.0822373181581497192
-0.102965831756591797 -0.00988027453422546387 -0.0834585651755332947
0.052257731556892395 -0.015539584681391716 -0.0822556391358375549
-0.057001948356628418 -0.00893162470310926437 -0.0836602076888084412
0.132849797606468201 -0.00984151288866996765 -0.0834668055176734924
0.076307833194732666 -0.0125078288838267326 -0.0829000622034072876
0.0802988559007644653 -0.0182255841791629791 -0.0816847085952758789
0.13939240574836731 -0.0216137133538722992 -0.0809645429253578186
0.0145930200815200806 -0.0118150683119893074 -0.0830473080277442932
0.131608188152313232 -0.0157204866409301758 -0.0822171866893768311
0.0883955508470535278 -0.0205178894102573395 -0.0811974629759788513
-0.0237957984209060669 -0.00976780802011489868 -0.0834824666380882263
0.0958673208951950073 -0.0170309171080589294 -0.0819386467337608337
0.0217127501964569092 -0.00893803872168064117 -0.0836588442325592041
0.0762606114149093628 -0.0185911040753126144 -0.0816070139408111572
0.0882387757301330566 -0.0225347969681024551 -0.0807687565684318542
0.0241619646549224854 -0.0159311536699533463 -0.0821724086999893188
0.141772344708442688 -0.0142630022019147873 -0.0825269818305969238
0.00539827346801757812 -0.00984414946287870407 -0.0834662392735481262
-0.0459294319152832031 -0.00972075201570987701 -0.083492472767829895
0.0385379865765571594 -0.0133736282587051392 -0.0827160254120826721
-0.0279386788606643677 -0.0129733225330710411 -0.0828011184930801392
0.138917818665504456 -0.0144717935472726822 -0.0824826061725616455
-0.123688094317913055 0.0142404455691576004 -0.0825317800045013428
-0.0694546997547149658 0.0102920513600111008 -0.0833710357546806335
-0.0623047500848770142 0.017194623127579689 -0.0819038525223731995
0.00915423035621643066 0.0149551630020141602 -0.0823798626661300659
-0.111995749175548553 0.0145855918526649475 -0.0824584141373634338
-0.0292250923812389374 0.0121222920715808868 -0.0829820111393928528
0.0486834719777107239 0.0128989946097135544 -0.0828169137239456177
-0.0358002930879592896 0.00961731560528278351 -0.0835144594311714172
-0.0723629593849182129 0.0186358373612165451 -0.0815975069999694824
-0.0401941761374473572 0.0144482254981994629 -0.0824876129627227783
0.0420676469802856445 0.0137308621779084206 -0.0826400965452194214
-0.0927639305591583252 0.0152577459812164307 -0.0823155492544174194
-0.0400189980864524841 0.0121420565992593765 -0.0829778090119361877
-0.105920076370239258 0.0211586952209472656 -0.0810612589120864868
-0.0659306496381759644 0.0183460228145122528 -0.0816591084003448486
0.0850036889314651489 0.0121416617184877396 -0.0829778909683227539
-0.136635929346084595 0.0157790649682283401 -0.0822047367691993713
-0.0847304165363311768 0.0131444688886404037 -0.0827647373080253601
-0.126927852630615234 0.0158678218722343445 -0.0821858718991279602
-0.14000934362411499 0.00907760206609964371 -0.0836291760206222534
0.0207078233361244202 0.012479657307267189 -0.0829060450196266174
-0.0609946325421333313 0.013697170652449131 -0.0826472565531730652
0.0348586440086364746 0.0149952508509159088 -0.0823713392019271851
-0.129977643489837646 0.0178934559226036072 -0.0817553102970123291
-0.0317377746105194092 0.0159254856407642365 -0.0821736156940460205
-0.118431314826011658 0.0190230906009674072 -0.081515192985534668
-0.108305588364601135 0.0158743318170309067 -0.0821844860911369324
0.125350400805473328 0.00980600900948047638 -0.0834743529558181763
-0.141278743743896484 0.0171304475516080856 -0.0819174870848655701
-0.0951103866100311279 0.0212391093373298645 -0.0810441672801971436
-0.112707056105136871 0.00989821180701255798 -0.0834547504782676697
-0.0396470688283443451 0.0110383201390504837 -0.0832124128937721252
0.0531692467629909515 0.0117337275296449661 -0.0830646008253097534
-0.110806882381439209 0.0191216319799423218 -0.0814942494034767151
-0.0237197428941726685 0.0137778287753462791 -0.0826301127672195435
-0.0913059040904045105 0.0126637415960431099 -0.0828669220209121704
-0.0773050561547279358 0.0199933610856533051 -0.0813089609146118164
-0.0365522429347038269 0.0162344221025705338 -0.0821079462766647339
0.0544418506324291229 0.00922076869755983353 -0.0835987478494644165
-0.0986419618129730225 0.0115449298173189163 -0.0831047296524047852
-0.0810874998569488525 0.0196721106767654419 -0.0813772454857826233
-0.141187414526939392 0.0115076089277863503 -0.083112664520740509
-0.142201453447341919 0.0205643624067306519 -0.0811875909566879272
-0.0983379259705543518 0.0104675143957138062 -0.0833337455987930298
-0.0661253705620765686 0.0141992699354887009 -0.0825405344367027283
0.0231101140379905701 0.0143102779984474182 -0.0825169384479522705
0.0685257837176322937 0.0122372200712561607 -0.0829575806856155396
-0.104004859924316406 0.0118871098384261131 -0.0830319970846176147
-0.142131626605987549 0.0148712508380413055 -0.0823976993560791016
-0.139747485518455505 0.00952061079442501068 -0.0835350155830383301
-0.0550499483942985535 0.0163216535001993179 -0.0820894017815589905
-0.0614365674555301666 0.0101491063833236694 -0.0834014192223548889
-0.112181752920150757 0.022346988320350647 -0.0808086767792701721
0.0683183372020721436 0.01071181520819664 -0.0832818150520324707
-0.0177743323147296906 0.0105417808517813683 -0.0833179578185081482
-0.0166848711669445038 0.012380051426589489 -0.082927219569683075
-0.0854877084493637085 0.0122865727171301842 -0.0829470902681350708
0.063162095844745636 0.00952581223100423813 -0.0835339054465293884
-0.0577156655490398407 0.00998877920210361481 -0.0834354981780052185
-0.0305351540446281433 0.0154247283935546875 -0.0822800546884536743
0.0531172864139080048 0.010216686874628067 -0.0833870545029640198
-0.0716433152556419373 0.0171570144593715668 -0.0819118395447731018
-0.0482219457626342773 0.0146120516583323479 -0.0824527889490127563
-0.0936157107353210449 0.020228242501616478 -0.0812590345740318298
-0.0920784100890159607 0.0132102509960532188 -0.0827507525682449341
-0.123719662427902222 0.0147662386298179626 -0.0824200212955474854
-0.136563524603843689 0.0218733809888362885 -0.0809093490242958069
0.12029547244310379 0.00888928864151239395 -0.0836692079901695251
-0.129939988255500793 0.0173772014677524567 -0.0818650424480438232
-0.0399307459592819214 0.018202219158411026 -0.0816896781325340271
-0.0420933514833450317 0.0193191543221473694 -0.0814522653818130493
0.109734982252120972 -0.00143433082848787308 -0.0836890190839767456
-0.0452727973461151123 0.0028731953352689743 -0.0836890190839767456
-0.0819948762655258179 0.00680930446833372116 -0.0836890190839767456
0.111247316002845764 -0.00263054016977548599 -0.0836890190839767456
-0.000896245241165161133 0.00696070771664381027 -0.0836890190839767456
0.12034289538860321 -0.00273342244327068329 -0.0836890190839767456
0.102425187826156616 -0.00511841382831335068 -0.0836890190839767456
-0.0205191969871520996 0.0055948188528418541 -0.0836890190839767456
-0.0938283205032348633 0.00626136315986514091 -0.0836890190839767456
0.0779798924922943115 -0.00198745541274547577 -0.0836890190839767456
0.0957447513937950134 -0.00556836090981960297 -0.0836890190839767456
0.0612063854932785034 0.00727410241961479187 -0.0836890190839767456
-0.0408833026885986328 0.00770978862419724464 -0.0836890190839767456
-0.0117070823907852173 0.00561957992613315582 -0.0836890190839767456
0.0921378135681152344 -0.000325266271829605103 -0.0836890190839767456
-0.0076932758092880249 0.00196305848658084869 -0.0836890190839767456
0.113756723701953888 -0.000284486450254917145 -0.0836890190839767456
0.0286973118782043457 0.0019678422249853611 -0.0836890190839767456
0.0159754008054733276 -0.000921856611967086792 -0.0836890190839767456
0.0679315701127052307 0.00340952584519982338 -0.0836890190839767456
-0.103171154856681824 0.0072266971692442894 -0.0836890190839767456
-0.00387074053287506104 0.000693601556122303009 -0.0836890190839767456
0.0346317663788795471 0.0035292268730700016 -0.0836890190839767456
0.0266757532954216003 -0.0010713040828704834 -0.0836890190839767456
0.105030186474323273 0.000353326089680194855 -0.0836890190839767456
0.117317080497741699 -0.00548644363880157471 -0.0836890190839767456
-0.0105688124895095825 0.00518692471086978912 -0.0836890190839767456
-0.0430564135313034058 0.00681976228952407837 -0.0836890190839767456
-0.0736879259347915649 0.00742339342832565308 -0.0836890190839767456
-0.0478465557098388672 0.00407018885016441345 -0.0836890190839767456
0.117057234048843384 0.00354167073965072632 -0.0836890190839767456
0.0490685775876045227 0.00401492509990930557 -0.0836890190839767456
0.0506852567195892334 -0.00142811331897974014 -0.0836890190839767456
-0.0302596837282180786 0.00281914277002215385 -0.0836890190839767456
0.120626062154769897 0.00541666336357593536 -0.0836890190839767456
0.000829741358757019043 0.00201088935136795044 -0.0836890190839767456
0.0749411880970001221 0.00264729792252182961 -0.0836890190839767456
0.103862181305885315 -0.00239595118910074234 -0.0836890190839767456
-0.00738406181335449219 0.00164401298388838768 -0.0836890190839767456
0.111383616924285889 0.0025035482831299305 -0.0836890190839767456
0.0944393724203109741 -0.00201155897229909897 -0.0836890190839767456
-0.0229591280221939087 0.0077293887734413147 -0.0836890190839767456
0.14051373302936554 -0.00109388865530490875 -0.0836890190839767456
0.0688203796744346619 -0.00308391917496919632 -0.0836890190839767456
-0.0136807411909103394 0.00570594239979982376 -0.0836890190839767456
0.122360244393348694 0.00455106701701879501 -0.0836890190839767456
0.0817723572254180908 -0.000705204904079437256 -0.0836890190839767456
0.0204008445143699646 0.00230810465291142464 -0.0836890190839767456
0.0313534587621688843 0.00618517026305198669 -0.0836890190839767456
0.106193616986274719 0.00567924417555332184 -0.0836890190839767456
0.119691327214241028 0.00255462527275085449 -0.0836890190839767456
0.0428935587406158447 -0.000260367989540100098 -0.0836890190839767456
0.0823122411966323853 -0.00425535533577203751 -0.0836890190839767456
0.131284192204475403 -0.000676652416586875916 -0.0836890190839767456
-0.0650038570165634155 0.00401254650205373764 -0.0836890190839767456
0.111621066927909851 0.00558946141973137856 -0.0836890190839767456
0.0662454292178153992 8.9016743004322052e-05 -0.0836890190839767456
0.0989682525396347046 -0.000556790269911289215 -0.0836890190839767456
0.114958062767982483 -0.00233761128038167953 -0.0836890190839767456
0.127415925264358521 0.0020082755945622921 -0.0836890190839767456
0.00495283305644989014 0.000382049940526485443 -0.0836890190839767456
0.0374143123626708984 0.00684305978938937187 -0.0836890190839767456
0.020827271044254303 0.00637555308640003204 -0.0836890190839767456
0.072009652853012085 -0.00313965044915676117 -0.0836890190839767456
0.0506025105714797974 0.00309297163039445877 -0.0836890190839767456
0.0811724960803985596 -0.00341059546917676926 -0.0836890190839767456
0.101907387375831604 -0.00522956810891628265 -0.0836890190839767456
0.0633324906229972839 0.00644268281757831573 -0.0836890190839767456
-0.0580517351627349854 0.00865394715219736099 -0.0836890190839767456
0.12464044988155365 -0.00169455166906118393 -0.0836890190839767456
0.0785426869988441467 0.00488672731444239616 -0.0836890190839767456
-0.132713913917541504 0.0314953885972499847 -0.0775863826274871826
-0.136834338307380676 0.0412138849496841431 -0.0732594281435012817
-0.112557239830493927 0.0390978455543518066 -0.0742015540599822998
-0.059269443154335022 0.0281470045447349548 -0.0790771767497062683
-0.0651001408696174622 0.0363402627408504486 -0.0754293054342269897
-0.00133331120014190674 0.0297179408371448517 -0.0783777534961700439
0.0527144670486450195 0.0273896642029285431 -0.07941436767578125
-0.142411261796951294 0.0279183201491832733 -0.0791789963841438293
0.0370477847754955292 0.0279687251895666122 -0.0791565552353858948
-0.0882491990923881531 0.0364743843674659729 -0.0753695890307426453
0.0206012129783630371 0.0296068787574768066 -0.0784272029995918274
0.0521956682205200195 0.02844255231320858 -0.0789455920457839966
-0.120616570115089417 0.0397722497582435608 -0.0739012882113456726
-0.127443134784698486 0.0401856862008571625 -0.0737172141671180725
-0.0799539834260940552 0.0380490869283676147 -0.074668489396572113
-0.0361232757568359375 0.0341885238885879517 -0.0763873234391212463
0.0460284128785133362 0.0281363725662231445 -0.0790819078683853149
-9.76882874965667725e-05 0.0272770524024963379 -0.0794645026326179504
-0.115164943039417267 0.0284884087741374969 -0.0789251774549484253
-0.11026986688375473 0.0290700923651456833 -0.078666195273399353
-0.0836628898978233337 0.0271841660141944885 -0.0795058608055114746
-0.0663305670022964478 0.0376289151608943939 -0.0748555585741996765
-0.134597286581993103 0.0343032330274581909 -0.0763362497091293335
-0.140597134828567505 0.0306618772447109222 -0.0779574811458587646
-0.108971789479255676 0.0326652564108371735 -0.0770655199885368347
-0.140648886561393738 0.0286139007657766342 -0.0788692981004714966
-0.042322840541601181 0.0290760528296232224 -0.0786635354161262512
0.00243400037288665771 0.033645138144493103 -0.07662925124168396
-0.100411936640739441 0.0327542945742607117 -0.0770258828997612
-0.142683252692222595 0.0419944487512111664 -0.0729119032621383667
-0.033182188868522644 0.0318953841924667358 -0.0774082913994789124
-0.142200782895088196 0.0349724739789962769 -0.0760382860898971558
-0.0555772334337234497 0.0335701555013656616 -0.0766626372933387756
-0.0748916119337081909 0.0291978456079959869 -0.0786093100905418396
0.0159891322255134583 0.0315881930291652679 -0.0775450617074966431
0.0238157808780670166 0.026322532445192337 -0.0798894837498664856
-0.0820598006248474121 0.0342531688511371613 -0.0763585418462753296
0.0820433273911476135 0.0268694031983613968 -0.0796459987759590149
-0.0675185322761535645 0.0276561006903648376 -0.0792957395315170288
-0.0698312148451805115 0.0265914164483547211 -0.0797697678208351135
-0.0206202864646911621 0.0336536355316638947 -0.0766254663467407227
0.0279428660869598389 0.0298377200961112976 -0.0783244222402572632
-0.0267644450068473816 0.0300296228379011154 -0.0782389789819717407
0.0335766375064849854 0.0282340142875909805 -0.0790384411811828613
-0.115389205515384674 0.0262333843857049942 -0.0799291729927062988
0.000573627650737762451 0.0316428616642951965 -0.0775207206606864929
0.0090598762035369873 0.0314229056239128113 -0.0776186510920524597
-0.0766918957233428955 0.0282643046230077744 -0.0790249556303024292
-0.118500679731369019 0.0358349494636058807 -0.0756542831659317017
-0.0894097089767456055 0.0352904871106147766 -0.0758966952562332153
0.00948047637939453125 0.0300793275237083435 -0.078216850757598877
-0.0242885425686836243 0.0323948226869106293 -0.0771859288215637207
-0.130265012383460999 0.0353963896632194519 -0.0758495479822158813
-0.024052157998085022 0.0323903784155845642 -0.0771879032254219055
-0.063143610954284668 0.0344776585698127747 -0.0762585923075675964
-0.115352436900138855 0.0280993971973657608 -0.0790983736515045166
-0.00496772676706314087 0.0325735993683338165 -0.0771063342690467834
0.0848203301429748535 0.026454094797372818 -0.0798309072852134705
0.0164538770914077759 0.0306402761489152908 -0.0779670998454093933
-0.103587165474891663 0.03806353360414505 -0.0746620520949363708
-0.0217687636613845825 0.0323880203068256378 -0.0771889537572860718
-0.0209695696830749512 0.029570501297712326 -0.0784433931112289429
-0.012219797819852829 0.0290107224136590958 -0.0786926224827766418
-0.109205916523933411 0.0397546328604221344 -0.0739091336727142334
0.0673677250742912292 0.0280703604221343994 -0.0791113004088401794
-0.0144116431474685669 0.0333771891891956329 -0.0767485499382019043
-0.000789348967373371124 0.026846984401345253 -0.0796559825539588928
-0.13478483259677887 0.036021992564201355 -0.075571008026599884
-0.105377122759819031 0.0267158858478069305 -0.0797143504023551941
-0.142743542790412903 0.0291793346405029297 -0.0786175578832626343
-0.0313532799482345581 0.0351165533065795898 -0.0759741365909576416
0.0159176737070083618 0.0251366514712572098 -0.0802157148718833923
-0.107910752296447754 0.0248797573149204254 -0.0802703201770782471
0.0897321552038192749 0.0197343118488788605 -0.0813640207052230835
0.0901514738798141479 0.0176355205476284027 -0.0818101316690444946
-0.0623700618743896484 0.0249533504247665405 -0.080254681408405304
0.0885445699095726013 0.0246044937521219254 -0.0803288295865058899
-0.0282804667949676514 0.0218303091824054718 -0.0809185057878494263
-0.0938529223203659058 0.0246325284242630005 -0.0803228691220283508
0.0812075808644294739 0.0160226263105869293 -0.0821529626846313477
-0.00309294462203979492 0.0238109603524208069 -0.0804975032806396484
0.138694867491722107 0.0208898372948169708 -0.0811184048652648926
-0.0815565139055252075 0.0257247574627399445 -0.0800907090306282043
0.117073759436607361 0.0143029997125267982 -0.0825184807181358337
0.0145674645900726318 0.0168016180396080017 -0.0819873884320259094
-0.00921589136123657227 0.0256396625190973282 -0.0801087990403175354
0.0693146437406539917 0.0236610546708106995 -0.0805293619632720947
0.091141819953918457 0.0169673804193735123 -0.0819521546363830566
0.0461115837097167969 0.0251938570290803909 -0.0802035555243492126
-0.0738685280084609985 0.0259331446141004562 -0.0800464153289794922
0.111051455140113831 0.025607699528336525 -0.0801155939698219299
0.121670067310333252 0.022706691175699234 -0.0807322189211845398
0.120657362043857574 0.0202868692576885223 -0.0812465697526931763
0.118530206382274628 0.0118974270299077034 -0.0830298066139221191
0.0601896047592163086 0.0203779991716146469 -0.0812271982431411743
-0.120807617902755737 0.0258568264544010162 -0.0800626352429389954
0.0831497311592102051 0.0221332255750894547 -0.0808541178703308105
0.0413222163915634155 0.0170699283480644226 -0.0819303542375564575
0.126509800553321838 0.0119702108204364777 -0.0830143317580223083
0.0284481346607208252 0.0171594917774200439 -0.0819113180041313171
0.115457139909267426 0.0161971729248762131 -0.0821158662438392639
-0.110393792390823364 0.025899907574057579 -0.080053478479385376
0.113233625888824463 0.012732124887406826 -0.082852385938167572
0.13778376579284668 0.0213092416524887085 -0.081029258668422699
0.119391582906246185 0.0147464163601398468 -0.0824242308735847473
0.0621247068047523499 0.0156373884528875351 -0.0822348520159721375
0.084961429238319397 0.013620949350297451 -0.0826634615659713745
0.102413497865200043 0.0138867059722542763 -0.082606971263885498
0.0664510577917098999 0.0197288449853658676 -0.0813651829957962036
0.0943202972412109375 0.0241463389247655869 -0.0804262161254882812
0.00716339051723480225 0.0247116629034280777 -0.0803060531616210938
0.126902088522911072 0.0100329555571079254 -0.0834261104464530945
0.068467557430267334 0.0249905530363321304 -0.0802467688918113708
0.0232603996992111206 0.0181587822735309601 -0.0816989094018936157
0.104797139763832092 0.0124576576054096222 -0.0829107239842414856
0.074474528431892395 0.0172422584146261215 -0.08189372718334198
0.105601489543914795 0.0168190915137529373 -0.0819836705923080444
-0.0688296407461166382 0.0239921156316995621 -0.0804589986801147461
-0.0216932445764541626 0.0203364305198192596 -0.081236034631729126
-0.0704843252897262573 0.0223899893462657928 -0.0807995349168777466
0.0625376775860786438 0.0235874056816101074 -0.0805450230836868286
0.0283425673842430115 0.0160239338874816895 -0.0821526870131492615
0.0886845365166664124 0.0134344259276986122 -0.0827031061053276062
-0.0465010702610015869 0.0249455776065587997 -0.0802563279867172241
0.081788383424282074 0.0227816607803106308 -0.0807162821292877197
0.136919155716896057 0.0244257710874080658 -0.0803668200969696045
0.0259809345006942749 0.0251141693443059921 -0.0802204981446266174
0.122133933007717133 0.0148099306970834732 -0.0824107304215431213
-0.00938810408115386963 0.0180329661816358566 -0.0817256569862365723
0.0237617939710617065 0.0160134062170982361 -0.0821549221873283386
0.00960436463356018066 0.0194337945431470871 -0.0814278945326805115
-0.00795622169971466064 0.0229573827236890793 -0.0806789323687553406
-0.0891491621732711792 0.0228751394897699356 -0.0806964188814163208
0.0681813061237335205 0.0187352839857339859 -0.0815763697028160095
0.102862730622291565 0.0141630414873361588 -0.0825482308864593506
-0.0860431641340255737 0.02416946180164814 -0.0804212987422943115
0.00242738425731658936 0.0223235860466957092 -0.0808136537671089172
0.0323788970708847046 0.0176563113927841187 -0.0818057134747505188
0.142216354608535767 0.021861739456653595 -0.0809118226170539856
0.0101897567510604858 0.0203208364546298981 -0.0812393501400947571
0.137564986944198608 0.0186893492937088013 -0.0815861374139785767
-0.0403549075126647949 0.0242926105856895447 -0.0803951248526573181
0.00609994353726506233 0.0423910804092884064 -0.0726463869214057922
-0.100319579243659973 0.0491339117288589478 -0.0677474364638328552
-0.0747917518019676208 0.0448151156306266785 -0.0708852261304855347
0.0300363581627607346 0.0422534756362438202 -0.0727463662624359131
-0.103950843214988708 0.0448225848376750946 -0.0708798021078109741
-0.0842604711651802063 0.0429163165390491486 -0.0722647830843925476
-0.103229492902755737 0.0524926967918872833 -0.0653071403503417969
-0.127885162830352783 0.0425722412765026093 -0.0725147724151611328
0.00644444674253463745 0.0459295362234115601 -0.0700755566358566284
0.0169463083148002625 0.0474905967712402344 -0.0689413771033287048
-0.0394755452871322632 0.0491608567535877228 -0.0677278637886047363
-0.0641704648733139038 0.0507434755563735962 -0.0665780231356620789
-0.127414241433143616 0.0497658587992191315 -0.0672883018851280212
-0.0420996397733688354 0.0486425943672657013 -0.0681044012308120728
-0.0343480110168457031 0.0493421591818332672 -0.067596137523651123
-0.0958104729652404785 0.0531836412847042084 -0.0648051351308822632
-0.117373079061508179 0.0437774099409580231 -0.0716391652822494507
-0.137392818927764893 0.0501299388706684113 -0.0670237839221954346
-0.0173527859151363373 0.0439844727516174316 -0.0714887231588363647
0.0153959318995475769 0.0461609587073326111 -0.0699074119329452515
0.024156348779797554 0.0434516258537769318 -0.0718758627772331238
0.0116608999669551849 0.0443463921546936035 -0.071225777268409729
-0.0768827125430107117 0.0456227026879787445 -0.0702984780073165894
-0.136957377195358276 0.0492311976850032806 -0.0676767528057098389
-0.122348934412002563 0.0535737499594688416 -0.0645217075943946838
0.0338525883853435516 0.0444863736629486084 -0.0711240693926811218
-0.128429412841796875 0.0488672181963920593 -0.0679412037134170532
-0.0218713805079460144 0.0478894039988517761 -0.0686516240239143372
-0.0787534788250923157 0.0477788858115673065 -0.0687319189310073853
-0.0517980456352233887 0.0429418161511421204 -0.072246253490447998
-0.103942424058914185 0.046766083687543869 -0.0694677606225013733
0.0380093231797218323 0.0466970056295394897 -0.0695179551839828491
-0.0870610624551773071 0.0449545532464981079 -0.0707839205861091614
-0.0687050223350524902 0.0437779910862445831 -0.071638740599155426
0.0101007129997014999 0.0434774868190288544 -0.0718570724129676819
-0.0300437137484550476 0.0422404035925865173 -0.072755865752696991
-0.0835950896143913269 0.0449851043522357941 -0.0707617253065109253
0.068913683295249939 0.0425406470894813538 -0.0725377276539802551
-0.078432619571685791 0.0522780567407608032 -0.0654630810022354126
-0.0821377784013748169 0.0518721863627433777 -0.0657579600811004639
-0.0609808862209320068 0.0514964200556278229 -0.0660309791564941406
-0.00798547454178333282 0.0430526621639728546 -0.0721657201647758484
-0.0934663563966751099 0.0467199459671974182 -0.0695012882351875305
-0.0202117078006267548 0.0430628769099712372 -0.0721582993865013123
0.0920177549123764038 0.0424529165029525757 -0.0726014673709869385
-0.142062008380889893 0.0510218068957328796 -0.0663757994771003723
-0.11588752269744873 0.0514449253678321838 -0.0660683885216712952
-0.110073238611221313 0.0544935427606105804 -0.063853435218334198
-0.117506168782711029 0.0460326112806797028 -0.0700006633996963501
0.0386254414916038513 0.0469728223979473114 -0.0693175643682479858
-0.1310901939868927 0.0492408275604248047 -0.0676697567105293274
-0.112307146191596985 0.0473801121115684509 -0.0690216496586799622
-0.0722103342413902283 0.0513306185603141785 -0.0661514401435852051
-0.113888651132583618 0.0435689277946949005 -0.0717906355857849121
-0.0786925554275512695 0.0529045909643173218 -0.0650078803300857544
-0.0704140439629554749 0.0463798791170120239 -0.0697483569383621216
-0.140923470258712769 0.0460060387849807739 -0.0700199753046035767
0.0255937874317169189 0.0449852049350738525 -0.0707616508007049561
-0.0742492601275444031 0.0471724607050418854 -0.0691725164651870728
0.0137282758951187134 0.0480811670422554016 -0.0685123056173324585
0.00300562381744384766 0.0486794672906398773 -0.0680776089429855347
-0.0223772525787353516 0.0457499958574771881 -0.0702059939503669739
0.127074882388114929 0.0424680672585964203 -0.0725904554128646851
-0.135588333010673523 0.0526806488633155823 -0.065170586109161377
-0.0683348625898361206 0.0506124682724475861 -0.0666732043027877808
-0.00550035387277603149 0.0450775884091854095 -0.0706945285201072693
0.014903046190738678 0.0478962734341621399 -0.0686466321349143982
-0.108623743057250977 0.0487184561789035797 -0.0680492818355560303
-0.140745937824249268 0.0458188354969024658 -0.0701559856534004211
-0.0381448864936828613 0.0495099574327468872 -0.0674742236733436584
0.0617414116859436035 0.0455856360495090485 -0.070325411856174469
0.117023006081581116 0.0380918271839618683 -0.0746494606137275696
0.133015543222427368 0.0295157898217439651 -0.0784677565097808838
0.0825470909476280212 0.0376622118055820465 -0.074840739369392395
0.0343611165881156921 0.0393985584378242493 -0.0740676671266555786
-0.0178205221891403198 0.0377859845757484436 -0.0747856274247169495
0.0627829208970069885 0.0400667823851108551 -0.0737701505422592163
0.0640819445252418518 0.0365596450865268707 -0.0753316283226013184
0.0310825854539871216 0.0376879647374153137 -0.0748292729258537292
0.0904773995280265808 0.0414705798029899597 -0.0731451436877250671
0.068162575364112854 0.0348954014480113983 -0.07607259601354599
0.10565871000289917 0.038672521710395813 -0.0743909180164337158
-0.0768557637929916382 0.0391199290752410889 -0.0741917192935943604
-0.00941385328769683838 0.0419788844883441925 -0.0729188323020935059
0.142591878771781921 0.0404265411198139191 -0.0736099779605865479
0.0974945127964019775 0.0419039465487003326 -0.0729521960020065308
-0.0964756011962890625 0.0416707731783390045 -0.0730560123920440674
0.116233527660369873 0.0284191370010375977 -0.078956015408039093
0.0306604355573654175 0.0383928790688514709 -0.0745154246687889099
0.0267833694815635681 0.0393100455403327942 -0.0741070732474327087
0.0167029649019241333 0.036280997097492218 -0.075455687940120697
0.0566794201731681824 0.0330670848488807678 -0.0768866166472434998
0.120978392660617828 0.0419969111680984497 -0.072910800576210022
0.117713339626789093 0.0295165721327066422 -0.0784674063324928284
0.0204814299941062927 0.0359132550656795502 -0.0756194218993186951
-0.020959123969078064 0.0405677445232868195 -0.0735471099615097046
0.0138736069202423096 0.033448394387960434 -0.0767168477177619934
0.0056718289852142334 0.0348426289856433868 -0.0760960951447486877
-0.0945958495140075684 0.04167938232421875 -0.0730521753430366516
0.124725610017776489 0.0271819047629833221 -0.0795068666338920593
0.0329976379871368408 0.034049496054649353 -0.0764492228627204895
0.139197438955307007 0.0380256287753582001 -0.0746789351105690002
0.0975082218647003174 0.0417964756488800049 -0.0730000436305999756
0.03157825767993927 0.0361712872982025146 -0.0755045413970947266
-0.125218778848648071 0.0413223505020141602 -0.0732111409306526184
0.0966723412275314331 0.0292683318257331848 -0.0785779282450675964
0.119848683476448059 0.0368977412581443787 -0.0751810967922210693
0.123267024755477905 0.0376381054520606995 -0.0748514682054519653
0.0594810694456100464 0.0334094502031803131 -0.0767341852188110352
0.129547119140625 0.0380622893571853638 -0.0746626108884811401
-0.00221285223960876465 0.0341892391443252563 -0.0763870030641555786
0.0784838274121284485 0.0324042476713657379 -0.0771817341446876526
0.10131952166557312 0.0336202532052993774 -0.0766403302550315857
0.0516055524349212646 0.0356764756143093109 -0.0757248401641845703
0.0938662439584732056 0.0302755720913410187 -0.0781294777989387512
0.05264320969581604 0.0362337082624435425 -0.0754767432808876038
0.0762217715382575989 0.0326782800257205963 -0.077059723436832428
0.101252533495426178 0.0376040078699588776 -0.0748666524887084961
0.118344724178314209 0.0330649726092815399 -0.0768875554203987122
0.028689846396446228 0.0339246392250061035 -0.0765048116445541382
0.0669613853096961975 0.041159212589263916 -0.0732837691903114319
0.111519426107406616 0.033253885805606842 -0.0768034458160400391
0.112296216189861298 0.0379255339503288269 -0.0747234970331192017
0.0258096978068351746 0.0365475714206695557 -0.0753370076417922974
-0.00110226869583129883 0.0410254895687103271 -0.0733433067798614502
-0.0772948563098907471 0.0383842587471008301 -0.0745192617177963257
0.133121207356452942 0.0309366919100284576 -0.0778351277112960815
0.0937188342213630676 0.0366479270160198212 -0.0752923265099525452
-0.0158669054508209229 0.0392860807478427887 -0.0741177424788475037
0.14234645664691925 0.0395676940679550171 -0.0739923641085624695
0.00219652056694030762 0.0371072143316268921 -0.0750878378748893738
0.114872582256793976 0.0359168574213981628 -0.0756178200244903564
-0.0441036224365234375 0.0380579903721809387 -0.0746645256876945496
0.115976914763450623 0.0391390696167945862 -0.0741831958293914795
0.0175143629312515259 0.0335469916462898254 -0.0766729488968849182
-0.00452283024787902832 0.0405406579375267029 -0.0735591724514961243
0.0377929285168647766 0.0394176729023456573 -0.0740591511130332947
0.0938036739826202393 0.0304256975650787354 -0.0780626386404037476
0.13423803448677063 0.0271437168121337891 -0.0795238688588142395
0.102286547422409058 0.0337455198168754578 -0.0765845626592636108
0.0870082899928092957 0.0383073985576629639 -0.0745534822344779968
0.0378774777054786682 0.0320455655455589294 -0.0773414298892021179
0.0280302613973617554 0.0592771731317043304 -0.059237305074930191
-0.122706502676010132 0.0567638203501701355 -0.0620286650955677032
-0.138197764754295349 0.0563284866511821747 -0.0625121518969535828
-0.117169544100761414 0.0666314810514450073 -0.0510695166885852814
-0.0596642196178436279 0.0642506852746009827 -0.0537136569619178772
-0.133579447865486145 0.0613693259656429291 -0.0569137334823608398
-0.0712434053421020508 0.0644787698984146118 -0.053460344672203064
0.00749043002724647522 0.0578988753259181976 -0.0607680603861808777
-0.0278128311038017273 0.0618665516376495361 -0.0563615076243877411
-0.0788349732756614685 0.0622193180024623871 -0.0559697225689888
0.0465161353349685669 0.0581424608826637268 -0.0604975298047065735
-0.0759595930576324463 0.0646874532103538513 -0.0532285720109939575
-0.0949880331754684448 0.0621016994118690491 -0.0561003461480140686
0.0256059616804122925 0.0577341653406620026 -0.0609509870409965515
-0.142766937613487244 0.0593774840235710144 -0.059125896543264389
0.0563095398247241974 0.0578376874327659607 -0.0608360171318054199
0.104654163122177124 0.0576668679714202881 -0.0610257312655448914
0.0170151740312576294 0.0590062029659748077 -0.0595382452011108398
-0.0206002909690141678 0.0565634593367576599 -0.0622511878609657288
-0.0275551415979862213 0.058689706027507782 -0.0598897524178028107
-0.142624139785766602 0.0563467182219028473 -0.0624919049441814423
-0.101196490228176117 0.0594784766435623169 -0.0590137317776679993
-0.120680488646030426 0.0638177245855331421 -0.0541945062577724457
-0.0748533308506011963 0.0637491270899772644 -0.0542706958949565887
0.0645945444703102112 0.0589671209454536438 -0.0595816522836685181
0.0105215907096862793 0.0611807107925415039 -0.0571232102811336517
-0.130988135933876038 0.0650435760617256165 -0.0528330616652965546
-0.0929808840155601501 0.0629485994577407837 -0.0551597662270069122
-0.113326527178287506 0.0630006566643714905 -0.0551019534468650818
-0.0946232527494430542 0.0634840056300163269 -0.05456513911485672
-0.017848283052444458 0.0598905086517333984 -0.0585561245679855347
0.000831753015518188477 0.0596623718738555908 -0.0588094964623451233
-0.0353505387902259827 0.0627275183796882629 -0.0554053075611591339
-0.0886913016438484192 0.0638747811317443848 -0.0541311390697956085
-0.0307244062423706055 0.059464186429977417 -0.0590296052396297455
-0.0207595229148864746 0.061005081981420517 -0.0573182627558708191
-0.113394089043140411 0.0628841221332550049 -0.0552313774824142456
-0.0356884151697158813 0.0633480250835418701 -0.054716162383556366
-0.0297894924879074097 0.0609136037528514862 -0.0574198625981807709
-0.0428067892789840698 0.0601641386747360229 -0.0582522302865982056
-0.0469789430499076843 0.0569814667105674744 -0.0617869459092617035
-0.107288435101509094 0.058515697717666626 -0.0600830093026161194
-0.0937953442335128784 0.0595623329281806946 -0.0589206032454967499
0.0566777884960174561 0.0587710961699485779 -0.0597993582487106323
-0.0644700601696968079 0.0606299228966236115 -0.0577349252998828888
-0.0268366560339927673 0.0621709674596786499 -0.0560234189033508301
-0.125935301184654236 0.0664045438170433044 -0.0513215586543083191
-0.0200995728373527527 0.0619157254695892334 -0.0563068948686122894
-0.113077111542224884 0.061762247234582901 -0.0564773492515087128
0.00647378340363502502 0.0579864941537380219 -0.0606707483530044556
0.0261382758617401123 0.0566919371485710144 -0.0621084980666637421
-0.0293690934777259827 0.0608690567314624786 -0.0574693381786346436
-0.125427156686782837 0.0597060509026050568 -0.0587609894573688507
-0.123701229691505432 0.0669792219996452332 -0.0506833083927631378
-0.137252345681190491 0.056644737720489502 -0.0621609203517436981
-0.089750140905380249 0.0569358356297016144 -0.0618376247584819794
-0.0517987459897994995 0.0567023083567619324 -0.0620969794690608978
0.134892135858535767 0.0565884411334991455 -0.0622234456241130829
-0.0433288440108299255 0.0612289570271968842 -0.0570696257054805756
-0.0599881038069725037 0.0609069466590881348 -0.0574272535741329193
-0.00834823399782180786 0.0598520264029502869 -0.0585988610982894897
-0.0605415105819702148 0.0568023435771465302 -0.0619858801364898682
-0.0285351201891899109 0.0597737282514572144 -0.0586858205497264862
-0.117564961314201355 0.0573498494923114777 -0.0613778121769428253
0.0405781753361225128 0.0588225945830345154 -0.0597421638667583466
-0.0864893049001693726 0.0610500313341617584 -0.0572683475911617279
-0.0832724794745445251 0.0596157535910606384 -0.0588612742722034454
-0.1383485347032547 0.0595759637653827667 -0.0589054636657238007
-0.0702672898769378662 0.0578704625368118286 -0.0607996135950088501
-0.0942194536328315735 0.0566007271409034729 -0.0622097998857498169
-0.139113575220108032 0.0654417872428894043 -0.0523907989263534546
0.134118914604187012 0.0523342005908489227 -0.0654222890734672546
0.124668054282665253 0.0504300035536289215 -0.0668057724833488464
-0.0103183239698410034 0.0537204481661319733 -0.0644151270389556885
0.00344581902027130127 0.055651586502790451 -0.0630120709538459778
0.0981175154447555542 0.0546590462327003479 -0.0637331902980804443
0.0248947367072105408 0.0542858988046646118 -0.0640043020248413086
0.0339894145727157593 0.0545271188020706177 -0.0638290420174598694
0.0163401514291763306 0.0544587820768356323 -0.0638786926865577698
-0.067845761775970459 0.0553857311606407166 -0.063205227255821228
0.0845756977796554565 0.0535958148539066315 -0.0645056739449501038
0.0800929144024848938 0.0557863749563694 -0.062914140522480011
0.105164505541324615 0.0562580712139606476 -0.0625714287161827087
0.110035374760627747 0.0515662543475627899 -0.0659802332520484924
0.0872044116258621216 0.0520595312118530273 -0.0656218528747558594
0.0204420015215873718 0.0520261861383914948 -0.0656460821628570557
-0.0477169156074523926 0.0521649792790412903 -0.0655452385544776917
0.111247017979621887 0.0453735031187534332 -0.0704795345664024353
0.00392217934131622314 0.0508030131459236145 -0.0665347650647163391
0.137561619281768799 0.0498097315430641174 -0.0672564283013343811
0.0462715402245521545 0.054541122168302536 -0.0638188719749450684
0.0302493944764137268 0.0540599338710308075 -0.0641684755682945251
0.12410968542098999 0.0436227358877658844 -0.0717515423893928528
0.119338937103748322 0.0518057942390441895 -0.0658062025904655457
-0.0409771353006362915 0.0534325502812862396 -0.064624294638633728
-0.108441799879074097 0.0562118925154209137 -0.0626049861311912537
0.137410134077072144 0.0491160973906517029 -0.0677603781223297119
0.0661463290452957153 0.0495380721986293793 -0.0674537941813468933
-0.00746831297874450684 0.055394340306520462 -0.063198968768119812
0.0909664928913116455 0.0536150932312011719 -0.064491666853427887
0.0389588549733161926 0.0522088296711444855 -0.0655133798718452454
-0.0319582521915435791 0.0520621314644813538 -0.0656199604272842407
0.114579290151596069 0.0540186837315559387 -0.0641984418034553528
0.0924553573131561279 0.0519589893519878387 -0.0656948983669281006
0.0650609433650970459 0.0535780452191829681 -0.0645185858011245728
0.0476643815636634827 0.0554448738694190979 -0.0631622523069381714
0.0681229904294013977 0.0554341226816177368 -0.0631700679659843445
0.100913457572460175 0.0465037636458873749 -0.0696583539247512817
-0.0298663973808288574 0.055546831339597702 -0.0630881786346435547
0.0657598674297332764 0.0517750382423400879 -0.0658285468816757202
-0.0525738447904586792 0.0555178821086883545 -0.0631092116236686707
0.118941232562065125 0.0520750656723976135 -0.0656105652451515198
-0.0937166661024093628 0.0557517446577548981 -0.0629393011331558228
0.117261305451393127 0.0483205318450927734 -0.0683383941650390625
0.0986334607005119324 0.0465023182332515717 -0.069659404456615448
0.0634267404675483704 0.0478171072900295258 -0.0687041506171226501
0.12312714010477066 0.0555450618267059326 -0.0630894675850868225
0.0921906232833862305 0.0541668534278869629 -0.0640907958149909973
0.105347968637943268 0.0455618128180503845 -0.070342719554901123
-0.0607322454452514648 0.0541913695633411407 -0.0640729814767837524
0.106812573969364166 0.0528753660619258881 -0.0650291144847869873
-0.00929687917232513428 0.0552904345095157623 -0.0632744655013084412
0.00609260797500610352 0.0547870658338069916 -0.0636401847004890442
-0.0623317509889602661 0.0528352558612823486 -0.0650582537055015564
0.11123676598072052 0.0506284423172473907 -0.0666615962982177734
0.056367918848991394 0.0496715307235717773 -0.0673568323254585266
-0.000395819544792175293 0.0513234846293926239 -0.0661566182971000671
0.0627982541918754578 0.0546551235020160675 -0.0637360438704490662
0.141396135091781616 0.0504490844905376434 -0.0667919069528579712
-0.000205352902412414551 0.0550880320370197296 -0.0634215176105499268
0.11454366147518158 0.0456040389835834503 -0.0703120380640029907
-0.0354023128747940063 0.0536373332142829895 -0.0644755065441131592
-0.00531782209873199463 0.0518294423818588257 -0.0657890215516090393
0.122107312083244324 0.0443419106304645538 -0.0712290257215499878
0.0915088355541229248 0.0489498749375343323 -0.0678811445832252502
0.101553410291671753 0.0497464872896671295 -0.0673023760318756104
