ply
format ascii 1.0
element vertex 781
property float x
property float y
property float z
end_header
1.10000002384185791 0.387209236621856689 3.08702588081359863
1.10000002384185791 0.513501465320587158 1.63883161544799805
1.10000002384185791 0.215723305940628052 4.46129655838012695
1.10000002384185791 0.474342375993728638 3.58901500701904297
1.10000002384185791 0.571252346038818359 4.05498456954956055
1.10000002384185791 0.228152006864547729 4.06117343902587891
1.10000002384185791 0.296660661697387695 2.98559904098510742
1.10000002384185791 0.340737134218215942 4.81569099426269531
1.10000002384185791 0.496996164321899414 2.40439105033874512
1.10000002384185791 0.274657160043716431 3.28808069229125977
1.10000002384185791 0.390603691339492798 4.51444101333618164
1.10000002384185791 0.620127677917480469 2.43422746658325195
1.10000002384185791 0.599433720111846924 2.16485691070556641
1.10000002384185791 0.525931358337402344 1.61948657035827637
1.10000002384185791 0.615118861198425293 3.62288618087768555
1.10000002384185791 0.488540887832641602 2.04337286949157715
1.10000002384185791 0.234166055917739868 4.54869556427001953
1.10000002384185791 0.241084486246109009 3.42790460586547852
1.10000002384185791 0.698621928691864014 4.6904597282409668
1.10000002384185791 0.587949275970458984 1.87967514991760254
1.10000002384185791 0.0373493432998657227 4.82434654235839844
1.10000002384185791 0.611279010772705078 2.22075128555297852
1.10000002384185791 0.630808711051940918 1.09076213836669922
1.10000002384185791 0.0718442201614379883 4.89625120162963867
1.10000002384185791 0.519776999950408936 1.41516947746276855
1.10000002384185791 0.54793095588684082 1.85099458694458008
1.10000002384185791 0.558719098567962646 2.79907560348510742
1.10000002384185791 0.383044421672821045 3.25378727912902832
1.10000002384185791 0.15103459358215332 4.46723365783691406
1.10000002384185791 0.553830742835998535 3.60116243362426758
1.10000002384185791 0.279873102903366089 4.33552885055541992
1.10000002384185791 0.31308513879776001 2.99158573150634766
1.10000002384185791 0.478628218173980713 3.11365556716918945
1.10000002384185791 0.48088228702545166 1.72395801544189453
1.10000002384185791 0.500054717063903809 1.56177949905395508
1.10000002384185791 0.259976059198379517 4.93011093139648438
1.10000002384185791 0.628612399101257324 1.09256815910339355
1.10000002384185791 0.543266654014587402 3.68456363677978516
1.10000002384185791 0.0968533754348754883 4.76706266403198242
1.10000002384185791 0.289416253566741943 4.31156492233276367
1.10000002384185791 0.440061807632446289 2.49487805366516113
1.10000002384185791 0.405777066946029663 3.08163785934448242
1.10000002384185791 0.340965151786804199 3.56997442245483398
1.10000002384185791 0.277651458978652954 4.40779209136962891
1.10000002384185791 0.339022427797317505 4.64603567123413086
1.10000002384185791 0.529184222221374512 2.99197149276733398
1.10000002384185791 0.567496716976165771 1.60561037063598633
1.10000002384185791 0.669406712055206299 2.03307700157165527
1.10000002384185791 0.600904881954193115 3.27067804336547852
1.10000002384185791 0.594186305999755859 1.27620697021484375
1.10000002384185791 0.396521866321563721 4.26622152328491211
1.10000002384185791 0.303683817386627197 3.52879810333251953
1.10000002384185791 0.605503261089324951 1.2045142650604248
1.10000002384185791 0.400885134935379028 4.67080593109130859
1.10000002384185791 0.450080037117004395 2.5887444019317627
1.10000002384185791 0.566953361034393311 3.51224970817565918
1.10000002384185791 0.590837240219116211 4.30349636077880859
1.10000002384185791 0.600032150745391846 2.87430620193481445
1.10000002384185791 0.5760001540184021 3.63506340980529785
1.10000002384185791 0.212693333625793457 3.60293984413146973
1.10000002384185791 0.230387955904006958 4.61954784393310547
1.10000002384185791 0.571277856826782227 2.39747285842895508
1.10000002384185791 0.680297791957855225 4.39217472076416016
1.10000002384185791 0.136824309825897217 4.83440256118774414
1.10000002384185791 0.681566894054412842 0.445163249969482422
1.10000002384185791 0.454786896705627441 3.86527800559997559
1.10000002384185791 0.608162045478820801 4.41052865982055664
1.10000002384185791 0.488940775394439697 2.8956301212310791
1.10000002384185791 0.311447829008102417 4.80966711044311523
1.10000002384185791 0.323498547077178955 3.22681570053100586
1.10000002384185791 0.410074055194854736 3.79941940307617188
1.10000002384185791 0.499257951974868774 3.25797939300537109
1.10000002384185791 0.546083331108093262 2.50382304191589355
1.10000002384185791 0.0824211239814758301 4.70699930191040039
1.10000002384185791 0.41633373498916626 4.17267894744873047
1.10000002384185791 0.553405821323394775 2.0525050163269043
1.10000002384185791 0.588740885257720947 2.75765585899353027
1.10000002384185791 0.666329920291900635 1.84600424766540527
1.10000002384185791 0.270781546831130981 3.14040899276733398
1.10000002384185791 0.68713003396987915 4.82543325424194336
1.10000002384185791 0.643084883689880371 2.10138034820556641
1.10000002384185791 0.668349921703338623 3.49256420135498047
1.10000002384185791 0.34483298659324646 4.8967132568359375
1.10000002384185791 0.541800141334533691 4.3361210823059082
1.10000002384185791 0.229627072811126709 4.10338068008422852
1.10000002384185791 0.531014859676361084 3.99153590202331543
1.10000002384185791 0.643581688404083252 4.69307422637939453
1.10000002384185791 0.574827849864959717 4.10117912292480469
1.10000002384185791 0.480121016502380371 3.91034984588623047
1.10000002384185791 0.262858778238296509 3.5635991096496582
1.10000002384185791 0.676652491092681885 4.69758272171020508
1.10000002384185791 0.311231255531311035 4.33637619018554688
1.10000002384185791 0.648768484592437744 0.893427371978759766
1.10000002384185791 0.50786590576171875 3.6362001895904541
1.10000002384185791 0.681922376155853271 1.42931056022644043
1.10000002384185791 0.507244586944580078 4.1861419677734375
1.10000002384185791 0.123147070407867432 4.49427318572998047
1.10000002384185791 0.372957557439804077 3.23445701599121094
1.10000002384185791 0.654173135757446289 1.81732988357543945
1.10000002384185791 0.32005000114440918 2.77624297142028809
1.10000002384185791 0.527425944805145264 2.40351295471191406
1.10000002384185791 0.665639996528625488 0.547296047210693359
1.10000002384185791 0.357541173696517944 5.01701974868774414
1.10000002384185791 0.648020625114440918 3.14511442184448242
1.10000002384185791 0.658818662166595459 1.24033665657043457
1.10000002384185791 0.635404348373413086 2.32958102226257324
1.10000002384185791 0.5388946533203125 4.07589292526245117
1.10000002384185791 0.326642364263534546 3.23247241973876953
1.10000002384185791 0.257991552352905273 4.05145406723022461
1.10000002384185791 0.536667704582214355 3.89413356781005859
1.10000002384185791 0.534342646598815918 2.66314697265625
1.10000002384185791 0.569031119346618652 2.48444104194641113
1.10000002384185791 0.42580839991569519 4.17685699462890625
1.10000002384185791 0.664254188537597656 3.49822425842285156
1.10000002384185791 0.157054245471954346 4.58960866928100586
1.10000002384185791 0.589323639869689941 1.4624483585357666
1.10000002384185791 0.332343935966491699 3.92385005950927734
1.10000002384185791 0.575368404388427734 4.26490306854248047
1.10000002384185791 0.676962673664093018 3.03288888931274414
1.10000002384185791 0.439301818609237671 2.63326644897460938
1.10000002384185791 0.596221745014190674 2.45440554618835449
1.10000002384185791 0.489777028560638428 4.7047123908996582
1.10000002384185791 0.324702650308609009 3.43719911575317383
1.10000002384185791 0.595608353614807129 1.76195359230041504
1.10000002384185791 0.437011569738388062 3.15848588943481445
1.10000002384185791 0.405388593673706055 4.9068913459777832
1.10000002384185791 0.541532039642333984 4.06110668182373047
1.10000002384185791 0.196563303470611572 4.94225263595581055
1.10000002384185791 0.589830517768859863 4.30944252014160156
1.10000002384185791 0.450533896684646606 4.0016016960144043
1.10000002384185791 0.50546717643737793 1.97544431686401367
1.10000002384185791 0.634916186332702637 1.09663200378417969
1.10000002384185791 0.613092780113220215 4.77296257019042969
1.10000002384185791 0.382964581251144409 3.27174758911132812
1.10000002384185791 0.596972942352294922 3.37021255493164062
1.10000002384185791 0.497826367616653442 4.78754329681396484
1.10000002384185791 0.407854735851287842 3.27386808395385742
1.10000002384185791 0.396063268184661865 4.35299444198608398
1.10000002384185791 0.602255284786224365 2.9519650936126709
1.10000002384185791 0.607948005199432373 0.906399250030517578
1.10000002384185791 0.427323520183563232 3.28843164443969727
1.10000002384185791 0.616902947425842285 0.63831329345703125
1.10000002384185791 0.548204779624938965 3.36184597015380859
1.10000002384185791 0.281321346759796143 3.7551875114440918
1.10000002384185791 0.45223766565322876 4.12650203704833984
1.10000002384185791 0.305700302124023438 4.39359664916992188
1.10000002384185791 0.528303086757659912 3.85758018493652344
1.10000002384185791 0.354884237051010132 3.32303667068481445
1.10000002384185791 0.210198551416397095 4.34458637237548828
1.10000002384185791 0.572613537311553955 2.7590949535369873
1.10000002384185791 0.373708397150039673 3.77144670486450195
1.10000002384185791 0.381823986768722534 4.25399112701416016
1.10000002384185791 0.481935322284698486 4.90673732757568359
1.10000002384185791 0.627492606639862061 3.79753589630126953
1.10000002384185791 0.62198030948638916 1.87487363815307617
1.10000002384185791 0.225572377443313599 3.42098855972290039
1.10000002384185791 0.528607368469238281 1.96297860145568848
1.10000002384185791 0.619196176528930664 4.90137147903442383
1.10000002384185791 0.461387991905212402 2.38355898857116699
1.10000002384185791 0.673949539661407471 3.38363552093505859
1.10000002384185791 0.175427675247192383 4.49927377700805664
1.10000002384185791 0.583075046539306641 2.87133646011352539
1.10000002384185791 0.684466958045959473 3.25168228149414062
1.10000002384185791 0.347178786993026733 2.71214079856872559
1.10000002384185791 0.692062199115753174 4.25002956390380859
1.10000002384185791 0.138838231563568115 4.84459543228149414
1.10000002384185791 0.54482191801071167 3.68888664245605469
1.10000002384185791 0.304069578647613525 3.93134117126464844
1.10000002384185791 0.524686098098754883 4.75026082992553711
1.10000002384185791 0.26655617356300354 4.14011287689208984
1.10000002384185791 0.675049304962158203 3.93804383277893066
1.10000002384185791 0.326195389032363892 2.8793635368347168
1.10000002384185791 0.476418465375900269 3.01749014854431152
1.10000002384185791 0.605793952941894531 2.93756771087646484
1.10000002384185791 0.562834858894348145 1.66145133972167969
1.10000002384185791 0.442671149969100952 3.4844965934753418
1.10000002384185791 0.629619836807250977 3.72469496726989746
1.10000002384185791 0.491711258888244629 4.40564155578613281
1.10000002384185791 0.655442714691162109 3.43831562995910645
1.10000002384185791 0.613653302192687988 2.63721561431884766
1.10000002384185791 0.365725100040435791 3.05623626708984375
1.10000002384185791 0.522123873233795166 4.8880000114440918
1.10000002384185791 0.596332788467407227 2.5158843994140625
1.10000002384185791 0.655800044536590576 3.23959827423095703
1.10000002384185791 0.388235628604888916 2.69382834434509277
1.10000002384185791 0.448852807283401489 1.92279243469238281
1.10000002384185791 0.490622907876968384 3.04071688652038574
1.10000002384185791 0.45503506064414978 4.73660421371459961
1.10000002384185791 0.32519194483757019 3.67830467224121094
1.10000002384185791 0.134779512882232666 4.96660327911376953
1.10000002384185791 0.452295511960983276 3.93104314804077148
1.10000002384185791 0.580878019332885742 2.31658029556274414
1.10000002384185791 0.514172732830047607 4.46675491333007812
1.10000002384185791 0.634535312652587891 4.71883964538574219
1.10000002384185791 0.545734405517578125 4.55498600006103516
1.10000002384185791 0.162910819053649902 4.70302724838256836
1.10000002384185791 0.670816719532012939 2.07361650466918945
1.10000002384185791 0.601557135581970215 4.39621877670288086
1.10000002384185791 0.260432451963424683 3.75321483612060547
1.10000002384185791 0.697347402572631836 0.977705478668212891
1.10000002384185791 0.620317161083221436 2.98842692375183105
1.10000002384185791 0.411804139614105225 2.65538525581359863
1.10000002384185791 0.330069422721862793 3.15332651138305664
1.10000002384185791 0.277855455875396729 3.69010829925537109
1.10000002384185791 0.682861685752868652 1.19038534164428711
1.10000002384185791 0.295277565717697144 4.10012578964233398
1.10000002384185791 0.104313194751739502 4.47892189025878906
1.10000002384185791 0.691817522048950195 0.39188385009765625
1.10000002384185791 0.339298993349075317 3.65243148803710938
1.10000002384185791 0.60902094841003418 4.85737752914428711
1.10000002384185791 0.302667886018753052 3.75726318359375
1.10000002384185791 0.648630619049072266 1.48574304580688477
1.10000002384185791 0.548582136631011963 1.68825173377990723
1.10000002384185791 0.492373198270797729 3.94464445114135742
1.10000002384185791 0.180929303169250488 4.27483320236206055
1.10000002384185791 0.608804821968078613 1.92816662788391113
1.10000002384185791 0.127296090126037598 4.86257791519165039
1.10000002384185791 0.621388792991638184 1.04773736000061035
1.10000002384185791 0.511179804801940918 4.72609043121337891
1.10000002384185791 0.544963359832763672 4.32096290588378906
1.10000002384185791 0.464817732572555542 4.57268810272216797
1.10000002384185791 0.596253514289855957 4.91618824005126953
1.10000002384185791 0.286861777305603027 4.18156099319458008
1.10000002384185791 0.669817149639129639 4.95911407470703125
1.10000002384185791 0.594277381896972656 3.44688224792480469
1.10000002384185791 0.696037173271179199 1.51938891410827637
1.10000002384185791 0.448870241641998291 2.31901168823242188
1.10000002384185791 0.434740930795669556 4.09020757675170898
1.10000002384185791 0.586965978145599365 2.8234245777130127
1.10000002384185791 0.685935795307159424 2.81718301773071289
1.10000002384185791 0.512691617012023926 2.02035403251647949
1.10000002384185791 0.585684001445770264 1.70456218719482422
1.10000002384185791 0.286498755216598511 3.71013021469116211
1.10000002384185791 0.474332630634307861 4.43687963485717773
1.10000002384185791 0.514241576194763184 1.93002176284790039
1.10000002384185791 0.149556338787078857 4.73278236389160156
1.10000002384185791 0.619910478591918945 0.743721485137939453
1.10000002384185791 0.381816178560256958 3.53869247436523438
1.10000002384185791 0.218900352716445923 4.56465816497802734
1.10000002384185791 0.638881802558898926 2.57743406295776367
1.10000002384185791 0.407087862491607666 3.60614395141601562
1.10000002384185791 0.672617554664611816 4.41810035705566406
1.10000002384185791 0.313248366117477417 4.88014841079711914
1.10000002384185791 0.467931628227233887 2.70692157745361328
1.10000002384185791 0.247162848711013794 4.29989433288574219
1.10000002384185791 0.508422791957855225 1.75115203857421875
1.10000002384185791 0.441793948411941528 3.77344751358032227
1.10000002384185791 0.556593179702758789 4.84663200378417969
1.10000002384185791 0.529390692710876465 1.70948410034179688
1.10000002384185791 0.559617877006530762 3.80797576904296875
1.10000002384185791 0.687152087688446045 0.300021648406982422
1.10000002384185791 0.262508422136306763 3.95868587493896484
1.10000002384185791 0.386798292398452759 4.65526485443115234
1.10000002384185791 0.637139439582824707 0.496953010559082031
1.10000002384185791 0.630992710590362549 0.97986602783203125
1.10000002384185791 0.368535280227661133 3.13595676422119141
1.10000002384185791 0.267285525798797607 4.81926774978637695
1.10000002384185791 0.694799363613128662 0.503749847412109375
1.10000002384185791 0.66946709156036377 1.09238171577453613
1.10000002384185791 0.351324319839477539 2.72024130821228027
1.10000002384185791 0.399222046136856079 3.1732783317565918
1.10000002384185791 0.526493608951568604 2.77044010162353516
1.10000002384185791 0.688751161098480225 3.68967294692993164
1.10000002384185791 0.594829082489013672 2.16237902641296387
1.10000002384185791 0.609839379787445068 1.47246861457824707
1.10000002384185791 0.241968929767608643 4.70930624008178711
1.10000002384185791 0.410797208547592163 2.83102011680603027
1.10000002384185791 0.191179215908050537 4.38651227951049805
1.10000002384185791 0.55147099494934082 4.6253352165222168
1.10000002384185791 0.526645302772521973 1.30033779144287109
1.10000002384185791 0.171267449855804443 4.61690616607666016
1.10000002384185791 0.355530351400375366 3.31847524642944336
1.10000002384185791 0.206275284290313721 4.14943456649780273
1.10000002384185791 0.246133118867874146 4.72149133682250977
1.10000002384185791 0.555718898773193359 1.31476879119873047
1.10000002384185791 0.523600578308105469 4.63227033615112305
1.10000002384185791 0.384715676307678223 4.61253213882446289
1.10000002384185791 0.434668868780136108 1.97278761863708496
1.10000002384185791 0.646474957466125488 3.32258462905883789
1.10000002384185791 0.337213784456253052 4.45289421081542969
1.10000002384185791 0.508900284767150879 2.52973747253417969
1.10000002384185791 0.202855527400970459 4.16009092330932617
1.10000002384185791 0.33001476526260376 2.77373075485229492
1.10000002384185791 0.454829514026641846 2.03579425811767578
1.10000002384185791 0.515169918537139893 1.99671077728271484
1.10000002384185791 0.441447526216506958 4.23936128616333008
1.10000002384185791 0.443669289350509644 3.04341697692871094
1.10000002384185791 0.545266211032867432 3.69707226753234863
1.10000002384185791 0.508720874786376953 2.9469447135925293
1.10000002384185791 0.308732122182846069 3.38713502883911133
1.10000002384185791 0.588562667369842529 2.75789070129394531
1.10000002384185791 0.64534914493560791 3.40400362014770508
1.10000002384185791 0.63039630651473999 3.50630784034729004
1.10000002384185791 0.611285865306854248 2.84135890007019043
1.10000002384185791 0.63150101900100708 3.97208261489868164
1.10000002384185791 0.360720515251159668 3.45344448089599609
1.10000002384185791 0.641660094261169434 1.64600276947021484
1.10000002384185791 0.66853564977645874 4.99145174026489258
1.10000002384185791 0.269780874252319336 4.38780927658081055
1.10000002384185791 0.649895310401916504 1.86889505386352539
1.10000002384185791 0.630125939846038818 0.847765445709228516
1.10000002384185791 0.484504580497741699 2.44429564476013184
1.10000002384185791 0.521837890148162842 3.30138683319091797
1.10000002384185791 0.643171846866607666 2.05922055244445801
1.10000002384185791 0.488016307353973389 1.97681665420532227
1.10000002384185791 0.424471944570541382 4.12768030166625977
1.10000002384185791 0.291835695505142212 4.72189617156982422
1.10000002384185791 0.497584223747253418 2.03469681739807129
1.10000002384185791 0.325319856405258179 4.81135416030883789
1.10000002384185791 0.493683099746704102 1.60265111923217773
1.10000002384185791 0.601084053516387939 2.71944713592529297
1.10000002384185791 0.645124435424804688 3.36142134666442871
1.10000002384185791 0.371185362339019775 4.46679353713989258
1.10000002384185791 0.423813611268997192 4.72439956665039062
1.10000002384185791 0.528966844081878662 2.2017817497253418
1.10000002384185791 0.637806415557861328 2.75614285469055176
1.10000002384185791 0.643353283405303955 2.27373361587524414
1.10000002384185791 0.495723843574523926 4.53897953033447266
1.10000002384185791 0.611020445823669434 1.57437586784362793
1.10000002384185791 0.644336163997650146 1.70384788513183594
1.10000002384185791 0.567614078521728516 1.47792792320251465
1.10000002384185791 0.384707033634185791 3.38478612899780273
1.10000002384185791 0.530716896057128906 4.63743162155151367
1.10000002384185791 0.557090818881988525 1.78497934341430664
1.10000002384185791 0.544797420501708984 2.29672670364379883
1.10000002384185791 0.670405149459838867 2.38509702682495117
1.10000002384185791 0.467686712741851807 4.69957065582275391
1.10000002384185791 0.497794032096862793 4.96891260147094727
1.10000002384185791 0.107527256011962891 4.49928998947143555
1.10000002384185791 0.436517804861068726 3.67836594581604004
1.10000002384185791 0.239724904298782349 4.60333490371704102
1.10000002384185791 0.514064133167266846 2.25433516502380371
1.10000002384185791 0.168764472007751465 4.92022228240966797
1.10000002384185791 0.576655924320220947 3.45004940032958984
1.10000002384185791 0.564881503582000732 2.63996100425720215
1.10000002384185791 0.402993351221084595 3.66381406784057617
1.10000002384185791 0.655846476554870605 0.668394088745117188
1.10000002384185791 0.202199310064315796 4.09643316268920898
1.10000002384185791 0.681258976459503174 4.11487245559692383
1.10000002384185791 0.346318513154983521 3.43334531784057617
1.10000002384185791 0.546758532524108887 3.63398361206054688
1.10000002384185791 0.662677586078643799 4.96629667282104492
1.10000002384185791 0.54625171422958374 1.50547289848327637
1.10000002384185791 0.168371081352233887 4.05690431594848633
1.10000002384185791 0.263188689947128296 3.95042991638183594
1.10000002384185791 0.536672353744506836 2.71938204765319824
1.10000002384185791 0.399069726467132568 4.22542905807495117
1.10000002384185791 0.392861485481262207 3.48594379425048828
1.10000002384185791 0.593194723129272461 3.36313581466674805
1.10000002384185791 0.61557471752166748 1.34796857833862305
1.10000002384185791 0.118094384670257568 4.93341541290283203
1.10000002384185791 0.620164036750793457 1.8802177906036377
1.10000002384185791 0.679083287715911865 2.85306262969970703
1.10000002384185791 0.541252374649047852 2.58087897300720215
1.10000002384185791 0.634256958961486816 1.52729058265686035
1.10000002384185791 0.457698404788970947 2.01528549194335938
1.10000002384185791 0.162456750869750977 4.13236045837402344
1.10000002384185791 0.47025907039642334 4.01304197311401367
1.10000002384185791 0.495300590991973877 3.66548299789428711
1.10000002384185791 0.475714921951293945 2.66686534881591797
1.10000002384185791 0.696468710899353027 3.74215078353881836
1.10000002384185791 0.659307599067687988 2.45235872268676758
1.10000002384185791 0.436768949031829834 2.61371064186096191
1.10000002384185791 0.221678674221038818 3.78903865814208984
1.10000002384185791 0.416236221790313721 3.23409366607666016
1.10000002384185791 0.50082850456237793 2.06155610084533691
1.10000002384185791 0.300294429063796997 4.43386602401733398
1.10000002384185791 0.583626687526702881 3.50879907608032227
1.10000002384185791 0.276868432760238647 3.61317253112792969
1.10000002384185791 0.569271624088287354 1.37164306640625
1.10000002384185791 0.6337166428565979 1.84117388725280762
1.10000002384185791 0.536467432975769043 4.42249631881713867
1.10000002384185791 0.066691279411315918 4.76978254318237305
1.10000002384185791 0.510273754596710205 3.86769700050354004
1.10000002384185791 0.588579952716827393 2.98610329627990723
1.10000002384185791 0.218872666358947754 4.35554027557373047
1.10000002384185791 0.481514692306518555 2.30735111236572266
1.10000002384185791 0.442274034023284912 3.61090207099914551
1.10000002384185791 0.610460102558135986 0.648499965667724609
1.10000002384185791 0.564718246459960938 2.71790981292724609
1.10000002384185791 0.495116472244262695 2.40118122100830078
1.10000002384185791 0.663651645183563232 1.30469846725463867
1.10000002384185791 0.566320836544036865 1.85132861137390137
1.10000002384185791 0.689793288707733154 0.450592994689941406
1.10000002384185791 0.674921512603759766 0.884320259094238281
1.10000002384185791 0.622796893119812012 2.54010844230651855
1.10000002384185791 0.664297401905059814 0.956467151641845703
1.10000002384185791 0.684993088245391846 1.2694847583770752
1.10000002384185791 0.465913861989974976 1.88968157768249512
1.10000002384185791 0.421183496713638306 2.68079733848571777
1.10000002384185791 0.24751812219619751 4.29493045806884766
1.10000002384185791 0.604826092720031738 4.8562922477722168
1.10000002384185791 0.364399164915084839 4.88955307006835938
1.10000002384185791 0.582152903079986572 1.25425052642822266
1.10000002384185791 0.443389654159545898 2.16113662719726562
1.10000002384185791 0.689266979694366455 3.17133498191833496
1.10000002384185791 0.416615754365921021 3.00494170188903809
1.10000002384185791 0.049344182014465332 4.97514438629150391
1.10000002384185791 0.604356229305267334 2.23518252372741699
1.10000002384185791 0.0808150768280029297 4.59724187850952148
1.10000002384185791 0.438708186149597168 2.49941468238830566
1.10000002384185791 0.693651795387268066 2.6242523193359375
1.10000002384185791 0.403348356485366821 3.68730783462524414
1.10000002384185791 0.664310693740844727 0.679358959197998047
1.10000002384185791 0.254685908555984497 4.43099689483642578
1.10000002384185791 0.47095826268196106 2.78131747245788574
1.10000002384185791 0.543397128582000732 3.0140986442565918
1.10000002384185791 0.623315095901489258 1.83582520484924316
1.10000002384185791 0.418565034866333008 3.72749519348144531
1.10000002384185791 0.608950614929199219 3.73339939117431641
1.10000002384185791 0.495405018329620361 2.09782624244689941
1.10000002384185791 0.624198079109191895 4.97106266021728516
1.10000002384185791 0.531377673149108887 3.48445820808410645
1.10000002384185791 0.394424349069595337 4.01420927047729492
1.10000002384185791 0.104082465171813965 4.50286149978637695
1.10000002384185791 0.428485304117202759 3.99207258224487305
1.10000002384185791 0.507322072982788086 1.8351747989654541
1.10000002384185791 0.603584468364715576 1.32848358154296875
1.10000002384185791 0.589193105697631836 2.09428858757019043
1.10000002384185791 0.412423014640808105 4.73081827163696289
1.10000002384185791 0.668474793434143066 2.93212985992431641
1.10000002384185791 0.683912873268127441 3.85645508766174316
1.10000002384185791 0.631251633167266846 4.25406646728515625
1.10000002384185791 0.698725640773773193 2.71581864356994629
1.10000002384185791 0.589782536029815674 4.92493391036987305
1.10000002384185791 0.56580507755279541 1.01697683334350586
1.10000002384185791 0.641008257865905762 2.31509280204772949
1.10000002384185791 0.316322892904281616 3.11954903602600098
1.10000002384185791 0.188113033771514893 4.26464366912841797
1.10000002384185791 0.616056442260742188 4.95586919784545898
1.10000002384185791 0.540441632270812988 4.88617801666259766
1.10000002384185791 0.674830377101898193 2.90831375122070312
1.10000002384185791 0.642528891563415527 1.45278835296630859
1.10000002384185791 0.146336793899536133 4.89924907684326172
1.10000002384185791 0.663429677486419678 1.37952494621276855
1.10000002384185791 0.235281825065612793 4.82133960723876953
1.10000002384185791 0.362379848957061768 2.73793148994445801
1.10000002384185791 0.457626402378082275 4.78065633773803711
1.10000002384185791 0.44355425238609314 4.12721538543701172
1.10000002384185791 0.642933189868927002 0.687952995300292969
1.10000002384185791 0.678861796855926514 0.467897891998291016
1.10000002384185791 0.596308469772338867 1.12987327575683594
1.10000002384185791 0.55746769905090332 2.59769940376281738
1.10000002384185791 0.502475917339324951 3.70820331573486328
1.10000002384185791 0.508611679077148438 2.70613431930541992
1.10000002384185791 0.571653604507446289 2.16399383544921875
1.10000002384185791 0.068800508975982666 4.57344245910644531
1.10000002384185791 0.621651530265808105 2.95393967628479004
1.10000002384185791 0.328394532203674316 4.25720119476318359
1.10000002384185791 0.51606142520904541 5.00007915496826172
1.10000002384185791 0.29866868257522583 4.36346101760864258
1.10000002384185791 0.692049384117126465 2.5378422737121582
1.10000002384185791 0.136617839336395264 4.15605306625366211
1.10000002384185791 0.55074465274810791 1.29761672019958496
1.10000002384185791 0.164205074310302734 4.72981929779052734
1.10000002384185791 0.580725610256195068 2.8122563362121582
1.10000002384185791 0.546549618244171143 4.94923305511474609
1.10000002384185791 0.618352413177490234 2.41940069198608398
1.10000002384185791 0.511257648468017578 4.59828376770019531
1.10000002384185791 0.363906621932983398 2.9122164249420166
1.10000002384185791 0.405141055583953857 4.99942207336425781
1.10000002384185791 0.671453237533569336 4.81037616729736328
1.10000002384185791 0.0898214578628540039 4.91700649261474609
1.10000002384185791 0.551030516624450684 2.83011174201965332
1.10000002384185791 0.644626498222351074 1.59715175628662109
1.10000002384185791 0.649728655815124512 1.56198430061340332
1.10000002384185791 0.323624640703201294 2.91919064521789551
1.10000002384185791 0.691896021366119385 3.3553316593170166
1.10000002384185791 0.391469448804855347 4.88784170150756836
0.282577455043792725 0.699999988079071045 0.245232820510864258
0.29773557186126709 0.699999988079071045 0.90057682991027832
0.737635135650634766 0.699999988079071045 1.06673300266265869
0.875847041606903076 0.699999988079071045 1.23524606227874756
1.08314943313598633 0.699999988079071045 0.574149072170257568
0.108483433723449707 0.699999988079071045 0.434300899505615234
0.734827876091003418 0.699999988079071045 0.361284136772155762
0.690853357315063477 0.699999988079071045 3.0982365608215332
1.0363154411315918 0.699999988079071045 0.613897442817687988
1.0728071928024292 0.699999988079071045 0.742197990417480469
0.724689781665802002 0.699999988079071045 3.25963163375854492
0.903443098068237305 0.699999988079071045 2.53756976127624512
1.04697000980377197 0.699999988079071045 0.206194952130317688
0.230682969093322754 0.699999988079071045 1.04929494857788086
0.273674070835113525 0.699999988079071045 0.841358423233032227
0.987229287624359131 0.699999988079071045 1.66470170021057129
0.371135592460632324 0.699999988079071045 1.17692089080810547
0.960844755172729492 0.699999988079071045 0.201642751693725586
0.407991647720336914 0.699999988079071045 1.62079668045043945
0.635576605796813965 0.699999988079071045 2.78966641426086426
1.0871269702911377 0.699999988079071045 1.60555601119995117
0.845317184925079346 0.699999988079071045 2.4154808521270752
0.809261202812194824 0.699999988079071045 2.52760410308837891
0.277002096176147461 0.699999988079071045 1.16050314903259277
0.805098533630371094 0.699999988079071045 1.16772937774658203
0.905883312225341797 0.699999988079071045 2.2972562313079834
0.826660990715026855 0.699999988079071045 0.00746059417724609375
0.816940844058990479 0.699999988079071045 1.87834787368774414
0.615012168884277344 0.699999988079071045 0.258121967315673828
0.971491396427154541 0.699999988079071045 0.310881853103637695
0.681951045989990234 0.699999988079071045 1.51752221584320068
0.75993800163269043 0.699999988079071045 2.64051008224487305
0.911064326763153076 0.699999988079071045 2.52290153503417969
0.688659727573394775 0.699999988079071045 1.69940698146820068
0.897310912609100342 0.699999988079071045 0.160179257392883301
0.593060076236724854 0.699999988079071045 2.43361401557922363
0.851186871528625488 0.699999988079071045 2.34249663352966309
0.781351685523986816 0.699999988079071045 0.34801781177520752
0.680055856704711914 0.699999988079071045 1.41104531288146973
0.98722076416015625 0.699999988079071045 2.90461635589599609
1.09069979190826416 0.699999988079071045 2.57107019424438477
0.962178051471710205 0.699999988079071045 2.63713312149047852
1.05171060562133789 0.699999988079071045 4.11950016021728516
1.00100612640380859 0.699999988079071045 0.212160110473632812
1.01518368721008301 0.699999988079071045 2.29274797439575195
0.250682353973388672 0.699999988079071045 0.526753664016723633
1.08615326881408691 0.699999988079071045 4.70501565933227539
0.732202112674713135 0.699999988079071045 3.20593905448913574
0.398389518260955811 0.699999988079071045 1.49252510070800781
0.949807643890380859 0.699999988079071045 1.51748955249786377
0.957232236862182617 0.699999988079071045 2.61168622970581055
1.02467143535614014 0.699999988079071045 2.04276561737060547
1.0323946475982666 0.699999988079071045 0.342361688613891602
1.07881367206573486 0.699999988079071045 4.62695169448852539
0.58038097620010376 0.699999988079071045 1.45016884803771973
0.878805041313171387 0.699999988079071045 3.23261022567749023
0.904199600219726562 0.699999988079071045 2.36206436157226562
0.588244915008544922 0.699999988079071045 1.04960131645202637
0.403195977210998535 0.699999988079071045 0.399519205093383789
1.04846405982971191 0.699999988079071045 2.69168376922607422
0.521017014980316162 0.699999988079071045 0.684741973876953125
0.404723763465881348 0.699999988079071045 1.55920624732971191
0.298242866992950439 0.699999988079071045 0.0557343959808349609
0.992186963558197021 0.699999988079071045 4.29389047622680664
0.41458505392074585 0.699999988079071045 0.572772741317749023
0.547740638256072998 0.699999988079071045 1.15142488479614258
1.00437438488006592 0.699999988079071045 3.93721914291381836
0.686539173126220703 0.699999988079071045 0.893004298210144043
0.65442657470703125 0.699999988079071045 0.307938575744628906
0.74063420295715332 0.699999988079071045 2.64250063896179199
0.852673590183258057 0.699999988079071045 1.34751570224761963
0.494696319103240967 0.699999988079071045 0.751131296157836914
0.951982378959655762 0.699999988079071045 4.27372264862060547
0.862304389476776123 0.699999988079071045 2.61058712005615234
0.991520106792449951 0.699999988079071045 3.66408872604370117
0.625681221485137939 0.699999988079071045 2.84121847152709961
1.0050959587097168 0.699999988079071045 0.520742297172546387
0.548683285713195801 0.699999988079071045 0.513577699661254883
0.879820168018341064 0.699999988079071045 2.68161535263061523
0.864942610263824463 0.699999988079071045 3.51830387115478516
0.614709079265594482 0.699999988079071045 0.379494190216064453
0.780738353729248047 0.699999988079071045 1.62827599048614502
0.807125568389892578 0.699999988079071045 2.13979816436767578
0.539939999580383301 0.699999988079071045 1.67489457130432129
0.957180023193359375 0.699999988079071045 2.2017359733581543
0.735257923603057861 0.699999988079071045 2.25974035263061523
1.05370461940765381 0.699999988079071045 0.754129886627197266
1.09880149364471436 0.699999988079071045 2.78373861312866211
0.961628913879394531 0.699999988079071045 3.81099915504455566
0.853556990623474121 0.699999988079071045 2.8642735481262207
0.88310849666595459 0.699999988079071045 0.707141518592834473
0.495896577835083008 0.699999988079071045 1.09000086784362793
1.00881385803222656 0.699999988079071045 2.67027854919433594
0.60013049840927124 0.699999988079071045 0.170177459716796875
0.56545025110244751 0.699999988079071045 2.43737030029296875
1.08007717132568359 0.699999988079071045 4.40217351913452148
0.322016239166259766 0.699999988079071045 1.28792285919189453
0.676715970039367676 0.699999988079071045 2.15179824829101562
0.394530594348907471 0.699999988079071045 0.474916696548461914
0.596167504787445068 0.699999988079071045 0.874011993408203125
0.0816895961761474609 0.699999988079071045 0.299292564392089844
0.837422847747802734 0.699999988079071045 0.27513885498046875
0.598176121711730957 0.699999988079071045 1.99680876731872559
0.828902363777160645 0.699999988079071045 1.77034521102905273
0.831483066082000732 0.699999988079071045 1.84900844097137451
0.956714987754821777 0.699999988079071045 1.56087303161621094
0.540931582450866699 0.699999988079071045 0.431146860122680664
0.87774813175201416 0.699999988079071045 2.32795596122741699
0.47132265567779541 0.699999988079071045 2.03261256217956543
0.974617481231689453 0.699999988079071045 2.0721430778503418
0.287788331508636475 0.699999988079071045 0.696900844573974609
1.06600272655487061 0.699999988079071045 2.53044795989990234
0.19909358024597168 0.699999988079071045 0.569657802581787109
1.09462547302246094 0.699999988079071045 3.83972644805908203
0.982566237449645996 0.699999988079071045 3.03609490394592285
0.71848762035369873 0.699999988079071045 2.30060482025146484
0.148362219333648682 0.699999988079071045 0.197468280792236328
0.571756422519683838 0.699999988079071045 2.30220270156860352
0.306630134582519531 0.699999988079071045 0.113591194152832031
0.617083549499511719 0.699999988079071045 2.19226503372192383
0.296286225318908691 0.699999988079071045 0.221987009048461914
0.956507980823516846 0.699999988079071045 2.20667290687561035
0.807053267955780029 0.699999988079071045 1.39692950248718262
1.0288006067276001 0.699999988079071045 0.830620169639587402
0.891367614269256592 0.699999988079071045 1.49746227264404297
0.350218415260314941 0.699999988079071045 1.44977092742919922
0.147993922233581543 0.699999988079071045 0.45162200927734375
0.523389816284179688 0.699999988079071045 2.3653256893157959
0.867241740226745605 0.699999988079071045 0.553215503692626953
0.619364142417907715 0.699999988079071045 1.31458616256713867
0.803037643432617188 0.699999988079071045 2.14343452453613281
1.09528839588165283 0.699999988079071045 1.01815629005432129
0.791813910007476807 0.699999988079071045 3.23863554000854492
0.597929298877716064 0.699999988079071045 1.15285110473632812
0.517326593399047852 0.699999988079071045 2.12071776390075684
1.04386270046234131 0.699999988079071045 4.47460651397705078
0.996741771697998047 0.699999988079071045 2.33032369613647461
0.525602817535400391 0.699999988079071045 1.6516718864440918
0.883329033851623535 0.699999988079071045 0.749726831912994385
0.83663707971572876 0.699999988079071045 1.8742518424987793
0.600761055946350098 0.699999988079071045 0.870724916458129883
0.818523108959197998 0.699999988079071045 0.408087611198425293
0.628521084785461426 0.699999988079071045 0.926206588745117188
0.483568131923675537 0.699999988079071045 1.26250362396240234
0.793889760971069336 0.699999988079071045 3.61850905418395996
0.269215643405914307 0.699999988079071045 0.104185819625854492
0.664540886878967285 0.699999988079071045 2.21879839897155762
1.03395700454711914 0.699999988079071045 2.29526114463806152
0.469318926334381104 0.699999988079071045 2.0603172779083252
1.06222701072692871 0.699999988079071045 2.93144059181213379
1.01830625534057617 0.699999988079071045 4.29938220977783203
0.280790328979492188 0.699999988079071045 0.220862865447998047
0.809229612350463867 0.699999988079071045 0.71563112735748291
0.818290948867797852 0.699999988079071045 2.17366743087768555
1.07135975360870361 0.699999988079071045 4.1740260124206543
0.829596757888793945 0.699999988079071045 0.921243548393249512
0.994766771793365479 0.699999988079071045 0.932462811470031738
0.689271926879882812 0.699999988079071045 2.57115936279296875
0.932815730571746826 0.699999988079071045 3.0939171314239502
0.545220494270324707 0.699999988079071045 0.385519266128540039
0.156522214412689209 0.699999988079071045 0.123372554779052734
0.143842995166778564 0.699999988079071045 0.627436161041259766
1.07054710388183594 0.699999988079071045 0.0426119863986968994
1.02788007259368896 0.699999988079071045 1.37537455558776855
1.09996676445007324 0.699999988079071045 1.60274362564086914
0.739016592502593994 0.699999988079071045 2.41090106964111328
0.412252902984619141 0.699999988079071045 0.498755693435668945
1.00139403343200684 0.699999988079071045 1.22429490089416504
0.35379403829574585 0.699999988079071045 0.00937509536743164062
1.02580022811889648 0.699999988079071045 0.0524778366088867188
1.03946208953857422 0.699999988079071045 1.15117096900939941
0.77963411808013916 0.699999988079071045 3.26185035705566406
0.994021475315093994 0.699999988079071045 4.47498798370361328
0.524338722229003906 0.699999988079071045 1.90160322189331055
0.380682051181793213 0.699999988079071045 0.851660251617431641
0.696208357810974121 0.699999988079071045 0.309552669525146484
0.849899649620056152 0.699999988079071045 1.42520952224731445
0.873518705368041992 0.699999988079071045 1.72094464302062988
0.339601516723632812 0.699999988079071045 0.475450515747070312
1.00738155841827393 0.699999988079071045 3.20225381851196289
0.365300476551055908 0.699999988079071045 1.32734036445617676
0.937169432640075684 0.699999988079071045 0.251883327960968018
0.655618131160736084 0.699999988079071045 2.60657644271850586
0.689833343029022217 0.699999988079071045 3.08210372924804688
0.93592679500579834 0.699999988079071045 0.611707985401153564
0.968819916248321533 0.699999988079071045 3.64623856544494629
0.988766968250274658 0.699999988079071045 3.74531888961791992
0.896912157535552979 0.699999988079071045 1.77863669395446777
0.54169619083404541 0.699999988079071045 0.204344749450683594
0.840013265609741211 0.699999988079071045 1.76002323627471924
0.760135233402252197 0.699999988079071045 3.05907535552978516
0.592119514942169189 0.699999988079071045 2.5505368709564209
0.570349574089050293 0.699999988079071045 0.130839824676513672
1.08389008045196533 0.699999988079071045 0.726257562637329102
0.968599438667297363 0.699999988079071045 4.01068401336669922
0.308679759502410889 0.699999988079071045 1.26896119117736816
0.460297048091888428 0.699999988079071045 0.0414025783538818359
0.868437111377716064 0.699999988079071045 2.15772104263305664
0.383933424949645996 0.699999988079071045 1.57688641548156738
0.472687661647796631 0.699999988079071045 1.43843936920166016
0.32838970422744751 0.699999988079071045 0.371110677719116211
0.78064727783203125 0.699999988079071045 0.233664274215698242
0.93207550048828125 0.699999988079071045 0.305521547794342041
0.842914104461669922 0.699999988079071045 0.237912893295288086
0.580282211303710938 0.699999988079071045 1.34360504150390625
0.975235342979431152 0.699999988079071045 4.01189613342285156
1.03773701190948486 0.699999988079071045 3.84408330917358398
0.700807332992553711 0.699999988079071045 2.53777694702148438
0.555909395217895508 0.699999988079071045 2.45480895042419434
0.220852375030517578 0.699999988079071045 0.620008468627929688
1.03453993797302246 0.699999988079071045 3.48371076583862305
0.728611350059509277 0.699999988079071045 1.5199199914932251
0.675515294075012207 0.699999988079071045 2.0772252082824707
0.894712567329406738 0.699999988079071045 0.478186309337615967
0.946811437606811523 0.699999988079071045 3.5524897575378418
1.08383023738861084 0.699999988079071045 4.944671630859375
0.265590667724609375 0.699999988079071045 0.850713253021240234
0.48027491569519043 0.699999988079071045 0.425407886505126953
0.436893701553344727 0.699999988079071045 1.84567427635192871
1.09653270244598389 0.699999988079071045 0.070473693311214447
0.732274651527404785 0.699999988079071045 0.444005012512207031
1.07962143421173096 0.699999988079071045 3.81498503684997559
0.487142324447631836 0.699999988079071045 0.598895788192749023
0.793828964233398438 0.699999988079071045 3.48283863067626953
0.783274650573730469 0.699999988079071045 0.698953151702880859
1.08655452728271484 0.699999988079071045 4.5792536735534668
0.230620801448822021 0.699999988079071045 0.428106069564819336
0.47076117992401123 0.699999988079071045 2.07505655288696289
0.900226950645446777 0.699999988079071045 1.93309259414672852
0.981095433235168457 0.699999988079071045 2.05770206451416016
0.745273828506469727 0.699999988079071045 3.00308418273925781
0.714415192604064941 0.699999988079071045 0.822596192359924316
1.02248024940490723 0.699999988079071045 1.62359297275543213
0.658664345741271973 0.699999988079071045 1.68995070457458496
1.05191183090209961 0.699999988079071045 0.129557490348815918
0.70794832706451416 0.699999988079071045 2.61964106559753418
0.411607742309570312 0.699999988079071045 0.0120942592620849609
0.731847822666168213 0.699999988079071045 1.5095674991607666
0.902082204818725586 0.699999988079071045 3.6199958324432373
0.311602532863616943 0.699999988079071045 1.25305771827697754
0.695827782154083252 0.699999988079071045 1.02795827388763428
0.919928252696990967 0.699999988079071045 0.0545431971549987793
0.645934700965881348 0.699999988079071045 2.01620101928710938
0.723094463348388672 0.699999988079071045 1.97600328922271729
0.527294337749481201 0.699999988079071045 1.23771309852600098
0.973873376846313477 0.699999988079071045 3.00703644752502441
0.290852248668670654 0.699999988079071045 0.484107017517089844
0.963805079460144043 0.699999988079071045 1.75770711898803711
0.947648882865905762 0.699999988079071045 2.45592069625854492
0.998361110687255859 0.699999988079071045 3.84534764289855957
0.344952583312988281 0.699999988079071045 0.359589099884033203
0.172917485237121582 0.699999988079071045 0.255586147308349609
0.3558310866355896 0.699999988079071045 0.317844152450561523
1.08407235145568848 0.699999988079071045 4.02343130111694336
0.269556760787963867 0.699999988079071045 0.286897897720336914
0.330714106559753418 0.699999988079071045 1.26628828048706055
0.932883143424987793 0.699999988079071045 3.25443148612976074
0.504650652408599854 0.699999988079071045 0.254540920257568359
0.753440737724304199 0.699999988079071045 1.14909887313842773
0.87795567512512207 0.699999988079071045 3.09949088096618652
0.745361685752868652 0.699999988079071045 2.82174110412597656
0.901747524738311768 0.699999988079071045 4.01269817352294922
0.962780117988586426 0.699999988079071045 4.10984373092651367
1.035788893699646 0.699999988079071045 2.37333774566650391
0.861386418342590332 0.699999988079071045 2.89741992950439453
0.608408451080322266 0.699999988079071045 2.23629260063171387
0.53064650297164917 0.699999988079071045 0.201693534851074219
0.23697960376739502 0.699999988079071045 0.685139894485473633
0.994998753070831299 0.699999988079071045 3.00197196006774902
0.363361775875091553 0.699999988079071045 0.288625001907348633
0.198307812213897705 0.699999988079071045 0.302892684936523438
0.82102668285369873 0.699999988079071045 0.689789056777954102
0.966235041618347168 0.699999988079071045 2.80870914459228516
0.409469008445739746 0.699999988079071045 0.829671382904052734
0.971236169338226318 0.699999988079071045 3.15104174613952637
1.07991015911102295 0.699999988079071045 3.43355464935302734
0.87928164005279541 0.699999988079071045 1.72253239154815674
1.08190023899078369 0.699999988079071045 0.894511222839355469
0.850351929664611816 0.699999988079071045 1.13455724716186523
0.482057094573974609 0.699999988079071045 0.0752413272857666016
0.428903758525848389 0.699999988079071045 1.40366888046264648
0.43017345666885376 0.699999988079071045 1.59058499336242676
0.474736273288726807 0.699999988079071045 0.247813224792480469
1.03855013847351074 0.699999988079071045 0.399114072322845459
0.914452970027923584 0.699999988079071045 0.183345139026641846
0.694892525672912598 0.699999988079071045 0.752893447875976562
0.477183163166046143 0.699999988079071045 0.280090570449829102
0.525832116603851318 0.699999988079071045 1.33311605453491211
0.728953123092651367 0.699999988079071045 2.51899170875549316
0.234583675861358643 0.699999988079071045 0.547407627105712891
0.457949221134185791 0.699999988079071045 1.46435165405273438
0.639143586158752441 0.699999988079071045 0.982073545455932617
0.946316361427307129 0.699999988079071045 0.447816550731658936
1.04916000366210938 0.699999988079071045 4.65627002716064453
1.00897872447967529 0.699999988079071045 4.28606081008911133
0.978569149971008301 0.699999988079071045 0.224981129169464111
0.739094734191894531 0.699999988079071045 1.69688844680786133
0.492138206958770752 0.699999988079071045 2.08026719093322754
0.87060701847076416 0.699999988079071045 2.40040111541748047
0.694600343704223633 0.699999988079071045 3.0647735595703125
0.667092978954315186 0.699999988079071045 0.405180096626281738
0.579923629760742188 0.699999988079071045 2.29187440872192383
0.971294820308685303 0.699999988079071045 3.13162827491760254
0.987861275672912598 0.699999988079071045 1.4982682466506958
0.677440285682678223 0.699999988079071045 2.82454538345336914
0.102613329887390137 0.699999988079071045 0.193970203399658203
0.240286946296691895 0.699999988079071045 1.09052515029907227
0.665520668029785156 0.699999988079071045 0.0532176494598388672
1.07660889625549316 0.699999988079071045 1.47626388072967529
0.377861917018890381 0.699999988079071045 1.06067013740539551
0.95813906192779541 0.699999988079071045 1.79824411869049072
0.895935356616973877 0.699999988079071045 3.93626666069030762
