ply
format ascii 1.0
element vertex 711
property float x
property float y
property float z
end_header
-0.0643249526619911194 -0.0335339605808258057 0.0287457741796970367
-0.0332106240093708038 -0.0372503474354743958 0.0233616530895233154
-0.0666501671075820923 -0.0387838594615459442 0.0211399849504232407
-0.0325733162462711334 -0.0381881073117256165 0.02200307697057724
-0.064004555344581604 -0.0356713682413101196 0.0256492029875516891
-0.0520659387111663818 -0.0372716821730136871 0.0233307480812072754
-0.0096187591552734375 -0.0252836104482412338 0.0362870320677757263
-0.00412585586309432983 -0.0256401821970939636 0.0359711386263370514
-0.027301352471113205 -0.0268807429820299149 0.0348720960319042206
-0.0209698863327503204 -0.0290640443563461304 0.0329378619790077209
-0.0247199460864067078 -0.0292664021253585815 0.0327585861086845398
-0.00243944674730300903 -0.02932736836373806 0.032704576849937439
-0.0476889200508594513 -0.0260626804083585739 0.0355968363583087921
-0.0386854633688926697 -0.0257797632366418839 0.0358474813401699066
-0.00167301762849092484 -0.0311255194246768951 0.0311115514487028122
-0.00183134153485298157 -0.0301205441355705261 0.032001882791519165
-0.0370170511305332184 -0.0274472031742334366 0.0343702547252178192
-0.03253168985247612 -0.0287521593272686005 0.0332141667604446411
-0.0399533137679100037 -0.0257371589541435242 0.0358852222561836243
-0.0120261050760746002 -0.0269316788762807846 0.0348269715905189514
-0.0257646273821592331 -0.0295734331011772156 0.0324865803122520447
-0.0359470099210739136 -0.0283017773181200027 0.0336131714284420013
-0.0223586633801460266 -0.0282391291111707687 0.0336686708033084869
-0.00199264101684093475 -0.03260812908411026 0.0297980755567550659
-0.0364528298377990723 -0.0265370495617389679 0.0351765826344490051
-0.00529166869819164276 -0.0324648953974246979 0.0299249682575464249
-0.0309328865259885788 -0.027429576963186264 0.0343858711421489716
-0.0313158184289932251 -0.0279305838048458099 0.0339420214295387268
-0.0231946595013141632 -0.0259795170277357101 0.0356705151498317719
-0.0602124296128749847 -0.0255367457866668701 0.0360627733170986176
-0.0284613333642482758 -0.0275570675730705261 0.0342729240655899048
-0.0249219704419374466 -0.0299490485340356827 0.0321538150310516357
-0.0101729994639754295 -0.0308035407215356827 0.0313967987895011902
-0.0151687338948249817 -0.0261234510689973831 0.0355429984629154205
-0.0114545281976461411 -0.0288767460733652115 0.0331037938594818115
-0.024886326864361763 -0.0268268957734107971 0.0349198020994663239
-0.0326184481382369995 -0.0290668383240699768 0.0329353846609592438
-0.0246422439813613892 -0.0256223399192094803 0.0359869450330734253
-0.0053033139556646347 -0.0299775116145610809 0.032128598541021347
-0.00114336982369422913 -0.0289527140557765961 0.0330364890396595001
-0.0297359172254800797 -0.028795197606086731 0.0331760384142398834
-0.0239533223211765289 -0.0274000149220228195 0.0344120599329471588
-0.031610589474439621 -0.0283973701298236847 0.0335284806787967682
-0.0166495852172374725 -0.0263512730598449707 0.0353411659598350525
-0.0270018111914396286 -0.027822570875287056 0.0340377092361450195
-0.0371717587113380432 -0.025342058390378952 0.0362352505326271057
-0.0503308773040771484 -0.0284223146736621857 0.0335063822567462921
-0.0450506135821342468 -0.0315372571349143982 0.0307467840611934662
-0.0663907825946807861 -0.0285131987184286118 0.0334258675575256348
-0.0613260418176651001 -0.0284049361944198608 0.0335217788815498352
-0.00466333329677581787 -0.0330895818769931793 0.0293715447187423706
-0.0482454895973205566 -0.0297776423394680023 0.0323056690394878387
-0.0464792996644973755 -0.0286369062960147858 0.0333162695169448853
-0.0566752143204212189 -0.0267383158206939697 0.0349982753396034241
-0.0424394235014915466 -0.0315630100667476654 0.0307239685207605362
-0.0499916225671768188 -0.0287211928516626358 0.0332415997982025146
-0.0360954888164997101 -0.031923338770866394 0.0304047446697950363
-0.0194627493619918823 -0.0325810089707374573 0.0298220999538898468
-0.0233663395047187805 -0.0329668037593364716 0.02948031947016716
-0.0398393422365188599 -0.0302169453352689743 0.0319164767861366272
-0.0581526085734367371 -0.0312741510570049286 0.0309798773378133774
-0.0257116220891475677 -0.0325935259461402893 0.0298110134899616241
-0.0589728057384490967 -0.0286051779985427856 0.0333443805575370789
-0.0266609117388725281 -0.0313557945191860199 0.0309075471013784409
-0.0160250961780548096 -0.0324219241738319397 0.0299630388617515564
-0.0679800212383270264 -0.0299130715429782867 0.0321856886148452759
-0.0463060438632965088 -0.0295418780297040939 0.0325145348906517029
-0.0270117968320846558 -0.0330342128872871399 0.0294205974787473679
-0.0147565752267837524 -0.0321344882249832153 0.0302176866680383682
-0.0143772177398204803 -0.0323284417390823364 0.0300458557903766632
-0.0422296561300754547 -0.0317864716053009033 0.0305260010063648224
-0.0100605227053165436 -0.032820139080286026 0.0296102501451969147
-0.0685122758150100708 -0.0277277156710624695 0.0341217443346977234
-0.0447797477245330811 -0.0320833250880241394 0.0302630104124546051
-0.0313978083431720734 -0.0324210450053215027 0.0299638174474239349
-0.0560517087578773499 -0.0306938327848911285 0.03149399533867836
-0.0169915258884429932 -0.0319626554846763611 0.0303699150681495667
-0.00258929282426834106 -0.0328656062483787537 0.0295699704438447952
-0.0402394458651542664 -0.0313570462167263031 0.0309064369648694992
-0.0471282824873924255 -0.0321700908243656158 0.030186142772436142
-0.0307808443903923035 -0.0299107730388641357 0.0321877226233482361
-0.0515892878174781799 -0.0329069793224334717 0.0295333173125982285
-0.0608780160546302795 -0.0276487693190574646 0.0341916829347610474
-0.0422684550285339355 -0.0309856720268726349 0.0312354452908039093
-0.00972160324454307556 -0.0321538634598255157 0.0302005186676979065
-0.0219130255281925201 -0.0314941927790641785 0.0307849366217851639
-0.0108064226806163788 -0.016864260658621788 0.0407588332891464233
-0.0549199096858501434 -0.0165127292275428772 0.0409433282911777496
-0.0366876944899559021 -0.0193331092596054077 0.0394630804657936096
-0.0318887718021869659 -0.0162359438836574554 0.0410885997116565704
-0.0084570758044719696 -0.0208614207804203033 0.0386609621345996857
-0.0111395921558141708 -0.0220822691917419434 0.0380202122032642365
-0.000456061214208602905 -0.0208658371120691299 0.0386586450040340424
-0.0140002155676484108 -0.0224699005484580994 0.0378167666494846344
-0.0188100077211856842 -0.0223726481199264526 0.0378678105771541595
-0.022971179336309433 -0.0210977662354707718 0.0385369174182415009
-0.00996734946966171265 -0.016506679356098175 0.0409465059638023376
-0.0162016451358795166 -0.0219623763114213943 0.0380831360816955566
-0.0150406667962670326 -0.0211272519081830978 0.0385214425623416901
-0.00729236938059329987 -0.019926317036151886 0.0391517430543899536
-0.000349987763911485672 -0.0242071375250816345 0.0369049981236457825
-0.00265350239351391792 -0.0245526209473609924 0.0367236733436584473
-0.00481434166431427002 -0.0208366438746452332 0.0386739671230316162
-0.0138861220329999924 -0.0203378833830356598 0.038935735821723938
-0.0412347652018070221 -0.0165661554783582687 0.0409152880311012268
-0.037819933146238327 -0.0162362884730100632 0.0410884171724319458
-0.0295685753226280212 -0.0167432129383087158 0.0408223643898963928
-0.0137266069650650024 -0.017734237015247345 0.0403022356331348419
-0.0287654753774404526 -0.0185712371021509171 0.0398629419505596161
-0.0338347405195236206 -0.0188657622784376144 0.0397083647549152374
-0.027761407196521759 -0.0183465816080570221 0.0399808511137962341
-0.0274511352181434631 -0.0179090388119220734 0.0402104891836643219
-0.00829280354082584381 -0.0200738795101642609 0.0390742942690849304
-0.00579012604430317879 -0.0241927094757556915 0.0369125679135322571
-0.0491888374090194702 -0.0159401949495077133 0.0412438176572322845
-0.00966147705912590027 -0.0192020721733570099 0.0395318567752838135
-0.0446985885500907898 -0.0168775711208581924 0.0407518446445465088
-0.0268357004970312119 -0.0177268311381340027 0.0403061211109161377
-0.00282744504511356354 -0.0218256916850805283 0.0381548739969730377
-0.0275504011660814285 -0.0179486069828271866 0.0401897244155406952
-0.0227962452918291092 -0.0192412249743938446 0.0395113043487071991
-0.0256622098386287689 -0.0208051633089780807 0.0386904887855052948
-0.0144169069826602936 -0.0169138684868812561 0.040732797235250473
-0.00803811103105545044 -0.0169509183615446091 0.0407133512198925018
-0.0272875167429447174 -0.015904424712061882 0.0412625931203365326
-0.0618825554847717285 -0.0158378798514604568 0.041297517716884613
-0.0449304655194282532 -0.0243562702089548111 0.0368267260491847992
-0.0204690918326377869 -0.0246818531304597855 0.0366558469831943512
-0.0219700708985328674 -0.0239199381321668625 0.0370557308197021484
-0.0608186982572078705 -0.020207233726978302 0.0390043072402477264
-0.0345540009438991547 -0.0245544984936714172 0.0367226898670196533
-0.0585837326943874359 -0.0225477889180183411 0.0377758890390396118
-0.0587257742881774902 -0.0171954464167356491 0.0405850112438201904
-0.067067272961139679 -0.0185150187462568283 0.0398924499750137329
-0.06075315922498703 -0.0222084149718284607 0.0379540063440799713
-0.0414809398353099823 -0.0210332069545984268 0.0385708026587963104
-0.0444305986166000366 -0.0197973176836967468 0.0392194464802742004
-0.050640009343624115 -0.0238960683345794678 0.0370682589709758759
-0.027344580739736557 -0.0239764563739299774 0.0370260663330554962
-0.0447125919163227081 -0.0209771208465099335 0.0386002399027347565
-0.0633017569780349731 -0.0166201163083314896 0.0408869683742523193
-0.0320958085358142853 -0.0240566320717334747 0.0369839891791343689
-0.0510228835046291351 -0.0249838903546333313 0.0364973247051239014
-0.05765528604388237 -0.0244736112654209137 0.0367651395499706268
-0.058615420013666153 -0.0239394307136535645 0.0370454974472522736
-0.032160591334104538 -0.0227207541465759277 0.0376851111650466919
-0.0433743596076965332 -0.0205209702253341675 0.0388396456837654114
-0.0490870773792266846 -0.0224967710673809052 0.0378026627004146576
-0.0531658679246902466 -0.0215546172112226486 0.0382971465587615967
-0.0680768415331840515 -0.0201562307775020599 0.0390310734510421753
-0.0629209801554679871 -0.0167857073247432709 0.0408000573515892029
-0.0386225655674934387 -0.0199441704899072647 0.0391423739492893219
-0.0606048479676246643 -0.0221553947776556015 0.0379818342626094818
-0.0440241247415542603 -0.0206541400402784348 0.0387697517871856689
-0.0169559009373188019 -0.0250672716647386551 0.0364535637199878693
-0.025522381067276001 -0.0235762260854244232 0.0372361242771148682
-0.0520436689257621765 -0.0193106606602668762 0.0394748635590076447
-0.050164639949798584 -0.0189896561205387115 0.0396433360874652863
-0.0388288013637065887 -0.0209318734705448151 0.0386239886283874512
-0.0279200933873653412 -0.0222552679479122162 0.0379294157028198242
-0.0252592861652374268 -0.0229002814739942551 0.0375908873975276947
-0.0418758690357208252 -0.0223174840211868286 0.0378967598080635071
-0.0650357156991958618 -0.0250539574772119522 0.0364605523645877838
-0.0461676567792892456 -0.0233643893152475357 0.0373473018407821655
-0.0608317852020263672 -0.0178684592247009277 0.0402317866683006287
-0.0212878361344337463 -0.0114430002868175507 0.0424215719103813171
-0.0176223423331975937 -0.012013082392513752 0.0422810576856136322
-0.0331450700759887695 -0.00619871867820620537 0.0437141731381416321
-0.0215831678360700607 -0.0109177269041538239 0.0425510406494140625
-0.020586114376783371 -0.00695098843425512314 0.0435287542641162872
-0.00447577983140945435 -0.0066838311031460762 0.0435946024954319
-0.00112816318869590759 -0.0107643567025661469 0.0425888411700725555
-0.0266040042042732239 -0.00546056311577558517 0.043896108865737915
-0.0281639248132705688 -0.00696775037795305252 0.043524622917175293
-0.0247041657567024231 -0.00551015511155128479 0.0438838861882686615
-0.0484909564256668091 -0.00674315262585878372 0.043579980731010437
-0.0344426296651363373 -0.00542757939547300339 0.0439042411744594574
-0.01009339839220047 -0.00614667171612381935 0.0437269993126392365
-0.014838051050901413 -0.00601899763569235802 0.0437584705650806427
-0.00872047990560531616 -0.00692514004185795784 0.0435351245105266571
-0.00480797886848449707 -0.0109059698879718781 0.0425539389252662659
-0.0277854297310113907 -0.00728686712682247162 0.0434459671378135681
-0.00142602995038032532 -0.0138136651366949081 0.041837252676486969
-0.0324990563094615936 -0.0054524419829249382 0.0438981130719184875
-0.0255583710968494415 -0.00707772234454751015 0.0434975177049636841
-0.00679855793714523315 -0.00993087142705917358 0.0427942797541618347
-0.0473705530166625977 -0.00594604527577757835 0.0437764488160610199
-0.00670984759926795959 -0.00615608040243387222 0.0437246821820735931
-0.0202022753655910492 -0.00763514451682567596 0.0433601252734661102
-0.0398296341300010681 -0.00708613032475113869 0.0434954427182674408
-0.00755014363676309586 -0.0131353391334414482 0.0420044474303722382
-0.0142035633325576782 -0.0131626930087804794 0.0419977046549320221
-0.0112512838095426559 -0.00988959893584251404 0.0428044497966766357
-0.013936750590801239 -0.00539259565994143486 0.0439128614962100983
-0.00366689357906579971 -0.0131574328988790512 0.0419990010559558868
-0.00326704233884811401 -0.00640287715941667557 0.0436638519167900085
-0.0213127546012401581 -0.00717279687523841858 0.0434740819036960602
-0.00407508015632629395 -0.0089662112295627594 0.0430320464074611664
-0.0369036272168159485 -0.00916093401610851288 0.0429840497672557831
-0.0369074270129203796 -0.00640025734901428223 0.0436644963920116425
-0.0247814767062664032 -0.0104803936555981636 0.042658831924200058
-0.0143148815259337425 -0.0124931558966636658 0.0421627312898635864
-0.0053864605724811554 -0.00926272571086883545 0.0429589599370956421
-0.0185042880475521088 -0.00595313357189297676 0.0437747016549110413
-0.067717134952545166 -0.0128814317286014557 0.0420670285820960999
-0.0264321118593215942 -0.0132722277194261551 0.0419707074761390686
-0.0569081902503967285 -0.012895721010863781 0.0420635081827640533
-0.054934326559305191 -0.0116847613826394081 0.0423619821667671204
-0.0587775334715843201 -0.00717768585309386253 0.043472878634929657
-0.0434952825307846069 -0.013505052775144577 0.0419133193790912628
-0.0626169592142105103 -0.0101199550554156303 0.0427476726472377777
-0.0448726937174797058 -0.0127358091995120049 0.0421029254794120789
-0.0264981910586357117 -0.0147071396932005882 0.0416170321404933929
-0.0601249933242797852 -0.011874346062541008 0.0423152558505535126
-0.0435451418161392212 -0.00984473153948783875 0.0428155101835727692
-0.0589746236801147461 -0.00939431600272655487 0.0429265275597572327
-0.0570761226117610931 -0.0140273226425051689 0.0417845919728279114
-0.0402019023895263672 -0.0117258056998252869 0.0423518642783164978
-0.0208155699074268341 -0.0156456343829631805 0.0413857139647006989
-0.0418518558144569397 -0.0148048121482133865 0.0415929593145847321
-0.0553179830312728882 -0.0126704368740320206 0.0421190373599529266
-0.0449691936373710632 -0.0144264157861471176 0.0416862256824970245
-0.0397992804646492004 -0.0122672533616423607 0.0422184094786643982
-0.0628659054636955261 -0.00879981275647878647 0.0430730581283569336
-0.0212875418365001678 -0.0135288778692483902 0.0419074483215808868
-0.0241052433848381042 -0.0132075808942317963 0.0419866405427455902
-0.0513069704174995422 -0.00845406576991081238 0.0431582778692245483
-0.0671936795115470886 -0.0138371903449296951 0.0418314561247825623
-0.0605120174586772919 -0.0150397475808858871 0.0415350534021854401
-0.0475439801812171936 -0.00916487537324428558 0.042983081191778183
-0.0370139218866825104 -0.0156507957726716995 0.0413844436407089233
-0.0526109784841537476 -0.00962967798113822937 0.0428685136139392853
-0.0429873578250408173 -0.00951318442821502686 0.0428972281515598297
-0.04396047443151474 -0.0133524676784873009 0.0419509299099445343
-0.065243743360042572 -0.0144450375810265541 0.041681632399559021
-0.0178029686212539673 -0.0130420718342065811 0.0420274361968040466
-0.0263984240591526031 -0.0154030211269855499 0.041445516049861908
-0.00630183890461921692 -0.0148958656936883926 0.041570514440536499
-0.0146727748215198517 -0.0144051890820264816 0.0416914559900760651
-0.0665707886219024658 -0.00668219896033406258 0.0435950048267841339
-0.0604520998895168304 -0.0120845157653093338 0.0422634519636631012
-0.0429969727993011475 -0.00965617969632148743 0.0428619831800460815
-0.0649352148175239563 -0.0153062045574188232 0.0414693765342235565
-0.055833037942647934 -0.0108600826933979988 0.0425652451813220978
-0.0336201936006546021 0.00462292879819869995 0.043927367776632309
-0.0284922793507575989 0.00112674618139863014 0.043927367776632309
-0.0114482790231704712 0.00447583757340908051 0.043927367776632309
-0.0067161954939365387 0.00200655520893633366 0.043927367776632309
-0.0161234792321920395 0.000407935585826635361 0.043927367776632309
-0.0357988402247428894 0.00439939415082335472 0.043927367776632309
-0.0424187295138835907 0.00331239961087703705 0.043927367776632309
-0.0352248214185237885 0.000514988787472248077 0.043927367776632309
-0.0244758520275354385 -0.00129338866099715233 0.043927367776632309
-0.0507741793990135193 0.00445837108418345451 0.043927367776632309
-0.0535696148872375488 0.00368285644799470901 0.043927367776632309
-0.00643870234489440918 0.00460730167105793953 0.043927367776632309
-0.0310962498188018799 0.00116807501763105392 0.043927367776632309
-0.0064007975161075592 0.00401863455772399902 0.043927367776632309
-0.0106775229796767235 -0.00231271795928478241 0.043927367776632309
-0.0286790560930967331 0.00161174265667796135 0.043927367776632309
-0.0483471378684043884 0.0034459833987057209 0.043927367776632309
-0.0464758388698101044 0.00219940696842968464 0.043927367776632309
-0.00998907163739204407 0.00425577815622091293 0.043927367776632309
-0.0300651248544454575 0.00257879053242504597 0.043927367776632309
-0.0507461503148078918 0.00454890960827469826 0.043927367776632309
-0.0075579620897769928 0.00226790434680879116 0.043927367776632309
-0.00789149291813373566 -0.000547959469258785248 0.043927367776632309
-0.00359439104795455933 -0.00223281700164079666 0.043927367776632309
-0.00877248495817184448 -0.000353517476469278336 0.043927367776632309
-0.0325921811163425446 0.0049822353757917881 0.043927367776632309
-0.0579645968973636627 0.0043435981497168541 0.043927367776632309
-0.00523048080503940582 -0.00192803749814629555 0.043927367776632309
-0.00868153944611549377 0.00117331370711326599 0.043927367776632309
-0.0335734263062477112 0.00325212208554148674 0.043927367776632309
-0.0489290729165077209 0.0052547934465110302 0.043927367776632309
-0.0072321966290473938 0.00377195142209529877 0.043927367776632309
-0.000893158605322241783 -0.00492459209635853767 0.043927367776632309
-0.0036753043532371521 0.00381015101447701454 0.043927367776632309
-0.0415015742182731628 0.00493382709100842476 0.043927367776632309
-0.00404435396194458008 0.00178611720912158489 0.043927367776632309
-0.0122696049511432648 0.00175914843566715717 0.043927367776632309
-0.0291986726224422455 0.000382366124540567398 0.043927367776632309
-0.0299414936453104019 0.000251465011388063431 0.043927367776632309
-0.00876002386212348938 0.00494864489883184433 0.043927367776632309
-0.0592263303697109222 -0.000416061957366764545 0.043927367776632309
-0.0463789254426956177 -0.00317417969927191734 0.043927367776632309
-0.0668160170316696167 -0.00480579957365989685 0.043927367776632309
-0.0422555580735206604 -0.00265279831364750862 0.043927367776632309
-0.0567569881677627563 -0.000789216137491166592 0.043927367776632309
-0.0596542805433273315 0.00128521607257425785 0.043927367776632309
-0.0501338392496109009 -0.00469509325921535492 0.043927367776632309
-0.0442382767796516418 -0.00134515389800071716 0.043927367776632309
-0.0211766399443149567 -0.00361083727329969406 0.043927367776632309
-0.0580989867448806763 0.000170494895428419113 0.043927367776632309
-0.0280917622148990631 -0.00331773841753602028 0.043927367776632309
-0.0433395281434059143 0.000945164822041988373 0.043927367776632309
-0.0638772770762443542 0.00412401091307401657 0.043927367776632309
-0.0122106373310089111 -0.00423928909003734589 0.043927367776632309
-0.0529251955449581146 -0.000803163507953286171 0.043927367776632309
-0.0667017027735710144 -0.00319774937815964222 0.043927367776632309
-0.0646600276231765747 -0.000543211936019361019 0.043927367776632309
-0.0501827672123908997 -0.00325342942960560322 0.043927367776632309
-0.0455865338444709778 0.000643234001472592354 0.043927367776632309
-0.0663166791200637817 -0.00345216388814151287 0.043927367776632309
-0.0686288699507713318 -0.000706067774444818497 0.043927367776632309
-0.0577165894210338593 0.00278300046920776367 0.043927367776632309
-0.0538598671555519104 0.00120489206165075302 0.043927367776632309
-0.0561876334249973297 -0.00372922280803322792 0.043927367776632309
-0.0570152923464775085 -0.00319775799289345741 0.043927367776632309
-0.0345893539488315582 -0.00497348560020327568 0.043927367776632309
-0.0237510725855827332 -0.0048103812150657177 0.043927367776632309
-0.0685103461146354675 -0.00117345235776156187 0.043927367776632309
-0.0625213906168937683 -0.000383665261324495077 0.043927367776632309
-0.0250880718231201172 -0.00485611613839864731 0.043927367776632309
-0.0470775142312049866 -0.00209656660445034504 0.043927367776632309
-0.0682142749428749084 0.00182453403249382973 0.043927367776632309
-0.0348251126706600189 -0.00185885047540068626 0.043927367776632309
-0.0486297272145748138 -0.000613386975601315498 0.043927367776632309
-0.024378698319196701 -0.00420911470428109169 0.043927367776632309
-0.0435717776417732239 -0.000669003231450915337 0.043927367776632309
-0.0459102466702461243 -0.00248703430406749249 0.043927367776632309
-0.0555939599871635437 -0.00364802009426057339 0.043927367776632309
-0.0209950730204582214 -0.00250769266858696938 0.043927367776632309
-0.0511695593595504761 0.00209450069814920425 0.043927367776632309
-0.0458905473351478577 0.0123842163011431694 0.0421895831823348999
-0.003286704421043396 0.0111073842272162437 0.0425042919814586639
-0.011261817067861557 0.0151462284848093987 0.0415088087320327759
-0.00315350666642189026 0.0115784900262951851 0.0423881746828556061
-0.031409531831741333 0.014522254467010498 0.0416626036167144775
-0.0352489277720451355 0.0128916297107934952 0.0420645177364349365
-0.0486555099487304688 0.0140317920595407486 0.0417834892868995667
-0.0173310954123735428 0.00817415211349725723 0.043227270245552063
-0.0128789711743593216 0.00771495979279279709 0.0433404520153999329
-0.0209426004439592361 0.0085398498922586441 0.0431371331214904785
-0.000779846683144569397 0.00702762417495250702 0.0435098633170127869
-0.0275532286614179611 0.0126942228525876999 0.0421131737530231476
-0.011846078559756279 0.0101206423714756966 0.0427475050091743469
-0.0169899910688400269 0.015284479595720768 0.0414747297763824463
-0.0256721228361129761 0.0127279395237565041 0.0421048626303672791
-0.00668401829898357391 0.00840129237622022629 0.0431712865829467773
-0.0012849271297454834 0.0114301983267068863 0.0424247272312641144
-0.015819089487195015 0.00943065807223320007 0.0429175682365894318
-0.00184753164649009705 0.00980905629694461823 0.0428243018686771393
-0.035748310387134552 0.0142067186534404755 0.0417403765022754669
-0.0356381721794605255 0.0148906931281089783 0.0415717922151088715
-0.0264246203005313873 0.0140010807663202286 0.0417910590767860413
-0.0193530265241861343 0.0106225423514842987 0.0426237955689430237
-0.000343378633260726929 0.0126078221946954727 0.0421344675123691559
-0.0055256374180316925 0.0127406753599643707 0.0421017222106456757
-0.0250885449349880219 0.0113124195486307144 0.0424537584185600281
-0.0526754744350910187 0.0141984736546874046 0.0417424067854881287
-0.00081200525164604187 0.0144886113703250885 0.0416708961129188538
-0.0207675229758024216 0.0116568850353360176 0.0423688516020774841
-0.0378179512917995453 0.0111453710123896599 0.0424949303269386292
-0.0109867453575134277 0.0147781865671277046 0.0415995195508003235
-0.0154420435428619385 0.0137648852542042732 0.0418492779135704041
-0.0100147239863872528 0.00899408198893070221 0.0430251769721508026
-0.0191678572446107864 0.0107947085052728653 0.042581360787153244
-0.0186115466058254242 0.00918528996407985687 0.0429780483245849609
-0.0424622111022472382 0.0155147993937134743 0.0414179638028144836
-0.0504759401082992554 0.0144950989633798599 0.0416692942380905151
-0.019987989217042923 0.0131459720432758331 0.042001824826002121
-0.0201101936399936676 0.0154478633776307106 0.041434459388256073
-0.0513803660869598389 0.0121238185092806816 0.0422537624835968018
-0.0346691161394119263 0.00561187556013464928 0.0438588149845600128
-0.0204800628125667572 0.006861833855509758 0.0435507260262966156
-0.0485953241586685181 0.0115074766799807549 0.0424056798219680786
-0.0503038391470909119 0.00928143970668315887 0.0429543480277061462
-0.0587535388767719269 0.00538542680442333221 0.0439146272838115692
-0.0597863383591175079 0.0127508146688342094 0.0420992225408554077
-0.0601789578795433044 0.0134897250682115555 0.0419171005487442017
-0.0685437172651290894 0.00937014352530241013 0.0429324842989444733
-0.0680483579635620117 0.0076570603996515274 0.0433547236025333405
-0.058248620480298996 0.00582785531878471375 0.0438055805861949921
-0.0527528077363967896 0.00560950394719839096 0.0438593998551368713
-0.0667662099003791809 0.0106849744915962219 0.0426084063947200775
-0.0587687641382217407 0.0115240057930350304 0.0424016043543815613
-0.0515924766659736633 0.00668794289231300354 0.0435935854911804199
-0.0645821765065193176 0.0123678259551525116 0.0421936213970184326
-0.0258711986243724823 0.00572707643732428551 0.0438304208219051361
-0.0379344001412391663 0.0099232010543346405 0.0427961684763431549
-0.0358961597084999084 0.00601954059675335884 0.0437583364546298981
-0.0601147934794425964 0.00567155331373214722 0.0438441075384616852
-0.0500460043549537659 0.00712193641811609268 0.0434866175055503845
-0.0180752687156200409 0.00550467567518353462 0.0438852384686470032
-0.0226771831512451172 0.00753868976607918739 0.0433838963508605957
-0.0491976216435432434 0.00920979678630828857 0.0429720059037208557
-0.0233269780874252319 0.0077308029867708683 0.0433365441858768463
-0.0330525152385234833 0.00997128523886203766 0.0427843183279037476
-0.0260168425738811493 0.00686841784045100212 0.0435491055250167847
-0.0538639090955257416 0.0102774985134601593 0.0427088439464569092
-0.016114160418510437 0.00710454024374485016 0.0434909090399742126
-0.0226404964923858643 0.00664062798023223877 0.0436052493751049042
-0.058398514986038208 0.00560837052762508392 0.0438596829771995544
-0.0475512221455574036 0.00846647284924983978 0.0431552194058895111
-0.0358890630304813385 0.0105321947485208511 0.0426460616290569305
-0.0545891113579273224 0.0106196561828255653 0.0426245070993900299
-0.0335834585130214691 0.00727060297504067421 0.0434499755501747131
-0.067291259765625 0.00900403410196304321 0.0430227257311344147
-0.0665716081857681274 0.0144877806305885315 0.0416711010038852692
-0.0545211359858512878 0.0101295802742242813 0.0427452996373176575
-0.0657533705234527588 0.0140159456059336662 0.0417873971164226532
-0.0314813926815986633 0.00650480389595031738 0.0436387285590171814
-0.0331500507891178131 0.0212843101471662521 0.0384390130639076233
-0.0459389500319957733 0.022749612107872963 0.0376699641346931458
-0.0224994979798793793 0.0193436034023761749 0.0394575744867324829
-0.0135956928133964539 0.0234164446592330933 0.0373199842870235443
-0.0419342443346977234 0.0241470057517290115 0.0369365550577640533
-0.00987085141241550446 0.018584519624710083 0.0398559719324111938
-0.00177678652107715607 0.0171462073922157288 0.0406108535826206207
-0.00440192222595214844 0.0217340998351573944 0.0382029451429843903
-0.010293181985616684 0.0246417894959449768 0.0366768725216388702
-0.000681247562170028687 0.0216574035584926605 0.0382431969046592712
-0.0318032689392566681 0.0220911614596843719 0.0380155444145202637
-0.0583306103944778442 0.024952305480837822 0.0365139022469520569
-0.00312856957316398621 0.0217877626419067383 0.0381747819483280182
-0.0590193793177604675 0.0238330569118261337 0.0371013283729553223
-0.0175459124147891998 0.0224960744380950928 0.0378030315041542053
-0.0135114230215549469 0.0190270803868770599 0.0396237000823020935
-0.0219813231378793716 0.0193064883351325989 0.0394770540297031403
-0.00664514116942882538 0.0183716583997011185 0.0399676896631717682
-0.0429958142340183258 0.0221373643726110458 0.0379912964999675751
-0.000184684060513973236 0.0170567780733108521 0.0406577922403812408
-0.0301084872335195541 0.0227676033973693848 0.0376605205237865448
-0.0255743488669395447 0.0200796686112880707 0.039071258157491684
-0.0106015540659427643 0.0214836634695529938 0.038334384560585022
-0.00525849219411611557 0.0176331121474504471 0.0403553098440170288
-0.0211841203272342682 0.0239508338272571564 0.0370395146310329437
-0.0179442949593067169 0.0227355435490608215 0.0376773476600646973
-0.0345935970544815063 0.0231580547988414764 0.0374555960297584534
-0.0195719096809625626 0.02181263267993927 0.0381617285311222076
-0.0135592818260192871 0.0239558108150959015 0.0370369032025337219
-0.0423060096800327301 0.0239707678556442261 0.0370290540158748627
-0.044228632003068924 0.0227781888097524643 0.0376549661159515381
-0.0504624955356121063 0.0241533592343330383 0.0369332209229469299
-0.0524624288082122803 0.0247641224414110184 0.0366126671433448792
-0.00753115490078926086 0.0234246589243412018 0.0373156741261482239
-0.0114551149308681488 0.0225917063653469086 0.037752840667963028
-0.0116753363981842995 0.0186146534979343414 0.0398401543498039246
-0.0038199201226234436 0.023951532319188118 0.0370391495525836945
-0.0183301940560340881 0.02307894267141819 0.0374971181154251099
-0.0110145397484302521 0.0230064131319522858 0.0375351831316947937
-0.0125626139342784882 0.0196910873055458069 0.0392751991748809814
-0.0367908068001270294 0.0172063503414392471 0.0405792891979217529
-0.0430005341768264771 0.0180302951484918594 0.040146850049495697
-0.0559624359011650085 0.0189669579267501831 0.0396552495658397675
-0.0213371813297271729 0.0171462595462799072 0.04061083123087883
-0.0530956201255321503 0.0183546841144561768 0.0399766005575656891
-0.0469105169177055359 0.017863074317574501 0.0402346141636371613
-0.0270018801093101501 0.0172733590006828308 0.0405441224575042725
-0.0162382796406745911 0.0173644647002220154 0.0404963046312332153
-0.0320597216486930847 0.0163092687726020813 0.0410501137375831604
-0.0628046691417694092 0.0236886348575353622 0.0371771305799484253
-0.0574939250946044922 0.017711324617266655 0.0403142571449279785
-0.020282696932554245 0.0164480283856391907 0.04097728431224823
-0.03718600794672966 0.0186477191746234894 0.039822801947593689
-0.051868051290512085 0.0163826625794172287 0.0410115942358970642
-0.0386711657047271729 0.0187617596238851547 0.0397629477083683014
-0.0281031951308250427 0.019353007897734642 0.0394526384770870209
-0.0573495514690876007 0.0183972939848899841 0.0399542339146137238
-0.0548911318182945251 0.0171179343014955521 0.040625695139169693
-0.0513246282935142517 0.016993233934044838 0.0406911410391330719
-0.0609573498368263245 0.0201159287244081497 0.039052225649356842
-0.0325995311141014099 0.0171933434903621674 0.0405861176550388336
-0.0431760326027870178 0.0159718543291091919 0.0412272028625011444
-0.0607618466019630432 0.0207956340163946152 0.0386954881250858307
-0.058902103453874588 0.0201632380485534668 0.0390273965895175934
-0.039659939706325531 0.0173206422477960587 0.0405193045735359192
-0.0559130944311618805 0.0183243919163942337 0.0399924963712692261
-0.0522930696606636047 0.015840066596865654 0.0412963703274726868
-0.0623004846274852753 0.0206195563077926636 0.0387879051268100739
-0.0591750144958496094 0.0225439835339784622 0.0377778857946395874
-0.0502645410597324371 0.0212391931563615799 0.0384626910090446472
-0.0290455557405948639 0.0193586982786655426 0.0394496507942676544
-0.0548600517213344574 0.021394854411482811 0.0383809953927993774
-0.0183073878288269043 0.017101384699344635 0.0406343787908554077
-0.0653921142220497131 0.020975802093744278 0.0386009290814399719
-0.0513151995837688446 0.0183830969035625458 0.0399616844952106476
-0.053719300776720047 0.0176564715802669525 0.0403430499136447906
-0.0463086515665054321 0.0197292119264602661 0.0392551906406879425
-0.059286653995513916 0.0226831156760454178 0.037704862654209137
-0.0423812195658683777 0.0203184336423873901 0.0389459431171417236
-1.86022371053695679e-05 0.0276354160159826279 0.0342035144567489624
-0.062596343457698822 0.0329132601618766785 0.0295277535915374756
-0.0496056452393531799 0.0311040263622999191 0.0311305932700634003
-0.0197736024856567383 0.0289405956864356995 0.0330472253262996674
-0.05265822634100914 0.0326251499354839325 0.0297829974442720413
-0.0448025278747081757 0.0307861883193254471 0.0314121730625629425
-0.0251087136566638947 0.0282355397939682007 0.033671848475933075
-0.0645010098814964294 0.032955169677734375 0.0294906236231327057
-0.0170439146459102631 0.0309147201478481293 0.0312983021140098572
-0.0278650484979152679 0.0324784182012081146 0.0299129895865917206
-0.0234842989593744278 0.0291616413742303848 0.0328513979911804199
-0.0170917361974716187 0.0320305526256561279 0.0303097646683454514
-0.0201672390103340149 0.0327726192772388458 0.0296523477882146835
-0.01894342340528965 0.0283001717180013657 0.0336145907640457153
-0.017208268865942955 0.0298280287533998489 0.0322610288858413696
-0.0446813218295574188 0.0309817343950271606 0.0312389358878135681
-0.0223637465387582779 0.0305848941206932068 0.0315905027091503143
-0.00494454056024551392 0.0330595970153808594 0.0293981097638607025
-0.0255225282162427902 0.0314029008150100708 0.0308658145368099213
-0.00126802455633878708 0.0270972847938537598 0.0346802584826946259
-0.0106894858181476593 0.0328705012798309326 0.0295656323432922363
-0.0294393822550773621 0.0300577785819768906 0.0320574864745140076
-0.000706531107425689697 0.0281752366572618484 0.0337252765893936157
-0.0440027602016925812 0.0319146327674388885 0.0304124597460031509
-0.0280118752270936966 0.0317719206213951111 0.0305388905107975006
-0.0273798033595085144 0.0321406424045562744 0.0302122309803962708
-0.00206194305792450905 0.0254440326243638992 0.0361449122428894043
-0.00466365925967693329 0.0279781762510538101 0.0338998548686504364
-0.0220110565423965454 0.0311624705791473389 0.0310788154602050781
-0.0646966546773910522 0.0327865481376647949 0.0296400096267461777
-0.0360639840364456177 0.0300986096262931824 0.0320213139057159424
-0.0653854608535766602 0.0328558199107646942 0.0295786410570144653
-0.0374902114272117615 0.0313742347061634064 0.0308912098407745361
-0.0160538777709007263 0.0323731228709220886 0.0300062708556652069
-0.0144649706780910492 0.0311688482761383057 0.0310731660574674606
-0.0527568235993385315 0.03222694993019104 0.03013576939702034
-0.00470399670302867889 0.0292738992720842361 0.0327519439160823822
-0.0327690169215202332 0.0296782944351434708 0.0323936827480792999
-0.0254255309700965881 0.0321420207619667053 0.0302110109478235245
-0.0184080712497234344 0.0312788747251033783 0.0309756919741630554
-0.0422958359122276306 0.0255406852811574936 0.0360592827200889587
-0.0203642100095748901 0.025630466639995575 0.0359797440469264984
-0.0388561338186264038 0.0272941123694181442 0.0345058850944042206
-0.043626297265291214 0.0294470787048339844 0.0325985215604305267
-0.0573524869978427887 0.026683492586016655 0.0350468456745147705
-0.0465013682842254639 0.0299411844462156296 0.0321607813239097595
-0.0552617460489273071 0.0271730944514274597 0.034613095223903656
-0.0493268445134162903 0.0297727659344673157 0.0323099866509437561
-0.00555803626775741577 0.025245247408747673 0.0363210178911685944
-0.0228659100830554962 0.0258764885365962982 0.0357617884874343872
-0.0255045108497142792 0.027393687516450882 0.034417666494846344
-0.0577145591378211975 0.0288351904600858688 0.0331406071782112122
-0.0477353855967521667 0.0291174259036779404 0.0328905656933784485
-0.0326541587710380554 0.0257805921137332916 0.0358467437326908112
-0.046150602400302887 0.0303453188389539719 0.0318027511239051819
-0.0444250032305717468 0.0256584454327821732 0.0359549559652805328
-0.046175934374332428 0.0299215950071811676 0.0321781337261199951
-0.0471104420721530914 0.0270558521151542664 0.0347169637680053711
-0.0588480085134506226 0.0261514540761709213 0.0355181880295276642
-0.0327568203210830688 0.0261102765798568726 0.0355546660721302032
-0.0566243566572666168 0.0277106128633022308 0.034136895090341568
-0.059408240020275116 0.0307994969189167023 0.0314003825187683105
-0.0477963835000991821 0.0285035166889429092 0.0334344469010829926
-0.0665445774793624878 0.0317342355847358704 0.0305722746998071671
-0.0228633619844913483 0.0277781523764133453 0.0340770594775676727
-0.066347561776638031 0.0324331708252429962 0.0299530737102031708
-0.0642901957035064697 0.0303219668567180634 0.0318234376609325409
-0.0495542734861373901 0.0260780006647109985 0.0355832651257514954
-0.0251872129738330841 0.027471635490655899 0.034348614513874054
-0.0342907831072807312 0.0289488621056079865 0.0330399014055728912
-0.0398680046200752258 0.0275481697171926498 0.0342808067798614502
-0.054573938250541687 0.026734616607427597 0.0350015498697757721
-0.0225075669586658478 0.0262024160474538803 0.0354730412364006042
-0.020696837455034256 0.0268120486289262772 0.0349329560995101929
-0.0434150286018848419 0.0281624067574739456 0.033736642450094223
-0.0496671199798583984 0.0283890180289745331 0.0335358791053295135
-0.0173540562391281128 0.026952303946018219 0.0348086990416049957
-0.0662512853741645813 0.0274411160498857498 0.0343756489455699921
-0.0295864157378673553 0.0265894234180450439 0.035130184143781662
-0.0528678223490715027 0.030481390655040741 0.0316822007298469543
-0.00385617557913064957 0.0347372069954872131 0.0270025674253702164
-0.0363141447305679321 0.0383946709334850311 0.0217038188129663467
-0.00551195815205574036 0.0389537811279296875 0.0208938084542751312
-0.051232948899269104 0.0391716137528419495 0.0205782204866409302
-0.0045003797858953476 0.0355829410254955292 0.0257773101329803467
-0.00474508479237556458 0.037653062492609024 0.0227782242000102997
-0.0139820016920566559 0.0352045856416225433 0.0263254530727863312
-0.0239576492458581924 0.0378085784614086151 0.0225529223680496216
-0.0152182243764400482 0.0370995104312896729 0.0235801804810762405
-0.0106321722269058228 0.0369043312966823578 0.0238629467785358429
-0.0147838257253170013 0.0378622449934482574 0.022475171834230423
-0.0451838560402393341 0.0371240824460983276 0.0235445834696292877
-0.0286589283496141434 0.0370196253061294556 0.0236959159374237061
-0.0197620317339897156 0.0385594815015792847 0.0214650463312864304
-0.00674804672598838806 0.0388119406998157501 0.0210993010550737381
-0.0492960959672927856 0.037843707948923111 0.0225020255893468857
-0.0136981643736362457 0.0389478616416454315 0.0209023822098970413
-0.0315514840185642242 0.0389488190412521362 0.0209009945392608643
-0.0277901068329811096 0.037012297660112381 0.0237065330147743225
-0.0209325645118951797 0.037022467702627182 0.0236917994916439056
-0.0311477892100811005 0.0371691137552261353 0.0234793424606323242
-0.0055054984986782074 0.037735961377620697 0.0226581208407878876
-0.0486881658434867859 0.038945324718952179 0.020906057208776474
-0.0361061692237854004 0.0384289063513278961 0.0216542202979326248
-0.00873507745563983917 0.036354556679725647 0.0246594324707984924
-0.0313223265111446381 0.0390395037829875946 0.0207696147263050079
-0.0193720310926437378 0.0380970686674118042 0.0221349727362394333
-0.0322330072522163391 0.0369329042732715607 0.0238215550780296326
-0.0275024380534887314 0.0382540225982666016 0.0219075810164213181
-0.0137715768069028854 0.0357709676027297974 0.0255049094557762146
-0.0323653966188430786 0.037770196795463562 0.0226085260510444641
-0.0487293079495429993 0.037522733211517334 0.0229670386761426926
-0.0511252731084823608 0.0380517616868019104 0.0222006067633628845
-0.0199556369334459305 0.0360286533832550049 0.0251315850764513016
-0.00519202230498194695 0.0337102673947811127 0.0284903459250926971
-0.0670428425073623657 0.0391080267727375031 0.0206703413277864456
-0.0251263361424207687 0.0355594754219055176 0.0258113071322441101
-0.00777741521596908569 0.0347165763378143311 0.0270324535667896271
-0.0331141054630279541 0.0363996773958206177 0.0245940666645765305
-0.0486558303236961365 0.0362496823072433472 0.0248113721609115601
-0.0491638481616973877 0.0349122136831283569 0.0267490297555923462
-0.0673233047127723694 0.0373675636947154999 0.023191843181848526
-0.0602562837302684784 0.0379434451460838318 0.022357529029250145
-0.0296920537948608398 0.0344121977686882019 0.0274734217673540115
-0.0469744652509689331 0.0364169813692569733 0.0245689917355775833
-0.0274332650005817413 0.0352192185819149017 0.0263042561709880829
-0.0488657057285308838 0.0335978232324123383 0.0286532491445541382
-0.0435231104493141174 0.0361242517828941345 0.0249930880963802338
-0.040399596095085144 0.0363446474075317383 0.0246737897396087646
-0.0361983180046081543 0.0344112366437911987 0.0274748187512159348
-0.029549282044172287 0.0346854105591773987 0.0270776096731424332
-0.0287967696785926819 0.0339779853820800781 0.028102487325668335
-0.05272679403424263 0.0354771912097930908 0.0259305201470851898
-0.0449674725532531738 0.0359307639300823212 0.0252734031528234482
-0.019532032310962677 0.0338464304804801941 0.0282930769026279449
-0.0641501620411872864 0.03567495197057724 0.0256440136581659317
-0.0290018767118453979 0.0351065285503864288 0.0264675114303827286
-0.0391413643956184387 0.0347339101135730743 0.0270073432475328445
-0.0479948185384273529 0.0366350561380386353 0.0242530591785907745
-0.026300184428691864 0.0352960787713527679 0.0261929016560316086
-0.0338214896619319916 0.0353727824985980988 0.0260817781090736389
-0.0529045313596725464 0.0354175418615341187 0.0260169301182031631
-0.0289622247219085693 0.033689890056848526 0.028519870713353157
-0.0548052564263343811 0.0357015803456306458 0.0256054308265447617
-0.0186322703957557678 0.0344152003526687622 0.0274690762162208557
-0.0244938693940639496 0.0348703190684318542 0.0268097203224897385
-0.0628808960318565369 0.0359330698847770691 0.0252700671553611755
-0.0111254565417766571 0.0332652106881141663 0.0291351266205310822
-0.0609234422445297241 0.035847790539264679 0.0253936145454645157
-0.0401931516826152802 0.0365764200687408447 0.0243380069732666016
-0.0330457352101802826 0.0352183394134044647 0.0263055264949798584
-0.0631696656346321106 0.0348246209323406219 0.0268759280443191528
-0.057970881462097168 0.0335679873824119568 0.0286964718252420425
-0.027445819228887558 0.0347372330725193024 0.0270025283098220825
-0.0647537931799888611 0.0342977717518806458 0.0276391971856355667
-0.0609015710651874542 0.0348515436053276062 0.0268369223922491074
-0.0283375382423400879 0.0346894077956676483 0.0270718205720186234
-0.00736447423696517944 0.0333163291215896606 0.0290610678493976593
-0.0578523986041545868 0.0349260121583938599 0.0267290323972702026
-0.0453683584928512573 0.0425731465220451355 0.0116207804530858994
-0.0456221997737884521 0.0418832749128341675 0.0134398182854056358
-0.0328403152525424957 0.0413881577551364899 0.0147453350946307182
-0.0077327042818069458 0.0421628542244434357 0.0127026252448558807
-0.0252073872834444046 0.0417598001658916473 0.0137653974816203117
-0.0190875902771949768 0.0427786670625209808 0.0110788596794009209
-0.0417483299970626831 0.0417123623192310333 0.0138904750347137451
-0.0283363573253154755 0.0411163792014122009 0.0154619552195072174
-0.0181420929729938507 0.0421102903783321381 0.0128412237390875816
-0.00342964380979537964 0.0411140955984592438 0.0154679827392101288
-0.0121708251535892487 0.0426929518580436707 0.0113048804923892021
-0.00386819615960121155 0.0413320958614349365 0.0148931629955768585
-0.0297067612409591675 0.0417078211903572083 0.0139024518430233002
-0.00178421288728713989 0.0418424904346466064 0.0135473553091287613
-0.0230052433907985687 0.0429145544767379761 0.0107205547392368317
-0.03072403185069561 0.0425234586000442505 0.0117517895996570587
-0.046622689813375473 0.0428559258580207825 0.0108751533553004265
-0.0176574885845184326 0.040845036506652832 0.0161774288862943649
-0.0234063565731048584 0.0412854850292205811 0.0150160584598779678
-0.03100552037358284 0.0421675592660903931 0.0126902228221297264
-0.0153186619281768799 0.0423537380993366241 0.0121993133798241615
-0.0496416613459587097 0.0429170839488506317 0.0107138855382800102
-0.00296228379011154175 0.0417430847883224487 0.0138094723224639893
-0.0247973222285509109 0.0410081557929515839 0.0157473180443048477
-0.0240654386579990387 0.0428812317550182343 0.010808420367538929
-0.0323278605937957764 0.0420108065009117126 0.0131035475060343742
-0.0260431915521621704 0.0410501696169376373 0.015636540949344635
-0.0105747468769550323 0.0403076037764549255 0.0175945200026035309
-0.0466860085725784302 0.0422560162842273712 0.0124569814652204514
-0.0515601560473442078 0.0422294102609157562 0.0125271398574113846
-0.000813569873571395874 0.0412651412189006805 0.0150697026401758194
-0.0120739415287971497 0.0429005324840545654 0.0107575347647070885
-0.00613177614286541939 0.0396978743374347687 0.0192022509872913361
-0.0406038202345371246 0.0421726293861865997 0.0126768574118614197
-0.0406695827841758728 0.0415369607508182526 0.0143529754132032394
-0.0197664052248001099 0.0421590805053710938 0.012712583877146244
-0.000428657978773117065 0.0415343157947063446 0.014359951950609684
-0.0280107073485851288 0.0428039133548736572 0.0110122943297028542
-0.0327571295201778412 0.0427383892238140106 0.0111850639805197716
-0.0391486883163452148 0.0427688471972942352 0.0111047523096203804
-0.0506058335304260254 0.039324592798948288 0.0201865155249834061
-0.0676396936178207397 0.0420320630073547363 0.0130474977195262909
-0.0502916425466537476 0.0402694046497344971 0.0176952425390481949
-0.041753523051738739 0.0408730953931808472 0.0161034427583217621
-0.0655589252710342407 0.0421522520482540131 0.0127305872738361359
-0.0672061294317245483 0.0401342660188674927 0.0180515777319669724
-0.045945286750793457 0.0413400381803512573 0.0148722156882286072
-0.0635545551776885986 0.0421598926186561584 0.0127104446291923523
-0.0450536236166954041 0.0402451157569885254 0.0177592933177947998
-0.0329160206019878387 0.0404447540640830994 0.0172328874468803406
-0.0631660521030426025 0.0425780713558197021 0.0116077987477183342
-0.0404137670993804932 0.0408265627920627594 0.0162261426448822021
-0.0486925840377807617 0.0392890982329845428 0.0202800985425710678
-0.0352760516107082367 0.03965793177485466 0.0193075705319643021
-0.0382229983806610107 0.0402335338294506073 0.0177898332476615906
-0.0576482675969600677 0.0410094074904918671 0.0157440155744552612
-0.0527392886579036713 0.0402250960469245911 0.0178120769560337067
-0.0282983630895614624 0.0397905930876731873 0.018957771360874176
-0.0532437674701213837 0.0392092317342758179 0.0204907022416591644
-0.0264754779636859894 0.0398456379771232605 0.0188126303255558014
-0.0651090219616889954 0.0400001294910907745 0.0184052754193544388
-0.0337234139442443848 0.0402535274624824524 0.0177371054887771606
-0.0455811396241188049 0.0396056696772575378 0.0194453727453947067
-0.0641776323318481445 0.0426513552665710449 0.0114145539700984955
-0.0649124383926391602 0.0410335026681423187 0.0156804844737052917
-0.0531832613050937653 0.0405937619507312775 0.0168399866670370102
-0.0537651032209396362 0.039786074310541153 0.0189696811139583588
-0.0524842068552970886 0.0397632792592048645 0.0190297849476337433
-0.0443129204213619232 0.0416156016290187836 0.0141456145793199539
-0.0209502391517162323 0.0396233946084976196 0.0193986315280199051
