ply
format ascii 1.0
element vertex 730
property float x
property float y
property float z
end_header
0.00890102982521057129 -0.251236200332641602 -0.110698975622653961
-0.165819495916366577 -0.253040105104446411 -0.106517061591148376
0.164717525243759155 -0.247566446661949158 -0.119206421077251434
-0.246744543313980103 -0.248957738280296326 -0.115981034934520721
0.0539537966251373291 -0.24704897403717041 -0.120406068861484528
0.104951515793800354 -0.248421847820281982 -0.117223367094993591
0.107415765523910522 -0.24769243597984314 -0.118914321064949036
-0.236268475651741028 -0.253265857696533203 -0.105993658304214478
-0.0849602669477462769 -0.249550610780715942 -0.114606603980064392
0.0446460992097854614 -0.246077269315719604 -0.122658729553222656
-0.242670506238937378 -0.246027395129203796 -0.122774355113506317
-0.228053703904151917 -0.253123015165328979 -0.106324814260005951
-0.149682164192199707 -0.247263908386230469 -0.119907796382904053
-0.158555448055267334 -0.253648072481155396 -0.105107620358467102
-0.00111857056617736816 -0.254029750823974609 -0.104222759604454041
0.127954661846160889 -0.252201884984970093 -0.108460232615470886
0.208703368902206421 -0.250120043754577637 -0.113286502659320831
0.153308510780334473 -0.257488608360290527 -0.096204221248626709
0.205459266901016235 -0.256180435419082642 -0.099236905574798584
0.204747334122657776 -0.257232427597045898 -0.0967980772256851196
0.0606137961149215698 -0.255372673273086548 -0.101109519600868225
0.0536226779222488403 -0.257511436939239502 -0.0961513221263885498
0.1426897794008255 -0.254878848791122437 -0.102254346013069153
-0.104204177856445312 -0.255437552928924561 -0.100959070026874542
-0.0147191286087036133 -0.257281064987182617 -0.0966853499412536621
0.190161794424057007 -0.257554471492767334 -0.0960515066981315613
0.100573897361755371 -0.254431664943695068 -0.10329107940196991
0.226648464798927307 -0.254733622074127197 -0.102591022849082947
0.155483424663543701 -0.257275879383087158 -0.0966973602771759033
0.172626346349716187 -0.255997896194458008 -0.0996600985527038574
-0.12923043966293335 -0.257782906293869019 -0.0955219864845275879
0.0561450421810150146 -0.256988108158111572 -0.0973645225167274475
0.0298556983470916748 -0.255872189998626709 -0.0999514907598495483
0.230777636170387268 -0.247481733560562134 -0.119402781128883362
-0.0364700555801391602 -0.2582530677318573 -0.0944320037961006165
0.0948221832513809204 -0.255532056093215942 -0.10074007511138916
0.205898851156234741 -0.247531324625015259 -0.119287855923175812
0.15108606219291687 -0.254529505968093872 -0.103064157068729401
0.119255378842353821 -0.254325300455093384 -0.103537596762180328
0.0190365612506866455 -0.257393062114715576 -0.0964257121086120605
-0.0826928019523620605 -0.256697356700897217 -0.0980385392904281616
0.000403553247451782227 -0.255197793245315552 -0.101514972746372223
0.0535317510366439819 -0.254650622606277466 -0.102783463895320892
0.110723361372947693 -0.253223985433578491 -0.106090746819972992
-0.0659759044647216797 -0.254566162824630737 -0.102979220449924469
-0.1719188392162323 -0.257770389318466187 -0.0955509841442108154
-0.134042739868164062 -0.257862359285354614 -0.0953377783298492432
-0.0378622710704803467 -0.253196179866790771 -0.106155194342136383
0.209913685917854309 -0.256098121404647827 -0.0994277819991111755
-0.0484068691730499268 -0.255418539047241211 -0.101003177464008331
0.114984586834907532 -0.253454595804214478 -0.105556167662143707
0.235822200775146484 -0.255929946899414062 -0.0998175814747810364
0.0537836998701095581 -0.257813185453414917 -0.0954517871141433716
0.0484561324119567871 -0.253933966159820557 -0.104444816708564758
0.174653470516204834 -0.250020653009414673 -0.113516911864280701
-0.234491020441055298 -0.257794111967086792 -0.0954960286617279053
-0.208042889833450317 -0.257147699594497681 -0.0969945266842842102
0.151507079601287842 -0.254478871822357178 -0.10318157821893692
0.134926259517669678 -0.250714540481567383 -0.111908279359340668
0.2334880530834198 -0.25796392560005188 -0.0951023250818252563
-0.177662432193756104 -0.256879150867462158 -0.0976171121001243591
0.0859062671661376953 -0.252867609262466431 -0.106916956603527069
0.0767668187618255615 -0.250732302665710449 -0.111867144703865051
0.00531634688377380371 -0.255666613578796387 -0.100428082048892975
0.117251679301261902 -0.253133088350296021 -0.106301434338092804
0.0665596574544906616 -0.254972606897354126 -0.102036982774734497
0.20723511278629303 -0.247482046484947205 -0.119402065873146057
-0.13347606360912323 -0.237287998199462891 -0.138074621558189392
-0.15733647346496582 -0.230141505599021912 -0.150452703237533569
-0.155152052640914917 -0.235041901469230652 -0.141964972019195557
-0.109695553779602051 -0.229950547218322754 -0.150783449411392212
-0.0735424607992172241 -0.235518127679824829 -0.141140133142471313
-0.240626662969589233 -0.231093123555183411 -0.148804441094398499
-0.0380151569843292236 -0.231049537658691406 -0.148879930377006531
-0.0400743782520294189 -0.230630606412887573 -0.149605557322502136
-0.0301073342561721802 -0.231773346662521362 -0.147626250982284546
-0.198696285486221313 -0.235833898186683655 -0.140593186020851135
-0.0447031408548355103 -0.233230218291282654 -0.145102903246879578
-0.146680146455764771 -0.232841908931732178 -0.145775467157363892
0.0716966539621353149 -0.230364620685577393 -0.150066256523132324
0.138294368982315063 -0.23332059383392334 -0.144946351647377014
0.109268009662628174 -0.233642891049385071 -0.144388124346733093
-0.223615348339080811 -0.240931421518325806 -0.131764024496078491
-0.150905802845954895 -0.235302940011024475 -0.141512826085090637
0.121676936745643616 -0.230273842811584473 -0.150223478674888611
0.018629610538482666 -0.235286429524421692 -0.141541451215744019
-0.21481730043888092 -0.241458654403686523 -0.130850851535797119
-0.256773382425308228 -0.238126829266548157 -0.136621728539466858
-0.156094372272491455 -0.239528834819793701 -0.134193360805511475
-0.0888701751828193665 -0.239479631185531616 -0.134278610348701477
-0.108983427286148071 -0.230902045965194702 -0.149135395884513855
-0.0629276037216186523 -0.233982264995574951 -0.143800318241119385
0.00317634642124176025 -0.231744110584259033 -0.147676914930343628
-0.209367856383323669 -0.236507818102836609 -0.139425933361053467
-0.0973165184259414673 -0.239684686064720154 -0.133923426270484924
-0.222443193197250366 -0.23999139666557312 -0.133392199873924255
0.107530839741230011 -0.231373414397239685 -0.148318961262702942
-0.261894345283508301 -0.244861453771591187 -0.12495703250169754
-0.26212581992149353 -0.245427712798118591 -0.123976223170757294
-0.103658273816108704 -0.230560839176177979 -0.149726375937461853
-0.0343657135963439941 -0.230250328779220581 -0.150264203548431396
-0.148696690797805786 -0.240344181656837463 -0.132781162858009338
0.0934149175882339478 -0.234367325901985168 -0.143133372068405151
-0.13695979118347168 -0.231794372200965881 -0.147589832544326782
-0.012198224663734436 -0.23292599618434906 -0.145629823207855225
0.102589920163154602 -0.23051685094833374 -0.149802565574645996
-0.115089669823646545 -0.236150309443473816 -0.140045136213302612
-0.0246262773871421814 -0.23556402325630188 -0.141060620546340942
-0.0788637697696685791 -0.231857955455780029 -0.147479727864265442
-0.00123776867985725403 -0.236311018466949463 -0.139766797423362732
-0.248573347926139832 -0.2446146160364151 -0.125384554266929626
0.00665940344333648682 -0.231600016355514526 -0.147926479578018188
-0.0551292598247528076 -0.231022804975509644 -0.148926258087158203
-0.0414358004927635193 -0.238290444016456604 -0.136338323354721069
-0.199847817420959473 -0.232499539852142334 -0.146368473768234253
-0.223939746618270874 -0.23434920608997345 -0.143164753913879395
-0.232065677642822266 -0.243048876523971558 -0.128096491098403931
-0.0304503627121448517 -0.236895620822906494 -0.138754233717918396
-0.171978965401649475 -0.234283313155174255 -0.143278881907463074
-0.0762442350387573242 -0.239809766411781311 -0.133706793189048767
0.0532158464193344116 -0.244409739971160889 -0.125739425420761108
0.237652838230133057 -0.243090540170669556 -0.12802433967590332
0.105027720332145691 -0.242034688591957092 -0.129853099584579468
0.0543237626552581787 -0.244706675410270691 -0.125225096940994263
0.264317989349365234 -0.230774343013763428 -0.149356573820114136
0.186208993196487427 -0.241428792476654053 -0.130902543663978577
0.155600473284721375 -0.239238962531089783 -0.134695455431938171
-0.0674606561660766602 -0.244161307811737061 -0.126169711351394653
-0.13819277286529541 -0.242941886186599731 -0.128281816840171814
0.0060837864875793457 -0.24043118953704834 -0.132630467414855957
0.215491712093353271 -0.231757581233978271 -0.147653564810752869
-0.170778006315231323 -0.245358467102050781 -0.12409617006778717
0.190964534878730774 -0.244855791330337524 -0.124966822564601898
-0.0541291534900665283 -0.240771964192390442 -0.132040232419967651
0.0252456814050674438 -0.24280257523059845 -0.128523096442222595
-0.0709731578826904297 -0.241362974047660828 -0.131016552448272705
0.0638420432806015015 -0.241315364837646484 -0.131099015474319458
0.0854567736387252808 -0.24342791736125946 -0.127439990639686584
-0.0235979259014129639 -0.242154136300086975 -0.129646226763725281
-0.0757893919944763184 -0.242848515510559082 -0.128443554043769836
0.163796290755271912 -0.244391113519668579 -0.125771671533584595
0.191941201686859131 -0.243260368704795837 -0.12773016095161438
0.245436996221542358 -0.23391425609588623 -0.143918082118034363
0.254845529794692993 -0.23101256787776947 -0.148943975567817688
0.160902470350265503 -0.23495076596736908 -0.142122820019721985
0.261534571647644043 -0.237330779433250427 -0.138000503182411194
0.231192469596862793 -0.239507600665092468 -0.134230151772499084
0.202034845948219299 -0.243971094489097595 -0.126499176025390625
-0.137257575988769531 -0.241825580596923828 -0.130215302109718323
0.164727985858917236 -0.244339033961296082 -0.125861868262290955
0.110287189483642578 -0.237245664000511169 -0.138147935271263123
0.239429056644439697 -0.234925210475921631 -0.142167091369628906
0.0994305163621902466 -0.24395674467086792 -0.126524016261100769
0.256522238254547119 -0.242075949907302856 -0.129781648516654968
0.229666560888290405 -0.242077931761741638 -0.129778236150741577
0.141010567545890808 -0.235842689871788025 -0.140577957034111023
0.148545414209365845 -0.24565240740776062 -0.123587042093276978
0.251639127731323242 -0.230513319373130798 -0.149808719754219055
0.0419607460498809814 -0.239387780427932739 -0.134437695145606995
0.215572148561477661 -0.233851075172424316 -0.144027531147003174
0.172810494899749756 -0.237628087401390076 -0.137485578656196594
0.252813845872879028 -0.241019606590270996 -0.131611272692680359
0.213747546076774597 -0.238943547010421753 -0.135207131505012512
0.158059418201446533 -0.242015957832336426 -0.129885569214820862
0.0943571031093597412 -0.236098691821098328 -0.140134528279304504
-0.0862904191017150879 -0.242322996258735657 -0.129353746771812439
-0.047670513391494751 -0.244214117527008057 -0.126078218221664429
-0.0490921437740325928 -0.239659205079078674 -0.133967548608779907
0.0816550999879837036 -0.242781221866607666 -0.128560081124305725
0.240044295787811279 -0.241554558277130127 -0.130684718489646912
0.212642669677734375 -0.245162859559059143 -0.124434970319271088
0.153159260749816895 -0.236728072166442871 -0.139044433832168579
-0.0268985629081726074 -0.245052874088287354 -0.124625459313392639
0.0263064205646514893 -0.21201835572719574 -0.174944981932640076
-0.0703028962016105652 -0.221667289733886719 -0.161984220147132874
-0.241784572601318359 -0.227759957313537598 -0.153800338506698608
0.0871506929397583008 -0.215967863798141479 -0.169639870524406433
0.0654273703694343567 -0.214807122945785522 -0.171199008822441101
-0.0427602380514144897 -0.215318247675895691 -0.170512452721595764
-0.260336190462112427 -0.221354931592941284 -0.162403777241706848
-0.0745789408683776855 -0.212039753794670105 -0.17491622269153595
-0.186276078224182129 -0.218469008803367615 -0.166280254721641541
-0.154381841421127319 -0.215819388628005981 -0.16983930766582489
0.154567137360572815 -0.2126750648021698 -0.174062862992286682
-0.0200395435094833374 -0.213816821575164795 -0.172529220581054688
0.0818381756544113159 -0.21437343955039978 -0.171781554818153381
-0.0523663163185119629 -0.215018555521965027 -0.170915007591247559
0.22478310763835907 -0.211456507444381714 -0.175699666142463684
-0.151374220848083496 -0.219579815864562988 -0.164788171648979187
-0.241278111934661865 -0.213052332401275635 -0.173556104302406311
0.247575119137763977 -0.211111560463905334 -0.176163017749786377
0.0605261325836181641 -0.21459805965423584 -0.171479836106300354
-0.0827303677797317505 -0.222936391830444336 -0.160279512405395508
-0.159793615341186523 -0.21097227931022644 -0.17635008692741394
-0.0401031747460365295 -0.219590663909912109 -0.164773598313331604
-0.230854630470275879 -0.219305515289306641 -0.165156617760658264
-0.220434337854385376 -0.227414309978485107 -0.154264628887176514
-0.232001200318336487 -0.218139424920082092 -0.166722968220710754
0.112722225487232208 -0.21230451762676239 -0.174560606479644775
-0.0624097883701324463 -0.215526089072227478 -0.170233264565467834
-0.215274974703788757 -0.215646684169769287 -0.17007128894329071
-0.138480931520462036 -0.21326051652431488 -0.173276454210281372
0.0811758935451507568 -0.213334724307060242 -0.173176780343055725
0.0797652155160903931 -0.211484655737876892 -0.175661861896514893
-0.215707167983055115 -0.218928009271621704 -0.1656637042760849
-0.269650697708129883 -0.227792948484420776 -0.153756022453308105
0.194710463285446167 -0.211880624294281006 -0.175129994750022888
-0.0986703634262084961 -0.223033681511878967 -0.160148829221725464
-0.133976727724075317 -0.211031243205070496 -0.17627088725566864
-0.184268355369567871 -0.218246549367904663 -0.166579067707061768
-0.167666003108024597 -0.222714170813560486 -0.160578012466430664
-0.263830482959747314 -0.216459006071090698 -0.168980151414871216
-0.12887360155582428 -0.212091118097305298 -0.174847230315208435
-0.136727750301361084 -0.220643132925033569 -0.163359895348548889
-0.21482415497303009 -0.221895411610603333 -0.16167779266834259
0.0707795172929763794 -0.210989251732826233 -0.176327303051948547
-0.182407230138778687 -0.212649628520011902 -0.174097031354904175
-0.173500895500183105 -0.217170372605323792 -0.168024614453315735
0.0107694342732429504 -0.217260599136352539 -0.167903423309326172
-0.208913132548332214 -0.211661055684089661 -0.175424918532371521
-0.243718713521957397 -0.215443611145019531 -0.170344054698944092
-0.147636353969573975 -0.212575614452362061 -0.174196451902389526
-0.267653405666351318 -0.218196600675582886 -0.16664615273475647
-0.168928772211074829 -0.219478577375411987 -0.164924159646034241
0.122378639876842499 -0.213628992438316345 -0.172781527042388916
-0.231761321425437927 -0.224456235766410828 -0.158238008618354797
0.0548647046089172363 -0.224536523222923279 -0.158130154013633728
-0.0676661431789398193 -0.224024936556816101 -0.158817321062088013
0.0395225435495376587 -0.224231526255607605 -0.158539831638336182
0.263916343450546265 -0.219716683030128479 -0.164604321122169495
0.0528998374938964844 -0.225423112511634827 -0.156939253211021423
-0.102610141038894653 -0.226552993059158325 -0.155421555042266846
-0.0185711979866027832 -0.226320251822471619 -0.155734211206436157
0.103395476937294006 -0.218379810452461243 -0.166400060057640076
-0.0169507265090942383 -0.221539735794067383 -0.162155553698539734
0.224390536546707153 -0.2221793532371521 -0.16129639744758606
0.248674005270004272 -0.223848491907119751 -0.159054353833198547
0.191451817750930786 -0.226242765784263611 -0.155838280916213989
0.0920092761516571045 -0.227360621094703674 -0.154336735606193542
0.239193707704544067 -0.22812226414680481 -0.153313666582107544
-0.0623959898948669434 -0.228372767567634583 -0.152977198362350464
0.0195692777633666992 -0.224041730165481567 -0.158794775605201721
0.0958083271980285645 -0.224157795310020447 -0.158638864755630493
0.140318110585212708 -0.219573497772216797 -0.164796680212020874
0.264538466930389404 -0.218396976590156555 -0.166377007961273193
-0.0873216390609741211 -0.226095288991928101 -0.156036362051963806
0.157898157835006714 -0.224747598171234131 -0.157846629619598389
0.0853905081748962402 -0.217225357890129089 -0.16795077919960022
0.00108325481414794922 -0.222946047782897949 -0.16026654839515686
0.143993258476257324 -0.216910809278488159 -0.168373286724090576
0.0632076114416122437 -0.227219134569168091 -0.154526785016059875
0.265877246856689453 -0.213578119874000549 -0.172849863767623901
0.130205214023590088 -0.225499898195266724 -0.156836137175559998
0.110262662172317505 -0.225402325391769409 -0.156967192888259888
0.112007737159729004 -0.22061215341091156 -0.163401499390602112
-0.176984786987304688 -0.227171480655670166 -0.154590815305709839
0.207513272762298584 -0.227681651711463928 -0.153905525803565979
0.25393107533454895 -0.221016377210617065 -0.162858530879020691
0.230766728520393372 -0.228376850485801697 -0.152971699833869934
0.210250332951545715 -0.223060905933380127 -0.160112276673316956
0.221527427434921265 -0.217132896184921265 -0.168074965476989746
-0.0864660441875457764 -0.226570278406143188 -0.155398368835449219
0.144122883677482605 -0.227990016341209412 -0.153491318225860596
0.12389865517616272 -0.217366382479667664 -0.167761340737342834
0.112700670957565308 -0.217651903629302979 -0.167377829551696777
-0.0425983965396881104 -0.228896662592887878 -0.152273491024971008
0.123936980962753296 -0.221232250332832336 -0.162568569183349609
0.223153486847877502 -0.224996522068977356 -0.157512277364730835
0.0185781717300415039 -0.220769390463829041 -0.163190290331840515
0.0607020854949951172 -0.225737854838371277 -0.156516507267951965
0.0689574778079986572 -0.227144151926040649 -0.154627516865730286
0.199353277683258057 -0.213815778493881226 -0.172530636191368103
0.154022544622421265 -0.228661060333251953 -0.152589946985244751
0.25741991400718689 -0.228357881307601929 -0.15299716591835022
-0.0879196822643280029 -0.229378953576087952 -0.151625648140907288
0.0992093831300735474 -0.217024251818656921 -0.16822090744972229
0.0283812880516052246 -0.21942920982837677 -0.164990469813346863
0.215824857354164124 -0.228440836071968079 -0.152885764837265015
-0.038860321044921875 -0.229331135749816895 -0.151689887046813965
-0.176882684230804443 -0.201130464673042297 -0.18686966598033905
-0.139814317226409912 -0.193274915218353271 -0.195196062326431274
-0.255297094583511353 -0.202804595232009888 -0.18509519100189209
-0.266290098428726196 -0.203629955649375916 -0.184220358729362488
-0.216248199343681335 -0.195769801735877991 -0.1925516277551651
0.18143126368522644 -0.190899237990379333 -0.197714135050773621
-0.0704482197761535645 -0.198284715414047241 -0.189885973930358887
-0.2616443932056427 -0.20145772397518158 -0.186522796750068665
-0.0702267438173294067 -0.197162240743637085 -0.191075727343559265
0.0276109650731086731 -0.195698052644729614 -0.192627683281898499
-0.26358640193939209 -0.201178088784217834 -0.186819180846214294
-0.0112481266260147095 -0.193962693214416504 -0.194467052817344666
-0.20581170916557312 -0.204328432679176331 -0.183480009436607361
-0.150416627526283264 -0.201787501573562622 -0.186173230409622192
0.0987519398331642151 -0.191083088517189026 -0.197519257664680481
-0.12563575804233551 -0.1977243572473526 -0.190479934215545654
0.0989532023668289185 -0.193789616227149963 -0.194650515913963318
0.248451769351959229 -0.188834935426712036 -0.199902161955833435
-0.160480409860610962 -0.20296911895275116 -0.184920802712440491
0.051202043890953064 -0.195096582174301147 -0.193265214562416077
-0.0189957842230796814 -0.197663336992263794 -0.190544605255126953
-0.231062605977058411 -0.197768032550811768 -0.190433621406555176
-0.0481657981872558594 -0.18873441219329834 -0.20000872015953064
-0.259804040193557739 -0.196312248706817627 -0.191976666450500488
-0.148072957992553711 -0.199576079845428467 -0.188517212867736816
-0.043231666088104248 -0.192429274320602417 -0.196092396974563599
-0.0721124112606048584 -0.201366528868675232 -0.18661944568157196
-0.0969995558261871338 -0.196154356002807617 -0.192144036293029785
-0.0927922353148460388 -0.198860093951225281 -0.189276114106178284
-0.0489536598324775696 -0.199478283524513245 -0.188620865345001221
-0.197162449359893799 -0.205796182155609131 -0.181924283504486084
-0.163889393210411072 -0.195325136184692383 -0.193022951483726501
-0.106832683086395264 -0.191244557499885559 -0.197348117828369141
-0.215268522500991821 -0.198499232530593872 -0.189658612012863159
0.219007045030593872 -0.189084932208061218 -0.199637189507484436
-0.260503530502319336 -0.191805601119995117 -0.196753442287445068
-0.252341151237487793 -0.208983451128005981 -0.178545981645584106
0.00377961993217468262 -0.193942785263061523 -0.194488167762756348
0.0221933778375387192 -0.197867944836616516 -0.1903277188539505
-0.196075856685638428 -0.206608548760414124 -0.181063234806060791
-0.196383804082870483 -0.190024688839912415 -0.198641091585159302
0.152648553252220154 -0.193060323596000671 -0.195423513650894165
-0.0223402604460716248 -0.198969870805740356 -0.189159765839576721
-0.182210668921470642 -0.193378344178199768 -0.195086434483528137
-0.199756279587745667 -0.199581831693649292 -0.188511118292808533
0.0292869359254837036 -0.194265425205230713 -0.19414617121219635
0.0957153812050819397 -0.195617944002151489 -0.192712604999542236
-0.136054724454879761 -0.196506142616271973 -0.191771164536476135
0.0845255106687545776 -0.18992258608341217 -0.198749318718910217
-0.0775352567434310913 -0.198954641819000244 -0.189175903797149658
-0.156238347291946411 -0.188938990235328674 -0.199791878461837769
-0.168147772550582886 -0.191504403948783875 -0.197072699666023254
-0.0473934337496757507 -0.200328275561332703 -0.187719926238059998
0.0698440223932266235 -0.198127195239067078 -0.19005294144153595
0.126303255558013916 -0.205256298184394836 -0.182496547698974609
0.0114209353923797607 -0.201420828700065613 -0.186561897397041321
-0.0574065744876861572 -0.202534422278404236 -0.185381561517715454
0.200538694858551025 -0.197531133890151978 -0.190684720873832703
-0.149047970771789551 -0.207553014159202576 -0.180062174797058105
-0.18991243839263916 -0.208231881260871887 -0.179342597723007202
0.0200330615043640137 -0.203095972537994385 -0.184786349534988403
0.13911283016204834 -0.206299081444740295 -0.181391254067420959
-0.0491150617599487305 -0.204558491706848145 -0.183236166834831238
0.231054544448852539 -0.190808698534965515 -0.197810098528862
0.0540735423564910889 -0.199963390827178955 -0.188106685876846313
0.036482006311416626 -0.210548698902130127 -0.176886901259422302
0.26840934157371521 -0.199762001633644104 -0.188320145010948181
-0.0728210806846618652 -0.208890795707702637 -0.178644195199012756
0.169720441102981567 -0.193217873573303223 -0.195256516337394714
-0.035562366247177124 -0.204330459237098694 -0.183477863669395447
0.174821630120277405 -0.204618752002716064 -0.183172285556793213
-0.138827264308929443 -0.208287328481674194 -0.179283812642097473
0.232322365045547485 -0.202055290341377258 -0.185889407992362976
0.111531853675842285 -0.203303039073944092 -0.184566855430603027
0.232235163450241089 -0.192748591303825378 -0.195753946900367737
0.160815462470054626 -0.209382101893424988 -0.178123444318771362
0.160742104053497314 -0.203401640057563782 -0.184462368488311768
-0.111678123474121094 -0.206831410527229309 -0.18082699179649353
0.246398046612739563 -0.195526570081710815 -0.192809462547302246
0.222912326455116272 -0.208204939961433411 -0.17937113344669342
0.244810134172439575 -0.203592166304588318 -0.184260398149490356
0.266853302717208862 -0.200727835297584534 -0.187296405434608459
0.131112128496170044 -0.206783562898635864 -0.180877715349197388
0.259324997663497925 -0.208945870399475098 -0.178585812449455261
0.169466078281402588 -0.208436056971549988 -0.179126188158988953
0.209301367402076721 -0.20627690851688385 -0.181414768099784851
0.183211565017700195 -0.201422706246376038 -0.186559900641441345
0.150394469499588013 -0.195667430758476257 -0.192660152912139893
-0.152436971664428711 -0.206933170557022095 -0.180719137191772461
0.15059584379196167 -0.196261286735534668 -0.19203069806098938
0.102721154689788818 -0.197785437107086182 -0.190415188670158386
0.141451805830001831 -0.209316655993461609 -0.178192809224128723
0.185618206858634949 -0.208697766065597534 -0.178848788142204285
0.159999459981918335 -0.201248317956924438 -0.186744734644889832
0.0351500958204269409 -0.202721446752548218 -0.185183331370353699
0.0500539094209671021 -0.204189300537109375 -0.183627486228942871
0.245020613074302673 -0.193986088037490845 -0.194442272186279297
0.215148225426673889 -0.207870081067085266 -0.179726079106330872
-0.00644719600677490234 -0.206167846918106079 -0.18153032660484314
-0.0156004428863525391 -0.208833664655685425 -0.178704738616943359
0.204896777868270874 -0.202540993690490723 -0.185374602675437927
0.17544931173324585 -0.204691261053085327 -0.183095440268516541
-0.0110887885093688965 -0.207106024026870728 -0.180535942316055298
0.186601415276527405 -0.192190423607826233 -0.19634556770324707
0.132936567068099976 -0.210045143961906433 -0.177420645952224731
0.169140279293060303 -0.197658166289329529 -0.190550088882446289
-0.128043338656425476 -0.172583401203155518 -0.21356499195098877
-0.173508316278457642 -0.175702258944511414 -0.210947960615158081
-0.12142026424407959 -0.164710015058517456 -0.220171540975570679
-0.00380919873714447021 -0.172585636377334595 -0.213563114404678345
-0.0762411355972290039 -0.177570149302482605 -0.209380611777305603
-0.226653605699539185 -0.181999325752258301 -0.205664098262786865
-0.0698908194899559021 -0.174544766545295715 -0.211919203400611877
-0.178537428379058838 -0.178001269698143005 -0.209018856287002563
-0.110745534300804138 -0.177722916007041931 -0.209252417087554932
-0.136854588985443115 -0.177889466285705566 -0.209112673997879028
-0.0292522311210632324 -0.166218593716621399 -0.21890568733215332
-0.0442675352096557617 -0.171441167593002319 -0.214523434638977051
-0.215628877282142639 -0.183473244309425354 -0.204427331686019897
-0.184987887740135193 -0.171842530369758606 -0.2141866534948349
0.0277212373912334442 -0.17238888144493103 -0.213728204369544983
-0.208960726857185364 -0.171103402972221375 -0.214806854724884033
-0.214950025081634521 -0.164507240056991577 -0.220341697335243225
-0.24954262375831604 -0.175789952278137207 -0.210874378681182861
-0.0920657962560653687 -0.16759490966796875 -0.217750817537307739
-0.247626632452011108 -0.166304007172584534 -0.218834027647972107
-0.0629388988018035889 -0.170312449336051941 -0.215470552444458008
-0.210084527730941772 -0.170866250991821289 -0.215005844831466675
-0.189735457301139832 -0.172919049859046936 -0.213283345103263855
0.1131601482629776 -0.164959654211997986 -0.219962060451507568
-0.0596772879362106323 -0.172528013586997986 -0.21361146867275238
-0.120906487107276917 -0.172218218445777893 -0.213871419429779053
-0.263669610023498535 -0.177060917019844055 -0.209807902574539185
0.207391947507858276 -0.165736615657806396 -0.21931011974811554
-0.192396104335784912 -0.165341019630432129 -0.219642072916030884
-0.25669446587562561 -0.18608558177947998 -0.202235311269760132
0.14453984797000885 -0.164703115820884705 -0.220177337527275085
-0.255248218774795532 -0.187122315168380737 -0.2013653963804245
0.0345847457647323608 -0.169294402003288269 -0.216324776411056519
-0.197717189788818359 -0.177659690380096436 -0.209305480122566223
-0.16583019495010376 -0.177045777440071106 -0.209820613265037537
-0.0780269503593444824 -0.179439768195152283 -0.207811802625656128
-0.0248550474643707275 -0.174112558364868164 -0.212281867861747742
-0.107092700898647308 -0.176664873957633972 -0.210140228271484375
-0.132114842534065247 -0.181967779994010925 -0.205690562725067139
-0.0663326382637023926 -0.177992001175880432 -0.209026634693145752
0.0202081911265850067 -0.173803836107254028 -0.212540924549102783
-0.0872191339731216431 -0.17026481032371521 -0.215510517358779907
0.0212906543165445328 -0.174397364258766174 -0.212042883038520813
-0.0560231208801269531 -0.16712583601474762 -0.218144431710243225
-0.201592102646827698 -0.184971854090690613 -0.203169837594032288
0.0687664449214935303 -0.16664828360080719 -0.218545138835906982
-0.262567996978759766 -0.175479412078857422 -0.211134955286979675
-0.23662075400352478 -0.184593677520751953 -0.203487172722816467
-0.121592581272125244 -0.167915403842926025 -0.217481911182403564
-0.028435245156288147 -0.166924923658370972 -0.218313008546829224
-0.205962806940078735 -0.17051909863948822 -0.215297147631645203
-0.0812134146690368652 -0.165100499987602234 -0.219843879342079163
-0.10517457127571106 -0.173611417412757874 -0.212702378630638123
0.209938034415245056 -0.185372442007064819 -0.202833712100982666
-0.0274722576141357422 -0.18771091103553772 -0.200871512293815613
0.218159660696983337 -0.176344349980354309 -0.210409164428710938
0.154309585690498352 -0.17121674120426178 -0.214711755514144897
0.0389313995838165283 -0.178550839424133301 -0.20855771005153656
0.196935892105102539 -0.177360594272613525 -0.209556460380554199
0.130948334932327271 -0.182009488344192505 -0.205655559897422791
0.218512982130050659 -0.169927269220352173 -0.21579374372959137
0.00202006101608276367 -0.188295915722846985 -0.200380638241767883
0.260309159755706787 -0.176688134670257568 -0.210120692849159241
0.068958580493927002 -0.174566358327865601 -0.211901083588600159
-0.0903421640396118164 -0.186441153287887573 -0.20193694531917572
0.228775471448898315 -0.174413248896598816 -0.212029561400413513
0.247850120067596436 -0.172932326793670654 -0.213272199034690857
0.156436577439308167 -0.178704708814620972 -0.20842859148979187
-0.0540311038494110107 -0.182512357831001282 -0.205233603715896606
-0.101541846990585327 -0.186021625995635986 -0.202289000153541565
0.218522772192955017 -0.181347355246543884 -0.206211164593696594
0.142434120178222656 -0.172425106167793274 -0.213697806000709534
0.114073663949966431 -0.17243686318397522 -0.2136879563331604
0.2060433030128479 -0.186084285378456116 -0.202236399054527283
0.0347867310047149658 -0.185013055801391602 -0.203135266900062561
0.141822531819343567 -0.182724818587303162 -0.205055326223373413
0.0689961165189743042 -0.182789534330368042 -0.205001011490821838
0.0520075410604476929 -0.186536312103271484 -0.201857119798660278
0.176470130681991577 -0.180003032088279724 -0.207339167594909668
-0.156345993280410767 -0.184312924742698669 -0.203722745180130005
-0.153001934289932251 -0.184905901551246643 -0.203225180506706238
0.222604483366012573 -0.18458344042301178 -0.203495755791664124
-0.0739959180355072021 -0.187731936573982239 -0.200853854417800903
0.193603575229644775 -0.172200500965118408 -0.213886290788650513
0.0113138556480407715 -0.17969319224357605 -0.207599177956581116
-0.13330608606338501 -0.185478702187538147 -0.202744543552398682
0.162475600838661194 -0.173911839723587036 -0.212450280785560608
0.215918838977813721 -0.169008761644363403 -0.216564461588859558
-0.205202192068099976 -0.186339542269706726 -0.202022209763526917
-0.120141178369522095 -0.184827342629432678 -0.20329110324382782
0.247758090496063232 -0.18646596372127533 -0.201916128396987915
0.205336689949035645 -0.181588441133499146 -0.206008866429328918
0.0970062017440795898 -0.182210057973861694 -0.205487281084060669
0.021945267915725708 -0.180764004588127136 -0.206700652837753296
0.235886290669441223 -0.170355618000030518 -0.21543431282043457
0.111479580402374268 -0.183301448822021484 -0.20457148551940918
0.137520074844360352 -0.174729779362678528 -0.211763948202133179
0.268876314163208008 -0.185445308685302734 -0.202772557735443115
0.0209836363792419434 -0.177958220243453979 -0.20905497670173645
0.178633719682693481 -0.188646018505096436 -0.200086846947669983
0.193530842661857605 -0.177508622407913208 -0.209432244300842285
0.136495292186737061 -0.174042314291000366 -0.212340801954269409
0.0278463214635848999 -0.186641648411750793 -0.20176871120929718
0.115959838032722473 -0.183081954717636108 -0.204755648970603943
0.244922086596488953 -0.183015644550323486 -0.20481128990650177
0.0139543116092681885 -0.177814856171607971 -0.209175273776054382
-0.176618218421936035 -0.13872431218624115 -0.237351745367050171
-0.0302937775850296021 -0.145049095153808594 -0.23319186270236969
-0.192553848028182983 -0.147446826100349426 -0.231614857912063599
-0.0941009819507598877 -0.148114606738090515 -0.231175646185874939
-0.128933429718017578 -0.138154998421669006 -0.237726181745529175
0.200079366564750671 -0.140689834952354431 -0.236058995127677917
-0.201040118932723999 -0.142833814024925232 -0.23464888334274292
-0.25241696834564209 -0.152299299836158752 -0.228423327207565308
0.0943859592080116272 -0.142724350094795227 -0.234720885753631592
-0.124743245542049408 -0.152478873729705811 -0.228305220603942871
-0.205531701445579529 -0.144695654511451721 -0.233424335718154907
-0.0601951628923416138 -0.143364056944847107 -0.234300136566162109
-0.0183095335960388184 -0.140750378370285034 -0.236019179224967957
-0.182680845260620117 -0.150769218802452087 -0.229429677128791809
-0.034939110279083252 -0.138336330652236938 -0.237606927752494812
-0.252298980951309204 -0.157815754413604736 -0.224795103073120117
-0.239160507917404175 -0.159445062279701233 -0.223723486065864563
-0.0732009708881378174 -0.14088323712348938 -0.235931798815727234
-0.137260079383850098 -0.141066178679466248 -0.235811471939086914
0.0339155048131942749 -0.141670703887939453 -0.235413879156112671
-0.226166084408760071 -0.155545547604560852 -0.226288244128227234
-0.180513426661491394 -0.14143235981464386 -0.235570639371871948
0.100312687456607819 -0.144928231835365295 -0.233271360397338867
0.0957853496074676514 -0.139563336968421936 -0.236799910664558411
-0.236348003149032593 -0.140759959816932678 -0.236012890934944153
0.0102813690900802612 -0.13863818347454071 -0.23740839958190918
-0.224350050091743469 -0.142631411552429199 -0.234782010316848755
-0.135893210768699646 -0.149203896522521973 -0.230459213256835938
-0.23982277512550354 -0.139588534832000732 -0.236783340573310852
0.103738874197006226 -0.141737014055252075 -0.235370263457298279
-0.10421299934387207 -0.141613960266113281 -0.235451191663742065
-0.10032963752746582 -0.147480681538581848 -0.231592580676078796
0.0693367868661880493 -0.143397629261016846 -0.234278067946434021
-0.193338781595230103 -0.149795696139335632 -0.230069980025291443
-0.222384154796600342 -0.146397843956947327 -0.232304781675338745
-0.255815982818603516 -0.160702154040336609 -0.222896695137023926
-0.061422690749168396 -0.143583297729492188 -0.234155938029289246
-0.0326229780912399292 -0.141813606023788452 -0.23531988263130188
-0.0111608803272247314 -0.144375413656234741 -0.233634963631629944
-0.121698930859565735 -0.149060413241386414 -0.230553582310676575
-0.0423364043235778809 -0.146423712372779846 -0.232287764549255371
-0.133912339806556702 -0.139364659786224365 -0.236930578947067261
0.0250029880553483963 -0.14924350380897522 -0.230433166027069092
-0.185348063707351685 -0.154790937900543213 -0.226784557104110718
0.102877452969551086 -0.143224164843559265 -0.234392151236534119
-0.188576415181159973 -0.153919398784637451 -0.227357774972915649
-0.161839872598648071 -0.143338173627853394 -0.234317168593406677
-0.192655056715011597 -0.138131067156791687 -0.237741932272911072
-0.233069092035293579 -0.141833275556564331 -0.23530694842338562
-0.133460164070129395 -0.142639189958572388 -0.234776884317398071
-0.227760270237922668 -0.141579866409301758 -0.235473617911338806
0.130556613206863403 -0.143263503909111023 -0.234366267919540405
0.207229867577552795 -0.139494374394416809 -0.236845269799232483
0.134086966514587402 -0.150809898972511292 -0.229402929544448853
0.236203104257583618 -0.16028931736946106 -0.223168224096298218
0.0872051417827606201 -0.149007126688957214 -0.230588629841804504
-0.0350560545921325684 -0.160533547401428223 -0.22300758957862854
-0.0521873235702514648 -0.159867569804191589 -0.223445594310760498
-0.0728960037231445312 -0.16404394805431366 -0.220698758959770203
0.0794275850057601929 -0.147130042314529419 -0.23182322084903717
0.13322882354259491 -0.164199188351631165 -0.220596656203269958
0.0469961315393447876 -0.153085008263587952 -0.227906569838523865
0.064914211630821228 -0.160217016935348511 -0.223215773701667786
0.269899636507034302 -0.162353202700614929 -0.221810773015022278
-0.069883495569229126 -0.164071112871170044 -0.220680892467498779
0.0820298939943313599 -0.162720069289207458 -0.221569478511810303
0.156574085354804993 -0.161909505724906921 -0.222102612257003784
0.241557851433753967 -0.149343237280845642 -0.230367556214332581
0.252442121505737305 -0.163521811366081238 -0.221042171120643616
-0.0904544293880462646 -0.163067936897277832 -0.22134070098400116
0.227899596095085144 -0.139635458588600159 -0.2367524653673172
0.063208162784576416 -0.163004085421562195 -0.221382677555084229
0.0486642122268676758 -0.162428036332130432 -0.221761554479598999
0.233235329389572144 -0.139998644590377808 -0.236513599753379822
0.244105756282806396 -0.149951234459877014 -0.229967668652534485
0.118256047368049622 -0.154275104403495789 -0.227123826742172241
0.0882913768291473389 -0.158469423651695251 -0.224365174770355225
-0.068102717399597168 -0.157902270555496216 -0.224738210439682007
0.0533018112182617188 -0.15784783661365509 -0.224774003028869629
-0.14746546745300293 -0.159821391105651855 -0.223475977778434753
0.116238415241241455 -0.163569658994674683 -0.221010684967041016
0.0839672833681106567 -0.157679185271263123 -0.224884927272796631
0.146439358592033386 -0.143633157014846802 -0.234123155474662781
0.13409934937953949 -0.163076028227806091 -0.221335366368293762
0.191904142498970032 -0.141537874937057495 -0.2355012446641922
0.257850348949432373 -0.163576632738113403 -0.221006110310554504
0.230130225419998169 -0.154503315687179565 -0.226973727345466614
0.00466236472129821777 -0.160239577293395996 -0.223200932145118713
0.0910181105136871338 -0.157475307583808899 -0.225019022822380066
-0.0897396206855773926 -0.163672327995300293 -0.220943167805671692
0.139821901917457581 -0.153318002820014954 -0.227753326296806335
0.135829448699951172 -0.147906050086021423 -0.231312811374664307
0.0841966122388839722 -0.162070021033287048 -0.22199702262878418
0.261236518621444702 -0.144615396857261658 -0.233477115631103516
0.0274606794118881226 -0.155764788389205933 -0.226144060492515564
0.252830862998962402 -0.149134278297424316 -0.230505004525184631
0.220791026949882507 -0.161593154072761536 -0.222310662269592285
0.0466399788856506348 -0.155244067311286926 -0.226486533880233765
-0.0204658210277557373 -0.16248147189617157 -0.221726402640342712
0.181639805436134338 -0.148752406239509583 -0.230756163597106934
0.13701958954334259 -0.155816167593002319 -0.226110264658927917
0.160407945513725281 -0.157763496041297913 -0.224829480051994324
-0.192583739757537842 -0.160879120230674744 -0.222780287265777588
0.140542343258857727 -0.153623908758163452 -0.227552130818367004
-0.131731182336807251 -0.163295835256576538 -0.221190795302391052
0.0220329165458679199 -0.159965887665748596 -0.223380938172340393
-0.100186660885810852 -0.120285175740718842 -0.246802583336830139
-0.0996384471654891968 -0.110232055187225342 -0.251851439476013184
0.0179639272391796112 -0.120453447103500366 -0.246718078851699829
0.122027769684791565 -0.112380951642990112 -0.250772237777709961
-0.243733063340187073 -0.119911707937717438 -0.246990159153938293
0.0396407991647720337 -0.120078250765800476 -0.246906518936157227
0.174448192119598389 -0.109627276659011841 -0.252155184745788574
-0.259246140718460083 -0.132988676428794861 -0.240422666072845459
-0.101690620183944702 -0.122849702835083008 -0.245514631271362305
-0.237330377101898193 -0.113396167755126953 -0.25026237964630127
0.0137718841433525085 -0.119974873960018158 -0.246958434581756592
-0.0827689319849014282 -0.121352300047874451 -0.246266663074493408
-0.203109696507453918 -0.121430933475494385 -0.246227174997329712
-0.253462135791778564 -0.125322729349136353 -0.244272634387016296
-0.0561824440956115723 -0.119374684989452362 -0.247259855270385742
-0.0891236886382102966 -0.122884869575500488 -0.245496973395347595
-0.111284434795379639 -0.112084105610847473 -0.250921308994293213
-0.182879447937011719 -0.122151650488376617 -0.245865210890769958
-0.18229261040687561 -0.129566162824630737 -0.242141515016555786
-0.268186718225479126 -0.131041750311851501 -0.241400435566902161
-0.053612634539604187 -0.114651158452033997 -0.249632090330123901
0.00415480136871337891 -0.113187119364738464 -0.25036737322807312
-0.132649481296539307 -0.126446232199668884 -0.243708387017250061
-0.163389354944229126 -0.127796709537506104 -0.243030160665512085
-0.178230583667755127 -0.120684079825878143 -0.246602252125740051
0.100231662392616272 -0.113395243883132935 -0.250262826681137085
0.0546095520257949829 -0.115161851048469543 -0.249375611543655396
-0.205730929970741272 -0.126571685075759888 -0.243645399808883667
-0.00840932130813598633 -0.112947605550289154 -0.250487655401229858
-0.134021565318107605 -0.123559325933456421 -0.245158255100250244
-0.243321537971496582 -0.134964987635612488 -0.239430129528045654
-0.106882542371749878 -0.112685509026050568 -0.250619292259216309
-0.145022854208946228 -0.123028501868247986 -0.245424836874008179
0.0641525387763977051 -0.109999440610408783 -0.251968264579772949
0.114343263208866119 -0.110613144934177399 -0.251660048961639404
0.00436702370643615723 -0.10995984822511673 -0.25198817253112793
-0.19333764910697937 -0.126141279935836792 -0.243861541152000427
-0.172890245914459229 -0.111669346690177917 -0.251129627227783203
-0.173086464405059814 -0.114594794809818268 -0.249660402536392212
-0.254733771085739136 -0.116019830107688904 -0.248944729566574097
0.0585375875234603882 -0.117994047701358795 -0.247953236103057861
0.15911497175693512 -0.110528059303760529 -0.251702785491943359
-0.0113999694585800171 -0.118296295404434204 -0.247801437973976135
-0.208383798599243164 -0.127236679196357727 -0.243311420083045959
-0.263838291168212891 -0.129159435629844666 -0.24234578013420105
0.0491910874843597412 -0.112104654312133789 -0.25091099739074707
0.166587710380554199 -0.113840535283088684 -0.250039219856262207
0.0955975279211997986 -0.114194236695766449 -0.249861568212509155
-0.042000114917755127 -0.121293380856513977 -0.24629625678062439
-0.0920896902680397034 -0.127745494246482849 -0.243055880069732666
-0.194554999470710754 -0.126275673508644104 -0.243794053792953491
-0.186391890048980713 -0.129072278738021851 -0.24238954484462738
0.00929807405918836594 -0.122277021408081055 -0.245802253484725952
-0.241487190127372742 -0.115703441202640533 -0.249103620648384094
0.0339727550745010376 -0.128789827227592468 -0.24253140389919281
-0.0401139259338378906 -0.128035694360733032 -0.242910131812095642
0.147504031658172607 -0.117983222007751465 -0.247958675026893616
0.189027547836303711 -0.128216579556465149 -0.242819294333457947
-0.101962774991989136 -0.131748422980308533 -0.241045534610748291
0.233836352825164795 -0.126134768128395081 -0.24386480450630188
-0.0765014886856079102 -0.130806490778923035 -0.241518586874008179
-0.0631271004676818848 -0.133931443095207214 -0.23994918167591095
0.0627670437097549438 -0.119899764657020569 -0.24699614942073822
0.00665953755378723145 -0.12542782723903656 -0.244219854474067688
0.253672331571578979 -0.11385037750005722 -0.25003427267074585
0.223348602652549744 -0.116033971309661865 -0.248937606811523438
0.180878341197967529 -0.130307868123054504 -0.241769015789031982
-0.0665537118911743164 -0.129644334316253662 -0.242102265357971191
0.211219102144241333 -0.131660029292106628 -0.241089925169944763
-0.130603700876235962 -0.131628543138504028 -0.241105735301971436
-0.195315808057785034 -0.133862704038619995 -0.239983707666397095
0.201612353324890137 -0.120452448725700378 -0.24671858549118042
-0.0882794559001922607 -0.131050944328308105 -0.241395831108093262
0.08639565110206604 -0.123088397085666656 -0.2453947514295578
0.0366253703832626343 -0.136389836668968201 -0.238714545965194702
0.0060246586799621582 -0.127094194293022156 -0.243382960557937622
0.0511655360460281372 -0.134435534477233887 -0.239696010947227478
0.137485221028327942 -0.129700928926467896 -0.24207383394241333
0.213685184717178345 -0.128285259008407593 -0.242784798145294189
0.0600827932357788086 -0.133380189538002014 -0.240226030349731445
0.0156858861446380615 -0.136791035532951355 -0.2385130375623703
0.0448648184537887573 -0.133277669548988342 -0.240277528762817383
0.18400120735168457 -0.129707038402557373 -0.242070764303207397
0.261384665966033936 -0.124709576368331909 -0.244580581784248352
0.232675284147262573 -0.127291515469551086 -0.243283867835998535
-0.0221557021141052246 -0.131920874118804932 -0.240958929061889648
-0.0571267306804656982 -0.128285631537437439 -0.242784619331359863
0.193719148635864258 -0.117800749838352203 -0.248050317168235779
-0.10553586483001709 -0.135105490684509277 -0.239359557628631592
0.24144408106803894 -0.134683102369308472 -0.239571690559387207
-0.0602957606315612793 -0.126588761806488037 -0.243636816740036011
-0.0115323364734649658 -0.130059510469436646 -0.241893753409385681
0.0532490164041519165 -0.136786103248596191 -0.238515526056289673
0.168235659599304199 -0.13084903359413147 -0.241497233510017395
0.227258890867233276 -0.130995482206344604 -0.241423681378364563
0.251853704452514648 -0.135938748717308044 -0.238941088318824768
0.121637895703315735 -0.123455703258514404 -0.24521028995513916
0.198914527893066406 -0.133314639329910278 -0.240258961915969849
-0.0822583138942718506 -0.133819520473480225 -0.240005403757095337
-0.232937663793563843 -0.136072129011154175 -0.238874107599258423
0.041486009955406189 -0.131699725985527039 -0.241069987416267395
-0.157357007265090942 -0.132018148899078369 -0.240910083055496216
0.133553758263587952 -0.124662287533283234 -0.244604334235191345
0.263942480087280273 -0.134803548455238342 -0.239511191844940186
0.12792930006980896 -0.125355616211891174 -0.244256123900413513
0.150899797677993774 -0.122659869492053986 -0.245609968900680542
0.0187903344631195068 -0.129488244652748108 -0.24218064546585083
-0.268878787755966187 -0.101843371987342834 -0.255085796117782593
0.0244907587766647339 -0.0809216797351837158 -0.262700676918029785
-0.000818163156509399414 -0.0803391411900520325 -0.262912720441818237
-0.204231321811676025 -0.079359397292137146 -0.263269305229187012
-0.154291331768035889 -0.090365871787071228 -0.259263277053833008
-0.0184597373008728027 -0.0920378789305686951 -0.25865471363067627
-0.222318857908248901 -0.0977786332368850708 -0.256565243005752563
-0.198753878474235535 -0.100701898336410522 -0.255501270294189453
0.145955637097358704 -0.0802784934639930725 -0.262934774160385132
-0.145399898290634155 -0.0822872146964073181 -0.26220366358757019
0.00763936340808868408 -0.088779151439666748 -0.259840786457061768
0.0269285142421722412 -0.0799387544393539429 -0.26305842399597168
0.0483662039041519165 -0.0832933187484741211 -0.261837482452392578
-0.10348975658416748 -0.0908210873603820801 -0.259097576141357422
0.0121670812368392944 -0.0896175503730773926 -0.259535640478134155
-0.0187056511640548706 -0.0878131389617919922 -0.260192394256591797
-0.148458003997802734 -0.102113731205463409 -0.254987388849258423
0.0249091833829879761 -0.0869719609618186951 -0.260498553514480591
-0.19442373514175415 -0.0836815387010574341 -0.261696159839630127
-0.00663168728351593018 -0.0830167606472969055 -0.261938124895095825
0.158495515584945679 -0.0810001716017723083 -0.262672096490859985
-0.126205742359161377 -0.0912275612354278564 -0.258949637413024902
-0.135748222470283508 -0.10021016001701355 -0.255680233240127563
0.14192160964012146 -0.0805331394076347351 -0.262842088937759399
0.100704073905944824 -0.0796967819333076477 -0.263146519660949707
0.0723546072840690613 -0.0890170186758041382 -0.259754210710525513
