ply
format ascii 1.0
element vertex 755
property float x
property float y
property float z
end_header
0.615625321865081787 0.89537733793258667 0.024081893265247345
1.04045522212982178 0.270003557205200195 0.055744566023349762
0.618510723114013672 0.891129791736602783 0.00258970260620117188
0.648957014083862305 0.846311211585998535 0.0173135250806808472
1.10736417770385742 0.171509817242622375 0.11352945864200592
0.463152050971984863 1.11982667446136475 0.0180923044681549072
0.293991506099700928 1.36884057521820068 0.00641187280416488647
0.440710723400115967 1.15286159515380859 0.0230898037552833557
0.360496282577514648 1.27094185352325439 0.0169077590107917786
0.808969855308532715 0.610763132572174072 0.00750761106610298157
1.08986437320709229 0.197270512580871582 0.0648396760225296021
1.15802717208862305 0.0969310402870178223 0.021288825199007988
0.355891168117523193 1.27772080898284912 0.0127969682216644287
0.722608745098114014 0.737891614437103271 0.00641405954957008362
1.07193994522094727 0.223656266927719116 0.0407014712691307068
0.795127153396606445 0.631140410900115967 0.0408358238637447357
0.323991179466247559 1.32467937469482422 0.0127160698175430298
0.974727272987365723 0.366758912801742554 0.00752461701631546021
1.09979212284088135 0.182656347751617432 0.0899084731936454773
0.839880883693695068 0.565260410308837891 0.0702753067016601562
0.969808757305145264 0.373999178409576416 0.0812188759446144104
0.808215022087097168 0.611874401569366455 0.021687723696231842
0.596669852733612061 0.923280835151672363 0.0434265434741973877
0.668222963809967041 0.817950606346130371 0.051888585090637207
0.178408443927764893 1.5389854907989502 0.00133199989795684814
0.820880770683288574 0.59322965145111084 0.0128766894340515137
0.804890990257263184 0.616767585277557373 0.0169108808040618896
0.787575960159301758 0.642256259918212891 0.0235015116631984711
0.959883689880371094 0.388609468936920166 0.0899869054555892944
0.829558372497558594 0.580455780029296875 0.0363359116017818451
1.02743375301361084 0.289171874523162842 0.018848225474357605
1.07796251773834229 0.214790701866149902 0.0594412125647068024
0.477898597717285156 1.09811902046203613 0.008871421217918396
0.833220362663269043 0.575065135955810547 0.0678080394864082336
0.756239891052246094 0.688384771347045898 0.0256041400134563446
0.615600645542144775 0.895413696765899658 0.0554769933223724365
1.11241769790649414 0.164070755243301392 0.0363565906882286072
0.409994661808013916 1.19807744026184082 0.0257840901613235474
1.10169827938079834 0.179850280284881592 0.0544613711535930634
1.09248590469360352 0.193411469459533691 0.0628666430711746216
1.01067090034484863 0.313847750425338745 0.100297063589096069
1.14627182483673096 0.114235587418079376 0.111762650310993195
1.07454907894134521 0.219815552234649658 0.0126697979867458344
0.443011879920959473 1.14947414398193359 0.0164103657007217407
0.995255827903747559 0.336539655923843384 0.0870109200477600098
0.446073830127716064 1.14496684074401855 0.00194347649812698364
1.11774241924285889 0.156232535839080811 0.00163546716794371605
0.236640095710754395 1.45326519012451172 0.00683675706386566162
1.0501018762588501 0.255803227424621582 0.10231296718120575
0.918335437774658203 0.449770838022232056 0.00388271361589431763
1.16071987152099609 0.0929672420024871826 0.0061373421922326088
0.380352914333343506 1.24171173572540283 0.017292022705078125
0.858759880065917969 0.537469446659088135 0.0506089068949222565
0.841226279735565186 0.563279926776885986 0.000500906258821487427
1.07175767421722412 0.2239246666431427 0.0868240445852279663
1.11169397830963135 0.165136069059371948 0.0817380174994468689
1.08571934700012207 0.20337224006652832 0.0453978478908538818
0.956464409828186035 0.39364287257194519 0.0287690442055463791
0.78607022762298584 0.644472718238830566 0.0578003376722335815
0.835855722427368164 0.571185708045959473 0.00365084782242774963
0.940505146980285645 0.417135715484619141 0.0188645552843809128
0.605513453483581543 0.910262584686279297 0.0475240945816040039
0.770724296569824219 0.667062819004058838 0.0426947548985481262
0.472048759460449219 1.10673022270202637 0.00417222827672958374
0.92375636100769043 0.441790968179702759 0.085819832980632782
1.13148117065429688 0.136008173227310181 0.00613297475501894951
0.990098476409912109 0.344131559133529663 0.0708492398262023926
0.425104141235351562 1.17583537101745605 0.0201101303100585938
1.00438809394836426 0.323096424341201782 0.065395064651966095
0.835829734802246094 0.571223914623260498 0.00119075551629066467
0.915933072566986084 0.453307271003723145 0.034059181809425354
0.509278178215026855 1.0519263744354248 0.00430936366319656372
0.747346401214599609 0.701476395130157471 0.0652392357587814331
0.60654979944229126 0.908737003803253174 0.0234759747982025146
0.720362424850463867 0.741198301315307617 0.0129177942872047424
0.879947960376739502 0.506279408931732178 0.0147533267736434937
0.277904868125915527 1.39252102375030518 0.0118059366941452026
0.708869099617004395 0.758117139339447021 0.0247922055423259735
1.10730671882629395 0.171594321727752686 0.0612388923764228821
0.908091425895690918 0.464850634336471558 0.0837283283472061157
1.13225734233856201 0.134865701198577881 0.0633255243301391602
0.877762317657470703 0.509496808052062988 0.044270683079957962
0.767137348651885986 0.672343015670776367 0.0408671386539936066
1.01456189155578613 0.308120131492614746 0.0734872221946716309
0.790728330612182617 0.637615799903869629 0.0444139875471591949
1.08199143409729004 0.208859860897064209 0.0986615642905235291
1.09569978713989258 0.188680499792098999 0.0683691874146461487
0.88672327995300293 0.496305793523788452 0.0162232331931591034
0.786684751510620117 0.643568098545074463 0.0104750655591487885
0.538445234298706055 1.00899088382720947 0.0212018042802810669
0.39838939905166626 1.21516096591949463 0.0245321318507194519
0.417394638061523438 1.18718421459197998 0.0242000818252563477
0.64445042610168457 0.852945148944854736 0.00149619951844215393
0.575707972049713135 0.954137921333312988 0.0172258615493774414
0.786976099014282227 0.643139243125915527 0.0504830442368984222
0.718735992908477783 0.743592560291290283 0.0445983037352561951
0.957379281520843506 0.392296075820922852 0.0333095788955688477
1.03070664405822754 0.284354031085968018 0.0763707533478736877
0.218516409397125244 1.47994422912597656 0.000734820961952209473
0.844844222068786621 0.557954132556915283 0.0746078938245773315
0.394194543361663818 1.2213360071182251 0.00164374709129333496
0.432597160339355469 1.16480517387390137 0.0161272138357162476
0.780431687831878662 0.652772963047027588 0.00335970520973205566
0.999267458915710449 0.330634355545043945 0.0384378507733345032
0.668477892875671387 0.817575395107269287 0.0478009358048439026
0.988304197788238525 0.346772849559783936 0.0338009297847747803
0.630582928657531738 0.87335890531539917 0.0063005983829498291
1.15962898731231689 0.0945730060338973999 0.0111285243183374405
1.02623534202575684 0.290936052799224854 0.0215719807893037796
0.865244209766387939 0.527924180030822754 0.0188110396265983582
0.876094341278076172 0.51195216178894043 0.0543689914047718048
0.916655540466308594 0.45224374532699585 0.061631280928850174
0.818790078163146973 0.596307218074798584 0.0040659196674823761
0.457401394844055176 1.12829196453094482 0.0113349780440330505
0.400780975818634033 1.21164035797119141 0.0129714086651802063
0.647629141807556152 0.848265886306762695 0.0089840814471244812
0.678400993347167969 0.802968025207519531 0.052146371454000473
0.40284806489944458 1.20859754085540771 0.0223236680030822754
0.815907835960388184 0.600550055503845215 0.0553878061473369598
1.02414333820343018 0.294015705585479736 0.0588431209325790405
0.869301915168762207 0.521951019763946533 0.0819612741470336914
1.03113067150115967 0.283729821443557739 0.0416614525020122528
0.856041550636291504 0.541470944881439209 0.0193682238459587097
1.11501801013946533 0.160242989659309387 0.0536845959722995758
0.888765513896942139 0.493299484252929688 0.0213185101747512817
0.720190048217773438 0.741452157497406006 0.0494376905262470245
1.08370912075042725 0.206331416964530945 0.0638952851295471191
1.01032459735870361 0.314357519149780273 0.0918557420372962952
0.981510579586029053 0.356773436069488525 0.0851513519883155823
0.628721296787261963 0.876099288463592529 0.00337970629334449768
0.560738801956176758 0.976173460483551025 0.0226030200719833374
0.807454288005828857 0.612994194030761719 0.00154843553900718689
0.872103452682495117 0.51782691478729248 0.0612816289067268372
1.09114301204681396 0.195388257503509521 0.0642587393522262573
0.739162921905517578 0.713522970676422119 0.0118049643933773041
0.510398626327514648 1.0502769947052002 0.0417380258440971375
0.742966890335083008 0.707923293113708496 0.0278741568326950073
0.357073962688446045 1.27597963809967041 0.00473867356777191162
0.991037309169769287 0.342749565839767456 0.081868395209312439
0.550446629524230957 0.991324007511138916 0.0334536284208297729
1.04040646553039551 0.270075350999832153 0.045375533401966095
0.891290426254272461 0.489582598209381104 0.0269841402769088745
0.832205712795257568 0.576558709144592285 0.0444405786693096161
1.00114595890045166 0.327869117259979248 0.080640643835067749
0.832242131233215332 0.576505064964294434 0.0161909088492393494
0.592203199863433838 0.929856061935424805 0.0300007760524749756
0.9261360764503479 0.438287824392318726 0.0247347336262464523
0.702248692512512207 0.767862856388092041 0.0404800698161125183
0.321453094482421875 1.3284156322479248 0.0214727222919464111
0.378169596195220947 1.24492573738098145 0.014401361346244812
0.749874234199523926 0.697755217552185059 0.00430403649806976318
1.03573989868164062 0.276944875717163086 0.0157672204077243805
1.13860690593719482 0.125518679618835449 0.00139765231870114803
1.10171926021575928 0.17981952428817749 0.052747044712305069
0.691289663314819336 0.783995091915130615 0.0267105028033256531
1.12336564064025879 0.147954791784286499 0.0391715876758098602
0.482251405715942383 1.09171128273010254 0.0106295123696327209
0.60043567419052124 0.917737364768981934 0.0164024382829666138
0.871269822120666504 0.519054174423217773 0.0204768218100070953
0.973577499389648438 0.368451416492462158 0.0879945755004882812
0.915474534034729004 0.453982234001159668 0.0115935392677783966
0.724336087703704834 0.735348880290985107 0.0381594114005565643
1.06424868106842041 0.234978228807449341 0.0560398325324058533
1.09337520599365234 0.192102313041687012 0.00768322031944990158
0.70223689079284668 0.767880141735076904 0.00350512191653251648
0.872878015041351318 0.516686737537384033 0.0133769847452640533
1.06766366958618164 0.229951143264770508 0.023466203361749649
1.07545745372772217 0.218478292226791382 0.0350236259400844574
0.917925596237182617 0.45037415623664856 0.00902251899242401123
0.701699018478393555 0.768671989440917969 0.0266332700848579407
0.818934202194213867 0.596095085144042969 0.0630193427205085754
1.0290224552154541 0.286833316087722778 0.0275295283645391464
0.665294766426086426 0.822261035442352295 0.0494723021984100342
0.936927974224090576 0.422401607036590576 0.0255572274327278137
0.924413204193115234 0.440824002027511597 0.0147276129573583603
1.11529326438903809 0.159837678074836731 0.0503936894237995148
0.841124296188354492 0.563429951667785645 0.0252334140241146088
0.867372989654541016 0.524790525436401367 0.0647914409637451172
1.01004087924957275 0.314775288105010986 0.011142972856760025
1.0426795482635498 0.266729176044464111 0.103898085653781891
0.778097867965698242 0.656208515167236328 0.0477250590920448303
1.15860998630523682 0.0960731059312820435 0.0231166798621416092
0.963041245937347412 0.383961319923400879 0.0640210360288619995
0.824883341789245605 0.587337613105773926 0.00795098021626472473
0.905420422554016113 0.468782514333724976 0.0729515627026557922
1.0740816593170166 0.220503509044647217 0.0226234868168830872
0.88818204402923584 0.494158297777175903 0.0445445775985717773
0.869973421096801758 0.520962536334991455 0.070242464542388916
0.818498373031616211 0.596736669540405273 0.0294177457690238953
0.973266661167144775 0.368908941745758057 0.0263269245624542236
0.539885938167572021 1.00687003135681152 0.0294025018811225891
1.12532186508178711 0.145075172185897827 0.0554287172853946686
0.827612519264221191 0.583320081233978271 0.0156605318188667297
0.889831185340881348 0.491730719804763794 0.0310638248920440674
0.831599712371826172 0.577450752258300781 0.0360689163208007812
0.982673346996307373 0.355061799287796021 0.0101011265069246292
0.93238675594329834 0.429086476564407349 0.0491281040012836456
0.864181995391845703 0.529487788677215576 0.0796357840299606323
0.741554379463195801 0.710002601146697998 0.0628142505884170532
1.09701800346374512 0.186740070581436157 0.0707845613360404968
1.11274814605712891 0.163584306836128235 0.0487149506807327271
0.407125890254974365 1.20230042934417725 0.0112711414694786072
0.797465682029724121 0.627697944641113281 0.0646982043981552124
0.356309711933135986 1.27710461616516113 0.0162132829427719116
0.828384280204772949 0.582184076309204102 0.0718047916889190674
0.302625417709350586 1.35613095760345459 0.00203797966241836548
1.16212201118469238 0.090903155505657196 0.111050859093666077
0.758640766143798828 0.684850454330444336 0.0597899183630943298
0.433885931968688965 1.16290807723999023 0.00458259880542755127
0.990091562271118164 0.344141751527786255 0.0132906567305326462
0.316505551338195801 1.33569872379302979 0.00256936997175216675
0.687959909439086914 0.788896679878234863 0.00874295830726623535
0.769869089126586914 0.668321728706359863 0.036741010844707489
0.923607289791107178 0.442010402679443359 0.0885971412062644958
0.597002327442169189 0.922791421413421631 0.0478203669190406799
1.09375202655792236 0.191547662019729614 0.0250145532190799713
0.799449741840362549 0.624777317047119141 0.065554887056350708
1.04232966899871826 0.267244249582290649 0.0991476252675056458
1.08383274078369141 0.206149354577064514 0.00253481883555650711
1.1067049503326416 0.172480195760726929 0.107974089682102203
1.00738215446472168 0.318689018487930298 0.0462622009217739105
1.11215722560882568 0.164454251527786255 0.106740973889827728
0.395280599594116211 1.21973729133605957 0.0221979767084121704
0.369069397449493408 1.25832176208496094 0.0258874595165252686
1.14307796955108643 0.118937082588672638 0.0175721179693937302
1.0652848482131958 0.233453035354614258 0.028011668473482132
0.772162437438964844 0.664945781230926514 0.0260006412863731384
1.02870714664459229 0.287297427654266357 0.0408355742692947388
0.989998459815979004 0.34427875280380249 0.0916323363780975342
1.09347772598266602 0.191951394081115723 0.0478719174861907959
1.04810190200805664 0.258747190237045288 0.0967388078570365906
0.818076908588409424 0.597357094287872314 0.042025543749332428
1.09205281734466553 0.194049030542373657 0.0977555215358734131
1.12392210960388184 0.147135555744171143 0.0365973412990570068
0.695581972599029541 0.777676582336425781 0.0319654904305934906
0.707092225551605225 0.760732829570770264 0.00536308437585830688
0.844627141952514648 0.558273613452911377 0.0774740651249885559
0.421839237213134766 1.1806415319442749 0.0194817706942558289
0.937303066253662109 0.421849429607391357 0.0768041014671325684
0.934409976005554199 0.426108270883560181 0.0891381949186325073
0.938253045082092285 0.420450985431671143 0.0219938121736049652
0.853604793548583984 0.545058012008666992 0.0807681679725646973
0.716284513473510742 0.747201263904571533 0.00831854343414306641
0.30642998218536377 1.35053050518035889 0.00209767371416091919
1.06167125701904297 0.238772451877593994 0.00328355561941862106
1.11685359477996826 0.157540813088417053 0.0240255258977413177
0.692742228507995605 0.781856834888458252 0.0540961287915706635
0.710316658020019531 0.755986332893371582 0.0640429556369781494
0.893715023994445801 0.486013501882553101 0.0574835948646068573
0.513175547122955322 1.04618930816650391 0.00603722035884857178
0.760430216789245605 0.682216227054595947 0.0290551744401454926
0.237976789474487305 1.45129740238189697 0.00107343494892120361
0.764796078205108643 0.675789475440979004 0.0512956827878952026
1.03663194179534912 0.275631636381149292 0.0582615174353122711
0.497013390064239502 1.06998085975646973 6.94990158081054688e-05
0.878434598445892334 0.508507192134857178 0.00362957268953323364
0.480019927024841309 1.09499621391296387 0.0199974849820137024
0.990371942520141602 0.343729019165039062 0.0232120919972658157
1.06792128086090088 0.22957196831703186 0.0746519267559051514
0.318974554538726807 1.33206415176391602 0.0140945613384246826
1.13712155818939209 0.127705320715904236 0.0800424814224243164
0.495179355144500732 1.07268059253692627 0.000258684158325195312
0.839440345764160156 0.565908908843994141 0.0148640647530555725
1.06027376651763916 0.240829527378082275 0.102557674050331116
0.878347814083099365 0.50863492488861084 0.0451997853815555573
0.24032217264175415 1.4478449821472168 0.00697849690914154053
1.09117972850799561 0.195334255695343018 0.0412675142288208008
0.922752141952514648 0.443269193172454834 0.0529465824365615845
0.777701020240783691 0.656792640686035156 0.0361469350755214691
0.865771710872650146 0.527147650718688965 0.0826738402247428894
0.466048836708068848 1.11556243896484375 0.0162709206342697144
1.1270596981048584 0.142516911029815674 0.0247176177799701691
0.811078429222106934 0.607659280300140381 0.0727892220020294189
0.884701371192932129 0.49928206205368042 0.0370767153799533844
0.635072708129882812 0.866749703884124756 0.00685726851224899292
1.00070297718048096 0.328521132469177246 0.0917132198810577393
1.03589928150177002 0.276710212230682373 0.0811996012926101685
0.302592277526855469 1.35617983341217041 0.0186315253376960754
1.06690216064453125 0.23107224702835083 0.102436751127243042
0.387701272964477539 1.23089444637298584 0.00954347848892211914
1.13969945907592773 0.123910389840602875 0.057355731725692749
0.195102274417877197 1.51441121101379395 0.00213117897510528564
0.60136723518371582 0.916366040706634521 0.0466084480285644531
0.577046215534210205 0.952167987823486328 0.027390800416469574
0.58944237232208252 0.933920085430145264 0.0505507811903953552
0.726332426071166992 0.732410192489624023 0.00931371748447418213
0.716341853141784668 0.74711686372756958 0.0394529625773429871
0.9398154616355896 0.418151021003723145 0.080356791615486145
0.988575577735900879 0.346373379230499268 0.0319182239472866058
0.765667617321014404 0.674506545066833496 0.00250070169568061829
1.11186003684997559 0.164891704916954041 0.0132141122594475746
1.06158077716827393 0.238905519247055054 0.0804713442921638489
1.15247082710266113 0.105110324919223785 0.0880227535963058472
1.07223713397979736 0.2232188880443573 0.0139042232185602188
1.16192865371704102 0.0911878645420074463 0.0399999059736728668
0.815938472747802734 0.60050499439239502 0.0110709220170974731
0.755208134651184082 0.689903497695922852 0.0119873583316802979
0.99223935604095459 0.34098014235496521 0.0866593271493911743
1.12214004993438721 0.149758875370025635 0.0628189072012901306
0.855062186717987061 0.542912721633911133 0.0401742979884147644
0.827691793441772461 0.583203494548797607 0.0705612450838088989
1.05726897716522217 0.245252788066864014 0.0624699108302593231
0.888129234313964844 0.494236141443252563 0.0825048089027404785
0.878422379493713379 0.508525192737579346 0.00771943852305412292
1.06586015224456787 0.232606053352355957 0.107109084725379944
0.642218351364135742 0.856230854988098145 0.0220876447856426239
1.10186243057250977 0.179608732461929321 0.0695777609944343567
1.0244903564453125 0.293504863977432251 0.0160387735813856125
1.00274324417114258 0.325517803430557251 0.100569963455200195
0.568437278270721436 0.964840829372406006 0.0189839676022529602
0.458730995655059814 1.12633466720581055 0.024610765278339386
0.833659768104553223 0.574418246746063232 0.0572719387710094452
0.943684101104736328 0.41245618462562561 0.0174868237227201462
0.411168932914733887 1.19634878635406494 0.0124750807881355286
1.12861371040344238 0.140229374170303345 0.0968508049845695496
0.943390905857086182 0.412887752056121826 0.0420566238462924957
0.919777393341064453 0.447648167610168457 0.0819309577345848083
1.14926719665527344 0.109826236963272095 0.0782179012894630432
0.920471131801605225 0.446626961231231689 0.0892029553651809692
1.11055827140808105 0.166807979345321655 0.0102555835619568825
0.644525527954101562 0.852834582328796387 0.024099402129650116
1.10599327087402344 0.173527851700782776 0.0589162483811378479
0.644655704498291016 0.85264289379119873 0.0146459043025970459
1.13355624675750732 0.132953524589538574 0.110983587801456451
0.84583812952041626 0.55649101734161377 0.0652575939893722534
1.14072191715240479 0.122405417263507843 0.102435961365699768
1.09734725952148438 0.186255306005477905 0.00276023615151643753
0.362929224967956543 1.26736044883728027 0.014384441077709198
0.346599876880645752 1.29139816761016846 0.00771910697221755981
0.459567785263061523 1.12510287761688232 0.0141961723566055298
0.545095205307006836 0.999201595783233643 0.0234705954790115356
0.728401899337768555 0.729363739490509033 0.0171135775744915009
0.856844067573547363 0.540289700031280518 0.0811763405799865723
0.932829320430755615 0.428435027599334717 0.0145440734922885895
0.692927360534667969 0.781584322452545166 0.0340794473886489868
1.11860775947570801 0.154958546161651611 0.0235455334186553955
0.946941018104553223 0.40766182541847229 0.0228362977504730225
0.546769082546234131 0.99673759937286377 0.00923707336187362671
1.02972722053527832 0.285795807838439941 0.083064347505569458
0.810780882835388184 0.608097255229949951 0.0762426704168319702
0.820378005504608154 0.593969762325286865 0.0602322407066822052
0.89211273193359375 0.488372087478637695 0.0848701447248458862
0.796822071075439453 0.628645360469818115 0.0288903526961803436
0.505882978439331055 1.05692422389984131 0.0403082072734832764
0.554931819438934326 0.984721601009368896 0.0414098501205444336
0.462924420833587646 1.12016177177429199 0.0220500901341438293
0.493291974067687988 1.07545900344848633 0.0293907150626182556
1.07362222671508789 0.221179813146591187 0.0363558530807495117
0.658887088298797607 0.831693530082702637 0.0156905278563499451
0.561087906360626221 0.975659549236297607 0.0117940753698348999
0.644641757011413574 0.85266345739364624 0.0232190936803817749
0.713134646415710449 0.751838088035583496 0.00196132436394691467
0.706214427947998047 0.762025058269500732 0.0054113343358039856
0.862655282020568848 0.53173518180847168 0.0338439196348190308
0.377990782260894775 1.24518883228302002 0.0132141038775444031
0.701034307479858398 0.769650399684906006 0.0231000036001205444
0.734192967414855957 0.720838963985443115 0.0381164625287055969
1.04464602470397949 0.263834446668624878 0.0996508300304412842
0.307990729808807373 1.34823298454284668 0.00289275497198104858
0.818221151828765869 0.597144782543182373 0.0378081910312175751
0.907806158065795898 0.465270578861236572 0.0195783711969852448
0.830311775207519531 0.579346656799316406 0.0420493483543395996
0.934077143669128418 0.426598191261291504 0.0137187894433736801
1.0694890022277832 0.227264165878295898 0.0292694754898548126
0.734238684177398682 0.720771729946136475 0.0693074613809585571
1.12538838386535645 0.144977211952209473 0.0831644237041473389
0.563624858856201172 0.971924901008605957 0.0416023209691047668
1.08696126937866211 0.201544120907783508 0.0894493833184242249
1.1225888729095459 0.149098247289657593 0.104726992547512054
0.349579334259033203 1.28701221942901611 0.00883088260889053345
0.73226618766784668 0.723675310611724854 0.0632301270961761475
0.292664885520935059 1.37079346179962158 0.00557399541139602661
0.986541390419006348 0.349367827177047729 0.0567536987364292145
1.10030949115753174 0.181894749402999878 0.101499930024147034
0.740036725997924805 0.712236702442169189 0.015254538506269455
0.998317956924438477 0.332032084465026855 0.0129969771951436996
0.582769632339477539 0.943742752075195312 0.0123108550906181335
0.693015933036804199 0.781453907489776611 0.0547399595379829407
1.05115866661071777 0.254247456789016724 0.0882816687226295471
0.300355195999145508 1.35947299003601074 0.000662662088871002197
0.69694221019744873 0.775674223899841309 0.0321422182023525238
0.722893655300140381 0.737472236156463623 0.0634289681911468506
0.540616035461425781 1.00579524040222168 0.0231911167502403259
0.846132993698120117 0.5560569167137146 0.0703382343053817749
0.787704706192016602 0.642066657543182373 0.00910836458206176758
1.04786801338195801 0.25909152626991272 0.072415478527545929
0.940452694892883301 0.417212992906570435 0.00405300036072731018
0.606924295425415039 0.908185660839080811 0.0079088360071182251
0.864116251468658447 0.529584586620330811 0.0497786365449428558
1.02862215042114258 0.287422537803649902 0.0337292291224002838
1.12518429756164551 0.145277544856071472 0.0703770443797111511
0.978812456130981445 0.360745221376419067 0.0953820794820785522
0.639578878879547119 0.860116362571716309 0.000117883086204528809
0.311969339847564697 1.3423762321472168 0.00207985192537307739
1.06586134433746338 0.232604414224624634 0.0736703798174858093
0.415476858615875244 1.19000732898712158 0.0277294665575027466
0.744830131530761719 0.705180525779724121 0.0599266253411769867
0.446576774120330811 1.14422643184661865 0.000363282859325408936
1.06649565696716309 0.231670558452606201 0.09367409348487854
1.02308487892150879 0.295573651790618896 0.00129413232207298279
1.0354766845703125 0.277332395315170288 0.0525250285863876343
0.8139762282371521 0.6033935546875 0.0133289210498332977
0.7135581374168396 0.751214683055877686 0.0124988816678524017
1.10499536991119385 0.174996912479400635 0.0185388587415218353
0.754832625389099121 0.690456211566925049 0.0198145397007465363
0.704161286354064941 0.765047371387481689 0.0420427583158016205
1.04963207244873047 0.256494849920272827 0.00305021554231643677
0.904249846935272217 0.470505625009536743 0.0380720347166061401
0.546342551708221436 0.99736553430557251 0.00755287706851959229
0.3575020432472229 1.27534949779510498 0.00594725459814071655
0.841000676155090332 0.563612043857574463 0.0534958988428115845
1.05620622634887695 0.246817171573638916 0.0784993171691894531
0.77622455358505249 0.658966124057769775 0.0273136310279369354
0.810506820678710938 0.608500659465789795 0.0279666446149349213
0.764434456825256348 0.676321804523468018 0.00151192396879196167
0.748462319374084473 0.69983363151550293 0.0472966767847537994
0.768214225769042969 0.670757830142974854 0.0117915309965610504
1.03306472301483154 0.280882805585861206 0.03575124591588974
1.03957152366638184 0.271304517984390259 0.0221891291439533234
0.571646928787231445 0.960116028785705566 0.00528267771005630493
0.857898354530334473 0.538737714290618896 0.0742605924606323242
0.684284448623657227 0.794307231903076172 0.0379231534898281097
1.10344898700714111 0.177273213863372803 0.0189342573285102844
0.41625058650970459 1.18886828422546387 0.0146088004112243652
0.699442267417907715 0.77199399471282959 0.00675129517912864685
0.413928389549255371 1.19228672981262207 0.0134259387850761414
0.944024980068206787 0.411954373121261597 0.0688114166259765625
1.01121306419372559 0.313049793243408203 0.0475563444197177887
0.824677407741546631 0.587640821933746338 0.0118791982531547546
0.964433491230010986 0.381911903619766235 0.0151766631752252579
0.892299234867095947 0.488097608089447021 0.070077061653137207
1.11525905132293701 0.159888118505477905 0.0159496963024139404
0.966191887855529785 0.379323452711105347 0.00149375386536121368
0.389028429985046387 1.22894084453582764 0.0230769142508506775
0.851143598556518555 0.548681020736694336 0.0197584778070449829
0.58935016393661499 0.934055805206298828 0.0435913875699043274
0.605649411678314209 0.91006237268447876 0.0308220013976097107
0.912516176700592041 0.458337128162384033 0.0851633027195930481
0.80670851469039917 0.614091992378234863 0.0359516628086566925
1.02897000312805176 0.286910444498062134 0.0853923410177230835
0.927346706390380859 0.436505764722824097 0.024348575621843338
0.598461508750915527 0.920643389225006104 0.0541972219944000244
0.426904201507568359 1.17318558692932129 0.0025329291820526123
0.845879316329956055 0.556430399417877197 0.00909841805696487427
0.965674638748168945 0.380084812641143799 0.0803812742233276367
0.876584172248840332 0.511231124401092529 0.0362558141350746155
0.728795230388641357 0.728784799575805664 0.0194184407591819763
1.00154292583465576 0.327284693717956543 0.0857775583863258362
0.998061060905456543 0.332410246133804321 0.0256884787231683731
0.957776665687561035 0.391711145639419556 0.0652830302715301514
0.528111875057220459 1.02420210838317871 0.00164832174777984619
0.982364952564239502 0.355515748262405396 0.00578038021922111511
0.877505958080291748 0.509874165058135986 0.00475939363241195679
1.04156887531280518 0.268364250659942627 0.0727339610457420349
1.13059902191162109 0.137306764721870422 0.0652371346950531006
0.984904170036315918 0.351777940988540649 0.0447332188487052917
0.72329413890838623 0.736882686614990234 0.0403467118740081787
1.13036632537841797 0.137649416923522949 0.0309589598327875137
1.0720747709274292 0.223457813262939453 0.0233012456446886063
0.797470331192016602 0.627691090106964111 0.0584545806050300598
0.802685916423797607 0.620013535022735596 0.0326883979141712189
1.07773864269256592 0.215120315551757812 0.067430347204208374
0.914627492427825928 0.45522916316986084 0.0651889294385910034
1.08711481094360352 0.201318055391311646 0.0423126593232154846
0.723521649837493896 0.736547768115997314 0.0436819195747375488
1.00237977504730225 0.32605290412902832 0.0756718814373016357
0.248336374759674072 1.43604755401611328 0.00429873913526535034
0.652289271354675293 0.841405868530273438 0.0376454219222068787
0.430023729801177979 1.16859340667724609 0.0158336982131004333
0.72106015682220459 0.740171313285827637 0.0565126799046993256
0.453243672847747803 1.13441240787506104 0.00279009342193603516
1.08872604370117188 0.198946237564086914 0.0852309167385101318
0.456169605255126953 1.13010525703430176 0.00256976485252380371
0.828174471855163574 0.582492947578430176 0.0592875443398952484
0.807887792587280273 0.612356007099151611 0.0161641053855419159
0.930427074432373047 0.431971281766891479 0.0287128053605556488
0.598526358604431152 0.920547962188720703 0.0133092701435089111
0.657047092914581299 0.834402143955230713 0.0295177362859249115
1.01472890377044678 0.307874232530593872 0.0598304569721221924
0.904403030872344971 0.47028014063835144 0.0888091400265693665
0.816450595855712891 0.599751174449920654 0.0424656569957733154
0.721562445163726807 0.739431858062744141 0.00626810267567634583
0.390273392200469971 1.22710812091827393 0.0144248157739639282
0.691945910453796387 0.783029079437255859 0.0545418784022331238
1.05584514141082764 0.247348695993423462 0.0772565528750419617
0.971739292144775391 0.371157377958297729 0.0728118196129798889
1.12614321708679199 0.143866032361984253 0.0304075367748737335
0.666164040565490723 0.820981502532958984 0.000554192811250686646
0.983866333961486816 0.353305637836456299 0.0855659171938896179
0.596221268177032471 0.923941254615783691 0.0135820358991622925
0.817164063453674316 0.598700821399688721 0.0577025525271892548
0.262167930603027344 1.41568672657012939 0.00489546358585357666
0.838065862655639648 0.567932188510894775 0.0248688571155071259
0.474550724029541016 1.10304725170135498 0.0186620205640792847
1.09373700618743896 0.191569805145263672 0.0334108434617519379
0.937405705451965332 0.421698302030563354 0.0937475115060806274
0.86792910099029541 0.523971915245056152 0.0525954067707061768
0.422482311725616455 1.17969489097595215 0.0101013705134391785
0.781259119510650635 0.651555001735687256 0.0392686352133750916
1.00178182125091553 0.326933056116104126 0.0414688289165496826
0.893966078758239746 0.485643982887268066 0.0172858163714408875
0.609792709350585938 0.903963208198547363 0.0471830591559410095
0.301030158996582031 1.35847926139831543 0.0131622478365898132
0.692015528678894043 0.782926619052886963 0.00203752517700195312
0.459077537059783936 1.12582457065582275 0.0122677087783813477
1.12309086322784424 0.148359194397926331 0.090502128005027771
1.10909616947174072 0.168960213661193848 0.0648105964064598083
1.12618362903594971 0.143806517124176025 0.00947376713156700134
1.05358397960662842 0.250677317380905151 0.00435979105532169342
0.74185478687286377 0.709560394287109375 0.0455776117742061615
0.633797764778137207 0.86862647533416748 0.023721691220998764
0.741920351982116699 0.709463834762573242 0.00263594835996627808
1.04531645774841309 0.262847632169723511 0.0717716217041015625
1.07637286186218262 0.217130810022354126 0.0313865989446640015
0.670243382453918457 0.814976394176483154 0.0368011035025119781
0.589782357215881348 0.933419644832611084 0.0527455583214759827
0.687401652336120605 0.789718449115753174 0.0115746781229972839
0.53661346435546875 1.01168727874755859 0.00774429738521575928
0.672031164169311523 0.812344729900360107 0.0297127217054367065
0.744219422340393066 0.706079542636871338 0.000339161604642868042
1.14796221256256104 0.111747279763221741 0.0194929521530866623
0.729720950126647949 0.727422058582305908 0.0645326524972915649
0.922417104244232178 0.443762391805648804 0.00504116155207157135
1.00852799415588379 0.317002236843109131 0.0971871241927146912
1.0237891674041748 0.294536948204040527 0.00922180712223052979
0.56360626220703125 0.971952319145202637 0.0299572870135307312
0.812523782253265381 0.605531632900238037 0.0386541672050952911
0.516565501689910889 1.0411989688873291 0.038822367787361145
0.788617730140686035 0.64072263240814209 0.0622556433081626892
0.740466415882110596 0.711604177951812744 0.0209234654903411865
1.14653658866882324 0.113845832645893097 0.0147212697193026543
1.10576832294464111 0.173858955502510071 0.0588282160460948944
0.888520121574401855 0.493660628795623779 0.0634031742811203003
0.917159080505371094 0.451502561569213867 0.0400367081165313721
0.867913484573364258 0.523994863033294678 0.0801226198673248291
0.589169502258300781 0.934321820735931396 0.0489756986498832703
0.557467758655548096 0.980988562107086182 0.00985543429851531982
0.923040628433227539 0.442844569683074951 0.0720693767070770264
0.743994474411010742 0.706410586833953857 0.00293175503611564636
0.486859917640686035 1.08492732048034668 0.0258468091487884521
0.367343485355377197 1.26086235046386719 0.0216663628816604614
0.751711368560791016 0.695050954818725586 0.00241977721452713013
1.13362717628479004 0.132849156856536865 0.0529083013534545898
0.431072831153869629 1.16704905033111572 0.0296709910035133362
0.763988614082336426 0.676978170871734619 0.028963431715965271
0.749202251434326172 0.698744535446166992 0.00731855258345603943
0.631369471549987793 0.872201025485992432 0.0354871973395347595
0.978059470653533936 0.361853688955307007 0.0234299637377262115
0.921913623809814453 0.444503575563430786 0.0814068317413330078
1.07273709774017334 0.222482830286026001 0.0496040135622024536
0.84348297119140625 0.559957921504974365 0.0334167256951332092
1.02192795276641846 0.297276854515075684 0.0986045598983764648
1.09701180458068848 0.186749160289764404 0.110503174364566803
0.855983972549438477 0.54155576229095459 6.85155391693115234e-05
0.634031891822814941 0.868281841278076172 0.0543815866112709045
0.63532102108001709 0.866384148597717285 0.0420390106737613678
0.704102396965026855 0.765134036540985107 0.0484978184103965759
1.15508770942687988 0.10125800222158432 0.0227460432797670364
0.816145598888397217 0.600200116634368896 0.0271090865135192871
0.987371146678924561 0.348146349191665649 0.0896580666303634644
0.976955115795135498 0.363479375839233398 0.0196290016174316406
1.13078749179840088 0.137029290199279785 0.000607294496148824692
0.572906970977783203 0.958261191844940186 0.0064104422926902771
0.570898294448852539 0.961218059062957764 0.0299658849835395813
0.964376389980316162 0.381995975971221924 0.0603543967008590698
1.14035546779632568 0.122944816946983337 0.103796422481536865
0.88285905122756958 0.501994073390960693 0.00567352399230003357
0.564492404460906982 0.970647871494293213 0.00917942821979522705
0.950798451900482178 0.401983439922332764 0.0209942609071731567
0.583315551280975342 0.942939162254333496 0.0117438361048698425
1.03632640838623047 0.276081502437591553 0.103082112967967987
1.08064663410186768 0.210839569568634033 0.0108217764645814896
0.659460961818695068 0.830848753452301025 0.0020352490246295929
0.919492006301879883 0.448068290948867798 0.087100788950920105
0.939877152442932129 0.418060243129730225 0.0899476781487464905
0.614139854907989502 0.89756399393081665 0.0153373405337333679
0.793274641036987305 0.633867502212524414 0.0768373012542724609
0.788922429084777832 0.640274167060852051 0.0013348013162612915
0.651416659355163574 0.842690467834472656 0.0402445420622825623
1.11042869091033936 0.166998624801635742 0.0831772461533546448
0.380237460136413574 1.2418816089630127 0.00722920149564743042
0.817232728004455566 0.598599791526794434 0.0150686204433441162
0.573376178741455078 0.957570433616638184 0.00743285566568374634
0.487345218658447266 1.0842130184173584 0.0220264866948127747
1.04944348335266113 0.256772309541702271 0.0330257490277290344
0.40208137035369873 1.20972621440887451 0.0155626311898231506
0.924942135810852051 0.440045416355133057 0.0177977513521909714
1.09279263019561768 0.192959949374198914 0.0421178936958312988
0.554612100124359131 0.985192239284515381 0.0349350348114967346
1.01687288284301758 0.304718047380447388 0.099648594856262207
0.82544100284576416 0.586516678333282471 0.0734891369938850403
1.12994968891143799 0.138262614607810974 0.0669593885540962219
1.16172623634338379 0.0914857834577560425 0.050378069281578064
0.694803774356842041 0.778822124004364014 0.0099577680230140686
0.727618575096130371 0.73051685094833374 0.0237910300493240356
0.837018072605133057 0.569474637508392334 0.0493886582553386688
0.77757716178894043 0.656975090503692627 0.0363698191940784454
1.15484178066253662 0.10162016749382019 0.103045016527175903
1.15070962905883789 0.107702836394309998 0.0548785664141178131
0.91380774974822998 0.456435829401016235 0.0537055507302284241
0.883257865905761719 0.501407027244567871 0.0813276469707489014
0.973366498947143555 0.368762046098709106 0.0304926317185163498
0.645582079887390137 0.851279318332672119 0.0342608876526355743
0.396659910678863525 1.21770679950714111 0.0207650810480117798
0.807160019874572754 0.613427400588989258 0.0477555058896541595
0.811432123184204102 0.607138514518737793 0.0674407482147216797
1.10202503204345703 0.17936939001083374 0.00112733850255608559
0.801289916038513184 0.622068464756011963 0.00632229447364807129
0.772647738456726074 0.664231359958648682 0.0588676296174526215
0.721791863441467285 0.739094138145446777 0.00651539117097854614
0.912988126277923584 0.45764237642288208 0.0861023068428039551
1.10872209072113037 0.169510811567306519 0.0172533951699733734
0.346873104572296143 1.29099583625793457 0.00359779596328735352
1.02139568328857422 0.298060387372970581 0.0715658292174339294
0.764943480491638184 0.675572574138641357 0.00224925205111503601
0.390338599681854248 1.2270122766494751 0.00399929285049438477
1.00720179080963135 0.318954586982727051 0.0569043457508087158
1.13781547546386719 0.126683801412582397 0.050381440669298172
0.770878851413726807 0.666835308074951172 0.0389129295945167542
0.816350698471069336 0.599898159503936768 0.0644675418734550476
0.810024619102478027 0.609210550785064697 0.0260757356882095337
0.672455191612243652 0.811720490455627441 0.014734167605638504
1.03654718399047852 0.27575644850730896 0.100341491401195526
0.903764426708221436 0.471220225095748901 0.0756604969501495361
0.514538764953613281 1.0441824197769165 0.0145560428500175476
0.958121299743652344 0.391203820705413818 0.0446669384837150574
0.995917737483978271 0.335565298795700073 0.0785073563456535339
0.675382077693939209 0.80741196870803833 0.0450151972472667694
1.04466867446899414 0.263801246881484985 0.0467773154377937317
1.08784890174865723 0.200237348675727844 0.0390142053365707397
0.768656075000762939 0.670107364654541016 0.0270487703382968903
0.851137518882751465 0.54869002103805542 0.0759706422686576843
0.412205338478088379 1.19482314586639404 0.0212650150060653687
0.881108999252319336 0.504570305347442627 0.0238273628056049347
0.96048814058303833 0.387719720602035522 0.0651057809591293335
1.16156744956970215 0.0917194485664367676 0.071967586874961853
0.825297653675079346 0.586727797985076904 0.0646954774856567383
1.12507200241088867 0.145442873239517212 0.0273741837590932846
0.969333052635192871 0.374699503183364868 0.0510505661368370056
0.8872794508934021 0.495487004518508911 0.00830022990703582764
0.477751433849334717 1.0983356237411499 0.0291968435049057007
0.745026588439941406 0.704891383647918701 0.0689625665545463562
0.490432262420654297 1.07966864109039307 0.01502266526222229
0.861869335174560547 0.532892167568206787 0.0267112962901592255
0.345682144165039062 1.29274904727935791 0.0148594975471496582
0.926210105419158936 0.438178926706314087 0.0417532697319984436
1.15419375896453857 0.102573953568935394 0.0116109894588589668
0.463283538818359375 1.11963307857513428 0.0280633792281150818
1.02755427360534668 0.288994461297988892 0.0877235680818557739
0.388291835784912109 1.23002517223358154 0.0225813165307044983
1.13977146148681641 0.123804382979869843 0.0844481512904167175
1.06973552703857422 0.226901262998580933 0.0393816307187080383
1.13255369663238525 0.134429484605789185 0.0549528896808624268
0.498529434204101562 1.06774914264678955 0.0375715792179107666
1.00806355476379395 0.317686021327972412 0.0815681964159011841
1.12585651874542236 0.144287988543510437 0.00999987311661243439
1.02980911731719971 0.285675287246704102 0.00848503038287162781
0.809057235717773438 0.610634565353393555 0.0243331901729106903
1.03245317935943604 0.281783044338226318 0.0567255690693855286
1.04308640956878662 0.266130357980728149 0.0677013620734214783
0.895272493362426758 0.483720839023590088 0.0249257273972034454
0.396771430969238281 1.21754276752471924 0.0193474739789962769
1.00563156604766846 0.321266025304794312 0.0154856666922569275
0.463131427764892578 1.1198570728302002 0.00915785878896713257
1.08347868919372559 0.206670567393302917 0.0774602964520454407
1.14583432674407959 0.114879578351974487 0.0823617950081825256
0.940317392349243164 0.41741219162940979 0.0112417042255401611
0.656469345092773438 0.835252583026885986 0.000404760241508483887
1.10557436943054199 0.174144595861434937 0.0614058338105678558
1.11549973487854004 0.159533828496932983 0.0157343726605176926
0.753231644630432129 0.69281303882598877 8.6568295955657959e-05
1.07812023162841797 0.214558601379394531 0.103396899998188019
0.514251410961151123 1.04460549354553223 0.0297236591577529907
0.189287841320037842 1.52297031879425049 0.00116614997386932373
0.602065980434417725 0.915337443351745605 0.0292348414659500122
0.581634283065795898 0.945414066314697266 0.0135511234402656555
0.410178542137145996 1.197806715965271 0.0176576375961303711
0.998442411422729492 0.331848859786987305 0.0391674898564815521
1.1566387414932251 0.0989747792482376099 0.0344188623130321503
0.848772168159484863 0.552171885967254639 0.067936629056930542
0.791607141494750977 0.636322021484375 0.0180567391216754913
0.905903816223144531 0.468070864677429199 0.00780908949673175812
0.824373900890350342 0.588087558746337891 0.0605507306754589081
0.451992630958557129 1.1362539529800415 0.00427263975143432617
1.07946205139160156 0.212583392858505249 0.0598297975957393646
1.04571807384490967 0.262256354093551636 0.060097280889749527
0.641014695167541504 0.858002662658691406 0.00690496340394020081
0.746346652507781982 0.702948093414306641 0.0247809998691082001
1.09267473220825195 0.19313359260559082 0.0287482813000679016
1.1368948221206665 0.128038987517356873 0.0551291331648826599
0.525572359561920166 1.02794039249420166 0.0140911117196083069
0.772042989730834961 0.665121614933013916 0.057636018842458725
1.13889122009277344 0.12510015070438385 0.0802836418151855469
0.292155265808105469 1.37154364585876465 0.00825046747922897339
0.740153968334197998 0.712064087390899658 0.0145081616938114166
0.680373847484588623 0.800063788890838623 0.0455799922347068787
1.06814002990722656 0.229249894618988037 0.0387330763041973114
0.972718119621276855 0.369716495275497437 0.0769060701131820679
0.978538095951080322 0.361149102449417114 0.0443134084343910217
1.0514909029006958 0.253758400678634644 0.00835638027638196945
0.369046211242675781 1.25835585594177246 0.0104563087224960327
1.1616131067276001 0.0916523560881614685 0.0530295483767986298
1.04484570026397705 0.263540655374526978 0.0705786943435668945
0.984771668910980225 0.35197293758392334 0.064716726541519165
1.00722110271453857 0.318926155567169189 0.0623161792755126953
1.0669090747833252 0.231062054634094238 0.0468824580311775208
1.1023552417755127 0.17888331413269043 0.0870073214173316956
0.631844580173492432 0.871501624584197998 0.00839287415146827698
1.04429984092712402 0.264344096183776855 0.0625782608985900879
0.560520410537719727 0.976494848728179932 0.0172816887497901917
0.576760590076446533 0.952588379383087158 0.0350333154201507568
0.619537472724914551 0.889618396759033203 0.0302589237689971924
0.409702777862548828 1.19850707054138184 0.0284588336944580078
0.906207084655761719 0.467624396085739136 0.0586261153221130371
0.711000740528106689 0.754979312419891357 0.0446238741278648376
0.772803425788879395 0.664002299308776855 0.0029011070728302002
1.0227048397064209 0.296133160591125488 0.0146622695028781891
1.07514309883117676 0.218941092491149902 0.105631358921527863
0.975864648818969727 0.365084558725357056 0.0871434882283210754
0.76658928394317627 0.673149824142456055 0.0232064761221408844
1.09910476207733154 0.183668076992034912 0.0694803297519683838
0.992899656295776367 0.340008139610290527 0.0195320583879947662
0.587394535541534424 0.93693464994430542 0.031515851616859436
0.577568531036376953 0.951399087905883789 0.0361948311328887939
0.47546684741973877 1.10169863700866699 0.0344571322202682495
0.708503425121307373 0.75865548849105835 0.0563472621142864227
0.685247719287872314 0.792889237403869629 0.00452997907996177673
0.315699994564056396 1.33688449859619141 0.0175909176468849182
1.10239744186401367 0.178821220993995667 0.075855746865272522
0.569706618785858154 0.96297222375869751 0.0402832552790641785
0.613254189491271973 0.89886772632598877 0.0269607678055763245
0.820984721183776855 0.593076646327972412 0.0510479025542736053
0.558805763721466064 0.979018926620483398 0.0247693285346031189
0.974985599517822266 0.366378635168075562 0.013370392844080925
1.09593808650970459 0.188329607248306274 0.0400433763861656189
1.09805989265441895 0.185206323862075806 0.0457943417131900787
0.535826623439788818 1.01284563541412354 0.000531338155269622803
1.0427013635635376 0.266697227954864502 0.00207136943936347961
1.0412905216217041 0.268774032592773438 0.0873490199446678162
1.09766113758087158 0.185793265700340271 0.0579072795808315277
1.10225558280944824 0.179029986262321472 0.0978928357362747192
0.727966070175170898 0.730005323886871338 0.0504114292562007904
1.14151716232299805 0.12123475968837738 0.0555636212229728699
1.09313094615936279 0.192461922764778137 0.06475047767162323
0.549586594104766846 0.992590069770812988 0.0469773858785629272
1.12441849708557129 0.146404936909675598 0.0769900903105735779
0.430535793304443359 1.1678396463394165 0.0321322903037071228
1.06864416599273682 0.228507846593856812 0.00066589750349521637
0.707600712776184082 0.759984314441680908 0.0241004452109336853
1.1600571870803833 0.0939426720142364502 0.0312276929616928101
0.954345643520355225 0.396761775016784668 0.0440788418054580688
0.90147632360458374 0.47458842396736145 0.0551782548427581787
0.442201018333435059 1.15066778659820557 0.0172237083315849304
0.297342300415039062 1.36390805244445801 0.0125120058655738831
0.779425859451293945 0.654253661632537842 0.00334265828132629395
