ply
format ascii 1.0
element vertex 725
property float x
property float y
property float z
end_header
0.137516573071479797 -0.072905324399471283 -0.028593922033905983
0.137516573071479797 -0.0648757591843605042 -0.0411367639899253845
0.137516573071479797 -0.0690264180302619934 0.00141006708145141602
0.137516573071479797 -0.0737369656562805176 -0.0533113740384578705
0.137516573071479797 -0.0697373747825622559 -0.0220721326768398285
0.137516573071479797 -0.0706769302487373352 0.0037341192364692688
0.137516573071479797 -0.0638292431831359863 -0.0501508340239524841
0.137516573071479797 -0.063201315701007843 0.0191785246133804321
0.137516573071479797 -0.0588461533188819885 -0.040518786758184433
0.137516573071479797 -0.0547530725598335266 -0.0502617582678794861
0.137516573071479797 -0.0574875250458717346 -0.0123475119471549988
0.137516573071479797 -0.064203217625617981 0.0447037145495414734
0.137516573071479797 -0.0595369897782802582 0.0014029964804649353
0.137516573071479797 -0.0610842891037464142 0.0258608162403106689
0.137516573071479797 -0.0604096129536628723 -0.0161278359591960907
0.137516573071479797 -0.0541947633028030396 -0.0187573805451393127
0.137516573071479797 -0.0526524670422077179 -0.020242743194103241
0.137516573071479797 -0.0461872369050979614 -0.0571908243000507355
0.137516573071479797 -0.0603976510465145111 0.0375524163246154785
0.137516573071479797 -0.045193839818239212 -0.0591181293129920959
0.137516573071479797 -0.040001261979341507 -0.0762440338730812073
0.137516573071479797 -0.0506670325994491577 -0.0615404993295669556
0.137516573071479797 -0.0585892647504806519 0.0249177813529968262
0.137516573071479797 -0.0540102571249008179 -0.0430341586470603943
0.137516573071479797 -0.0462819412350654602 -0.0509007163345813751
0.137516573071479797 -0.0208079647272825241 -0.0819240882992744446
0.137516573071479797 -0.0345805808901786804 -0.059053957462310791
0.137516573071479797 -0.0292993355542421341 -0.0835486873984336853
0.137516573071479797 -0.0390862151980400085 -0.056641601026058197
0.137516573071479797 -0.0403360575437545776 -0.016577795147895813
0.137516573071479797 -0.0499337762594223022 0.00572560727596282959
0.137516573071479797 -0.0434406176209449768 -0.0229480788111686707
0.137516573071479797 -0.0311110317707061768 -0.0556063055992126465
0.137516573071479797 -0.0408742539584636688 -0.0408725813031196594
0.137516573071479797 -0.0580726861953735352 0.0389380455017089844
0.137516573071479797 -0.0284507200121879578 -0.0650401413440704346
0.137516573071479797 -0.0110491476953029633 -0.0753367990255355835
0.137516573071479797 -0.038470633327960968 -0.0203957334160804749
0.137516573071479797 -0.0469251722097396851 0.0108399391174316406
0.137516573071479797 -0.00852278061211109161 -0.0870860815048217773
0.137516573071479797 -0.00690380064770579338 -0.0810810253024101257
0.137516573071479797 -0.030542273074388504 -0.022750459611415863
0.137516573071479797 -0.0166242346167564392 -0.082053840160369873
0.137516573071479797 -0.0175612345337867737 -0.0616618916392326355
0.137516573071479797 -0.0443936735391616821 0.00416479259729385376
0.137516573071479797 -0.011731085367500782 -0.0799718350172042847
0.137516573071479797 -0.0136238373816013336 -0.076203368604183197
0.137516573071479797 -0.0159825049340724945 -0.0895475447177886963
0.137516573071479797 -0.0295091606676578522 -0.050116613507270813
0.137516573071479797 -0.0472026653587818146 0.0235146954655647278
0.137516573071479797 0.00724520767107605934 -0.0895155221223831177
0.137516573071479797 -0.00688279792666435242 -0.0535460226237773895
0.137516573071479797 -0.0177884083241224289 -0.0234205946326255798
0.137516573071479797 -0.00508219003677368164 -0.0582778342068195343
0.137516573071479797 -0.0350575074553489685 0.00331294536590576172
0.137516573071479797 0.00163402548059821129 -0.0899340063333511353
0.137516573071479797 -0.00974044296890497208 -0.0497559197247028351
0.137516573071479797 -0.0552152581512928009 0.043225802481174469
0.137516573071479797 -0.0388572588562965393 0.00338447839021682739
0.137516573071479797 -0.0182180590927600861 -0.0331454649567604065
0.137516573071479797 -0.0138570480048656464 -0.0322319604456424713
0.137516573071479797 -0.020682312548160553 -0.0297530405223369598
0.137516573071479797 -0.0235661547631025314 -0.0140961483120918274
0.137516573071479797 0.000675082206726074219 -0.042123056948184967
0.137516573071479797 -0.00304863043129444122 -0.0426289774477481842
0.137516573071479797 -0.0180095620453357697 -0.0154147446155548096
0.137516573071479797 -0.0138059630990028381 -0.0159635543823242188
0.137516573071479797 0.0121600190177559853 -0.0666902363300323486
0.137516573071479797 -0.0550439916551113129 0.0489044860005378723
0.137516573071479797 -0.0346140339970588684 0.01858559250831604
0.137516573071479797 0.00810796394944190979 -0.0532962754368782043
0.137516573071479797 0.0142449941486120224 -0.0696489140391349792
0.137516573071479797 0.0193650349974632263 -0.0634871423244476318
0.137516573071479797 -0.0525354295969009399 0.0444116592407226562
0.137516573071479797 -0.0340077802538871765 0.0116259977221488953
0.137516573071479797 0.0172511301934719086 -0.0667037740349769592
0.137516573071479797 0.0342730432748794556 -0.0836480483412742615
0.137516573071479797 -0.000819547101855278015 -0.0513080582022666931
0.137516573071479797 0.0177233368158340454 -0.0377793572843074799
0.137516573071479797 -0.0463197305798530579 0.0391144081950187683
0.137516573071479797 0.0131367519497871399 -0.0336054973304271698
0.137516573071479797 -0.0224417001008987427 0.0118644237518310547
0.137516573071479797 0.00840655714273452759 -0.0378981307148933411
0.137516573071479797 0.000172410160303115845 -0.0184655077755451202
0.137516573071479797 -0.00217796117067337036 -0.0240253061056137085
0.137516573071479797 0.0240236725658178329 -0.0576102882623672485
0.137516573071479797 0.0232242681086063385 -0.0517569258809089661
0.137516573071479797 0.0146641544997692108 -0.0493376664817333221
0.137516573071479797 0.000117078423500061035 -0.0247513838112354279
0.137516573071479797 0.0339882634580135345 -0.0557722151279449463
0.137516573071479797 0.0189689565449953079 -0.0561335571110248566
0.137516573071479797 -0.0131963975727558136 -0.0024989694356918335
0.137516573071479797 0.0306804198771715164 -0.0719265937805175781
0.137516573071479797 -0.0321066677570343018 0.028134271502494812
0.137516573071479797 0.0207830704748630524 -0.0388347320258617401
0.137516573071479797 0.0485266782343387604 -0.056277785450220108
0.137516573071479797 0.04832453653216362 -0.0613243691623210907
0.137516573071479797 -0.00948215276002883911 0.000226415693759918213
0.137516573071479797 -0.03052540123462677 0.0296580195426940918
0.137516573071479797 0.00626980140805244446 -0.00804601982235908508
0.137516573071479797 0.053916003555059433 -0.0608029961585998535
0.137516573071479797 7.80187547206878662e-05 -0.00898560136556625366
0.137516573071479797 0.0353800952434539795 -0.0569938831031322479
0.137516573071479797 0.053542792797088623 -0.0635620132088661194
0.137516573071479797 0.0495355613529682159 -0.0691775605082511902
0.137516573071479797 0.00484553351998329163 -0.0135033465921878815
0.137516573071479797 0.0146584436297416687 -0.0208439379930496216
0.137516573071479797 0.0366117209196090698 -0.0551657229661941528
0.137516573071479797 0.0559984631836414337 -0.0698587670922279358
0.137516573071479797 -0.0179360806941986084 0.0208561830222606659
0.137516573071479797 0.00917069613933563232 -0.00220379605889320374
0.137516573071479797 0.00981335341930389404 0.00176050886511802673
0.137516573071479797 0.00409349054098129272 -0.0038435719907283783
0.137516573071479797 0.0541030913591384888 -0.0478859059512615204
0.137516573071479797 -0.00841577351093292236 0.0128642730414867401
0.137516573071479797 0.0547009594738483429 -0.0424266606569290161
0.137516573071479797 0.0372335836291313171 -0.0301712937653064728
0.137516573071479797 0.00744817405939102173 0.00137026980519294739
0.137516573071479797 0.0372792445123195648 -0.0286185387521982193
0.137516573071479797 0.0558730959892272949 -0.0397708974778652191
0.137516573071479797 0.0343428701162338257 -0.027706831693649292
0.137516573071479797 0.0483100935816764832 -0.0414159595966339111
0.137516573071479797 0.0292711369693279266 -0.0149229429662227631
0.137516573071479797 -0.0061313137412071228 0.016414206475019455
0.137516573071479797 0.0470993630588054657 -0.0437537692487239838
0.137516573071479797 0.0323213599622249603 -0.00477291271090507507
0.137516573071479797 0.0321463234722614288 -0.00228532776236534119
0.137516573071479797 0.0288536921143531799 -0.00951272621750831604
0.137516573071479797 -0.0536508336663246155 0.0560233965516090393
0.137516573071479797 0.0258009843528270721 0.00209546461701393127
0.137516573071479797 0.0419312417507171631 -0.0167848728597164154
0.137516573071479797 0.0437997579574584961 -0.00929247401654720306
0.137516573071479797 0.035581786185503006 -0.00579981878399848938
0.137516573071479797 0.033800072968006134 -0.00606999918818473816
0.137516573071479797 0.0291997641324996948 0.000368755310773849487
0.137516573071479797 0.033764369785785675 -0.00710667669773101807
0.137516573071479797 0.053996555507183075 -0.018366590142250061
0.137516573071479797 0.0422419644892215729 -0.0192319378256797791
0.137516573071479797 -0.018256455659866333 0.0318071469664573669
0.137516573071479797 0.0402668341994285583 -0.0129050500690937042
0.137516573071479797 0.0781311988830566406 -0.0245070047676563263
0.137516573071479797 0.0701492950320243835 -0.0218781791627407074
0.137516573071479797 0.0827753320336341858 -0.0323759131133556366
0.137516573071479797 -0.0112890899181365967 0.029124261811375618
0.137516573071479797 0.0290705412626266479 0.00670904107391834259
0.137516573071479797 0.0548151470720767975 -0.00569672323763370514
0.137516573071479797 0.00732889771461486816 0.0198843199759721756
0.137516573071479797 -0.0144783258438110352 0.0358426086604595184
0.137516573071479797 0.0175986140966415405 0.00992693006992340088
0.137516573071479797 -0.0190093889832496643 0.0367422550916671753
0.137516573071479797 0.0318956561386585236 0.00409418158233165741
0.137516573071479797 0.00775047391653060913 0.0218054763972759247
0.137516573071479797 0.0734237954020500183 -0.0191055946052074432
0.137516573071479797 0.0166843309998512268 0.0137422457337379456
0.137516573071479797 0.0662645250558853149 0.00179435871541500092
0.137516573071479797 0.0638334378600120544 0.00991179607808589935
0.137516573071479797 0.054605044424533844 0.0146738775074481964
0.137516573071479797 0.0844785869121551514 -0.0123922023922204971
0.137516573071479797 -0.00377335399389266968 0.0335281491279602051
0.137516573071479797 0.0477112270891666412 0.0141348885372281075
0.137516573071479797 0.0178115665912628174 0.0220848359167575836
0.137516573071479797 0.0403024032711982727 0.00878478493541479111
0.137516573071479797 0.0783290117979049683 -0.0090735945850610733
0.137516573071479797 -0.0015595853328704834 0.0361908748745918274
0.137516573071479797 0.08325958251953125 -0.0112313078716397285
0.137516573071479797 -0.0215916857123374939 0.0436374284327030182
0.137516573071479797 0.0251579880714416504 0.0194179099053144455
0.137516573071479797 0.0222600102424621582 0.0261727683246135712
0.157516568899154663 -0.0732988044619560242 -0.0229323152452707291
0.157516568899154663 -0.0833489522337913513 0.00395066617056727409
0.157516568899154663 -0.0735192596912384033 -0.0196102913469076157
0.157516568899154663 -0.0668487548828125 -0.0285852421075105667
0.157516568899154663 -0.0642786696553230286 -0.0317281223833560944
0.157516568899154663 -0.0735082626342773438 0.00702017918229103088
0.157516568899154663 -0.0709578767418861389 -0.00639704987406730652
0.157516568899154663 -0.0741706639528274536 0.034613337367773056
0.157516568899154663 -0.0692459717392921448 0.0204192232340574265
0.157516568899154663 -0.0610365495085716248 -0.030641462653875351
0.157516568899154663 -0.0616683214902877808 -0.0288683697581291199
0.157516568899154663 -0.0688155815005302429 0.0331463292241096497
0.157516568899154663 -0.0587257295846939087 -0.0398004911839962006
0.157516568899154663 -0.0627260059118270874 0.0421734675765037537
0.157516568899154663 -0.0625052526593208313 0.0532930083572864532
0.157516568899154663 -0.063380509614944458 0.0244277790188789368
0.157516568899154663 -0.0603287741541862488 -0.0151065774261951447
0.157516568899154663 -0.0585228540003299713 0.058681827038526535
0.157516568899154663 -0.0621151402592658997 -0.00108421221375465393
0.157516568899154663 -0.0453739352524280548 0.0678692460060119629
0.157516568899154663 -0.0550067909061908722 0.0197394788265228271
0.157516568899154663 -0.0507582016289234161 0.0668441504240036011
0.157516568899154663 -0.053421657532453537 0.0457239784300327301
0.157516568899154663 -0.0490762591361999512 0.0247819982469081879
0.157516568899154663 -0.0530226081609725952 0.0596907138824462891
0.157516568899154663 -0.0476593486964702606 0.0618198774755001068
0.157516568899154663 -0.0511335842311382294 0.00621344149112701416
0.157516568899154663 -0.0443195216357707977 0.0149007141590118408
0.157516568899154663 -0.0501885972917079926 -0.0016481056809425354
0.157516568899154663 -0.0444947928190231323 -0.000846870243549346924
0.157516568899154663 -0.0464066304266452789 0.0205142088234424591
0.157516568899154663 -0.0444416478276252747 0.0356873311102390289
0.157516568899154663 -0.0332637205719947815 0.0776659846305847168
0.157516568899154663 -0.0370083600282669067 0.0552708208560943604
0.157516568899154663 -0.043735109269618988 0.0191282033920288086
0.157516568899154663 -0.0359974242746829987 0.0446791425347328186
0.157516568899154663 -0.0452320724725723267 0.01367931067943573
0.157516568899154663 -0.0277444608509540558 0.0487085878849029541
0.157516568899154663 -0.0356358401477336884 0.0110069364309310913
0.157516568899154663 -0.0328267142176628113 0.0188322439789772034
0.157516568899154663 -0.0142257325351238251 0.0714530646800994873
0.157516568899154663 -0.0269737336784601212 0.0340407490730285645
0.157516568899154663 -0.0327778980135917664 0.0122070983052253723
0.157516568899154663 -0.0287892669439315796 0.039549756795167923
0.157516568899154663 -0.0269739087671041489 0.0517746470868587494
0.157516568899154663 -0.0352592244744300842 0.0247419998049736023
0.157516568899154663 -0.0152070745825767517 0.0678373053669929504
0.157516568899154663 -0.0354727208614349365 0.0039533078670501709
0.157516568899154663 -0.0191823653876781464 0.049173399806022644
0.157516568899154663 -0.0062872529961168766 0.0581315569579601288
0.157516568899154663 -0.0180241391062736511 0.0253853052854537964
0.157516568899154663 -0.045292586088180542 -0.0297957509756088257
0.157516568899154663 -0.0409568287432193756 -0.0241575613617897034
0.157516568899154663 -0.0125038102269172668 0.0708316415548324585
0.157516568899154663 -0.0171335898339748383 0.0482883453369140625
0.157516568899154663 -0.00980634428560733795 0.0436354987323284149
0.157516568899154663 -0.0246976260095834732 0.0210344642400741577
0.157516568899154663 -0.0174013655632734299 0.058457493782043457
0.157516568899154663 -0.0204842574894428253 0.0222454220056533813
0.157516568899154663 -0.0396222583949565887 -0.0104594603180885315
0.157516568899154663 -0.00264612678438425064 0.0524671226739883423
0.157516568899154663 0.00678099878132343292 0.0608204826712608337
0.157516568899154663 0.00617093592882156372 0.0549383088946342468
0.157516568899154663 -0.00993520766496658325 0.026673492044210434
0.157516568899154663 -0.0266807638108730316 0.00120566785335540771
0.157516568899154663 0.00525327585637569427 0.0486604683101177216
0.157516568899154663 -0.000447344034910202026 0.0507146269083023071
0.157516568899154663 -0.0109157096594572067 0.020708177238702774
0.157516568899154663 0.0107103204354643822 0.07296791672706604
0.157516568899154663 -0.0141013637185096741 0.0158747956156730652
0.157516568899154663 0.00180433690547943115 0.0493508055806159973
0.157516568899154663 -0.0075559467077255249 0.0252367854118347168
0.157516568899154663 0.00349693931639194489 0.0526852309703826904
0.157516568899154663 -0.0138006247580051422 0.00150697678327560425
0.157516568899154663 -0.00756667181849479675 0.0148120075464248657
0.157516568899154663 0.00760009139776229858 0.0274572521448135376
0.157516568899154663 0.00881250202655792236 0.0291411913931369781
0.157516568899154663 -0.000778514891862869263 0.0332316234707832336
0.157516568899154663 -0.0292723402380943298 -0.0178066641092300415
0.157516568899154663 0.0100363045930862427 0.0305037461221218109
0.157516568899154663 0.0365172587335109711 0.0700524598360061646
0.157516568899154663 -0.026510193943977356 -0.0173393711447715759
0.157516568899154663 0.00897649861872196198 0.0474094226956367493
0.157516568899154663 0.0375902354717254639 0.0677053928375244141
0.157516568899154663 0.0198859758675098419 0.0566371679306030273
0.157516568899154663 0.0312664434313774109 0.0603819712996482849
0.157516568899154663 -0.00184189528226852417 0.0139120407402515411
0.157516568899154663 0.0206419974565505981 0.0248606503009796143
0.157516568899154663 0.03607960045337677 0.0506017953157424927
0.157516568899154663 0.0259125605225563049 0.045223720371723175
0.157516568899154663 -0.0110844448208808899 -0.00429747998714447021
0.157516568899154663 0.0355783812701702118 0.0455728843808174133
0.157516568899154663 0.0386533886194229126 0.0480263680219650269
0.157516568899154663 0.0202310029417276382 0.0330107696354389191
0.157516568899154663 0.0431579947471618652 0.0558565109968185425
0.157516568899154663 0.0193022936582565308 0.0329863652586936951
0.157516568899154663 -0.0110962949693202972 -0.00600431859493255615
0.157516568899154663 -0.00503864139318466187 0.00023320317268371582
0.157516568899154663 0.0450992174446582794 0.0580755025148391724
0.157516568899154663 -0.0156799741089344025 -0.00870218873023986816
0.157516568899154663 -0.0286317020654678345 -0.0293880477547645569
0.157516568899154663 0.0268503911793231964 0.0183377787470817566
0.157516568899154663 0.040757007896900177 0.0290492754429578781
0.157516568899154663 0.0169172845780849457 0.0131983533501625061
0.157516568899154663 -0.0185908973217010498 -0.0213485062122344971
0.157516568899154663 0.050615161657333374 0.0549040511250495911
0.157516568899154663 0.044926181435585022 0.0404837913811206818
0.157516568899154663 -0.0393172577023506165 -0.0451542474329471588
0.157516568899154663 0.014211021363735199 0.00478820875287055969
0.157516568899154663 0.0578964389860630035 0.0475391112267971039
0.157516568899154663 0.0390435941517353058 0.0417118333280086517
0.157516568899154663 0.0457910224795341492 0.0407060310244560242
0.157516568899154663 0.00486352294683456421 -0.00484107807278633118
0.157516568899154663 0.0378437042236328125 0.0319675542414188385
0.157516568899154663 0.0255920477211475372 0.0254046730697154999
0.157516568899154663 0.0615127086639404297 0.0486604943871498108
0.157516568899154663 0.0473274439573287964 0.028505377471446991
0.157516568899154663 0.0478017479181289673 0.0175376385450363159
0.157516568899154663 0.0691695213317871094 0.0359067022800445557
0.157516568899154663 0.0411710068583488464 0.0131322517991065979
0.157516568899154663 0.0505362190306186676 0.0245648883283138275
0.157516568899154663 -0.0273106619715690613 -0.0409527979791164398
0.157516568899154663 0.0125975795090198517 -0.00459835678339004517
0.157516568899154663 0.0753348395228385925 0.0374010168015956879
0.157516568899154663 0.0701416507363319397 0.0463741347193717957
0.157516568899154663 0.0437241755425930023 0.0108468756079673767
0.157516568899154663 0.00878638029098510742 -0.00691077485680580139
0.157516568899154663 0.0104720741510391235 -0.00628210604190826416
0.157516568899154663 0.0250534676015377045 -0.00344996154308319092
0.157516568899154663 0.0564807727932929993 0.0307828877121210098
0.157516568899154663 0.03863506019115448 -0.00396215356886386871
0.157516568899154663 0.0491258464753627777 0.00335822440683841705
0.157516568899154663 0.0439088083803653717 -0.00226845778524875641
0.157516568899154663 0.0270748063921928406 -0.0028063897043466568
0.157516568899154663 0.0708076059818267822 0.0200495999306440353
0.157516568899154663 0.0436971262097358704 0.00669934973120689392
0.157516568899154663 -0.0305728316307067871 -0.0475451424717903137
0.157516568899154663 0.0365038737654685974 -0.00122567825019359589
0.157516568899154663 0.0766942575573921204 0.0328626856207847595
0.157516568899154663 -0.0281143635511398315 -0.0467261150479316711
0.157516568899154663 0.0626695305109024048 0.0169679820537567139
0.157516568899154663 0.0429869182407855988 -0.00530923344194889069
0.157516568899154663 0.0134484171867370605 -0.0218667387962341309
0.157516568899154663 -0.0476236715912818909 -0.0585995614528656006
0.157516568899154663 0.0449940226972103119 -0.0147926826030015945
0.157516568899154663 -0.036492958664894104 -0.0520443879067897797
0.157516568899154663 0.0198554098606109619 -0.0222431886941194534
0.157516568899154663 0.039313487708568573 -0.0138257965445518494
0.157516568899154663 0.0836168155074119568 0.00334872957319021225
0.157516568899154663 0.0808238089084625244 0.0120399119332432747
0.157516568899154663 0.0627878978848457336 0.00432822480797767639
0.157516568899154663 -0.00749355554580688477 -0.0361260101199150085
0.157516568899154663 0.0675768852233886719 -0.00688441377133131027
0.157516568899154663 0.0223069489002227783 -0.0225213617086410522
0.157516568899154663 0.00311790406703948975 -0.0311147794127464294
0.157516568899154663 0.0228110998868942261 -0.0306602530181407928
0.157516568899154663 0.00200492888689041138 -0.0379626080393791199
0.157516568899154663 -0.0433937236666679382 -0.0583734810352325439
0.157516568899154663 0.0124031379818916321 -0.0330462455749511719
0.157516568899154663 0.0730357468128204346 -0.0110973138362169266
0.157516568899154663 -0.0159819349646568298 -0.0484730079770088196
0.157516568899154663 0.018045276403427124 -0.0381439030170440674
0.157516568899154663 0.000832252204418182373 -0.0384026393294334412
0.157516568899154663 0.0643176138401031494 -0.0223922282457351685
0.157516568899154663 0.0576463192701339722 -0.0124917151406407356
0.157516568899154663 0.0605394951999187469 -0.012116163969039917
0.157516568899154663 0.0740455389022827148 -0.0101408110931515694
0.157516568899154663 0.050446338951587677 -0.0353761129081249237
0.157516568899154663 0.0645551756024360657 -0.0316965393722057343
0.157516568899154663 0.0274297967553138733 -0.041108936071395874
0.157516568899154663 0.0174854397773742676 -0.0449556931853294373
0.157516568899154663 0.0268079005181789398 -0.0447368025779724121
0.157516568899154663 0.0621898546814918518 -0.0290346425026655197
0.157516568899154663 0.0583016760647296906 -0.0325995534658432007
0.157516568899154663 0.0019254833459854126 -0.0450753793120384216
0.157516568899154663 -0.0391443893313407898 -0.0593292340636253357
0.157516568899154663 0.00804105401039123535 -0.0432580970227718353
0.157516568899154663 0.0258601903915405273 -0.0510968193411827087
0.157516568899154663 0.0182348117232322693 -0.0526769086718559265
0.157516568899154663 0.0590271130204200745 -0.0497081950306892395
0.157516568899154663 0.0645015537738800049 -0.0409599058330059052
0.157516568899154663 0.00711752846837043762 -0.0560830384492874146
0.157516568899154663 0.0656340271234512329 -0.0386751890182495117
0.157516568899154663 0.0141794346272945404 -0.0544447600841522217
0.157516568899154663 0.0307848565280437469 -0.0510000325739383698
0.157516568899154663 0.0551497414708137512 -0.0549976490437984467
0.157516568899154663 -0.0161204524338245392 -0.0625032782554626465
0.157516568899154663 0.035246971994638443 -0.0549262352287769318
0.157516568899154663 0.0321619510650634766 -0.0553604140877723694
0.157516568899154663 0.0109349600970745087 -0.0614661611616611481
0.157516568899154663 0.0240314900875091553 -0.0576290413737297058
0.157516568899154663 -0.0131834782660007477 -0.0614684484899044037
0.157516568899154663 -0.00793015956878662109 -0.0666171163320541382
0.157516568899154663 0.0365596190094947815 -0.0672557353973388672
0.157516568899154663 0.0392048396170139313 -0.0653312057256698608
0.157516568899154663 0.0325661823153495789 -0.0713985562324523926
0.157516568899154663 0.0189239382743835449 -0.0643051639199256897
0.157516568899154663 -0.0230096280574798584 -0.0636571645736694336
0.157516568899154663 0.003056330606341362 -0.0732615068554878235
0.157516568899154663 -0.0153001807630062103 -0.0693748593330383301
0.157516568899154663 -0.0117101855576038361 -0.069977886974811554
0.157516568899154663 0.00395818985998630524 -0.0728596150875091553
0.157516568899154663 0.0160095412284135818 -0.0832489058375358582
0.157516568899154663 -0.0468048416078090668 -0.0657723844051361084
0.157516568899154663 0.0107892295345664024 -0.0834099277853965759
0.157516568899154663 -0.0298135634511709213 -0.0756620168685913086
0.157516568899154663 -0.012714809738099575 -0.0790627077221870422
0.157516568899154663 -0.043132588267326355 -0.0702983886003494263
0.157516568899154663 -0.0795182287693023682 -0.0255996771156787872
0.157516568899154663 -0.0770982205867767334 -0.0263757072389125824
0.157516568899154663 0.0779640898108482361 -0.00652636820450425148
0.157516568899154663 0.0420958586037158966 -0.0208296440541744232
0.157516568899154663 0.0418334305286407471 -0.0222186129540205002
0.157516568899154663 0.0283088944852352142 -0.02637464739382267
0.157516568899154663 0.0715291798114776611 -0.017060963436961174
0.157516568899154663 -0.00161417573690414429 -0.0398476570844650269
0.157516568899154663 0.0247956737875938416 -0.0355735793709754944
0.157516568899154663 0.00910665839910507202 -0.0370364822447299957
0.157516568899154663 0.0726990625262260437 -0.0171339288353919983
0.157516568899154663 0.0754104182124137878 -0.0109558477997779846
0.157516568899154663 0.0479476712644100189 -0.021139511838555336
0.157516568899154663 0.0624311715364456177 -0.0202309116721153259
0.157516568899154663 -0.00378357619047164917 -0.0489804372191429138
0.157516568899154663 0.0141887664794921875 -0.0436913929879665375
0.157516568899154663 0.0700308084487915039 -0.0310556404292583466
0.157516568899154663 0.0137484744191169739 -0.0451365113258361816
0.157516568899154663 0.0775496587157249451 -0.0334921926259994507
0.157516568899154663 0.00194172561168670654 -0.045082680881023407
0.157516568899154663 0.0653421878814697266 -0.028453335165977478
0.157516568899154663 0.0279074124991893768 -0.0443589463829994202
0.157516568899154663 0.0748000293970108032 -0.0263885911554098129
0.157516568899154663 0.0252814777195453644 -0.043664250522851944
0.157516568899154663 0.0577061064541339874 -0.0359459593892097473
0.157516568899154663 0.0636182278394699097 -0.0311902351677417755
0.157516568899154663 0.0238098911941051483 -0.0476291291415691376
0.157516568899154663 0.0674496442079544067 -0.0423322468996047974
0.157516568899154663 -0.0376227721571922302 -0.0595263950526714325
0.157516568899154663 0.0335586592555046082 -0.0549617595970630646
0.157516568899154663 0.0361613929271697998 -0.0481963828206062317
0.157516568899154663 -0.0496770516037940979 -0.0628345608711242676
0.157516568899154663 0.0751662477850914001 -0.048251025378704071
0.157516568899154663 0.0107359066605567932 -0.0570031404495239258
0.157516568899154663 0.0395923666656017303 -0.0521854571998119354
0.157516568899154663 -0.0373508855700492859 -0.0628451481461524963
0.157516568899154663 0.038579598069190979 -0.0583237484097480774
0.157516568899154663 0.0141158886253833771 -0.0578405782580375671
0.157516568899154663 -0.0367095321416854858 -0.0638261586427688599
0.157516568899154663 -0.00968208909034729004 -0.0643220469355583191
0.157516568899154663 -0.00769384950399398804 -0.0642906799912452698
0.157516568899154663 -0.0328091904520988464 -0.0638998672366142273
0.157516568899154663 0.0743928179144859314 -0.052024155855178833
0.157516568899154663 -0.00437550991773605347 -0.0611007362604141235
0.157516568899154663 0.010043557733297348 -0.06801605224609375
0.157516568899154663 0.0413136817514896393 -0.066252097487449646
0.157516568899154663 0.010363895446062088 -0.0701613724231719971
0.157516568899154663 0.028333757072687149 -0.0691717714071273804
0.157516568899154663 -0.0213725268840789795 -0.0666027367115020752
0.157516568899154663 0.043206043541431427 -0.0743985474109649658
0.157516568899154663 0.0420639961957931519 -0.0659388899803161621
0.157516568899154663 0.0288824420422315598 -0.0771165564656257629
0.157516568899154663 -0.0249876081943511963 -0.0704374238848686218
0.157516568899154663 -0.00838434323668479919 -0.0703745260834693909
0.157516568899154663 0.0303934067487716675 -0.0795327275991439819
0.157516568899154663 -0.00143596157431602478 -0.0733647793531417847
0.157516568899154663 -0.00462341681122779846 -0.0742868110537528992
0.157516568899154663 0.0193578191101551056 -0.0862941518425941467
0.157516568899154663 -0.00224920548498630524 -0.0793295800685882568
0.157516568899154663 -0.0133046340197324753 -0.0793120488524436951
0.157516568899154663 0.00436749868094921112 -0.0845008715987205505
0.157516568899154663 0.00492897164076566696 -0.0870937108993530273
0.157516568899154663 -0.0170384328812360764 -0.0806546956300735474
0.157516568899154663 -0.0197831802070140839 -0.0802152007818222046
0.157516568899154663 -0.0285245440900325775 -0.0830537229776382446
0.157516568899154663 -0.0096318395808339119 -0.0881608277559280396
0.157516568899154663 -0.051190253347158432 -0.0730559676885604858
0.157516568899154663 -0.0691233649849891663 -0.0590054318308830261
0.157516568899154663 -0.0727879554033279419 -0.0453548841178417206
0.157516568899154663 -0.0898614749312400818 0.00586952827870845795
0.157516568899154663 -0.0858013182878494263 -0.00712736882269382477
0.157516568899154663 -0.0895403102040290833 0.0123753426596522331
0.157516568899154663 -0.0780489295721054077 -0.00482747703790664673
0.157516568899154663 -0.0746354833245277405 -0.0213123522698879242
0.157516568899154663 -0.0881366804242134094 0.0176833905279636383
0.157516568899154663 -0.081679224967956543 0.00770593620836734772
0.157516568899154663 -0.0666275694966316223 -0.0471944734454154968
0.157516568899154663 -0.0745770707726478577 0.0198123343288898468
0.157516568899154663 -0.0752206221222877502 0.0316514819860458374
0.157516568899154663 -0.0706938356161117554 -0.0285961851477622986
0.157516568899154663 -0.072833232581615448 -0.0152927190065383911
0.157516568899154663 -0.0701194107532501221 0.0552343130111694336
0.157516568899154663 -0.0648279339075088501 -0.0495398417115211487
0.157516568899154663 -0.0718897804617881775 0.0544599629938602448
0.157516568899154663 -0.0678373798727989197 -0.00598887726664543152
0.157516568899154663 -0.0685291141271591187 -0.0035153999924659729
0.157516568899154663 -0.066639438271522522 0.0315769948065280914
0.157516568899154663 -0.0652170106768608093 -0.0296050980687141418
0.157516568899154663 -0.0624580085277557373 -0.036919720470905304
0.157516568899154663 -0.0570438914000988007 0.0575378835201263428
0.157516568899154663 -0.0622861236333847046 -0.0124531686305999756
0.157516568899154663 -0.0588463731110095978 0.0213475786149501801
0.157516568899154663 -0.059347108006477356 0.056241203099489212
0.157516568899154663 -0.0564238540828227997 0.0393102653324604034
0.157516568899154663 -0.0594646334648132324 0.0298972427845001221
0.157516568899154663 -0.0607716478407382965 0.0340626277029514313
0.157516568899154663 -0.0429372750222682953 0.0797396376729011536
0.157516568899154663 -0.0612049996852874756 -0.0429589971899986267
0.157516568899154663 -0.0493414402008056641 0.0268636457622051239
0.157516568899154663 -0.0516181588172912598 0.0338462628424167633
0.157516568899154663 -0.0412041358649730682 0.0737935677170753479
0.157516568899154663 -0.0557043962180614471 0.0164268836379051208
0.157516568899154663 -0.049001011997461319 0.0236268080770969391
0.157516568899154663 -0.0490888804197311401 0.0744547322392463684
0.157516568899154663 -0.0583399273455142975 -0.00634582340717315674
0.157516568899154663 -0.0523446984589099884 0.0435430631041526794
0.157516568899154663 -0.0542055144906044006 -0.0251022353768348694
0.157516568899154663 -0.0329224579036235809 0.0648719370365142822
0.157516568899154663 -0.0442986972630023956 0.0154750272631645203
0.157516568899154663 -0.0451454222202301025 0.00832972675561904907
0.157516568899154663 -0.0311379581689834595 0.0718049481511116028
0.157516568899154663 -0.0262643750756978989 0.0626434087753295898
0.157516568899154663 -0.0523705370724201202 -0.0158359035849571228
0.157516568899154663 -0.0564598068594932556 -0.0288097783923149109
0.157516568899154663 -0.0367468930780887604 0.0483941696584224701
0.157516568899154663 -0.0408522896468639374 0.0371445566415786743
0.157516568899154663 -0.0378653518855571747 0.035378631204366684
0.157516568899154663 -0.0431020259857177734 0.00213950127363204956
0.157516568899154663 -0.0187271144241094589 0.0830247402191162109
0.157516568899154663 -0.0505762510001659393 -0.0227901935577392578
0.157516568899154663 -0.0315909013152122498 0.0156094580888748169
0.157516568899154663 -0.0072866491973400116 0.0871271267533302307
0.157516568899154663 -0.0370306223630905151 0.0248609930276870728
0.157516568899154663 -0.0252142995595932007 0.0386672653257846832
0.157516568899154663 -0.0127750234678387642 0.0824146047234535217
0.157516568899154663 -0.0142868664115667343 0.0885662660002708435
0.157516568899154663 -0.0107227731496095657 0.0890773609280586243
0.157516568899154663 -0.0412483103573322296 -0.00116689503192901611
0.157516568899154663 -0.015080522745847702 0.0888581648468971252
0.157516568899154663 -0.00504429638385772705 0.0566020868718624115
0.157516568899154663 -0.0351194366812705994 0.00518030673265457153
0.157516568899154663 -0.00313217146322131157 0.0778943672776222229
0.157516568899154663 -0.0107617601752281189 0.0494365356862545013
0.157516568899154663 0.00101289968006312847 0.08528146892786026
0.157516568899154663 -0.023319002240896225 0.0170963853597640991
0.157516568899154663 -0.0539815053343772888 -0.0445386618375778198
0.157516568899154663 -0.0457459650933742523 -0.0196730569005012512
0.157516568899154663 -0.00556730758398771286 0.0683708265423774719
0.157516568899154663 -0.0348820537328720093 -0.00501871854066848755
0.157516568899154663 -0.0167313255369663239 0.037308715283870697
0.157516568899154663 0.00336327496916055679 0.0720339715480804443
0.157516568899154663 -0.0387779548764228821 -0.0148758366703987122
0.157516568899154663 0.0137923732399940491 0.0847140029072761536
0.157516568899154663 -0.00301830098032951355 0.0349931642413139343
0.157516568899154663 -0.0464618057012557983 -0.03190574049949646
0.157516568899154663 0.0261106081306934357 0.0797570273280143738
0.157516568899154663 -0.00138368457555770874 0.0329009480774402618
0.157516568899154663 0.024626951664686203 0.0729232877492904663
0.157516568899154663 -0.0121669284999370575 0.0274076871573925018
0.157516568899154663 -0.00927696190774440765 0.0272745043039321899
0.157516568899154663 -0.0207243636250495911 0.0084411129355430603
0.157516568899154663 -0.0342891067266464233 -0.00899332016706466675
0.157516568899154663 0.0180978886783123016 0.0652636140584945679
0.157516568899154663 0.000867944210767745972 0.0565406568348407745
0.157516568899154663 -0.0222191158682107925 0.00605421513319015503
0.157516568899154663 0.0134454146027565002 0.0624394118785858154
0.157516568899154663 -0.0167188271880149841 0.00751142948865890503
0.157516568899154663 -0.000388886779546737671 0.0371502600610256195
0.157516568899154663 -0.0359000377357006073 -0.0278914943337440491
0.157516568899154663 0.0357393510639667511 0.0601685717701911926
0.157516568899154663 0.0398484468460083008 0.0791387632489204407
0.157516568899154663 0.0135092325508594513 0.0457814596593379974
0.157516568899154663 0.028036629781126976 0.0620057694613933563
0.157516568899154663 0.0114899817854166031 0.0488063544034957886
0.157516568899154663 0.0348571240901947021 0.073360048234462738
0.157516568899154663 0.0327492430806159973 0.0663954243063926697
0.157516568899154663 -0.0221329927444458008 -0.0101140066981315613
0.157516568899154663 0.0370031744241714478 0.0705032050609588623
0.157516568899154663 0.0175178181380033493 0.0488040708005428314
0.157516568899154663 0.0129765924066305161 0.0463966913521289825
0.157516568899154663 0.0348736196756362915 0.0572246462106704712
0.157516568899154663 0.0408140756189823151 0.0759279951453208923
0.157516568899154663 0.0305161327123641968 0.0636308565735816956
0.157516568899154663 0.0296438969671726227 0.0343203730881214142
0.157516568899154663 0.025631781667470932 0.0306803546845912933
0.157516568899154663 0.0449418090283870697 0.061455700546503067
0.157516568899154663 0.0306687504053115845 0.0490724183619022369
0.157516568899154663 0.0221926085650920868 0.0319347940385341644
0.157516568899154663 0.0535949505865573883 0.0601833164691925049
0.157516568899154663 0.0597561486065387726 0.06706199049949646
0.157516568899154663 0.0403274372220039368 0.0536774098873138428
0.157516568899154663 0.0382883772253990173 0.0479387305676937103
0.157516568899154663 0.0417044162750244141 0.0472955852746963501
0.157516568899154663 0.0451365187764167786 0.0648856088519096375
0.157516568899154663 0.0141340717673301697 0.0233898386359214783
0.157516568899154663 0.0152744948863983154 0.0208268500864505768
0.157516568899154663 0.0480938926339149475 0.0605431869626045227
0.157516568899154663 -0.0315977856516838074 -0.0259638950228691101
0.157516568899154663 0.0340509563684463501 0.0171697437763214111
0.157516568899154663 0.0414521023631095886 0.0377990081906318665
0.157516568899154663 0.0548404715955257416 0.0530971325933933258
0.157516568899154663 0.0397504009306430817 0.0299306325614452362
0.157516568899154663 0.0683804452419281006 0.0546924769878387451
0.157516568899154663 0.0274099782109260559 0.0218376480042934418
0.157516568899154663 -0.00707508623600006104 -0.0113767124712467194
0.157516568899154663 0.0589271038770675659 0.0490439310669898987
0.157516568899154663 0.0467956438660621643 0.0426937565207481384
0.157516568899154663 0.0339561924338340759 0.0335217341780662537
0.157516568899154663 -0.0344025939702987671 -0.0352699719369411469
0.157516568899154663 0.0217262953519821167 0.019095052033662796
0.157516568899154663 -0.0275202468037605286 -0.0335465483367443085
0.157516568899154663 0.0134663470089435577 0.00528330355882644653
0.157516568899154663 0.0291695035994052887 0.025389648973941803
0.157516568899154663 0.0439074039459228516 0.00859852507710456848
0.157516568899154663 0.0572778210043907166 0.0313681438565254211
0.157516568899154663 -0.0409940034151077271 -0.0472512654960155487
0.157516568899154663 0.0589767396450042725 0.032414853572845459
0.157516568899154663 0.074031926691532135 0.0469680279493331909
0.157516568899154663 0.080129183828830719 0.0404546633362770081
0.157516568899154663 0.001845531165599823 -0.0134061835706233978
0.157516568899154663 0.0831768885254859924 0.0358780063688755035
0.157516568899154663 -0.0112525597214698792 -0.0209957808256149292
0.157516568899154663 0.0435720831155776978 0.0134113244712352753
0.157516568899154663 0.0719796121120452881 0.0314389951527118683
0.157516568899154663 0.0799494832754135132 0.0342996492981910706
0.157516568899154663 0.0329791530966758728 0.0120229609310626984
0.157516568899154663 -0.0411350429058074951 -0.0459816381335258484
0.157516568899154663 0.0614385008811950684 0.0321151576936244965
0.157516568899154663 0.0795257240533828735 0.0172788277268409729
0.157516568899154663 0.0368685908615589142 0.00138044171035289764
0.157516568899154663 0.0716310963034629822 0.0161841139197349548
0.157516568899154663 -0.0051724165678024292 -0.0306793656200170517
0.157516568899154663 0.0245283395051956177 -0.0153489317744970322
0.157516568899154663 0.0767866671085357666 0.0151282045990228653
0.157516568899154663 -0.0464277490973472595 -0.0540247112512588501
0.157516568899154663 0.0855066105723381042 0.0273150037974119186
0.157516568899154663 -0.0107521936297416687 -0.0358641371130943298
0.157516568899154663 0.0478477291762828827 0.00563904829323291779
0.157516568899154663 -0.0198879316449165344 -0.0358137860894203186
0.157516568899154663 0.0830312445759773254 0.029651351273059845
0.157516568899154663 0.0384325496852397919 0.00036072172224521637
0.157516568899154663 0.0601414665579795837 0.0164732802659273148
0.157516568899154663 0.0560107901692390442 -0.0097288861870765686
0.157516568899154663 -0.019274391233921051 -0.0456372909247875214
0.157516568899154663 -0.0167223289608955383 -0.041467323899269104
0.157516568899154663 -0.00719269365072250366 -0.0392741858959197998
0.157516568899154663 -0.0190814211964607239 -0.0415178574621677399
0.157516568899154663 0.0272980034351348877 -0.0159429032355546951
0.157516568899154663 -0.0026699751615524292 -0.0340898185968399048
0.157516568899154663 0.0279567539691925049 -0.0209236834198236465
0.157516568899154663 0.0548027567565441132 -0.00245490483939647675
0.157516568899154663 0.0855771899223327637 0.000925655476748943329
0.157516568899154663 0.000957608222961425781 -0.0322500243782997131
0.157516568899154663 -0.00804074853658676147 -0.0375811383128166199
0.157516568899154663 0.0737187862396240234 -0.00298521760851144791
0.150088205933570862 0.0908690467476844788 -0.00640616286545991898
0.14124162495136261 0.0911956802010536194 -0.00308978604152798653
0.149459540843963623 0.0900542065501213074 -0.0146794319152832031
0.155870258808135986 0.0862916931509971619 -0.0292244311422109604
0.147487133741378784 0.0850709006190299988 -0.0332488454878330231
0.147779315710067749 0.0888581648468971252 -0.0207639094442129135
0.140004172921180725 0.0877677872776985168 -0.0243583861738443375
0.14943087100982666 0.0764066651463508606 -0.0502225495874881744
0.140694260597229004 0.0774934515357017517 -0.0481893084943294525
0.144577115774154663 0.0835822522640228271 -0.0367979705333709717
0.157436922192573547 0.0686794817447662354 -0.0598515905439853668
0.153463229537010193 0.0747922584414482117 -0.0524031482636928558
0.145377099514007568 0.0543462708592414856 -0.073197580873966217
0.150353103876113892 0.0634991228580474854 -0.0656860247254371643
0.141467094421386719 0.058922942727804184 -0.0694415941834449768
0.151245802640914917 0.0377940535545349121 -0.0830498337745666504
0.156718537211418152 0.0372357070446014404 -0.0833482742309570312
0.142447710037231445 0.041451968252658844 -0.0810946375131607056
0.151977196335792542 0.0486733950674533844 -0.0772347003221511841
0.144830256700515747 0.0228591561317443848 -0.0882225781679153442
0.149120539426803589 0.0344338901340961456 -0.084711417555809021
0.139074593782424927 0.020275970920920372 -0.0890061706304550171
0.157194912433624268 0.0145817818120121956 -0.090063825249671936
0.154013246297836304 0.0132140060886740685 -0.0901985391974449158
0.142504692077636719 0.00800919532775878906 -0.0907111689448356628
0.138931736350059509 0.00557991350069642067 -0.0909504294395446777
0.146589368581771851 -0.0102486573159694672 -0.0904905945062637329
0.149185538291931152 -0.00752422772347927094 -0.0907589271664619446
0.148226052522659302 -0.00612097699195146561 -0.0908971354365348816
0.153206795454025269 -0.0316168367862701416 -0.0855659618973731995
0.142309218645095825 -0.0289489738643169403 -0.0863752514123916626
0.155804634094238281 -0.0401260256767272949 -0.0818033665418624878
0.139493837952613831 -0.0441646985709667206 -0.0796446576714515686
0.15599997341632843 -0.0523187816143035889 -0.0748614966869354248
0.155012473464012146 -0.053602263331413269 -0.0738081783056259155
0.142340123653411865 -0.0574965290725231171 -0.0706122294068336487
0.139272361993789673 -0.0576676130294799805 -0.0704718232154846191
0.148791670799255371 -0.0759134069085121155 -0.051037028431892395
0.15011383593082428 -0.0728067904710769653 -0.0548224523663520813
0.139940649271011353 -0.07346324622631073 -0.0540225580334663391
0.148809909820556641 -0.0818490087985992432 -0.0400406308472156525
0.153030812740325928 -0.0818162411451339722 -0.0401019416749477386
0.14726574718952179 -0.0797370076179504395 -0.0439919233322143555
0.146931007504463196 -0.0877402052283287048 -0.0244493316859006882
0.146629795432090759 -0.088216148316860199 -0.0228803493082523346
0.146924570202827454 -0.0856798142194747925 -0.0312415286898612976
0.146440640091896057 -0.0845797210931777954 -0.0348680317401885986
0.142598167061805725 -0.0902724117040634155 -0.0124639617279171944
0.14349442720413208 -0.090028814971446991 -0.0149372117593884468
0.155590802431106567 -0.0901207104325294495 -0.014004184864461422
0.149217277765274048 -0.0909917652606964111 0.00516019109636545181
0.156345143914222717 -0.090281069278717041 0.0123760439455509186
0.154760971665382385 -0.0869363024830818176 0.0270994417369365692
0.146215692162513733 -0.0845897048711776733 0.0348351374268531799
0.147786498069763184 -0.0895779356360435486 0.0183911491185426712
0.139331996440887451 -0.0855717733502388 0.0315976999700069427
0.15501992404460907 -0.0770212039351463318 0.0490728281438350677
0.138547971844673157 -0.0801459476351737976 0.0432268381118774414
0.143101990222930908 -0.0811370834708213806 0.0413725599646568298
0.156857818365097046 -0.0692748874425888062 0.0591260790824890137
0.157105088233947754 -0.0652498751878738403 0.064030572772026062
0.14943850040435791 -0.0757079049944877625 0.0512874387204647064
0.141223743557929993 -0.0760091319680213928 0.0509203895926475525
0.147547751665115356 -0.0512978620827198029 0.075699344277381897
0.155566498637199402 -0.0527546145021915436 0.0745038241147994995
0.144289180636405945 -0.0605245977640151978 0.0681271553039550781
0.141967728734016418 -0.0616089478135108948 0.0672372505068778992
0.15746462345123291 -0.0476599857211112976 0.0777763798832893372
0.138191506266593933 -0.035029631108045578 0.0845274478197097778
0.139672726392745972 -0.050248216837644577 0.0763929411768913269
0.145739033818244934 -0.0495874509215354919 0.0767461284995079041
0.156671449542045593 -0.0337674915790557861 0.0849135667085647583
0.155442208051681519 -0.0187963228672742844 0.0894550234079360962
0.139961302280426025 -0.0339454449713230133 0.0848595872521400452
0.141498804092407227 -0.033602546900510788 0.0849636048078536987
0.152100935578346252 -0.0108285257592797279 0.0904334858059883118
0.147763073444366455 -0.0164408925920724869 0.089880719780921936
0.149637356400489807 0.0142799830064177513 0.0900935456156730652
0.156123295426368713 0.00677940994501113892 0.0908322855830192566
0.145461753010749817 0.00790577568113803864 0.0907213538885116577
0.149609804153442383 0.00628957152366638184 0.0908805280923843384
0.155832141637802124 0.0231328587979078293 0.0881395488977432251
0.143309295177459717 0.0277969986200332642 0.086724698543548584
0.148372665047645569 0.0214095301926136017 0.0886623188853263855
0.157507523894309998 0.0418595150113105774 0.0808767974376678467
0.156201198697090149 0.0466006062924861908 0.078342631459236145
0.141892179846763611 0.0461464673280715942 0.0785853713750839233
0.14100368320941925 0.0468591004610061646 0.0782044678926467896
0.156915128231048584 0.0605444461107254028 0.0681108683347702026
0.14291006326675415 0.0645982846617698669 0.0647839680314064026
0.151280075311660767 0.0537682026624679565 0.0736719891428947449
0.142456948757171631 0.0599313788115978241 0.0686139911413192749
0.150381803512573242 0.0707802474498748779 0.0572918020188808441
0.154310286045074463 0.0706445351243019104 0.05745716392993927
0.1432456374168396 0.0670390278100967407 0.0618504844605922699
0.147969067096710205 0.0676786601543426514 0.0610710941255092621
0.150058060884475708 0.0818246081471443176 0.0400862880051136017
0.153859168291091919 0.0810294225811958313 0.0415739715099334717
0.140962183475494385 0.0828603655099868774 0.0381485186517238617
0.142580896615982056 0.0791596695780754089 0.0450720340013504028
0.144087165594100952 0.0881385877728462219 0.0231360401958227158
0.144471213221549988 0.0858177095651626587 0.0307869445532560349
0.151834636926651001 0.0898208841681480408 0.0170483645051717758
0.143801242113113403 0.0902792662382125854 0.0123943407088518143
