ply
format ascii 1.0
element vertex 691
property float x
property float y
property float z
end_header
-0.0249326098710298538 -0.0098738744854927063 -0.0134671200066804886
-0.0312548764050006866 -0.0100159300491213799 -0.0133412685245275497
-0.0256693121045827866 -0.0103381704539060593 -0.0130557892844080925
-0.0296453479677438736 -0.0109533807262778282 -0.0125107597559690475
-0.0310387555509805679 -0.0112976469099521637 -0.0122057674452662468
-0.0312791131436824799 -0.0105543704703450203 -0.012864251621067524
-0.0242297761142253876 -0.00974019616842269897 -0.0135855479165911674
-0.0285177063196897507 -0.00966435577720403671 -0.0136527372524142265
-0.0263470839709043503 -0.00962788984179496765 -0.0136850420385599136
-0.0249755624681711197 -0.014558941125869751 -0.00817882176488637924
-0.0239028614014387131 -0.013650963082909584 -0.00949425436556339264
-0.0221656952053308487 -0.0130955958738923073 -0.0102988425642251968
-0.0282956380397081375 -0.0146486489102244377 -0.00804885663092136383
-0.0263764187693595886 -0.0145488400012254715 -0.00819345563650131226
-0.0255242064595222473 -0.0138809354975819588 -0.00916108116507530212
-0.0222110655158758163 -0.0145507743582129478 -0.00819065328687429428
-0.0251587033271789551 -0.0142291858792304993 -0.00865655392408370972
-0.0255856290459632874 -0.0136868720874190331 -0.00944223068654537201
-0.0237912964075803757 -0.0145890973508358002 -0.00813513249158859253
-0.0266374573111534119 -0.0146520733833312988 -0.00804389547556638718
-0.0218629799783229828 -0.0145073337480425835 -0.00825358647853136063
-0.0259532090276479721 -0.0136541444808244705 -0.00948964525014162064
-0.0221948176622390747 -0.0133422119542956352 -0.00994155742228031158
-0.0295109916478395462 -0.0147775383666157722 -0.00786212924867868423
-0.0222600959241390228 -0.0143569940701127052 -0.00847139209508895874
-0.0247351862490177155 -0.0143204415217041969 -0.00852434709668159485
-0.0219163764268159866 -0.0146078970283269882 -0.00810789596289396286
-0.0211993325501680374 -0.0126221096143126488 -0.0109848054125905037
-0.0292944833636283875 -0.0125978915020823479 -0.0110198911279439926
-0.0297323614358901978 -0.012548728846013546 -0.0110911158844828606
-0.0294696614146232605 -0.0142058338969945908 -0.0086903860792517662
-0.0298087578266859055 -0.0130469333380460739 -0.0103693427518010139
-0.028617367148399353 -0.0138739952817559242 -0.00917113665491342545
-0.0316240377724170685 -0.0145806344226002693 -0.0081473933532834053
-0.0284835882484912872 -0.0139624373987317085 -0.00904300622642040253
-0.0263363979756832123 -0.0133110936731100082 -0.00998663995414972305
-0.0320096462965011597 -0.0126944957301020622 -0.0108799366280436516
-0.0262397769838571548 -0.0128041766583919525 -0.0107210362330079079
-0.0230161715298891068 -0.0126766087487339973 -0.010905848816037178
-0.0292751844972372055 -0.0134346857666969299 -0.009807586669921875
-0.0279544517397880554 -0.0137549741193652153 -0.00934356916695833206
-0.0322183258831501007 -0.0139489574357867241 -0.00906253419816493988
-0.0293974298983812332 -0.0130232376977801323 -0.0104036722332239151
-0.0299875456839799881 -0.0132719743996858597 -0.0100433146581053734
-0.0274271834641695023 -0.0134264631196856499 -0.00981949921697378159
-0.0289509519934654236 -0.0126341665163636208 -0.0109673384577035904
-0.0265050251036882401 -0.0132411764934659004 -0.0100879315286874771
-0.0310743879526853561 -0.0126101281493902206 -0.0110021624714136124
-0.029918372631072998 -0.0161818377673625946 -0.0042232731357216835
-0.0259869415313005447 -0.0160350967198610306 -0.00461019901558756828
-0.0234673917293548584 -0.0154850129038095474 -0.00606064917519688606
-0.0211079977452754974 -0.0156433358788490295 -0.00564318243414163589
-0.0269297659397125244 -0.0156606473028659821 -0.00559753924608230591
-0.0237513836473226547 -0.0153319081291556358 -0.00646435236558318138
-0.0221200119704008102 -0.0155935082584619522 -0.00577457062900066376
-0.0286882519721984863 -0.015883294865489006 -0.00501046609133481979
-0.0223429277539253235 -0.01507530827075243 -0.00714094936847686768
-0.0213549099862575531 -0.0155119216069579124 -0.00598969543352723122
-0.0222792327404022217 -0.0156351011246442795 -0.00566489808261394501
-0.0239507332444190979 -0.0159042477607727051 -0.00495521537959575653
-0.0290022939443588257 -0.0159053895622491837 -0.004952204879373312
-0.0240650121122598648 -0.0155660677701234818 -0.00584692507982254028
-0.024434264749288559 -0.0160333979874849319 -0.00461467774584889412
-0.0231233611702919006 -0.0160327721387147903 -0.00461632618680596352
-0.0238478649407625198 -0.0159042607992887497 -0.0049551832489669323
-0.0299537628889083862 -0.0160331334918737411 -0.0046153748407959938
-0.0278096999973058701 -0.0161072928458452225 -0.0044198324903845787
-0.0222102738916873932 -0.0157379433512687683 -0.00539372628554701805
-0.0277888309210538864 -0.0151962824165821075 -0.00682196998968720436
-0.0306509397923946381 -0.0152050163596868515 -0.00679893838241696358
-0.0256173517554998398 -0.0150503991171717644 -0.00720662809908390045
-0.030762895941734314 -0.0158647503703832626 -0.00505936052650213242
-0.0294884927570819855 -0.0154113937169313431 -0.0062547675333917141
-0.0313200131058692932 -0.0149771524593234062 -0.00739976437762379646
-0.0305376313626766205 -0.0152125675231218338 -0.00677902717143297195
-0.0245174691081047058 -0.0148476371541619301 -0.00774126825854182243
-0.0286340788006782532 -0.0151486005634069443 -0.00694769527763128281
-0.0264220200479030609 -0.0148837119340896606 -0.00764614623039960861
-0.0307355690747499466 -0.0156470481306314468 -0.00563339656218886375
-0.0279815718531608582 -0.0155706675723195076 -0.00583479506894946098
-0.0293047353625297546 -0.0150167522951960564 -0.00729534914717078209
-0.0264390930533409119 -0.0152849834412336349 -0.00658808089792728424
-0.0309786684811115265 -0.0154419541358947754 -0.00617418345063924789
-0.0248345416039228439 -0.0152409942820668221 -0.00670407246798276901
-0.0288345012813806534 -0.0156735330820083618 -0.00556356320157647133
-0.0307313445955514908 -0.0151556488126516342 -0.00692911073565483093
-0.0273237712681293488 -0.0152219235897064209 -0.00675436016172170639
-0.0232127569615840912 -0.0164656676352024078 -0.00234169047325849533
-0.0222619622945785522 -0.0165429990738630295 -0.00170481286477297544
-0.0258879717439413071 -0.0165662337094545364 -0.00151344959158450365
-0.0263395626097917557 -0.01671564020216465 -0.000282976398011669517
-0.0254444573074579239 -0.0166513659060001373 -0.000812323647551238537
-0.021059846505522728 -0.0164776761084794998 -0.00224279495887458324
-0.0297380276024341583 -0.0167160611599683762 -0.000279516738373786211
-0.0213219188153743744 -0.0162865146994590759 -0.00381714897230267525
-0.024627363309264183 -0.0167416706681251526 -6.86056882841512561e-05
-0.0233876630663871765 -0.0164358727633953094 -0.0025870688259601593
-0.0237668268382549286 -0.0166336502879858017 -0.000958229182288050652
-0.0272463113069534302 -0.0167146958410739899 -0.000290759984636679292
-0.0230645909905433655 -0.016422957181930542 -0.00269344565458595753
-0.0236145444214344025 -0.0165044404566287994 -0.00202237488701939583
-0.0216857530176639557 -0.0164464600384235382 -0.0024998784065246582
-0.0232428871095180511 -0.0167175848037004471 -0.000266970077063888311
-0.0223857611417770386 -0.0165407638996839523 -0.0017232201062142849
-0.0285979118198156357 -0.0167494043707847595 -4.91147284265025519e-06
-0.0258815344423055649 -0.0165217090398073196 -0.00188014470040798187
-0.0301230251789093018 -0.016595102846622467 -0.00127570144832134247
-0.031710941344499588 -0.0166794676333665848 -0.000580889114644378424
-0.0313341617584228516 -0.0164697803556919098 -0.00230782548896968365
-0.0306292474269866943 -0.0164495911449193954 -0.00247409963048994541
-0.0314629152417182922 -0.0166231170296669006 -0.00104497931897640228
-0.0318987108767032623 -0.0166276730597019196 -0.00100745400413870811
-0.0250328890979290009 -0.0164006631821393967 -0.00287706474773585796
-0.0306682493537664413 -0.0166408568620681763 -0.000898882863111793995
-0.0252463147044181824 -0.0163294486701488495 -0.0034635649062693119
-0.028053920716047287 -0.0164512563496828079 -0.00246037030592560768
-0.0299795959144830704 -0.0166483856737613678 -0.000836878025438636541
-0.0291094295680522919 -0.0165798980742692947 -0.00140092743095010519
-0.0270827598869800568 -0.0164552666246891022 -0.00242736330255866051
-0.0321347489953041077 -0.0167197268456220627 -0.000249316624831408262
-0.0296946950256824493 -0.0165613442659378052 -0.00155372568406164646
-0.0231824629008769989 -0.016326557844877243 -0.00348736741580069065
-0.0246345438063144684 -0.0163820087909698486 -0.00303067662753164768
-0.032214973121881485 -0.01673114113509655 -0.000155326531967148185
-0.0311129521578550339 -0.0166234597563743591 -0.00104215333703905344
-0.0137904882431030273 -0.0159001443535089493 0.000309140566969290376
-0.0181336533278226852 -0.0164109356701374054 0.000132629371364600956
-0.0191207583993673325 -0.0164413657039403915 0.0007979922229424119
-0.0181930456310510635 -0.0163175500929355621 0.000956838077399879694
-0.0200974009931087494 -0.0166132096201181412 0.000289010000415146351
-0.0177274085581302643 -0.0163435507565736771 0.00031061421032063663
-0.0189263913780450821 -0.0162428803741931915 0.00225230981595814228
-0.0174238197505474091 -0.0161799266934394836 0.00137646461371332407
-0.0187362618744373322 -0.01627391017973423 0.0018203220097348094
-0.0196941643953323364 -0.0164722148329019547 0.00107601901981979609
-0.0155665576457977295 -0.0159728210419416428 0.0013586969580501318
-0.0197558403015136719 -0.0164026431739330292 0.00170621927827596664
-0.0195782743394374847 -0.0164668168872594833 0.00101293413899838924
-0.0198559686541557312 -0.0163092184811830521 0.00256856298074126244
-0.0131852151826024055 -0.0157711748033761978 0.000449119892437011003
-0.0204613357782363892 -0.0156094739213585854 0.00539768487215042114
-0.0197613853961229324 -0.0157630722969770432 0.00455765379592776299
-0.0167928505688905716 -0.0155603857710957527 0.00324711296707391739
-0.0203761924058198929 -0.0155907943844795227 0.00539401965215802193
-0.0141461733728647232 -0.0158376619219779968 0.00087105331476777792
-0.015791701152920723 -0.0156586300581693649 0.00236583990044891834
-0.0144590400159358978 -0.015669090673327446 0.00150998774915933609
-0.0161722898483276367 -0.0158395450562238693 0.0021253491286188364
-0.0176065098494291306 -0.0158177576959133148 0.00307417893782258034
-0.0144733963534235954 -0.0157782547175884247 0.00123107107356190681
-0.0184249319136142731 -0.0153445489704608917 0.00483058532699942589
-0.0164817739278078079 -0.0153792183846235275 0.00353147578425705433
-0.019609302282333374 -0.0158252399414777756 0.00429920665919780731
-0.0165564175695180893 -0.0150275817140936852 0.00412719743326306343
-0.0157365128397941589 -0.0145978750661015511 0.00412742607295513153
-0.0184446759521961212 -0.0136267784982919693 0.00758980028331279755
-0.0168881844729185104 -0.0146810514852404594 0.00488104391843080521
-0.0171417854726314545 -0.0147154191508889198 0.00502373790368437767
-0.0181315429508686066 -0.0151289831846952438 0.00517581263557076454
-0.0141791012138128281 -0.0155049758031964302 0.00163118797354400158
-0.0186275225132703781 -0.0142921339720487595 0.00676464755088090897
-0.0206630099564790726 -0.0126885147765278816 0.010632823221385479
-0.0195618886500597 -0.0146470246836543083 0.00695968419313430786
-0.0193545222282409668 -0.0138093838468194008 0.00801582448184490204
-0.0202589891850948334 -0.0129215354099869728 0.00998858455568552017
-0.0196146033704280853 -0.014669051393866539 0.00696778064593672752
-0.0190867278724908829 -0.0141341956332325935 0.00734199769794940948
-0.0194791126996278763 -0.0148086100816726685 0.00666275853291153908
-0.0206942502409219742 -0.010888291522860527 0.0122694550082087517
-0.02062978595495224 -0.0113265877589583397 0.0118181230500340462
-0.0178036317229270935 -0.0124418400228023529 0.00806660670787096024
-0.0193371772766113281 -0.0120803210884332657 0.00988642685115337372
-0.0181350428611040115 -0.0116653582081198692 0.00907857250422239304
-0.0134032377973198891 -0.0154446214437484741 0.00110355217475444078
-0.0156716648489236832 -0.0140075255185365677 0.00459483778104186058
-0.0169123411178588867 -0.0139927985146641731 0.00582104874774813652
-0.0195036213845014572 -0.0116422753781080246 0.0104372538626194
-0.0161467809230089188 -0.0131954262033104897 0.0057788752019405365
-0.0191485006362199783 -0.0123081160709261894 0.00950012356042861938
-0.0138867469504475594 -0.0151647115126252174 0.0018243186641484499
-0.0160640385001897812 -0.0136166838929057121 0.00532476697117090225
-0.0203431546688079834 -0.0112316124141216278 0.0116219855844974518
-0.018847540020942688 -0.0128968795761466026 0.00868423841893672943
-0.0192285459488630295 -0.012507464736700058 0.00940178893506526947
-0.0202616378664970398 -0.0107169188559055328 0.0119982575997710228
-0.0165445283055305481 -0.0128741981461644173 0.00645238487049937248
-0.0189364273101091385 -0.00919361785054206848 0.0113780805841088295
-0.0185942556709051132 -0.00964198354631662369 0.0107156820595264435
-0.0194625817239284515 -0.00944355223327875137 0.0119036175310611725
-0.0173812545835971832 -0.0114657506346702576 0.0082445051521062851
-0.0164767913520336151 -0.0123677570372819901 0.00664220470935106277
-0.0180696696043014526 -0.0117003237828612328 0.00898062903434038162
-0.0198455527424812317 -0.00821979157626628876 0.0130238961428403854
-0.013274122029542923 -0.0150871435180306435 0.00121759437024593353
-0.0194561686366796494 -0.010443749837577343 0.0113706663250923157
-0.0159891694784164429 -0.0132378507405519485 0.00557692442089319229
-0.0159745234996080399 -0.0128021454438567162 0.00578732136636972427
-0.0186772700399160385 -0.00881593674421310425 0.0112528391182422638
-0.0156052485108375549 -0.0122746620327234268 0.00560326036065816879
-0.0180050209164619446 -0.0116128027439117432 0.00894587207585573196
-0.0160460080951452255 -0.0122387493029236794 0.00617223512381315231
-0.0170008894056081772 -0.0121279256418347359 0.0074222218245267868
-0.0180410407483577728 -0.0108935553580522537 0.00936832092702388763
-0.017796587198972702 -0.0102603519335389137 0.00939553976058959961
-0.0133493570610880852 -0.0151393376290798187 0.0012841029092669487
-0.0174953863024711609 -0.0102396402508020401 0.00903047248721122742
-0.018214719370007515 -0.0115254232659935951 0.00925346463918685913
-0.0186388790607452393 -0.00895833969116210938 0.0111301839351654053
-0.0159843713045120239 -0.00669060088694095612 0.0112143037840723991
-0.0195523165166378021 -0.00445243250578641891 0.0147978905588388443
-0.0176334623247385025 -0.00719720963388681412 0.0124907819554209709
-0.0154843218624591827 -0.00755934370681643486 0.0105752525851130486
-0.0179355423897504807 -0.00580583745613694191 0.0130904214456677437
-0.0148895867168903351 -0.00616572750732302666 0.0104133607819676399
-0.0143511556088924408 -0.00853070244193077087 0.00937290675938129425
-0.0135477101430296898 -0.00714086322113871574 0.00903272815048694611
-0.0197302903980016708 -0.00456458423286676407 0.014921482652425766
-0.0136840455234050751 -0.00835185684263706207 0.00885009858757257462
-0.0178621374070644379 -0.0044802958145737648 0.0133547615259885788
-0.017241230234503746 -0.00754458736628293991 0.0120718544349074364
-0.0203820690512657166 -0.00471770577132701874 0.0154376029968261719
-0.0193585976958274841 -0.00501255132257938385 0.0144952181726694107
-0.0114953480660915375 -0.0091503635048866272 0.0067933984100818634
-0.0108129112049937248 -0.00906404480338096619 0.00623476132750511169
-0.0091258930042386055 -0.0104607297107577324 0.00445693451911211014
-0.0140775730833411217 -0.00806274265050888062 0.00925576593726873398
-0.00848886836320161819 -0.0108281373977661133 0.00382505380548536777
-0.0160665754228830338 -0.00535769155248999596 0.0116126909852027893
-0.0132287051528692245 -0.00723577151075005531 0.00873825419694185257
-0.00875977892428636551 -0.010960741899907589 0.00402258057147264481
-0.0180689580738544464 -0.00706780143082141876 0.0128927482292056084
-0.0130272777751088142 -0.00787887442857027054 0.00840857718139886856
-0.0203138962388038635 -0.00467670103535056114 0.0153897786512970924
-0.0110478857532143593 -0.00885473843663930893 0.00648602470755577087
-0.0136862089857459068 -0.0070182248018682003 0.00918064732104539871
-0.0138134919106960297 -0.00717731192708015442 0.00924959685653448105
-0.0179681554436683655 -0.0064604002982378006 0.0129568018019199371
-0.0185325201600790024 -0.0040857573039829731 0.0140216769650578499
-0.00625242432579398155 -0.0120523581281304359 0.00162285170517861843
-0.012533111497759819 -0.00881769321858882904 0.0077572530135512352
-0.0179825834929943085 -0.00474653765559196472 0.013391491025686264
-0.0187176614999771118 -0.00542617356404662132 0.0138486204668879509
-0.0151171647012233734 -0.00728641077876091003 0.0103305261582136154
-0.0149371856823563576 -0.00774944620206952095 0.010063457302749157
-0.0126160969957709312 -0.0109995556995272636 0.0058833942748606205
-0.0142145054414868355 -0.00949996989220380783 0.00840192940086126328
-0.00752004422247409821 -0.0125199286267161369 0.00184231670573353767
-0.0141012063249945641 -0.0135473459959030151 0.00340249901637434959
-0.00873218104243278503 -0.0131030883640050888 0.001647806609980762
-0.0171074140816926956 -0.0104938996955752373 0.00842437427490949631
-0.00689611630514264107 -0.012331278994679451 0.00180601864121854305
-0.0126488152891397476 -0.0144354309886693954 0.00169448042288422585
-0.0143182398751378059 -0.00925582461059093475 0.00874498113989830017
-0.0100740231573581696 -0.0125730372965335846 0.00287054385989904404
-0.0105083752423524857 -0.0127228312194347382 0.00287322700023651123
-0.0160446614027023315 -0.0117030590772628784 0.00649038050323724747
-0.00723530910909175873 -0.0137168867513537407 0.000256266299402341247
-0.00907881371676921844 -0.0116314450278878212 0.00359635776840150356
-0.0113982614129781723 -0.01380947045981884 0.0019249028991907835
-0.0158525891602039337 -0.0119676655158400536 0.00608448963612318039
-0.00808302033692598343 -0.0125163737684488297 0.00208763917908072472
-0.0122123938053846359 -0.0110151283442974091 0.00569154508411884308
-0.0156746525317430496 -0.0105099976062774658 0.00779141020029783249
-0.014421696774661541 -0.00924484618008136749 0.00880269333720207214
-0.0127183329313993454 -0.0155818946659564972 0.00032182983704842627
-0.0111147724092006683 -0.0118945613503456116 0.00414596451446413994
-0.0100310463458299637 -0.013613835908472538 0.00157899654004722834
-0.0103647699579596519 -0.0109248990193009377 0.00501107051968574524
-0.0181052666157484055 -0.00729211186990141869 0.0127680618315935135
-0.00492303678765892982 -0.0129586942493915558 0.000193989762919954956
-0.00787763297557830811 -0.0123352715745568275 0.0022212581243366003
-0.0105653265491127968 -0.0123041979968547821 0.0034096953459084034
-0.0131397228688001633 -0.0122716035693883896 0.00455149775370955467
-0.0176823902875185013 -0.00979150831699371338 0.00952968187630176544
-0.00917313247919082642 -0.0116157112643122673 0.00365597568452358246
-0.0139740966260433197 -0.0139044215902686119 0.00291130202822387218
-0.00987662840634584427 -0.0130321439355611801 0.00222445186227560043
-0.0120212584733963013 -0.0144289452582597733 0.00143379659857600927
-0.0149295730516314507 -0.00919222831726074219 0.00908444542437791824
-0.0109469359740614891 -0.011111096478998661 0.00503249233588576317
-0.0137807419523596764 -0.0114049836993217468 0.00588596425950527191
-0.0123271262273192406 -0.011381818912923336 0.00529210222885012627
-0.0148385316133499146 -0.0109531441703438759 0.00689144618809223175
-0.0106674451380968094 -0.0150052681565284729 0.000149334737216122448
-0.0146569889038801193 -0.0090912235900759697 0.00909132417291402817
-0.0129471933469176292 -0.0113363415002822876 0.00561314262449741364
-0.0184385776519775391 -0.0079530719667673111 0.012102215550839901
-0.00809845700860023499 -0.0135868974030017853 0.000784733041655272245
-0.0188210420310497284 -0.00722787994891405106 0.0131530100479722023
-0.00979464780539274216 -0.0137811070308089256 0.00127319572493433952
-0.0126029141247272491 -0.0153820374980568886 0.000516900327056646347
-0.0130348969250917435 -0.0144179081544280052 0.00188117183279246092
-0.0169139038771390915 -0.0077787390910089016 0.011662852019071579
-0.00843149051070213318 -0.0142913395538926125 6.55775875202380121e-05
-0.0171508193016052246 -0.00888040568679571152 0.0104166530072689056
-0.00772611657157540321 -0.0131501089781522751 0.00115965749137103558
-0.0152433775365352631 -0.0100130699574947357 0.00821467489004135132
-0.010596676729619503 -0.0149776395410299301 0.000152839507791213691
-0.0127025358378887177 -0.010580909438431263 0.00643249973654747009
-0.008482346311211586 -0.0133049888536334038 0.00129389436915516853
-0.0122552402317523956 -0.0148037206381559372 0.0010755069088190794
-0.00775995198637247086 -0.0134021565318107605 0.000865824695210903883
-0.0130424555391073227 -0.0114492746070027351 0.00551577284932136536
-0.0115902787074446678 -0.0142593225464224815 0.001456814119592309
-0.0116999112069606781 -0.0115976128727197647 0.00475966325029730797
-0.0153503036126494408 -0.00902947783470153809 0.00946361757814884186
-0.00990758277475833893 -0.0130138499662280083 0.00226007914170622826
-0.0150763597339391708 -0.00855730939656496048 0.00992393679916858673
-0.015140436589717865 -0.0100515922531485558 0.00812349002808332443
-0.0177514310926198959 -0.00874384120106697083 0.0108407866209745407
-0.0115331374108791351 -0.0137847810983657837 0.00201283558271825314
-0.0100651448592543602 -0.0134904338046908379 0.0017445428529754281
-0.0175219420343637466 -0.00874585285782814026 0.0107400976121425629
-0.015463460236787796 -0.0122166257351636887 0.00561338942497968674
-0.00543166045099496841 -0.006278191227465868 0.00562939094379544258
-0.00908132269978523254 -0.00521471910178661346 0.008207748644053936
-0.017985047772526741 -0.00130984117276966572 0.0144979171454906464
-0.00532610481604933739 -0.00602225400507450104 0.00555481994524598122
-0.00985459331423044205 -0.00480503682047128677 0.00875403732061386108
-0.0198876354843378067 -0.00161587493494153023 0.0158420279622077942
-0.0208029169589281082 0.000161051284521818161 0.0164886415004730225
-0.0191422738134860992 -0.00203442433848977089 0.0153154563158750534
-0.0154265537858009338 -0.00184006686322391033 0.0126904305070638657
-0.00879432260990142822 -0.00422567036002874374 0.00800499320030212402
-0.0152380559593439102 -0.00200163689441978931 0.0125572634860873222
-0.0171982087194919586 -0.00226187193766236305 0.0139420423656702042
-0.0135008879005908966 -0.00327642704360187054 0.0113300159573554993
-0.00930828694254159927 -0.0045825163833796978 0.00836809165775775909
-0.0117347408086061478 -0.00441890396177768707 0.0100822960957884789
-0.015304097905755043 -0.00228814035654067993 0.0126039199531078339
-0.00976109784096479416 -0.00459698215126991272 0.00868798606097698212
-0.0167719889432191849 -0.00299334060400724411 0.01364093367010355
-0.0127472309395670891 -0.00424965657293796539 0.0107975844293832779
-0.0148287005722522736 -0.002738606883212924 0.0122680682688951492
-0.011524789035320282 -0.00412673782557249069 0.0099339708685874939
-0.0182682089507579803 -0.00237413030117750168 0.0146979596465826035
-0.0124765299260616302 -0.00408145133405923843 0.0106063429266214371
-0.00501803215593099594 -0.00623598555102944374 0.00533717731013894081
-0.00974557921290397644 -0.00495776673778891563 0.0086770225316286087
-0.00280769774690270424 -0.00620835740119218826 0.00377565412782132626
-0.0184996165335178375 0.000473175547085702419 0.0148614412173628807
-0.0181173570454120636 -0.000146868173032999039 0.0145913884043693542
-0.00632216967642307281 -0.00513912830501794815 0.0062585044652223587
-0.0199094954878091812 -0.00166145991533994675 0.0158574711531400681
-0.00947545282542705536 -0.00494088698178529739 0.00848618801683187485
-0.0147304944694042206 -0.00122130208183079958 0.0121986893936991692
-0.0180566068738698959 -0.00146072427742183208 0.0145484711974859238
-0.0187135301530361176 -0.00233789999037981033 0.0150125632062554359
-0.0155569743365049362 -0.00141050480306148529 0.0127825690433382988
-0.0129796331748366356 -0.00158586399629712105 0.0109617682173848152
-0.0031689847819507122 -0.00632727332413196564 0.00403089029714465141
-0.0047394121065735817 -0.00618849368765950203 0.00514034228399395943
-0.0108293527737259865 -0.00417333561927080154 0.00944267027080059052
-0.00236194394528865814 -0.00702058803290128708 0.00346074462868273258
-0.0100996531546115875 -0.00292874919250607491 0.00892716273665428162
-0.00779464840888977051 -0.00514979101717472076 0.00729875825345516205
-0.00840899627655744553 -0.00404179096221923828 0.00773277413100004196
-0.0165237803012132645 -0.00158763653598725796 0.0134655814617872238
-0.0140273291617631912 -0.0025750256609171629 0.0117019275203347206
-0.00742072146385908127 -0.00522462977096438408 0.00703459233045578003
-0.0149488020688295364 -0.00344571657478809357 0.0123529164120554924
-0.0102890105918049812 -0.00285649346187710762 0.00906093791127204895
-0.0195470806211233139 -5.75364101678133011e-05 0.0156014375388622284
-0.020329715684056282 0.00294552836567163467 0.0158520359545946121
-0.00462620332837104797 -0.00477540446445345879 0.00492895394563674927
-0.0202319622039794922 0.00229931669309735298 0.0159314703196287155
0.000894813681952655315 -0.00753423664718866348 0.00109955726657062769
-0.00335445953533053398 -0.00576748326420783997 0.00413476023823022842
-0.0147187961265444756 -0.000102426391094923019 0.0120204715058207512
-0.0203954316675662994 0.00279101356863975525 0.0159437954425811768
-0.0193134211003780365 0.00385940121486783028 0.0147967115044593811
-0.0155334249138832092 0.00169286993332207203 0.0122433342039585114
-0.0143509237095713615 -0.000133796129375696182 0.0117277372628450394
-0.0209875740110874176 0.00272967573255300522 0.0164425559341907501
-0.012857058085501194 0.000857642036862671375 0.0102632287889719009
-0.0171355754137039185 0.000856012105941772461 0.0137581843882799149
-0.0207400396466255188 0.00255484879016876221 0.0162834692746400833
-0.0150521211326122284 0.00206332653760910034 0.0117589104920625687
-0.0125860478729009628 0.000249147997237741947 0.0101918568834662437
-0.00843610707670450211 -0.00201709498651325703 0.00736089795827865601
-0.0159709583967924118 0.000778742600232362747 0.0128260105848312378
-0.0167872551828622818 0.00123937474563717842 0.0133791984990239143
-0.0159330368041992188 0.002400196623057127 0.0123953837901353836
-0.0206120815128087997 0.00240921089425683022 0.0162148531526327133
-0.0161752533167600632 0.00121671333909034729 0.0128849204629659653
-0.0131872715428471565 -0.00143566541373729706 0.0110981855541467667
-0.0159324612468481064 0.000871521886438131332 0.0127716977149248123
-0.0141175677999854088 -0.000516736879944801331 0.0116315269842743874
-0.0179479885846376419 0.00394872575998306274 0.0136594530194997787
-0.0201285630464553833 0.00442814361304044724 0.0153223108500242233
-0.00510861631482839584 -0.00416210340335965157 0.00517180841416120529
-0.0118090379983186722 -0.000836896244436502457 0.00982490740716457367
-0.00280620064586400986 -0.00600411649793386459 0.00374528486281633377
-0.0109846135601401329 -0.00161888310685753822 0.00934428535401821136
-0.0114900702610611916 -0.00103955226950347424 0.00961433351039886475
-0.0157116930931806564 0.00170529074966907501 0.0123858749866485596
-0.0141215324401855469 0.000957661541178822517 0.011271357536315918
-0.0169127248227596283 0.00103456201031804085 0.0135321589186787605
-0.0133920479565858841 0.000241742236539721489 0.0108519969508051872
-0.0160969868302345276 -0.000147593207657337189 0.013157266192138195
-0.00567039428278803825 -0.00360054615885019302 0.00549223879352211952
-0.0169653836637735367 0.00253793993033468723 0.0132046211510896683
-0.0183982551097869873 0.00218725297600030899 0.0144613813608884811
-0.00922376103699207306 -0.00203470746055245399 0.00800856947898864746
-0.00951494090259075165 -0.00135672942269593477 0.00807928945869207382
-0.0031546521931886673 -0.00571402162313461304 0.00395838730037212372
-0.00364117999561131001 -0.00508699193596839905 0.00420121848583221436
-0.0170750133693218231 0.00135356932878494263 0.013586084358394146
-0.00844511575996875763 -0.00266140373423695564 0.00752706360071897507
-0.0134261790663003922 0.000550543423742055893 0.0108037618920207024
-0.00960054062306880951 -0.00164755480363965034 0.00822088588029146194
-0.0160609707236289978 0.00206477008759975433 0.0125825498253107071
-0.000177474459633231163 -0.00719653069972991943 0.0018921304726973176
-0.0174219459295272827 0.00360068958252668381 0.0133155807852745056
-0.0120027391240000725 -0.00705149024724960327 0.00827976875007152557
-0.00748674105852842331 -0.00838130153715610504 0.00502406898885965347
-0.00993617158383131027 -0.00693070515990257263 0.00735969096422195435
-0.0065571758896112442 -0.00938963331282138824 0.00378002692013978958
-0.00196300912648439407 -0.00854490045458078384 0.00218476704321801662
-0.0118114389479160309 -0.00781207531690597534 0.0075916745699942112
-0.0063845757395029068 -0.00946669839322566986 0.00363509543240070343
-0.013386196456849575 -0.00447626784443855286 0.0109707135707139969
-0.00390836596488952637 -0.0102968132123351097 0.00177106459159404039
-0.00448346603661775589 -0.00685935420915484428 0.0047388044185936451
-0.0113763445988297462 -0.00795609969645738602 0.00726557895541191101
-0.00458148214966058731 -0.0105336084961891174 0.00191649328917264938
-0.00845506228506565094 -0.0100988168269395828 0.00415763072669506073
-0.00955955870449542999 -0.00893274322152137756 0.00561077380552887917
-0.00450437236577272415 -0.0106162307783961296 0.00181409518700093031
-0.00723095471039414406 -0.00822673644870519638 0.00501925870776176453
0.00204016081988811493 -0.00848476681858301163 0.000266666145762428641
-0.0123475035652518272 -0.00638342695310711861 0.00897091533988714218
-0.00225253449752926826 -0.0102854091674089432 0.000967158004641532898
-0.0166158266365528107 -0.00436673639342188835 0.0126416459679603577
-0.000942243612371385098 -0.00805854424834251404 0.00206364714540541172
-0.00443772878497838974 -0.00935116223990917206 0.00276968628168106079
-0.00865789689123630524 -0.00704598147422075272 0.00664215348660945892
0.00200285925529897213 -0.00850627012550830841 0.000268177915131673217
-0.00630785897374153137 -0.00878028199076652527 0.00413368409499526024
-0.0134681304916739464 -0.00525846565142273903 0.0103998593986034393
5.96540921833366156e-05 -0.00799456052482128143 0.00162182049825787544
-0.0158902965486049652 -0.00495412340387701988 0.0118266139179468155
-0.00666808756068348885 -0.0113808996975421906 0.00227884203195571899
-0.0165901333093643188 -0.00330956536345183849 0.0134549224749207497
-0.00318524870090186596 -0.0103164194151759148 0.00140078330878168344
-0.0154079962521791458 -0.00430453009903430939 0.0120973428711295128
-0.00659371167421340942 -0.0108223529532551765 0.00267868326045572758
-0.00182546244468539953 -0.0089967772364616394 0.00176423031371086836
-0.0149714751169085503 -0.00527345575392246246 0.0111261121928691864
-0.00610584672540426254 -0.0110339764505624771 0.00227387459017336369
-0.00464392593130469322 -0.0123393526300787926 0.000536450825165957212
-0.0140164857730269432 -0.00562113244086503983 0.0103857116773724556
-0.0161622967571020126 -0.00451440270990133286 0.0123036559671163559
-0.00581403449177742004 -0.00743270199745893478 0.0049440404400229454
-0.0172808095812797546 -0.00433081528171896935 0.0129961352795362473
-0.0138695454224944115 -0.00597334327176213264 0.0100384252145886421
-0.00798157230019569397 -0.0102056898176670074 0.00384171097539365292
-0.0143856164067983627 -0.00622078124433755875 0.0100984498858451843
-0.00360603933222591877 -0.0121619272977113724 0.000165581557666882873
-0.00268112728372216225 -0.0112418830394744873 0.000430323387263342738
-0.00870666094124317169 -0.00979845784604549408 0.0045157833956182003
-0.014958835206925869 -0.00534501019865274429 0.0110640078783035278
-0.00566244916990399361 -0.00754815153777599335 0.00477943755686283112
-0.00175883085466921329 -0.00918978080153465271 0.00158074242062866688
-0.00388230360113084316 -0.0110611468553543091 0.00116115284617990255
-0.00864102691411972046 -0.00799648556858301163 0.00589131377637386322
-0.0183035340160131454 -0.00365044851787388325 0.0140296919271349907
-0.00494412705302238464 -0.00963437370955944061 0.00279701524414122105
-0.0104402853175997734 -0.006315574049949646 0.00808770768344402313
-0.005522153340280056 -0.00876649469137191772 0.0037587673868983984
-0.00438975170254707336 -0.00790134258568286896 0.00387877272441983223
-0.00981422234326601028 -0.00613000011071562767 0.00792536046355962753
-0.00418635038658976555 -0.011231299489736557 0.00117747625336050987
-0.000680847675539553165 -0.00981662236154079437 0.000561875756829977036
-2.58076470345258713e-05 -0.0099347410723567009 0.000148051418364048004
-0.00542002730071544647 -0.00837886705994606018 0.00401146011427044868
-0.00394979026168584824 -0.00951629318296909332 0.0024011621717363596
-0.00963180884718894958 -0.00791674479842185974 0.00643996475264430046
-0.00435612630099058151 -0.0127196144312620163 9.81056582531891763e-05
-0.0126626286655664444 -0.00665764696896076202 0.00891137681901454926
-0.00390836969017982483 -0.00955260079354047775 0.00235246471129357815
-0.0105572286993265152 -0.00798336602747440338 0.00684218946844339371
-0.00239317445084452629 -0.00784769188612699509 0.00294060446321964264
-0.00504981819540262222 -0.00811481848359107971 0.00403601396828889847
-0.0102166123688220978 -0.00814985204488039017 0.00654492387548089027
-0.00599509337916970253 -0.00807827245444059372 0.00452858163043856621
-0.00490224827080965042 -0.00932366959750652313 0.00301918759942054749
-0.00375636829994618893 -0.00753657147288322449 0.00385282584466040134
-0.00946438591927289963 -0.00551342405378818512 0.0082353176549077034
-0.00461344048380851746 -0.00849891826510429382 0.00352173508144915104
-0.0096001969650387764 -0.00921163894236087799 0.00541284121572971344
-0.00695627741515636444 -0.0102847442030906677 0.00327665382064878941
-0.00421267841011285782 -0.00885282177478075027 0.00304853008128702641
-0.0104863904416561127 -0.00531455175951123238 0.00889236386865377426
-0.0026862509548664093 -0.0102868592366576195 0.0011789281852543354
-0.00181530241388827562 -0.0105842994526028633 0.000519027933478355408
-0.015728093683719635 -0.00512126600369811058 0.0116164162755012512
-0.0113539956510066986 -0.0074606034904718399 0.00764170335605740547
-0.00160251080524176359 -0.00870059709995985031 0.00188617082312703133
-0.00275770691223442554 -0.00793182197958230972 0.00305382185615599155
-0.0207152720540761948 0.0161758642643690109 0.00350311188958585262
-0.0206447932869195938 0.0157056543976068497 0.00456079374998807907
-0.0209473036229610443 0.0165965240448713303 0.00131288089323788881
-0.0199562124907970428 0.016063520684838295 0.00351132219657301903
-0.0204378422349691391 0.0146486777812242508 0.00670897774398326874
-0.0209492761641740799 0.0127967614680528641 0.0106108831241726875
-0.0200507733970880508 0.015435369685292244 0.00464672967791557312
-0.0202067680656909943 0.0147880874574184418 0.00595627352595329285
-0.0203977953642606735 0.0156146548688411713 0.00515360618010163307
-0.0207742732018232346 0.0152300745248794556 0.00631528301164507866
-0.0205879397690296173 0.0155854523181915283 0.00498209195211529732
-0.0202931910753250122 0.0159752108156681061 0.00366523233242332935
-0.0197400897741317749 0.013449428603053093 0.00718311779201030731
-0.019237300381064415 0.0151278916746377945 0.00445250142365694046
-0.0197640340775251389 0.0148525973781943321 0.00599924428388476372
-0.019833739846944809 0.013773718848824501 0.00712746195495128632
-0.0206699594855308533 0.012822398915886879 0.0100386133417487144
-0.0190506409853696823 0.0156992822885513306 0.00348459905944764614
-0.0194350965321063995 0.0148041080683469772 0.00522859301418066025
-0.019907953217625618 0.0135301919654011726 0.00752677116543054581
-0.0201130285859107971 0.0130193028599023819 0.00848662666976451874
-0.0197211019694805145 0.0140932733193039894 0.00656575523316860199
-0.0189776979386806488 0.0168970506638288498 0.00123356014955788851
-0.0198232680559158325 0.0152504891157150269 0.00479861581698060036
-0.0189177133142948151 0.0168284177780151367 0.00157344317995011806
-0.0201198197901248932 0.0142682464793324471 0.00734283635392785072
-0.0202800929546356201 0.0142794214189052582 0.00698519032448530197
-0.0192701220512390137 0.0145431244745850563 0.00553715601563453674
-0.019040355458855629 0.0150864254683256149 0.00475308904424309731
-0.0204564519226551056 0.0109628885984420776 0.0115236798301339149
-0.0196046270430088043 0.0133160445839166641 0.00776925543323159218
-0.0191499311476945877 0.0149724595248699188 0.00476406747475266457
-0.0190839637070894241 0.0147851165384054184 0.00539753958582878113
-0.0165925063192844391 0.0206094402819871902 0.00166090414859354496
-0.0153655242174863815 0.00412244955077767372 0.012589581310749054
0.00323045998811721802 -0.00167258176952600479 0.00253439974039793015
-0.00193309877067804337 -0.00362662412226200104 0.0038575311191380024
-0.00609885342419147491 -0.00122719560749828815 0.00656402064487338066
-0.0072150062769651413 -0.00108732748776674271 0.00708181504160165787
-0.00597931817173957825 -0.000178965041413903236 0.00694687198847532272
-0.0165966972708702087 0.00424768775701522827 0.0131487622857093811
0.00175471184775233269 -0.00109161925502121449 0.00338227697648108006
0.00777944037690758705 -0.00260230503045022488 0.000275806291028857231
-0.00154686090536415577 0.000318471837090328336 0.00532465707510709763
-0.00258439010940492153 -0.00370807992294430733 0.00409244652837514877
-0.00332631147466599941 -0.00394801702350378036 0.00429939012974500656
-0.000659437617287039757 -0.00386500777676701546 0.00323419109918177128
-0.00121188978664577007 -0.000859740248415619135 0.00470085116103291512
-0.00274225114844739437 -0.00277387350797653198 0.00454264786094427109
-0.00517705967649817467 -0.00107303576078265905 0.00624756282195448875
-0.00686631118878722191 0.000481841969303786755 0.00758495042100548744
-0.00499346479773521423 0.000782687566243112087 0.00693689147010445595
-0.00779110612347722054 0.000607012538239359856 0.00801779795438051224
0.00134143466129899025 -0.00397558091208338737 0.00236374745145440102
-0.0198822449892759323 0.00539865950122475624 0.014977714978158474
0.00648120604455471039 -0.00264045922085642815 0.00079527456546202302
0.00524962833151221275 -0.00506168976426124573 0.000304849119856953621
0.00102799013257026672 -0.00284818513318896294 0.00295773008838295937
-0.00424101296812295914 -0.00419419072568416595 0.00457499176263809204
0.00381069839932024479 -0.0052692759782075882 0.000812471320386976004
-0.0120810689404606819 0.0012214945163577795 0.0100396545603871346
-0.00372657179832458496 -0.00207168329507112503 0.00523790996521711349
-0.0014380929060280323 -0.00493781128898262978 0.00311293243430554867
-0.00859062932431697845 -0.00133347278460860252 0.00754744373261928558
-0.013667023740708828 0.00275571807287633419 0.0113259442150592804
-0.0159159433096647263 0.00336620328016579151 0.0125047313049435616
-0.00628074724227190018 -0.00210352009162306786 0.00627774512395262718
-0.0172212757170200348 0.00393268279731273651 0.0132763851433992386
-0.00570954428985714912 -0.000928919180296361446 0.00652649113908410072
0.00187767436727881432 -0.00738436449319124222 0.00073742307722568512
-0.0194494854658842087 0.00500972336158156395 0.0146389715373516083
0.00506715662777423859 -0.00571819767355918884 0.000109429805888794363
-0.00211326475255191326 -0.00214812299236655235 0.00454131187871098518
-0.00569428782910108566 -0.00206656940281391144 0.00605120975524187088
-0.00303665595129132271 -0.00202739611268043518 0.00497174914926290512
-0.0133297014981508255 0.00185506511479616165 0.0108155915513634682
-0.00101027148775756359 -0.00245512207038700581 0.00396004319190979004
-0.0110099324956536293 0.00144947587978094816 0.00969206355512142181
-0.00665446463972330093 -0.00154413911513984203 0.00666241254657506943
-0.0122609063982963562 0.000795241910964250565 0.00993807241320610046
-0.00493866996839642525 -0.00246326159685850143 0.00557617098093032837
-0.00392905715852975845 -0.00226894509978592396 0.0052400641143321991
-0.00612878147512674332 -0.00255135213956236839 0.00603047944605350494
-0.0190528072416782379 0.00506657036021351814 0.0144988754764199257
0.00185945676639676094 -0.00806103367358446121 0.000465978751890361309
-0.0168751347810029984 0.00348947104066610336 0.0129509754478931427
0.0061751524917781353 -0.00355710834264755249 0.000543559843208640814
-0.00901555083692073822 0.00139661959838122129 0.00884808879345655441
-0.00353130977600812912 -0.00356167671270668507 0.00454316847026348114
-0.0140069061890244484 0.00263806665316224098 0.011417558416724205
-0.000600318191573023796 -0.00433654012158513069 0.00301543134264647961
-0.00232633599080145359 -0.00209046737290918827 0.00465291878208518028
-0.00116727419663220644 -0.00178518146276473999 0.00430094823241233826
0.000397413503378629684 -0.00571604259312152863 0.00203542108647525311
-0.00756811676546931267 0.00195623841136693954 0.00848208460956811905
0.00193128408864140511 -0.00478087272495031357 0.00178860314190387726
-0.00434640794992446899 -0.00414393749088048935 0.00463915802538394928
-0.00587372202426195145 -0.00181482941843569279 0.00622896011918783188
-0.00380330672487616539 -0.000800868612714111805 0.00579343270510435104
-0.00918119866400957108 -0.000170422252267599106 0.00827036984264850616
-0.0199981033802032471 0.00544902682304382324 0.0150462398305535316
-0.00400313176214694977 -0.0037386168260127306 0.00466473400592803955
-0.00982369575649499893 0.00245936517603695393 0.0096193607896566391
-0.00912084802985191345 0.00078003457747399807 0.00863731279969215393
0.00541514530777931213 -0.00430577574297785759 0.000548237352631986141
-0.00575472600758075714 -0.00233709835447371006 0.00596460048109292984
-0.00135028548538684845 -0.00522388890385627747 0.00295879901386797428
-0.00479052867740392685 -0.000122124911285936832 0.00648022536188364029
0.0040505705401301384 -0.00507782492786645889 0.000792509119492024183
-0.01871490478515625 0.0049734567292034626 0.0143211893737316132
-0.00727115292102098465 -0.00206279894337058067 0.00670282682403922081
-0.00382910505868494511 -0.00178843829780817032 0.00539694633334875107
-0.006810714490711689 -0.00264496938325464725 0.00627301353961229324
-0.00143068900797516108 -0.00133636919781565666 0.0045945621095597744
-0.0126227056607604027 0.000835217768326401711 0.0101037034764885902
0.00662492727860808372 -0.00430968590080738068 4.78923684568144381e-05
-0.00584855722263455391 -0.00112680299207568169 0.00650222273543477058
-0.00455995602533221245 -0.000853337696753442287 0.00608373153954744339
-0.0101071204990148544 0.000255202874541282654 0.00882754381746053696
-0.00320235150866210461 -0.00408735405653715134 0.00419084681198000908
-0.00604031374678015709 -0.00146423839032649994 0.00644216779619455338
-0.0163572784513235092 0.00397111149504780769 0.0129360435530543327
-0.00281267287209630013 -0.00136487255804240704 0.00515253515914082527
-3.79108823835849762e-05 -0.00259028561413288116 0.00350346625782549381
-0.00477379187941551208 0.000271823722869157791 0.00663572922348976135
-0.00521906698122620583 -0.00369104812853038311 0.00518561387434601784
0.00493265688419342041 -0.00291541265323758125 0.001320315757766366
-0.00271520437672734261 -0.00493609113618731499 0.00364013086073100567
-0.00982770416885614395 0.00181514129508286715 0.00935543421655893326
0.00215235003270208836 -0.00162766617722809315 0.00299736717715859413
0.00502902036532759666 -0.00283057847991585732 0.00131556263659149408
-0.0120003698393702507 0.00156735943164676428 0.0101489685475826263
0.00271993689239025116 -0.00096290285000577569 0.00303742592222988605
-0.00523895351216197014 -0.00236392021179199219 0.00574091589078307152
-0.00348935695365071297 -0.00373036973178386688 0.00445633009076118469
0.00119932799134403467 -0.00216724979691207409 0.00316780922003090382
-0.00168355763889849186 -0.00264470814727246761 0.00415944913402199745
-0.00374979665502905846 -0.00374641665257513523 0.00455708149820566177
-0.00120898312889039516 -0.000298331113299354911 0.0049310917966067791
0.00503552006557583809 -0.00583348004147410393 7.49472455936484039e-05
0.000750219449400901794 -0.00736776320263743401 0.00120906054507941008
-0.00402679014950990677 0.000120114069432020187 0.00626523606479167938
-0.004177827388048172 -0.00193558377213776112 0.00548004684969782829
-0.00913444068282842636 -0.000701682642102241516 0.00803208351135253906
-0.0151990652084350586 0.0207424070686101913 0.00650961790233850479
-0.0162263829261064529 0.0202622078359127045 0.00256165256723761559
-0.0161267239600419998 0.0201308149844408035 0.00323076383210718632
-0.015662509948015213 0.0209511052817106247 0.00546711962670087814
-0.0167670585215091705 0.0201832335442304611 0.000570030417293310165
-0.0157934129238128662 0.0208986233919858932 0.00498631549999117851
-0.0170553475618362427 0.0191580764949321747 0.000365489628165960312
-0.0169444270431995392 0.0188885685056447983 0.00126138376072049141
-0.015620693564414978 0.0197135545313358307 0.00383586343377828598
-0.0158487036824226379 0.0193608887493610382 0.00381534360349178314
-0.0134843634441494942 0.0206308122724294662 0.00885626114904880524
-0.0145447207614779472 0.0205202773213386536 0.00705664744600653648
-0.0166156403720378876 0.0194999482482671738 0.00162459816783666611
-0.0151703339070081711 0.0205805264413356781 0.00629390217363834381
-0.0139354579150676727 0.0204655751585960388 0.00780892278999090195
-0.0134319374337792397 0.0204565059393644333 0.00897110532969236374
-0.0136159667745232582 0.0196756348013877869 0.00687661487609148026
-0.0134552055969834328 0.0200922004878520966 0.00804939679801464081
-0.0107474345713853836 0.0207540672272443771 0.0120853111147880554
-0.0140566937625408173 0.0199488364160060883 0.00716192973777651787
-0.0148457475006580353 0.0195206329226493835 0.0054037594236433506
-0.0121643440797924995 0.0205670818686485291 0.010367576964199543
-0.0130083486437797546 0.0201144050806760788 0.00850018858909606934
-0.0133330309763550758 0.0204430315643548965 0.00902539584785699844
-0.0175644941627979279 0.0146824046969413757 0.00945422891527414322
-0.0167308598756790161 0.0168872121721506119 0.00602530036121606827
-0.0105611085891723633 0.0205202046781778336 0.0123692229390144348
-0.0197252407670021057 0.0112771494314074516 0.0125663774088025093
-0.0163320545107126236 0.0179797802120447159 0.0042903851717710495
-0.0128669962286949158 0.0177803616970777512 0.0134543832391500473
-0.0162894558161497116 0.0183357130736112595 0.0035068141296505928
-0.0118777984753251076 0.0192059911787509918 0.0123630017042160034
-0.0159344673156738281 0.0180395301431417465 0.00513524096459150314
-0.0168905388563871384 0.0163359697908163071 0.00700449617579579353
-0.0128496875986456871 0.0198971852660179138 0.00820403080433607101
-0.0121765155345201492 0.0184207651764154434 0.0135796274989843369
-0.0127586489543318748 0.018620666116476059 0.0116239478811621666
-0.0155301140621304512 0.0165540166199207306 0.00986132025718688965
-0.0166018307209014893 0.0144319888204336166 0.0124878520146012306
-0.0160892009735107422 0.0154545754194259644 0.0112125929445028305
-0.0100140776485204697 0.0208344068378210068 0.0129514811560511589
-0.0126441558822989464 0.0189674925059080124 0.0110429441556334496
-0.0162812117487192154 0.0179570019245147705 0.00447449274361133575
-0.0145719870924949646 0.0186983942985534668 0.00689483527094125748
-0.0205139331519603729 0.0104302652180194855 0.0127118891105055809
-0.0207713879644870758 0.00978573225438594818 0.013679862953722477
-0.0181466452777385712 0.0128335254266858101 0.0126219820231199265
