ply
format ascii 1.0
element vertex 887
property float x
property float y
property float z
end_header
0.118875123560428619 0.300000011920928955 0.145046383142471313
0.215857401490211487 0.300000011920928955 0.118078723549842834
0.175236299633979797 0.300000011920928955 0.189636155962944031
0.228159591555595398 0.300000011920928955 0.125447168946266174
0.34965553879737854 0.300000011920928955 0.183529049158096313
0.198581770062446594 0.300000011920928955 0.132334381341934204
0.122600443661212921 0.300000011920928955 0.148661360144615173
0.0510437414050102234 0.300000011920928955 0.179957941174507141
0.162664249539375305 0.300000011920928955 0.171335756778717041
0.0279779862612485886 0.300000011920928955 0.114203326404094696
0.107857108116149902 0.300000011920928955 0.0853710174560546875
0.0660967081785202026 0.300000011920928955 0.15381227433681488
0.192269235849380493 0.300000011920928955 0.0924356505274772644
0.264960378408432007 0.300000011920928955 0.149217993021011353
0.0554524362087249756 0.300000011920928955 0.16345660388469696
0.0874724462628364563 0.300000011920928955 0.139826059341430664
0.0165520161390304565 0.300000011920928955 0.188099130988121033
0.255105674266815186 0.300000011920928955 0.193314939737319946
0.220393180847167969 0.300000011920928955 0.112773291766643524
0.223802894353866577 0.300000011920928955 0.138103306293487549
0.0340429730713367462 0.300000011920928955 0.194822773337364197
0.225305736064910889 0.300000011920928955 0.179042905569076538
0.0577907413244247437 0.300000011920928955 0.163704738020896912
0.445772439241409302 0.300000011920928955 0.189473748207092285
0.0563829727470874786 0.300000011920928955 0.192003130912780762
0.113711774349212646 0.300000011920928955 0.0536511838436126709
0.192774966359138489 0.300000011920928955 0.162529334425926208
0.026089005172252655 0.300000011920928955 0.130516484379768372
0.230416223406791687 0.300000011920928955 0.197812721133232117
0.222841054201126099 0.300000011920928955 0.124317683279514313
0.355687439441680908 0.300000011920928955 0.188486292958259583
0.195638895034790039 0.300000011920928955 0.185915887355804443
0.039145931601524353 0.300000011920928955 0.129955857992172241
0.263387203216552734 0.300000011920928955 0.123735532164573669
0.0226908270269632339 0.300000011920928955 0.0436905771493911743
0.329146653413772583 0.300000011920928955 0.163972854614257812
0.183963462710380554 0.300000011920928955 0.153472721576690674
0.338046550750732422 0.300000011920928955 0.14698047935962677
0.101813562214374542 0.300000011920928955 0.147022485733032227
0.312857896089553833 0.300000011920928955 0.173967286944389343
0.339617073535919189 0.300000011920928955 0.183388829231262207
0.220584467053413391 0.300000011920928955 0.121113225817680359
0.304201245307922363 0.300000011920928955 0.143980607390403748
0.0819152295589447021 0.300000011920928955 0.0988475903868675232
0.359592735767364502 0.300000011920928955 0.181709066033363342
0.0660141035914421082 0.300000011920928955 0.138142809271812439
0.155626282095909119 0.300000011920928955 0.124478407204151154
0.0758590251207351685 0.300000011920928955 0.122340403497219086
0.127396062016487122 0.300000011920928955 0.178956180810928345
0.124200582504272461 0.300000011920928955 0.108476035296916962
0.0308847501873970032 0.300000011920928955 0.0919898152351379395
0.217869922518730164 0.300000011920928955 0.164443403482437134
0.241643965244293213 0.300000011920928955 0.195454522967338562
0.0931521877646446228 0.300000011920928955 0.0822573527693748474
0.0794259160757064819 0.300000011920928955 0.119280450046062469
0.00957862194627523422 0.300000011920928955 0.17480844259262085
0.134905546903610229 0.300000011920928955 0.126140594482421875
0.355892479419708252 0.300000011920928955 0.150038301944732666
0.367206096649169922 0.300000011920928955 0.195391625165939331
0.0886293724179267883 0.300000011920928955 0.101414136588573456
0.0761890262365341187 0.300000011920928955 0.071458667516708374
0.0707799047231674194 0.300000011920928955 0.106198422610759735
0.0782470405101776123 0.300000011920928955 0.0419840514659881592
0.325074344873428345 0.300000011920928955 0.161311015486717224
0.0978323593735694885 0.300000011920928955 0.14148440957069397
0.128065124154090881 0.300000011920928955 0.186504781246185303
0.112343862652778625 0.300000011920928955 0.0677793174982070923
0.0485680699348449707 0.300000011920928955 0.157884791493415833
0.370899379253387451 0.300000011920928955 0.182476729154586792
0.330046325922012329 0.300000011920928955 0.153142631053924561
0.255936294794082642 0.300000011920928955 0.149949848651885986
0.202378451824188232 0.300000011920928955 0.103932611644268036
0.10752464085817337 0.300000011920928955 0.0578870177268981934
0.272884517908096313 0.300000011920928955 0.145274162292480469
0.0460080169141292572 0.300000011920928955 0.156850934028625488
0.179885014891624451 0.300000011920928955 0.0898079648613929749
0.152644723653793335 0.300000011920928955 0.199201107025146484
0.297366529703140259 0.300000011920928955 0.178398087620735168
0.0739955678582191467 0.300000011920928955 0.0333861708641052246
0.158667117357254028 0.300000011920928955 0.144885540008544922
0.0629234760999679565 0.300000011920928955 0.0950694456696510315
0.00562013452872633934 0.300000011920928955 0.0743621289730072021
0.311699151992797852 0.300000011920928955 0.183362245559692383
0.170104309916496277 0.300000011920928955 0.167195290327072144
0.0289629567414522171 0.300000011920928955 0.107530802488327026
0.119605809450149536 0.300000011920928955 0.176965221762657166
0.240144640207290649 0.300000011920928955 0.152917861938476562
0.35357174277305603 0.300000011920928955 0.181735292077064514
0.0994492024183273315 0.300000011920928955 0.0690856128931045532
0.111202739179134369 0.300000011920928955 0.0692068487405776978
0.278237044811248779 0.300000011920928955 0.13702644407749176
0.362906932830810547 0.300000011920928955 0.159481197595596313
0.152697727084159851 0.300000011920928955 0.0929407104849815369
0.0166600048542022705 0.300000011920928955 0.031221345067024231
0.346698909997940063 0.300000011920928955 0.165403187274932861
0.156593948602676392 0.300000011920928955 0.194582149386405945
0.106505438685417175 0.300000011920928955 0.142581477761268616
0.355097979307174683 0.300000011920928955 0.160272300243377686
0.0926108211278915405 0.300000011920928955 0.0542386025190353394
0.26024213433265686 0.300000011920928955 0.159687161445617676
0.26784321665763855 0.300000011920928955 0.141987353563308716
0.169618993997573853 0.300000011920928955 0.113248310983181
0.284232676029205322 0.300000011920928955 0.149053648114204407
0.0157651137560606003 0.300000011920928955 0.106428936123847961
0.425431728363037109 0.300000011920928955 0.194420486688613892
0.0591730847954750061 0.300000011920928955 0.128942549228668213
0.178339943289756775 0.300000011920928955 0.107967302203178406
0.325071662664413452 0.300000011920928955 0.171116545796394348
0.0263479631394147873 0.300000011920928955 0.198134571313858032
0.146657124161720276 0.300000011920928955 0.100255295634269714
0.0326511487364768982 0.300000011920928955 0.138289421796798706
0.257736444473266602 0.300000011920928955 0.117059558629989624
0.146119236946105957 0.300000011920928955 0.0714360624551773071
0.271074593067169189 0.300000011920928955 0.173062369227409363
0.334180742502212524 0.300000011920928955 0.167616501450538635
0.0417897216975688934 0.300000011920928955 0.10448203980922699
0.272662103176116943 0.300000011920928955 0.159695565700531006
0.0816390290856361389 0.300000011920928955 0.0506800562143325806
0.081874944269657135 0.300000011920928955 0.117858648300170898
0.141448467969894409 0.300000011920928955 0.105386875569820404
0.277861088514328003 0.300000011920928955 0.161471724510192871
0.0697307586669921875 0.300000011920928955 0.177823901176452637
0.265343993902206421 0.300000011920928955 0.12992250919342041
0.323162078857421875 0.300000011920928955 0.163658618927001953
0.0646021738648414612 0.300000011920928955 0.0332951396703720093
0.0894655957818031311 0.300000011920928955 0.0954030081629753113
0.134192183613777161 0.300000011920928955 0.134767234325408936
0.0389220453798770905 0.300000011920928955 0.114740535616874695
0.119683884084224701 0.300000011920928955 0.110032550990581512
0.213487669825553894 0.300000011920928955 0.121620483696460724
0.251904070377349854 0.300000011920928955 0.113931231200695038
0.123177476227283478 0.300000011920928955 0.167162224650382996
0.179741337895393372 0.300000011920928955 0.162826478481292725
0.184981808066368103 0.300000011920928955 0.0900293365120887756
0.0747856944799423218 0.300000011920928955 0.168068170547485352
0.382533639669418335 0.300000011920928955 0.18697240948677063
0.061339452862739563 0.300000011920928955 0.0362695157527923584
0.269657164812088013 0.300000011920928955 0.16164080798625946
0.124217599630355835 0.300000011920928955 0.127240657806396484
0.286469221115112305 0.300000011920928955 0.178592309355735779
0.23696020245552063 0.300000011920928955 0.157296985387802124
0.246666803956031799 0.300000011920928955 0.192681372165679932
0.175467029213905334 0.300000011920928955 0.163815796375274658
0.173906967043876648 0.300000011920928955 0.145871445536613464
0.137868314981460571 0.300000011920928955 0.113839589059352875
0.154956206679344177 0.300000011920928955 0.164799019694328308
0.0983150377869606018 0.300000011920928955 0.0879388600587844849
0.165395930409431458 0.300000011920928955 0.187038153409957886
0.143297895789146423 0.300000011920928955 0.0826523527503013611
0.0731827691197395325 0.300000011920928955 0.196768015623092651
0.273341715335845947 0.300000011920928955 0.1922292560338974
0.189259454607963562 0.300000011920928955 0.195412173867225647
0.142697244882583618 0.300000011920928955 0.0996772050857543945
0.0926240012049674988 0.300000011920928955 0.0457796752452850342
0.39164435863494873 0.300000011920928955 0.164456680417060852
0.0583640821278095245 0.300000011920928955 0.15608660876750946
0.112842582166194916 0.300000011920928955 0.0969319120049476624
0.115115083754062653 0.300000011920928955 0.100358575582504272
0.0276775062084197998 0.300000011920928955 0.150637209415435791
0.18316321074962616 0.300000011920928955 0.161754921078681946
0.0746269449591636658 0.300000011920928955 0.107322327792644501
0.149767518043518066 0.300000011920928955 0.164263874292373657
0.361130625009536743 0.300000011920928955 0.196988016366958618
0.361471772193908691 0.300000011920928955 0.187407150864601135
0.169761016964912415 0.300000011920928955 0.161594122648239136
0.286921590566635132 0.300000011920928955 0.170224353671073914
0.155139252543449402 0.300000011920928955 0.158240035176277161
0.0770356953144073486 0.300000011920928955 0.199875771999359131
0.0550799593329429626 0.300000011920928955 0.174490764737129211
0.149324804544448853 0.300000011920928955 0.14613834023475647
0.403391450643539429 0.300000011920928955 0.195968702435493469
0.278565883636474609 0.300000011920928955 0.172707632184028625
0.172272711992263794 0.300000011920928955 0.0863020569086074829
0.0550887249410152435 0.300000011920928955 0.111441008746623993
0.221454992890357971 0.300000011920928955 0.152294248342514038
0.1265106201171875 0.300000011920928955 0.165774554014205933
0.241182640194892883 0.300000011920928955 0.174360871315002441
0.398278176784515381 0.300000011920928955 0.172590121626853943
0.10566084086894989 0.300000011920928955 0.0568840205669403076
0.0161004606634378433 0.300000011920928955 0.0124667882919311523
0.0841928720474243164 0.300000011920928955 0.178141966462135315
0.0241664145141839981 0.300000011920928955 0.0373636931180953979
0.0744527950882911682 0.300000011920928955 0.142756164073944092
0.361990183591842651 0.300000011920928955 0.188595443964004517
0.193554341793060303 0.300000011920928955 0.137787789106369019
0.263036400079727173 0.300000011920928955 0.135265633463859558
0.391966879367828369 0.300000011920928955 0.175533071160316467
0.231132045388221741 0.300000011920928955 0.15134023129940033
0.0777879133820533752 0.300000011920928955 0.050817638635635376
0.0815897136926651001 0.300000011920928955 0.186204537749290466
0.121280170977115631 0.300000011920928955 0.162310034036636353
0.0120055535808205605 0.300000011920928955 0.0052795112133026123
0.0288990642875432968 0.300000011920928955 0.173011273145675659
0.139371171593666077 0.300000011920928955 0.0606860071420669556
0.207563400268554688 0.300000011920928955 0.114356644451618195
0.151871412992477417 0.300000011920928955 0.150100246071815491
0.15369020402431488 0.300000011920928955 0.0920723006129264832
0.426491975784301758 0.300000011920928955 0.183883294463157654
0.10616668313741684 0.300000011920928955 0.163168072700500488
0.0831939205527305603 0.300000011920928955 0.17342868447303772
0.193228632211685181 0.300000011920928955 0.117490828037261963
0.0886243805289268494 0.300000011920928955 0.10979519784450531
0.184279903769493103 0.300000011920928955 0.197946459054946899
0.018515951931476593 0.300000011920928955 0.0309247076511383057
0.0810093358159065247 0.300000011920928955 0.144624710083007812
0.124760180711746216 0.300000011920928955 0.137348026037216187
0.349253296852111816 0.300000011920928955 0.146764397621154785
0.184768795967102051 0.300000011920928955 0.0918946042656898499
0.110487744212150574 0.300000011920928955 0.150402873754501343
0.112529255449771881 0.300000011920928955 0.158953741192817688
0.181270048022270203 0.300000011920928955 0.198450967669487
0.182057872414588928 0.300000011920928955 0.0831859931349754333
0.0392856933176517487 0.300000011920928955 0.0839767009019851685
0.387931257486343384 0.300000011920928955 0.193060949444770813
0.137820899486541748 0.300000011920928955 0.0625598132610321045
0.0131739238277077675 0.300000011920928955 0.0949972644448280334
0.344870656728744507 0.300000011920928955 0.148380473256111145
0.121422253549098969 0.300000011920928955 0.178161829710006714
0.0391471758484840393 0.300000011920928955 0.0579403489828109741
0.0729783102869987488 0.300000011920928955 0.093427218496799469
0.23387514054775238 0.300000011920928955 0.145037591457366943
0.292321324348449707 0.300000011920928955 0.187648653984069824
0.132642939686775208 0.300000011920928955 0.166806310415267944
0.434994429349899292 0.300000011920928955 0.191872581839561462
0.280604153871536255 0.300000011920928955 0.199752345681190491
0.0138849522918462753 0.300000011920928955 0.0630068480968475342
0.0541783235967159271 0.300000011920928955 0.0935364961624145508
0.164844498038291931 0.300000011920928955 0.167162537574768066
0.288480520248413086 0.300000011920928955 0.12141697108745575
0.208137825131416321 0.300000011920928955 0.14437943696975708
0.0565263926982879639 0.300000011920928955 0.159705936908721924
0.202714458107948303 0.300000011920928955 0.109351783990859985
0.109137870371341705 0.300000011920928955 0.128170490264892578
0.0491856895387172699 0.300000011920928955 0.145421728491783142
0.0215380974113941193 0.300000011920928955 0.132147103548049927
0.080291353166103363 0.300000011920928955 0.158475980162620544
0.0187881123274564743 0.300000011920928955 0.0985004454851150513
0.120141677558422089 0.300000011920928955 0.112118221819400787
0.333352237939834595 0.300000011920928955 0.139106288552284241
0.247982919216156006 0.300000011920928955 0.178520649671554565
0.00288469810038805008 0.300000011920928955 0.0843394175171852112
0.337987393140792847 0.300000011920928955 0.17775098979473114
0.107267342507839203 0.300000011920928955 0.15353742241859436
0.0946596339344978333 0.300000011920928955 0.185090973973274231
0.117460362613201141 0.300000011920928955 0.142927810549736023
0.0311569776386022568 0.300000011920928955 0.0619058907032012939
0.0172062646597623825 0.300000011920928955 0.05364207923412323
0.270824730396270752 0.300000011920928955 0.126953244209289551
0.213620215654373169 0.300000011920928955 0.152475237846374512
0.0131456004455685616 0.300000011920928955 0.0913571268320083618
0.412362724542617798 0.300000011920928955 0.181801885366439819
0.0518552288413047791 0.300000011920928955 0.0638229846954345703
0.035929359495639801 0.300000011920928955 0.137519568204879761
0.0869766250252723694 0.300000011920928955 0.180736899375915527
0.369857579469680786 0.300000011920928955 0.163744285702705383
0.138033762574195862 0.300000011920928955 0.138576805591583252
0.00854779127985239029 0.300000011920928955 0.0109159648418426514
0.102164961397647858 0.300000011920928955 0.184258133172988892
0.252637565135955811 0.300000011920928955 0.168829947710037231
0.101238980889320374 0.300000011920928955 0.0592561513185501099
0.266246438026428223 0.300000011920928955 0.15155377984046936
0.300294041633605957 0.300000011920928955 0.186723425984382629
0.340349376201629639 0.300000011920928955 0.19208797812461853
0.0299447420984506607 0.300000011920928955 0.0437928736209869385
0.240504801273345947 0.300000011920928955 0.19677850604057312
0.0290875732898712158 0.300000011920928955 0.0868273600935935974
0.105622880160808563 0.300000011920928955 0.0916589647531509399
0.167507052421569824 0.300000011920928955 0.104323878884315491
0.152215629816055298 0.300000011920928955 0.184595659375190735
0.0481686443090438843 0.300000011920928955 0.0970057174563407898
0.159933030605316162 0.300000011920928955 0.106249801814556122
0.176201313734054565 0.300000011920928955 0.156730085611343384
0.269886702299118042 0.300000011920928955 0.113311856985092163
0.0434642881155014038 0.300000011920928955 0.125343680381774902
0.0522283613681793213 0.300000011920928955 0.130120187997817993
0.0253988336771726608 0.300000011920928955 0.0822119042277336121
0.371988266706466675 0.300000011920928955 0.190844982862472534
0.180181324481964111 0.300000011920928955 0.176180988550186157
0.281646221876144409 0.300000011920928955 0.148881673812866211
0.332221120595932007 0.300000011920928955 0.16937766969203949
0.122848711907863617 0.300000011920928955 0.135854095220565796
0.328112632036209106 0.300000011920928955 0.196947887539863586
0.187376722693443298 0.300000011920928955 0.194453135132789612
0.035536695271730423 0.300000011920928955 0.0293865501880645752
0.167757749557495117 0.300000011920928955 0.172787010669708252
0.0302708838135004044 0.300000011920928955 0.0668513774871826172
0.280586153268814087 0.300000011920928955 0.15915505588054657
0.13121795654296875 0.300000011920928955 0.0901101008057594299
0.0420796386897563934 0.300000011920928955 0.147475361824035645
0.225088939070701599 0.300000011920928955 0.0954977646470069885
0.144394934177398682 0.300000011920928955 0.0689543783664703369
0.187895238399505615 0.300000011920928955 0.14166635274887085
0.014441576786339283 0.300000011920928955 0.165620729327201843
0.106428287923336029 0.300000011920928955 0.12517315149307251
0.239465877413749695 0.300000011920928955 0.175019204616546631
0.134718164801597595 0.300000011920928955 0.0902157202363014221
0.305803567171096802 0.300000011920928955 0.144877254962921143
0.130680248141288757 0.300000011920928955 0.0767776593565940857
0.133376508951187134 0.300000011920928955 0.159676134586334229
0.240844547748565674 0.300000011920928955 0.126076221466064453
0.204514726996421814 0.300000011920928955 0.160844072699546814
0.223092183470726013 0.300000011920928955 0.0997251048684120178
0.155850216746330261 0.300000011920928955 0.148756891489028931
0.0494823753833770752 0.300000011920928955 0.0574350655078887939
0.184108003973960876 0.300000011920928955 0.17361961305141449
0.189710050821304321 0.300000011920928955 0.114785991609096527
0.175178289413452148 0.300000011920928955 0.100870631635189056
0.258237928152084351 0.300000011920928955 0.194283097982406616
0.168277963995933533 0.300000011920928955 0.189710929989814758
0.082755163311958313 0.300000011920928955 0.167122960090637207
0.293547213077545166 0.300000011920928955 0.194497168064117432
0.082589276134967804 0.300000011920928955 0.101680241525173187
0.265802681446075439 0.300000011920928955 0.151865065097808838
0.258965581655502319 0.300000011920928955 0.151993423700332642
0.416387885808944702 0.300000011920928955 0.177717730402946472
0.0966347083449363708 0.300000011920928955 0.189565122127532959
0.08891325443983078 0.300000011920928955 0.174082159996032715
0.214905068278312683 0.300000011920928955 0.148272722959518433
0.0198211781680583954 0.300000011920928955 0.12802085280418396
0.211430475115776062 0.300000011920928955 0.189269751310348511
0.161805316805839539 0.300000011920928955 0.16569221019744873
0.151427164673805237 0.300000011920928955 0.124119065701961517
0.0905476585030555725 0.300000011920928955 0.102194927632808685
0.0374147966504096985 0.300000011920928955 0.178178519010543823
0.0690639689564704895 0.300000011920928955 0.0651753395795822144
0.104300111532211304 0.300000011920928955 0.183733478188514709
0.35344502329826355 0.300000011920928955 0.156785637140274048
0.0632166340947151184 0.300000011920928955 0.0323002934455871582
0.115524150431156158 0.300000011920928955 0.0566248595714569092
0.107593581080436707 0.300000011920928955 0.104987159371376038
0.237014845013618469 0.300000011920928955 0.194663405418395996
0.0928245782852172852 0.300000011920928955 0.082237735390663147
0.0510707870125770569 0.300000011920928955 0.090882517397403717
0.0473660603165626526 0.300000011920928955 0.0959205180406570435
0.0802704840898513794 0.300000011920928955 0.0897304192185401917
0.149026826024055481 0.300000011920928955 0.0747352838516235352
0.0690269097685813904 0.300000011920928955 0.045652344822883606
0.133931457996368408 0.300000011920928955 0.096357978880405426
0.0549835935235023499 0.300000011920928955 0.150015696883201599
0.0106024947017431259 0.300000011920928955 0.108504302799701691
0.316192865371704102 0.300000011920928955 0.137971282005310059
0.0982590019702911377 0.300000011920928955 0.16123613715171814
0.0826197192072868347 0.300000011920928955 0.133746474981307983
0.296777397394180298 0.300000011920928955 0.166055217385292053
0.37896275520324707 0.300000011920928955 0.170840069651603699
0.23186194896697998 0.300000011920928955 0.150095552206039429
0.297764807939529419 0.300000011920928955 0.181795895099639893
0.115831881761550903 0.300000011920928955 0.154090866446495056
0.276906996965408325 0.300000011920928955 0.153858542442321777
0.026771102100610733 0.300000011920928955 0.0788428932428359985
0.244802966713905334 0.300000011920928955 0.143261268734931946
0.272845983505249023 0.300000011920928955 0.168485909700393677
0.103541269898414612 0.300000011920928955 0.0934204384684562683
0.125908002257347107 0.300000011920928955 0.139808684587478638
0.238749921321868896 0.300000011920928955 0.137575745582580566
0.261752992868423462 0.300000011920928955 0.127715975046157837
0.00326098199002444744 0.300000011920928955 0.0286082327365875244
0.00708758877590298653 0.300000011920928955 0.111309483647346497
0.278586715459823608 0.300000011920928955 0.136846542358398438
0.214165791869163513 0.300000011920928955 0.18962995707988739
0.179513618350028992 0.300000011920928955 0.159059643745422363
0.0789946317672729492 0.300000011920928955 0.0470014363527297974
0.00383796216920018196 0.300000011920928955 0.0201354622840881348
0.026216479018330574 0.300000011920928955 0.0218557417392730713
0.0698721036314964294 0.300000011920928955 0.0598507821559906006
0.316481560468673706 0.300000011920928955 0.179234519600868225
0.158780947327613831 0.300000011920928955 0.186705306172370911
0.105373568832874298 0.300000011920928955 0.14152054488658905
0.303694725036621094 0.300000011920928955 0.142521366477012634
0.0799598619341850281 0.300000011920928955 0.150603339076042175
0.376670241355895996 0.300000011920928955 0.183956339955329895
0.0590572729706764221 0.300000011920928955 0.138262569904327393
0.323759555816650391 0.300000011920928955 0.157921910285949707
0.0469934940338134766 0.300000011920928955 0.0742229968309402466
0.182299703359603882 0.300000011920928955 0.0802762284874916077
0.110809803009033203 0.300000011920928955 0.0517954528331756592
0.10611831396818161 0.300000011920928955 0.178015381097793579
0.215938389301300049 0.300000011920928955 0.175739750266075134
0.0949187278747558594 0.300000011920928955 0.158215731382369995
0.0571425110101699829 0.300000011920928955 0.0387910902500152588
0.348247289657592773 0.300000011920928955 0.177149534225463867
0.168416857719421387 0.300000011920928955 0.185580223798751831
0.146009832620620728 0.300000011920928955 0.0827177315950393677
0.00786407757550477982 0.300000011920928955 0.00988881289958953857
0.200032591819763184 0.300000011920928955 0.114562436938285828
0.182486802339553833 0.300000011920928955 0.116887889802455902
0.241043239831924438 0.300000011920928955 0.159158021211624146
0.0859747603535652161 0.300000011920928955 0.170757010579109192
0.0116344597190618515 0.300000011920928955 0.148785889148712158
0.273042410612106323 0.300000011920928955 0.141595453023910522
0.194047927856445312 0.300000011920928955 0.161785528063774109
0.0574698075652122498 0.300000011920928955 0.0583846867084503174
0.186058938503265381 0.300000011920928955 0.125336825847625732
0.0118957348167896271 0.300000011920928955 0.0673939287662506104
0.367730617523193359 0.300000011920928955 0.192596957087516785
0.0156703181564807892 0.300000011920928955 0.0692664533853530884
0.126583278179168701 0.300000011920928955 0.1895323246717453
0.345928162336349487 0.300000011920928955 0.158933654427528381
0.234209701418876648 0.300000011920928955 0.152016669511795044
0.157517388463020325 0.300000011920928955 0.16325145959854126
0.277122437953948975 0.300000011920928955 0.167526185512542725
0.162823140621185303 0.300000011920928955 0.0952472686767578125
0.00944977253675460815 0.300000011920928955 0.101258948445320129
0.105591714382171631 0.300000011920928955 0.109711430966854095
0.304814338684082031 0.300000011920928955 0.14128422737121582
0.439465075731277466 0.300000011920928955 0.190979123115539551
0.309804409742355347 0.300000011920928955 0.182218492031097412
0.0330763012170791626 0.300000011920928955 0.0943464040756225586
0.183336645364761353 0.300000011920928955 0.0906180739402770996
0.0724104270339012146 0.300000011920928955 0.190604686737060547
0.0205554887652397156 0.300000011920928955 0.12398926168680191
0.177033752202987671 0.300000011920928955 0.199673548340797424
0.23474767804145813 0.300000011920928955 0.183493703603744507
0.15732090175151825 0.300000011920928955 0.127030745148658752
0.236737549304962158 0.300000011920928955 0.120530903339385986
0.342084378004074097 0.300000011920928955 0.172431334853172302
0.207037597894668579 0.300000011920928955 0.0971421599388122559
0.170179247856140137 0.300000011920928955 0.195607766509056091
0.319600790739059448 0.300000011920928955 0.17407207190990448
0.194123551249504089 0.300000011920928955 0.0971467718482017517
0.0355251431465148926 0.300000011920928955 0.140183761715888977
0.160769283771514893 0.300000011920928955 0.150622561573982239
0.0248496215790510178 0.300000011920928955 0.160767510533332825
0.358990997076034546 0.300000011920928955 0.18359336256980896
0.109886668622493744 0.300000011920928955 0.192865297198295593
0.289340615272521973 0.300000011920928955 0.169971555471420288
0.024676373228430748 0.300000011920928955 0.189012527465820312
0.0621637366712093353 0.300000011920928955 0.0915669351816177368
0.226648762822151184 0.300000011920928955 0.102020889520645142
0.332971930503845215 0.300000011920928955 0.162156417965888977
0.0247980374842882156 0.300000011920928955 0.139424756169319153
0.133935257792472839 0.300000011920928955 0.10113128274679184
0.0388837158679962158 0.300000011920928955 0.0825990363955497742
0.0264727696776390076 0.300000011920928955 0.091672159731388092
0.247770875692367554 0.300000011920928955 0.159081488847732544
0.172176972031593323 0.300000011920928955 0.183443084359169006
0.0273997895419597626 0.300000011920928955 0.0362113118171691895
0.312657028436660767 0.300000011920928955 0.178747430443763733
0 0.225256592035293579 0.0121561810374259949
0 0.0777001231908798218 0.0360161066055297852
0 0.0938412994146347046 0.0476843714714050293
0 0.275005936622619629 0.0107076000422239304
0 0.19708406925201416 0.0416975840926170349
0 0.232154816389083862 0.0690447837114334106
0 0.121564537286758423 0.00839310884475708008
0 0.286071032285690308 0.0326084643602371216
0 0.273907840251922607 0.0434684306383132935
0 0.232057839632034302 0.11208556592464447
0 0.0718072950839996338 0.00554299354553222656
0 0.0978519171476364136 0.0255567729473114014
0 0.0630450993776321411 0.0259308516979217529
0 0.219026550650596619 0.131605222821235657
0 0.180978715419769287 0.0319715514779090881
0 0.206789016723632812 0.076632574200630188
0 0.250495284795761108 0.0862371921539306641
0 0.261293292045593262 0.170811101794242859
0 0.096116870641708374 0.000914052128791809082
0 0.277756631374359131 0.0354879610240459442
0 0.182716846466064453 0.0256574451923370361
0 0.177293747663497925 0.0038388371467590332
0 0.167601853609085083 0.0908211395144462585
0 0.236974582076072693 0.151491627097129822
0 0.117533847689628601 0.00228537619113922119
0 0.226232528686523438 0.0391410030424594879
0 0.263266086578369141 0.016147935763001442
0 0.158493727445602417 0.0317563414573669434
0 0.23306196928024292 0.0562388412654399872
0 0.169549629092216492 0.102290913462638855
0 0.0493988096714019775 0.0305697917938232422
0 0.252366542816162109 0.0974748134613037109
0 0.269796639680862427 0.0784234404563903809
0 0.282505393028259277 0.0602889284491539001
0 0.160997137427330017 0.0765946805477142334
0 0.163111642003059387 0.0928963795304298401
0 0.134863972663879395 0.0606535226106643677
0 0.163652211427688599 0.00549177825450897217
0 0.214318633079528809 0.0709014832973480225
0 0.188977494835853577 0.00893226265907287598
0 0.177861601114273071 0.00129644572734832764
0 0.0571319907903671265 0.0195958465337753296
0 0.153558552265167236 0.074390701949596405
0 0.173758506774902344 0.0718038901686668396
0 0.184452325105667114 0.0304926559329032898
0 0.119683787226676941 0.00912959128618240356
0 0.201569497585296631 0.121751800179481506
0 0.211801409721374512 0.0457002334296703339
0 0.124628975987434387 0.0341042950749397278
0 0.11765366792678833 0.0534804463386535645
0 0.0611126869916915894 0.00493125617504119873
0 0.143679097294807434 0.00243115425109863281
0 0.232443958520889282 0.0800740867853164673
0 0.236008837819099426 0.120923109352588654
0 0.217256903648376465 0.120926618576049805
0 0.105858281254768372 0.0214207768440246582
0 0.148813143372535706 0.0685905143618583679
0 0.244671419262886047 0.0281108394265174866
0 0.25846824049949646 0.114227458834648132
0 0.188778132200241089 0.0751202404499053955
0 0.270871996879577637 0.0974364876747131348
0 0.109941840171813965 0.0258128046989440918
0 0.156222045421600342 0.0742693617939949036
0 0.13018779456615448 0.0105122625827789307
0 0.207740023732185364 0.126464739441871643
0 0.0751105248928070068 0.0206014961004257202
0 0.220239847898483276 0.040547545999288559
0 0.166751787066459656 0.0276997014880180359
0 0.089366525411605835 0.00923322141170501709
0 0.0665418952703475952 0.0189260095357894897
0 0.0559137314558029175 0.0315085500478744507
0 0.218086361885070801 0.132489874958992004
0 0.193180486559867859 0.0753028914332389832
0 0.101240605115890503 0.0616543889045715332
0 0.281688451766967773 0.0918149501085281372
0 0.139589369297027588 0.0289761647582054138
0 0.182873576879501343 0.0582744181156158447
0 0.247492477297782898 0.0436797626316547394
0 0.273764282464981079 0.154872685670852661
0 0.0976383090019226074 0.0271977335214614868
0 0.0907545685768127441 0.0144482254981994629
0 0.167282119393348694 0.0660271421074867249
0 0.204035848379135132 0.0592442452907562256
0 0.14367203414440155 0.0229536965489387512
0 0.213850736618041992 0.0245188139379024506
0 0.103161349892616272 0.0608682632446289062
0 0.0624642670154571533 0.0288866162300109863
0 0.210857778787612915 0.105367004871368408
0 0.26252448558807373 0.118726283311843872
0 0.249373793601989746 0.115706197917461395
0 0.0544788837432861328 0.0361599922180175781
0 0.277782291173934937 0.140596926212310791
0 0.182471662759780884 0.0435523688793182373
0 0.261536091566085815 0.017187049612402916
0 0.130726754665374756 0.0304512232542037964
0 0.194112375378608704 0.0249485820531845093
0 0.102997735142707825 0.0252330899238586426
0 0.113997310400009155 0.00623659789562225342
0 0.233521685004234314 0.0409045480191707611
0 0.13132689893245697 0.0365708693861961365
0 0.195168375968933105 0.111100412905216217
0 0.210827410221099854 0.00989554077386856079
0 0.11948336660861969 0.0630526021122932434
0 0.263699352741241455 0.102137573063373566
0 0.213702172040939331 0.0978204607963562012
0 0.281160742044448853 0.049071233719587326
0 0.207558900117874146 0.0213162191212177277
0 0.113085776567459106 0.0571368932723999023
0 0.244622156023979187 0.120360471308231354
0 0.141393452882766724 0.0252892225980758667
0 0.201029717922210693 0.0517009720206260681
0 0.170385956764221191 0.0513697192072868347
0 0.234814003109931946 0.101339034736156464
0 0.164256677031517029 0.0209132283926010132
0 0.0485667586326599121 0.0042600780725479126
0 0.210874170064926147 0.0816517770290374756
0 0.0497503280639648438 0.0141243487596511841
0 0.218096137046813965 0.0316045396029949188
0 0.297208160161972046 0.193408161401748657
0 0.1976948082447052 0.095223449170589447
0 0.250600099563598633 0.0591344200074672699
0 0.0351472795009613037 0.0116162896156311035
0 0.150867775082588196 0.016367591917514801
0 0.183661907911300659 0.1188788041472435
0 0.188837677240371704 0.040877901017665863
0 0.0766566246747970581 0.0430737435817718506
0 0.216871023178100586 0.079527437686920166
0 0.171511977910995483 0.0112474486231803894
0 0.17720988392829895 0.042920231819152832
0 0.284419238567352295 0.186867594718933105
0 0.112410902976989746 0.0741904675960540771
0 0.280781030654907227 0.000118345953524112701
0 0.274263530969619751 0.0623298510909080505
0 0.108892127871513367 0.0186126530170440674
0 0.221050664782524109 0.0325734838843345642
0 0.17436593770980835 0.00119338184595108032
0 0.183928072452545166 0.0555238202214241028
0 0.278039067983627319 0.0716064795851707458
0 0.198241353034973145 0.00231982022523880005
0 0.202310353517532349 0.0128300935029983521
0 0.275560587644577026 0.0531992539763450623
0 0.10481695830821991 0.0645947903394699097
0 0.0922506600618362427 0.0440154969692230225
0 0.137373447418212891 0.0452175289392471313
0 0.288073480129241943 0.183230578899383545
0 0.213308021426200867 0.10255943238735199
0 0.115354806184768677 0.0372826680541038513
0 0.287293046712875366 0.120651088654994965
0 0.0663269162178039551 0.00371062755584716797
0 0.14123004674911499 0.0470336079597473145
0 0.290607064962387085 0.113856174051761627
0 0.255727827548980713 0.133969619870185852
0 0.192943960428237915 0.0534513890743255615
0 0.209777623414993286 0.105916395783424377
0 0.0877962559461593628 0.0120521634817123413
0 0.289601892232894897 0.0457248538732528687
0 0.262465178966522217 0.166396304965019226
0 0.175879120826721191 0.00379423797130584717
0 0.233080267906188965 0.0709362030029296875
0 0.226247787475585938 0.0238780640065670013
0 0.092772260308265686 0.016369163990020752
0 0.289453715085983276 0.109759069979190826
0 0.165709435939788818 0.000359490513801574707
0 0.292570561170578003 0.182128459215164185
0 0.262880325317382812 0.140383660793304443
0 0.174801439046859741 0.0421077534556388855
0 0.228361427783966064 0.142853349447250366
0 0.295956581830978394 0.00759692396968603134
0 0.262324482202529907 0.0020785946398973465
0 0.222014442086219788 0.0452319048345088959
0 0.262880891561508179 0.0747325718402862549
0 0.229439035058021545 0.100256852805614471
0 0.216498032212257385 0.0076827220618724823
0 0.262431919574737549 0.0058142002671957016
0 0.137381017208099365 0.0507855936884880066
0 0.149644553661346436 0.0360315889120101929
0 0.144273608922958374 0.0724443197250366211
0 0.194869458675384521 0.10072655975818634
0 0.196219354867935181 0.0971328169107437134
0 0.187972545623779297 0.0482764244079589844
0 0.112231805920600891 0.0653205066919326782
0 0.0737260729074478149 0.0117093324661254883
0 0.177637338638305664 0.113616578280925751
0 0.25155341625213623 0.0541332997381687164
0 0.0623779445886611938 0.023354649543762207
0 0.250967711210250854 0.0647295266389846802
0 0.299199670553207397 0.0864210426807403564
0 0.107430949807167053 0.056111261248588562
0 0.141554251313209534 0.0364146456122398376
0 0.248911052942276001 0.0519523993134498596
0 0.288990288972854614 0.0381257981061935425
0 0.234371602535247803 0.117835268378257751
0 0.24274781346321106 0.126308202743530273
0 0.277977198362350464 0.17606198787689209
0 0.218275830149650574 0.112515732645988464
0 0.12658478319644928 0.0141495093703269958
0 0.185996323823928833 0.00893998146057128906
0 0.259856849908828735 0.122849471867084503
0 0.223276302218437195 0.0149515643715858459
0 0.282272934913635254 0.0828297883272171021
0 0.176880478858947754 0.104254350066184998
0 0.0740020275115966797 0.0302360206842422485
0 0.106985896825790405 0.00211779773235321045
0 0.127744793891906738 0.0430885255336761475
0 0.136210337281227112 0.0868692025542259216
0 0.291495829820632935 0.0450469702482223511
0 0.17776896059513092 0.0450905486941337585
0 0.235100716352462769 0.0136373229324817657
0 0.202862471342086792 0.126024007797241211
0 0.200731843709945679 0.112990736961364746
0 0.207254901528358459 0.118367463350296021
0 0.167095169425010681 0.075997181236743927
0 0.259951412677764893 0.0543347522616386414
0 0.127690479159355164 0.0141641572117805481
0 0.227045491337776184 0.0158259905874729156
0 0.241805583238601685 0.0136063583195209503
0 0.248256713151931763 0.0242861993610858917
0 0.276624977588653564 0.179671391844749451
0 0.13074532151222229 0.0194679424166679382
0 0.297253847122192383 0.087693437933921814
0 0.0867534130811691284 0.0185839533805847168
0 0.292499125003814697 0.162580221891403198
0 0.228087514638900757 0.121581166982650757
0 0.185726717114448547 0.0799244269728660583
0 0.134155839681625366 0.00608132779598236084
0 0.172828987240791321 0.0277158245444297791
0 0.239505797624588013 0.0984387993812561035
0 0.255148947238922119 0.1100320965051651
0 0.286437630653381348 0.0471636131405830383
0 0.214546501636505127 0.0697096437215805054
0 0.230504363775253296 0.0142160840332508087
0 0.161433786153793335 0.0363327562808990479
0 0.255249857902526855 0.0273433439433574677
0 0.0775810033082962036 0.0188638269901275635
0 0.0959043353796005249 0.0144112110137939453
0 0.209113284945487976 0.123002991080284119
0 0.0397002995014190674 0.0193466246128082275
0 0.26254725456237793 0.0683084353804588318
0 0.162440374493598938 0.0266863331198692322
0 0.158145561814308167 0.0691730901598930359
0 0.227374851703643799 0.0302007608115673065
0 0.191680625081062317 0.0212081074714660645
0 0.214274182915687561 0.00492122024297714233
0 0.246000200510025024 0.0381082259118556976
0 0.246993780136108398 0.0701890438795089722
0 0.247490555047988892 0.143945932388305664
0 0.103969097137451172 0.00862543284893035889
0 0.193640783429145813 0.106799043715000153
0 0.122277438640594482 0.000280007719993591309
0 0.114378929138183594 0.00704058259725570679
0 0.295654445886611938 0.0748143047094345093
0 0.122153490781784058 0.0433250740170478821
0 0.270292401313781738 0.0180607065558433533
0 0.296029478311538696 0.050207965075969696
0 0.14379844069480896 0.0457119941711425781
0 0.202684342861175537 0.111227311193943024
0 0.22234673798084259 0.00578034669160842896
0 0.253502219915390015 0.0723572075366973877
0 0.155523508787155151 0.0497142374515533447
0 0.129093647003173828 0.0505930632352828979
0 0.279678910970687866 0.0781042724847793579
0 0.266525328159332275 0.0442655272781848907
0 0.240368366241455078 0.0799323469400405884
0 0.237062707543373108 0.0387860573828220367
0 0.208999842405319214 0.104075267910957336
0 0.226510107517242432 0.0779658854007720947
0 0.269437640905380249 0.00197696313261985779
0 0.114097133278846741 0.0740430131554603577
0 0.250223070383071899 0.124319121241569519
0 0.293472945690155029 0.0470065027475357056
0 0.255156129598617554 0.105464525520801544
0 0.177701830863952637 0.0480300188064575195
0 0.148175105452537537 0.00109437108039855957
0 0.0786711722612380981 0.0339759886264801025
0 0.244768351316452026 0.161529079079627991
0 0.268019318580627441 0.0599873140454292297
0 0.227867618203163147 0.0335291773080825806
0 0.274996817111968994 0.104804188013076782
0 0.292936652898788452 0.166218861937522888
0 0.114996969699859619 0.0726356804370880127
0 0.254501700401306152 0.0144351478666067123
0 0.224686592817306519 0.0714318454265594482
0 0.183613210916519165 0.0343831926584243774
0 0.297543317079544067 0.0898870974779129028
0 0.0984076708555221558 0.0262954533100128174
0 0.227006435394287109 0.0775737911462783813
0 0.16580568253993988 0.0919445231556892395
0 0.193541884422302246 0.0724842175841331482
0 0.253903120756149292 0.148055925965309143
0 0.292493522167205811 0.00629210006445646286
0 0.152255669236183167 0.0728380903601646423
0 0.151434838771820068 0.0163585841655731201
0 0.291207194328308105 0.168781980872154236
0 0.190079420804977417 0.0108682364225387573
0 0.282644987106323242 0.168454557657241821
0 0.283088058233261108 0.130395665764808655
0 0.18873932957649231 0.10973106324672699
0 0.259539008140563965 0.06583385169506073
0 0.205474823713302612 0.098590560257434845
0 0.284153252840042114 0.137144416570663452
0 0.0463445782661437988 0.000202864408493041992
0 0.155773386359214783 0.0305383503437042236
0 0.236383035778999329 0.0701788514852523804
0 0.16080792248249054 0.0858512744307518005
0 0.261153668165206909 0.140263348817825317
0 0.280688464641571045 0.00454058777540922165
0 0.206626430153846741 0.00930173322558403015
0 0.068334624171257019 0.0104079246520996094
0 0.22920110821723938 0.0355482175946235657
0 0.268412083387374878 0.12069421261548996
0 0.122567161917686462 0.0668655708432197571
0 0.202546536922454834 0.114172957837581635
0 0.233589112758636475 0.0806246921420097351
0 0.205650165677070618 0.0424108952283859253
0 0.235660552978515625 0.0697893798351287842
0 0.101819679141044617 0.0637929588556289673
0 0.207922935485839844 0.0976658836007118225
0 0.140450090169906616 0.0241399630904197693
0 0.244300529360771179 0.0314219184219837189
0 0.138762161135673523 0.0479376092553138733
0 0.27574390172958374 0.0354272052645683289
0 0.0554488152265548706 0.0111342966556549072
0 0.028208613395690918 0.000892594456672668457
0 0.184963971376419067 0.0121782943606376648
0 0.169482529163360596 0.103983230888843536
0 0.192286491394042969 0.115050606429576874
0 0.294922202825546265 0.0043094949796795845
0 0.200836583971977234 0.0979282483458518982
0 0.22322392463684082 0.0411474667489528656
0 0.299986600875854492 0.0742094144225120544
0 0.210137337446212769 0.0805256813764572144
0 0.128165245056152344 0.0698177963495254517
0 0.253873080015182495 0.143810704350471497
0 0.261205136775970459 0.0968780964612960815
0 0.151029512286186218 0.00414178520441055298
0 0.188044771552085876 0.0905555859208106995
0 0.232840165495872498 0.0414376966655254364
0 0.101797774434089661 0.0427925735712051392
0 0.17570832371711731 0.0759872645139694214
0 0.207897663116455078 0.0646493881940841675
0 0.285278052091598511 0.10195980966091156
0 0.226121485233306885 0.0560455396771430969
0 0.0750300586223602295 0.0357179194688796997
0 0.198431447148323059 0.112681977450847626
0 0.103804081678390503 0.00903420150279998779
0 0.254619717597961426 0.0773736089468002319
0 0.248433053493499756 0.164533227682113647
0 0.139730572700500488 0.0483509600162506104
0 0.213228911161422729 0.0728347450494766235
0 0.109926119446754456 0.0152077376842498779
0 0.29581722617149353 0.127932444214820862
0 0.200997799634933472 0.103464744985103607
0 0.149679839611053467 0.0144690051674842834
0 0.121750622987747192 0.056757800281047821
0 0.14245547354221344 0.0143628865480422974
0 0.0380918979644775391 0.0173435062170028687
0 0.299807280302047729 0.0273961573839187622
0 0.26076546311378479 0.0524862706661224365
0 0.275608032941818237 0.147611439228057861
0 0.22115682065486908 0.0105766430497169495
0 0.283973604440689087 0.0504024848341941833
0 0.245269209146499634 0.109654590487480164
0 0.102964833378791809 0.0593826025724411011
0 0.155547469854354858 0.0570872053503990173
0 0.102967783808708191 0.0249787122011184692
0 0.174879223108291626 0.00622040033340454102
0 0.279243916273117065 0.078189365565776825
0 0.269760102033615112 0.0813982486724853516
0 0.21456553041934967 0.12813018262386322
0 0.111827656626701355 0.00149238109588623047
0 0.198436900973320007 0.0423950999975204468
0 0.122384354472160339 0.0266627296805381775
0 0.160124406218528748 0.0710388347506523132
0 0.287564307451248169 0.166165709495544434
0 0.256792932748794556 0.0726926699280738831
0 0.287685751914978027 0.172338992357254028
0 0.212049037218093872 0.0611072070896625519
0 0.228379040956497192 0.13548693060874939
0 0.234929487109184265 0.065095558762550354
0 0.245761871337890625 0.00262564048171043396
0 0.28602108359336853 0.104942649602890015
0 0.063042178750038147 0.030124858021736145
0 0.195577844977378845 0.0990499183535575867
0 0.106011331081390381 0.0481236129999160767
0 0.209699928760528564 0.0326319225132465363
0 0.21876680850982666 0.136737897992134094
0 0.205575168132781982 0.122127167880535126
0 0.291447490453720093 0.0209404248744249344
0 0.129216372966766357 0.0542622581124305725
0 0.096376374363899231 0.00643096864223480225
0 0.268377512693405151 0.0342810526490211487
0 0.144586116075515747 0.0946800410747528076
0 0.172558113932609558 0.0258300304412841797
0 0.137149453163146973 0.0418174788355827332
0 0.0597892254590988159 0.00338664650917053223
0 0.29720422625541687 0.0214757006615400314
0 0.269827753305435181 0.14656791090965271
0 0.24246571958065033 0.157221943140029907
0 0.283322155475616455 0.0232014097273349762
0 0.25590631365776062 0.161183550953865051
0 0.108092561364173889 0.00120565295219421387
0 0.217683658003807068 0.0237732790410518646
0 0.29779323935508728 0.064119294285774231
0 0.13020932674407959 0.0398135408759117126
0 0.22353459894657135 0.0962932929396629333
0 0.204912036657333374 0.101055555045604706
0 0.179764285683631897 0.0701125189661979675
0 0.117257848381996155 0.0161959007382392883
0 0.246210590004920959 0.127878457307815552
0 0.160064861178398132 0.0791036859154701233
0 0.251896023750305176 0.12028077244758606
0 0.27682030200958252 0.0518990084528923035
0 0.275926023721694946 0.00222221203148365021
0 0.229996755719184875 0.0147275961935520172
0 0.123056888580322266 0.0396172553300857544
0 0.189433157444000244 0.113956354558467865
0 0.284611612558364868 0.0702251344919204712
0 0.276384145021438599 0.0733219534158706665
0 0.158758282661437988 0.0534721016883850098
0 0.0373252332210540771 0.00322422385215759277
0 0.292880386114120483 0.024911932647228241
0 0.170743256807327271 0.025307774543762207
0 0.206744670867919922 0.0176306180655956268
0 0.288138538599014282 0.0652162507176399231
0 0.270921438932418823 0.114328935742378235
0 0.232870012521743774 0.0144188739359378815
0 0.0654237121343612671 0.0429743975400924683
0 0.146229550242424011 0.0468391254544258118
0 0.161886587738990784 0.0744319632649421692
0 0.263140618801116943 0.0187364127486944199
0 0.12589457631111145 0.0222562253475189209
0 0.257042258977890015 0.0695255398750305176
0 0.253903746604919434 0.100779995322227478
0 0.207356378436088562 0.120177581906318665
0 0.0678748041391372681 0.0352054685354232788
0 0.0934810638427734375 0.02548237144947052
0 0.277495414018630981 0.0411956235766410828
0 0.27971377968788147 0.167534708976745605
0 0.0966690033674240112 0.0421400517225265503
0 0.258766055107116699 0.054705493152141571
0 0.237569853663444519 0.134426504373550415
0 0.202290266752243042 0.0730718523263931274
0 0.284609407186508179 0.0627123713493347168
0 0.187759727239608765 0.0910356193780899048
0 0.137818753719329834 0.0570215210318565369
0 0.156283468008041382 0.0175042077898979187
0 0.172726869583129883 0.0832470878958702087
0 0.224483117461204529 0.0166822299361228943
0 0.0355208814144134521 0.0121076852083206177
