ply
format ascii 1.0
element vertex 702
property float x
property float y
property float z
end_header
5.97713288504617482e-15 0.021070798859000206 -0.0278998855501413345
5.92284611994017308e-15 0.00527641316875815392 -0.0331831388175487518
5.90804676028574595e-15 0.00690231192857027054 -0.0346234366297721863
6.12441751501359433e-15 0.0347721017897129059 -0.0135659929364919662
6.13152962715521506e-15 0.0322501882910728455 -0.0128738339990377426
6.05445301708686275e-15 0.0231560058891773224 -0.0203749909996986389
6.07752619457006989e-15 0.03623199462890625 -0.018129497766494751
5.9458705930289131e-15 0.0166568588465452194 -0.0309423506259918213
5.99421118684518965e-15 0.016769062727689743 -0.0262378081679344177
6.01901061747490106e-15 0.0361964330077171326 -0.0238243043422698975
6.10002889536330126e-15 0.0372024103999137878 -0.0159395337104797363
6.02113963478782474e-15 0.0195453688502311707 -0.0236171204596757889
5.93092596722403186e-15 0.00367506733164191246 -0.0323967970907688141
5.96568608179698021e-15 0.0125643759965896606 -0.0290138665586709976
6.01680197906493547e-15 0.032758370041847229 -0.0240392275154590607
6.17549106063418687e-15 0.0414469502866268158 -0.00859548524022102356
5.95007695864497796e-15 0.0216181166470050812 -0.0305329803377389908
5.93631902599919999e-15 0.0268931742757558823 -0.0318718999624252319
5.88868739875977529e-15 0.0177217870950698853 -0.036507483571767807
5.86721680761277328e-15 0.0206657703965902328 -0.0385970361530780792
5.83926387332043412e-15 0.0137846479192376137 -0.041317421942949295
5.92315571048239453e-15 0.0268103852868080139 -0.0331529900431632996
5.85619394435367945e-15 0.00475933775305747986 -0.0396697632968425751
5.8675259746385211e-15 0.0130753619596362114 -0.0385669581592082977
5.86404382219235867e-15 0.00612777145579457283 -0.038905799388885498
5.88493123115517609e-15 0.0138640487566590309 -0.0368730425834655762
5.87139013894389522e-15 0.0134326303377747536 -0.0381908416748046875
5.83196880206220646e-15 0.00518939783796668053 -0.0420274101197719574
6.04149764815860822e-15 -0.0374054424464702606 -0.0216358043253421783
6.16831457398857481e-15 -0.00349314883351325989 -0.00929388217628002167
6.20270538219652029e-15 -0.0377869047224521637 -0.00594693701714277267
6.19945743436027367e-15 -0.019053211435675621 -0.00626307912170886993
6.15639597338775955e-15 -0.018493087962269783 -0.0104538341984152794
6.14864901005217172e-15 -0.0266996100544929504 -0.0112077249214053154
6.13984537311488415e-15 -0.0196093004196882248 -0.0120645118877291679
6.18835706758650607e-15 -0.0326350927352905273 -0.00734333042055368423
6.1914008804824644e-15 -0.0295766275376081467 -0.00704711861908435822
6.17307532266861761e-15 -0.0244889780879020691 -0.00883056595921516418
6.16535927603560456e-15 -0.00830013304948806763 -0.00958149321377277374
6.18703188454052672e-15 0.00614078715443611145 -0.00747234327718615532
6.2208877914422811e-15 -0.0307296924293041229 -0.00417742785066366196
6.22272627645429656e-15 -0.0113155767321586609 -0.0039984947070479393
6.18693744036690786e-15 -0.022000141441822052 -0.0074815060943365097
6.16388459167443482e-15 -0.012906363233923912 -0.00972503796219825745
6.1785302148489353e-15 -0.0160743407905101776 -0.00829967763274908066
6.18148043060422203e-15 -0.00641086697578430176 -0.00801257602870464325
6.21136544704924826e-15 -0.0217538140714168549 -0.00510416552424430847
6.18754518650656282e-15 0.00312180072069168091 -0.00742235220968723297
6.12859169337766352e-15 -0.0327613204717636108 -0.0131597630679607391
6.22111733737098702e-15 0.0262508615851402283 -0.0041550900787115097
6.14362398709258559e-15 -0.0270790345966815948 -0.0116967642679810524
6.20164574397950516e-15 -0.0282223895192146301 -0.00605007866397500038
5.96581737190380462e-15 0.00498723750934004784 -0.0290011316537857056
5.93849674770659079e-15 -0.00111297005787491798 -0.0316599905490875244
5.94275520584891179e-15 0.00187348760664463043 -0.0312455520033836365
6.05149051935384083e-15 0.0100057385861873627 -0.0206633266061544418
5.99863439289575161e-15 0.00984149985015392303 -0.0258073396980762482
5.90434183817445564e-15 -0.0202150531113147736 -0.0349839888513088226
5.99366781520952602e-15 0.00121171865612268448 -0.0262907110154628754
5.90860664906388104e-15 -0.00123124755918979645 -0.0345689132809638977
6.05166500814097522e-15 0.014448908157646656 -0.0206463392823934555
6.07777606928950991e-15 0.0138379484415054321 -0.0181051604449748993
6.01698451466506877e-15 0.00738697918131947517 -0.0240214858204126358
6.1327298728414744e-15 0.0271928943693637848 -0.0127570480108261108
6.04284273647884805e-15 0.0146260634064674377 -0.0215049032121896744
6.01109043590159972e-15 0.00684476271271705627 -0.0245951078832149506
5.96749153252405275e-15 -0.00129886996001005173 -0.0288381949067115784
6.14271935590491799e-15 0.0284701939672231674 -0.0117848459631204605
6.05214739340443654e-15 0.00974636618047952652 -0.0205993782728910446
5.90327711775975698e-15 -0.00866134464740753174 -0.0350876189768314362
6.14154748582239167e-15 0.0325365886092185974 -0.0118989022448658943
5.93702968664194634e-15 -0.0138612361624836922 -0.0318027772009372711
5.90691173613642519e-15 -0.0160683281719684601 -0.0347338803112506866
6.02703413706776742e-15 -0.0107803791761398315 -0.0230434387922286987
6.16455628880160748e-15 0.0220761522650718689 -0.00965967774391174316
6.18398383647983212e-15 0.0204236060380935669 -0.00776896625757217407
5.94602941170652328e-15 -0.015924748033285141 -0.0309268888086080551
6.12702383539229581e-15 -0.00982640683650970459 -0.0133123407140374184
6.0082884509120825e-15 -0.00996505841612815857 -0.0248677898198366165
6.13175154978739569e-15 -0.0194906014949083328 -0.0128522496670484543
6.08040737714015539e-15 -0.0153299011290073395 -0.0178490728139877319
6.19806533571146123e-15 0.0323363319039344788 -0.00639851577579975128
6.10442245526070931e-15 0.0108758658170700073 -0.0155119039118289948
6.07559707703269822e-15 -0.0354555584490299225 -0.0183172319084405899
6.05121057496477328e-15 0.0073014087975025177 -0.0206905901432037354
6.13818815315358111e-15 -0.0089305732399225235 -0.0122258113697171211
6.05681962714149126e-15 -0.0346482433378696442 -0.0201446712017059326
6.1126289339701826e-15 0.0152044612914323807 -0.0147132836282253265
6.11423236733933499e-15 0.0126401204615831375 -0.0145572349429130554
6.11882243888050605e-15 0.0196555666625499725 -0.0141105335205793381
6.05991765014607386e-15 -0.0376189723610877991 -0.0198431573808193207
6.1000216955832496e-15 -0.00544713996350765228 -0.0159402303397655487
6.11500867303549356e-15 -0.0326806269586086273 -0.014481646940112114
6.11013992765467584e-15 0.00129273161292076111 -0.014955516904592514
6.09061666525341147e-15 0.00947144255042076111 -0.0168555025011301041
6.14990473639647622e-15 -0.00505495630204677582 -0.0110855353996157646
6.16559898635967753e-15 0.029270075261592865 -0.00955817475914955139
5.92083653427281226e-15 -0.0208958219736814499 -0.0333786867558956146
6.0126578703704938e-15 -0.0159958992153406143 -0.0244425460696220398
5.98100382561512697e-15 -0.0137733202427625656 -0.0275231637060642242
6.1538743563037835e-15 -0.000449113547801971436 -0.0106992181390523911
6.03026345017917444e-15 -0.0137493554502725601 -0.0227291621267795563
6.08159745843104768e-15 -0.0302144885063171387 -0.0177332647144794464
5.95669398002892855e-15 -0.0194337014108896255 -0.0298889968544244766
5.97131969792916856e-15 -0.016827709972858429 -0.02846560999751091
6.05746379569787816e-15 0.00161717645823955536 -0.0200820080935955048
6.14996021705452138e-15 -0.00787062570452690125 -0.0110801253467798233
5.97693467933651731e-15 -0.0085104331374168396 -0.0279191546142101288
6.12411173611963552e-15 0.00401774048805236816 -0.0135957542806863785
6.06113907165601457e-15 -0.00841724500060081482 -0.0197242889553308487
6.09270968366607685e-15 -0.0281744878739118576 -0.0166518278419971466
6.04617369354392559e-15 -0.0301203466951847076 -0.0211807563900947571
6.03015121831366324e-15 -0.0164109505712985992 -0.0227400641888380051
6.15028590122274066e-15 -0.00284089520573616028 -0.0110484287142753601
6.05698861021446849e-15 -0.0299223829060792923 -0.0201282314956188202
5.98811932588853672e-15 -0.00662647001445293427 -0.0268306545913219452
6.11225581595691708e-15 -0.0247091054916381836 -0.0147495521232485771
6.07931131650640832e-15 -0.00305959209799766541 -0.0179557465016841888
5.87824983526723417e-15 -0.0236164405941963196 -0.0375232808291912079
5.85380742902479045e-15 -0.0002598536666482687 -0.03990202397108078
5.82385295587808938e-15 -0.00628341222181916237 -0.0428172163665294647
5.80799395800664711e-15 -0.000544649898074567318 -0.0443606488406658173
6.29189159879529371e-15 -0.00639275833964347839 0.00273271696642041206
6.47825832894902663e-15 0.0216544270515441895 0.020870136097073555
6.42308133221546063e-15 -0.00967377237975597382 0.015500243753194809
6.40393796409103981e-15 0.0146689750254154205 0.0136371785774827003
6.35287373583286706e-15 0.0178220532834529877 0.00866755470633506775
6.46455164179655754e-15 0.0226023104041814804 0.019536169245839119
6.31779979555296099e-15 -0.017722204327583313 0.00525413919240236282
6.48087439020662154e-15 0.000114703550934791565 0.0211247093975543976
6.35231765870299461e-15 -0.000789593905210494995 0.0086134299635887146
6.2780925850515739e-15 0.0234763063490390778 0.00138979428447782993
6.35930525700136896e-15 0.0339946821331977844 0.00929350592195987701
6.34976343085054927e-15 0.0312409624457359314 0.00836484972387552261
6.50002453459462039e-15 0.0187481138855218887 0.022988390177488327
6.2868123657270833e-15 -0.00768406316637992859 0.0022384030744433403
6.35564056895507323e-15 -0.0301587954163551331 0.00893681589514017105
6.52157220573982253e-15 -0.000805471092462539673 0.0250854659825563431
6.34967449239108757e-15 0.000143464654684066772 0.00835622567683458328
6.64097081701773596e-15 0.00460859481245279312 0.03670545294880867
6.36378097909466069e-15 -0.00057747960090637207 0.00972904730588197708
6.50201760311950976e-15 0.0111230369657278061 0.0231823734939098358
6.31449213189393295e-15 -0.00216218084096908569 0.00493223080411553383
6.3864060761487703e-15 -0.00801568850874900818 0.0119309592992067337
6.29896644148723525e-15 -0.0290837325155735016 0.00342126283794641495
6.27722861144537451e-15 -0.000292114913463592529 0.00130569294560700655
6.50938382514530678e-15 0.0188873838633298874 0.0238992981612682343
6.3273043522541015e-15 0.0279130637645721436 0.0061791115440428257
6.26665891081306173e-15 0.0361806899309158325 0.000277071259915828705
6.45891463753258017e-15 -0.0129268011078238487 0.0189875960350036621
6.40200842303719451e-15 -0.0230332259088754654 0.0134494248777627945
6.47563167977959105e-15 -0.0202528275549411774 0.0206144582480192184
6.6647614314072675e-15 0.00515386555343866348 0.0390207730233669281
6.28191482122605893e-15 -0.0340051986277103424 0.00176178442779928446
6.57989550635596464e-15 0.0113574322313070297 0.0307615548372268677
6.31246433501820615e-15 0.0240693800151348114 0.00473488261923193932
6.57018130900037869e-15 0.00250775180757045746 0.0298161283135414124
6.28671368638872817e-15 -0.00544231012463569641 0.00222880975343286991
6.23482698913877149e-15 -0.0348092131316661835 -0.00282083777710795403
6.274862001390746e-15 0.0134765319526195526 0.00107541680335998535
6.29253788493404874e-15 0.0366138368844985962 0.00279561826027929783
6.36281663208421167e-15 0.0341500639915466309 0.00963525008410215378
6.46027624299529146e-15 0.0177559442818164825 0.0191200971603393555
6.34586369116139047e-15 0.00873279944062232971 0.00798533391207456589
6.54444505993100403e-15 -0.00295887421816587448 0.0273114778101444244
6.28261065879222834e-15 -0.0274957139045000076 0.00182953150942921638
6.31409444992519706e-15 0.0197830051183700562 0.004893522709608078
6.41627584600074595e-15 -0.000319277867674827576 0.0148379374295473099
6.47775603841130483e-15 0.0119236968457698822 0.020821206271648407
6.35105134444684943e-15 0.0212161540985107422 0.00849023181945085526
6.30644108373028082e-15 0.039133761078119278 0.00414869189262390137
6.34428439823123483e-15 -0.0164640061557292938 0.00783165730535984039
6.32559461625006869e-15 0.0272354669868946075 0.00601274752989411354
6.44325215130490091e-15 0.00531853176653385162 0.0174632910639047623
6.34343185956982338e-15 -0.00546716339886188507 0.00774864805862307549
6.44626758859712622e-15 -0.0183455199003219604 0.0177567414939403534
6.50458580701558479e-15 -0.00711453799158334732 0.0234323050826787949
6.39096480747089295e-15 0.0141499992460012436 0.0123746162280440331
6.50855034472520855e-15 0.00268651731312274933 0.0238181501626968384
6.47704918941682112e-15 0.0110960472375154495 0.0207524225115776062
6.43322878692356714e-15 0.00741294212639331818 0.0164878014475107193
6.48213562226508319e-15 -0.0074919871985912323 0.0212474893778562546
6.4557734158476876e-15 -0.00454098731279373169 0.0186818484216928482
6.39986542968064114e-15 0.00357015803456306458 0.0132408784702420235
6.23502773594727076e-15 -0.0321986004710197449 -0.0028013202827423811
6.26709979146210759e-15 -0.00822528451681137085 0.000319927348755300045
6.61194257439885746e-15 0.00944289006292819977 0.0338803902268409729
6.66063214578940278e-15 0.00213142437860369682 0.0386188812553882599
6.30922655157732659e-15 0.0191670171916484833 0.00441976916044950485
6.28414632952560039e-15 0.00993064790964126587 0.00197894824668765068
6.25663004071757081e-15 0.0175198763608932495 -0.000698975753039121628
6.34204145498690544e-15 0.0138521008193492889 0.00761336879804730415
6.57470912361992656e-15 0.00704872608184814453 0.0302567910403013229
6.32097616910516462e-15 0.0344957970082759857 0.00556328427046537399
6.46259414865545286e-15 0.0244192406535148621 0.0193456262350082397
6.58571081105533904e-15 -0.0037638125941157341 0.031327512115240097
6.40421960254600187e-15 -0.0214833281934261322 0.0136646172031760216
6.38941600772683846e-15 0.000660009682178497314 0.0122238658368587494
6.48161215590368003e-15 -0.0168522261083126068 0.0211965031921863556
6.34469944437538944e-15 0.0173873975872993469 0.00787201337516307831
6.24536746713440401e-15 -0.0339973270893096924 -0.00179504603147506714
6.27805319801952658e-15 0.0328216478228569031 0.00138598191551864147
6.35106362642458462e-15 -0.00639157555997371674 0.00849139038473367691
6.39456893266146e-15 0.0284111499786376953 0.0127253811806440353
6.53895035720216539e-15 0.00284724310040473938 0.0267767086625099182
6.57852712462967532e-15 0.00309078209102153778 0.0306283570826053619
6.24789458993253721e-15 0.000870358198881149292 -0.00154911191202700138
6.45001909752051551e-15 -0.00277479551732540131 0.0181218478828668594
6.36582614014580619e-15 -0.0254051834344863892 0.0099280746653676033
6.34894773812234338e-15 0.035657927393913269 0.00828546471893787384
6.24296062301478091e-15 -0.0355553179979324341 -0.00202930858358740807
6.32045736142497136e-15 0.028741445392370224 0.00551276421174407005
6.29113011617571209e-15 -0.0252509322017431259 0.00265860208310186863
6.34427084570407876e-15 0.00491715595126152039 0.00783029664307832718
0.00519045442342758179 -0.0401049032807350159 -0.0223166290670633316
0.0741521716117858887 -0.0574736595153808594 -0.0312623754143714905
0.0701217353343963623 -0.0565252155065536499 -0.0306114871054887772
0.05205574631690979 -0.0519937053322792053 -0.0282322168350219727
0.110125072300434113 -0.065894491970539093 -0.0371569357812404633
0.0577939189970493317 -0.0530259422957897186 -0.0297699086368083954
0.0413280725479125977 -0.0486868545413017273 -0.0280027519911527634
0.0858982652425765991 -0.0596331506967544556 -0.0343207418918609619
0.0867487117648124695 -0.0603127293288707733 -0.033537060022354126
0.00839021801948547363 -0.0405961349606513977 -0.023336164653301239
0.0642326846718788147 -0.0544947050511837006 -0.0308988951146602631
0.0957010164856910706 -0.0624382682144641876 -0.034946538507938385
0.0594554208219051361 -0.0536097362637519836 -0.0296678356826305389
0.0122497659176588058 -0.0412025824189186096 -0.0244336016476154327
0.0077018439769744873 -0.0393033847212791443 -0.0250167660415172577
0.016659952700138092 -0.0415878891944885254 -0.0261541493237018585
0.0183700248599052429 -0.0415852963924407959 -0.0270598828792572021
0.000186089426279067993 -0.0377918034791946411 -0.0234266482293605804
0.00422476232051849365 -0.038016095757484436 -0.0252040456980466843
0.00356827676296234131 -0.0374806486070156097 -0.0256983861327171326
0.0263745766133069992 -0.0447668805718421936 -0.0262863524258136749
0.0394444018602371216 -0.0468820631504058838 -0.0298574939370155334
0.0224738791584968567 -0.0428798049688339233 -0.0271917581558227539
0.0867454782128334045 -0.0590488575398921967 -0.0356998592615127563
0.0307003334164619446 -0.0444481596350669861 -0.0290674790740013123
0.02554311603307724 -0.0444241948425769806 -0.0263858605176210403
0.051520027220249176 -0.0536666512489318848 -0.0246205553412437439
0.117926299571990967 -0.0706850886344909668 -0.0326951220631599426
0.0187499299645423889 -0.0454535894095897675 -0.0201888531446456909
0.105883084237575531 -0.0678534060716629028 -0.0306158047169446945
0.00896874070167541504 -0.0427243411540985107 -0.019536798819899559
0.0827318578958511353 -0.0617311261594295502 -0.0282573811709880829
0.00255727767944335938 -0.0413438566029071808 -0.0181231647729873657
0.065649963915348053 -0.0577503740787506104 -0.0252219978719949722
0.00712221115827560425 -0.0427202470600605011 -0.0181796830147504807
0.0305678248405456543 -0.0485419481992721558 -0.0214816983789205551
0.0207473337650299072 -0.045815788209438324 -0.0207930952310562134
0.0339098423719406128 -0.0492095984518527985 -0.0223439652472734451
0.0706196427345275879 -0.0589445009827613831 -0.0260181725025177002
0.00957225076854228973 -0.0471038706600666046 -0.00138671440072357655
0.0102813271805644035 -0.0472623445093631744 -0.00236243847757577896
0.00271836505271494389 -0.045159999281167984 -0.00139365252107381821
0.0503667667508125305 -0.0585448555648326874 -0.00429955031722784042
0.101781822741031647 -0.0730566829442977905 -0.00585723668336868286
0.0536574274301528931 -0.0594438761472702026 -0.00508096860721707344
0.0896727666258811951 -0.0696629136800765991 -0.00494088465347886086
0.00756631605327129364 -0.0465773418545722961 -0.000418006675317883492
0.00580956647172570229 -0.0460129901766777039 -0.0019338708370923996
0.0480855926871299744 -0.0579128153622150421 -0.00395969487726688385
0.0251632928848266602 -0.0514498017728328705 -0.00311012659221887589
0.0718799680471420288 -0.0645952671766281128 -0.00544737279415130615
0.0280573144555091858 -0.0498153865337371826 -0.0161174014210700989
0.00328747928142547607 -0.0432574711740016937 -0.0135802458971738815
0.0148111935704946518 -0.0466861128807067871 -0.0135627090930938721
0.0217394009232521057 -0.0480766817927360535 -0.0156796108931303024
0.0254922434687614441 -0.0493095740675926208 -0.0153050217777490616
0.0790215954184532166 -0.0628591179847717285 -0.0227625370025634766
0.0081196911633014679 -0.0448488965630531311 -0.0130854267627000809
0.0806417465209960938 -0.0637014061212539673 -0.021617518737912178
0.0198101550340652466 -0.047480754554271698 -0.0157520771026611328
0.102114520967006683 -0.0691477805376052856 -0.0245737899094820023
0.014412708580493927 -0.0456220470368862152 -0.0165620744228363037
0.0388040952384471893 -0.0524985939264297485 -0.0177321247756481171
0.00674605090171098709 -0.0448144041001796722 -0.0118589010089635849
0.00346865109167993069 -0.044105086475610733 -0.0107685783877968788
0.011078578419983387 -0.0467326603829860687 -0.00887712277472019196
0.0652614608407020569 -0.0608890391886234283 -0.0159427355974912643
0.0536257699131965637 -0.0577033683657646179 -0.0150822121649980545
0.0680039674043655396 -0.0615756474435329437 -0.0164353698492050171
0.0930546298623085022 -0.0686684399843215942 -0.0172310993075370789
0.0763972476124763489 -0.0641324743628501892 -0.0158883742988109589
0.0888659283518791199 -0.067472018301486969 -0.0171451400965452194
0.0207871999591588974 -0.0493198484182357788 -0.00991485826671123505
0.0438378341495990753 -0.0551917962729930878 -0.0135995913296937943
0.0729852020740509033 -0.0630437657237052917 -0.0163331218063831329
0.00556406797841191292 -0.0444702282547950745 -0.0118642579764127731
0.116013690829277039 -0.0762284696102142334 -0.013010585680603981
0.088942304253578186 -0.0687883198261260986 -0.0107668843120336533
0.060202229768037796 -0.0608230233192443848 -0.00889019668102264404
0.0481628179550170898 -0.0572753697633743286 -0.00970626063644886017
0.0633349046111106873 -0.0617133155465126038 -0.00892707053571939468
0.0177878774702548981 -0.0487509630620479584 -0.00852808170020580292
0.00642901845276355743 -0.0457272790372371674 -0.00684129586443305016
0.0903272181749343872 -0.0691253021359443665 -0.0112131098285317421
0.0619339458644390106 -0.0612502880394458771 -0.00940339639782905579
0.000836487801279872656 -0.0441458411514759064 -0.0067151850089430809
0.00280601391568779945 -0.0447501316666603088 -0.00639989972114562988
0.0908435508608818054 -0.0691621974110603333 -0.0120535707101225853
0.100395917892456055 -0.0590655989944934845 -0.0426934435963630676
0.00939046218991279602 -0.0379436127841472626 -0.0278686098754405975
0.0344367325305938721 -0.044121868908405304 -0.031472817063331604
0.0113110244274139404 -0.0387720093131065369 -0.0276827998459339142
0.118270300328731537 -0.0636050626635551453 -0.0450957566499710083
0.00150071829557418823 -0.035460643470287323 -0.0274327956140041351
0.0701641961932182312 -0.0521857067942619324 -0.0375904478132724762
0.00265599880367517471 -0.0369479358196258545 -0.0260321572422981262
0.0332916900515556335 -0.0427833497524261475 -0.0326843373477458954
0.0285677630454301834 -0.0427046418190002441 -0.0305885300040245056
0.0868499353528022766 -0.0564653761684894562 -0.0397781766951084137
0.00508817285299301147 -0.035985894501209259 -0.0284177865833044052
0.016554221510887146 -0.0353893972933292389 -0.0340527892112731934
0.0793849527835845947 -0.050289742648601532 -0.0441393107175827026
0.0989090204238891602 -0.055227227509021759 -0.0469381958246231079
0.0709547623991966248 -0.0482634194195270538 -0.0428155362606048584
0.060988355427980423 -0.0461888350546360016 -0.0409002453088760376
0.066006392240524292 -0.0474069193005561829 -0.0416752062737941742
0.0212984699755907059 -0.0383518524467945099 -0.032809283584356308
0.004285421222448349 -0.0348771922290325165 -0.0294669698923826218
0.056364208459854126 -0.0455004721879959106 -0.0397123768925666809
0.013930492103099823 -0.03548431396484375 -0.0328489691019058228
0.0696538686752319336 -0.0480563938617706299 -0.0424959547817707062
0.106917768716812134 -0.056925404816865921 -0.0484433397650718689
0.00474565476179122925 -0.0332834720611572266 -0.0313992053270339966
0.0736180469393730164 -0.0405572094023227692 -0.0511425808072090149
0.0932443439960479736 -0.0454726070165634155 -0.0543792843818664551
0.0544603355228900909 -0.0372291505336761475 -0.0468551889061927795
0.0728057324886322021 -0.0411335453391075134 -0.0504102632403373718
0.048662286251783371 -0.036710590124130249 -0.045182645320892334
0.0348603017628192902 -0.0341730602085590363 -0.0422011576592922211
0.0246216971427202225 -0.0308082662522792816 -0.0411269143223762512
0.00427536433562636375 -0.0290533546358346939 -0.0352079570293426514
0.0350477583706378937 -0.0329033359885215759 -0.0432423911988735199
0.0743368417024612427 -0.0420184098184108734 -0.0502780377864837646
0.046979658305644989 -0.0352486073970794678 -0.0457036122679710388
0.0032927393913269043 -0.028319135308265686 -0.0354204513132572174
0.0100293289870023727 -0.0298823211342096329 -0.0366265736520290375
0.0496836006641387939 -0.0412885621190071106 -0.0414891168475151062
0.0120756886899471283 -0.0329380184412002563 -0.0346900001168251038
0.045108254998922348 -0.0401064865291118622 -0.0408141985535621643
0.0998289436101913452 -0.0507284551858901978 -0.052107587456703186
0.0162038281559944153 -0.0336343944072723389 -0.0356381461024284363
0.03743792325258255 -0.0379699021577835083 -0.0398246608674526215
0.00304026622325181961 -0.0298982467502355576 -0.0340035483241081238
0.00760930124670267105 -0.0307224728167057037 -0.03500395268201828
0.00375953572802245617 -0.030183134600520134 -0.0340188778936862946
0.0304194428026676178 -0.0362442098557949066 -0.0387090891599655151
0.0458133183419704437 -0.0395516902208328247 -0.0415934957563877106
0.0437820442020893097 -0.0382771268486976624 -0.0419808998703956604
0.0665058344602584839 -0.0446218289434909821 -0.0448987483978271484
0.0289892219007015228 -0.0249126702547073364 -0.0463545583188533783
0.0241496246308088303 -0.0240422431379556656 -0.0452619567513465881
0.127100318670272827 -0.0400673002004623413 -0.0698011666536331177
0.0830554813146591187 -0.033107902854681015 -0.0593565590679645538
0.0259187240153551102 -0.0244221314787864685 -0.0456292293965816498
0.0371548682451248169 -0.0256124995648860931 -0.048598267138004303
0.0682757571339607239 -0.0311463512480258942 -0.0556571930646896362
0.110817626118659973 -0.0375291630625724792 -0.0659219175577163696
0.0146318245679140091 -0.021686989814043045 -0.0434481464326381683
0.0484253615140914917 -0.0282132755964994431 -0.0508440583944320679
0.0403105095028877258 -0.0278385207056999207 -0.0484473481774330139
0.0870595201849937439 -0.0336947590112686157 -0.0603299066424369812
0.0846138224005699158 -0.0171885117888450623 -0.066228523850440979
0.0274841543287038803 -0.0134433601051568985 -0.050480920821428299
0.0543322600424289703 -0.013774331659078598 -0.0581983290612697601
0.0547533519566059113 -0.0143739962950348854 -0.058187577873468399
0.0901928842067718506 -0.0179806221276521683 -0.067671850323677063
0.00229756277985870838 -0.00850189756602048874 -0.0442677699029445648
0.0798531770706176758 -0.0166192017495632172 -0.064973294734954834
0.00725413719192147255 -0.00951068568974733353 -0.0454824268817901611
0.0439645275473594666 -0.0146803632378578186 -0.054988957941532135
0.0265990123152732849 -0.0128034921362996101 -0.0503659248352050781
0.0316278189420700073 -0.0127247478812932968 -0.0518426410853862762
0.114272519946098328 -0.0192197468131780624 -0.0743845701217651367
0.0127417063340544701 -0.00920272897928953171 -0.0471430830657482147
0.0396705567836761475 -0.0164130330085754395 -0.053171887993812561
0.0908107683062553406 -0.0235714465379714966 -0.0661060437560081482
0.0132012544199824333 -0.0144024668261408806 -0.0459431111812591553
0.0340978130698204041 -0.0171033889055252075 -0.0512988343834877014
0.0209318660199642181 -0.0143637228757143021 -0.0482517033815383911
0.0708124935626983643 -0.020680014044046402 -0.0610772222280502319
0.0781740322709083557 -0.0224815104156732559 -0.0626959577202796936
0.00336592830717563629 -0.0136756692081689835 -0.0432506874203681946
0.00415137503296136856 -0.0148778185248374939 -0.0431049689650535583
0.0619064792990684509 -0.0196509957313537598 -0.0587561391294002533
0.106997422873973846 -0.0248384624719619751 -0.0705147981643676758
0.0037393900565803051 -0.0154125634580850601 -0.0428139828145503998
0.0323762074112892151 -0.0209998972713947296 -0.0492960475385189056
0.112151555716991425 -0.0316418632864952087 -0.0693505853414535522
0.0294953770935535431 -0.0200300198048353195 -0.0488143973052501678
0.0600086525082588196 -0.0257188566029071808 -0.055814698338508606
0.0645049884915351868 -0.0246343109756708145 -0.0576427020132541656
0.0213322993367910385 -0.0192173458635807037 -0.0466478653252124786
0.0397618412971496582 -0.0216015279293060303 -0.0513115972280502319
0.00565742515027523041 -0.0185731556266546249 -0.0421080999076366425
0.00913550611585378647 -0.0185945741832256317 -0.0431657582521438599
0.0615737587213516235 -0.024731053039431572 -0.0567037872970104218
0.0921839997172355652 -0.0295240823179483414 -0.0641048774123191833
0.0611586831510066986 -0.025623813271522522 -0.0562067180871963501
0.0461244881153106689 -0.0320044569671154022 -0.0477581918239593506
0.0243040118366479874 -0.0290932618081569672 -0.0422831624746322632
0.0243409853428602219 -0.0281377397477626801 -0.0429043173789978027
0.0443444214761257172 -0.0307191666215658188 -0.0479790717363357544
0.0601348802447319031 -0.035084649920463562 -0.0505020841956138611
0.104713723063468933 -0.0420635566115379333 -0.0610304027795791626
0.0507378429174423218 -0.0318245589733123779 -0.0494224578142166138
0.0208601951599121094 -0.0276686791330575943 -0.0420339182019233704
0.00573600223287940025 -0.0240338761359453201 -0.0392692163586616516
0.0807502567768096924 -0.0376762673258781433 -0.0557759031653404236
0.0422891415655612946 -0.0311681982129812241 -0.0470026247203350067
0.0549314245581626892 -0.03289002925157547 -0.0501523353159427643
0.00688000116497278214 -0.00740343751385807991 -0.045782141387462616
0.00525750499218702316 -0.00744830071926116943 -0.0453126095235347748
0.0572631284594535828 -0.010106237605214119 -0.0598230883479118347
0.0257340464740991592 -0.00709418812766671181 -0.0512103214859962463
0.0446457900106906891 -0.00778829073533415794 -0.0565228983759880066
0.00167775072623044252 -0.00726485159248113632 -0.0443138629198074341
0.0189893115311861038 -0.00769008323550224304 -0.0492045879364013672
0.0417533330619335175 -0.00796143990010023117 -0.0556735917925834656
0.0248589944094419479 -0.00603110762313008308 -0.0511002354323863983
0.11327352374792099 -0.0132058029994368553 -0.0754197761416435242
0.0973699763417243958 -0.0115910656750202179 -0.0710879862308502197
0.00460789026692509651 -0.00623998371884226799 -0.0452860631048679352
0.0321622565388679504 -0.0485312864184379578 -0.0226779915392398834
0.131395190954208374 -0.0709251910448074341 -0.0405431278049945831
0.0868631452322006226 -0.0618533678352832794 -0.0306477285921573639
0.131507754325866699 -0.0715650171041488647 -0.0393831059336662292
0.0892516672611236572 -0.0619123727083206177 -0.0319998413324356079
0.0319041162729263306 -0.0483744144439697266 -0.0228209663182497025
0.105848394334316254 -0.0660922378301620483 -0.0341531634330749512
0.139865309000015259 -0.0732642114162445068 -0.0412466898560523987
0.0906639173626899719 -0.0617978796362876892 -0.0330862477421760559
0.0628254935145378113 -0.0558096170425415039 -0.0275096036493778229
0.055279172956943512 -0.0543466284871101379 -0.0256899967789649963
0.112361490726470947 -0.068555876612663269 -0.0334166064858436584
0.122918181121349335 -0.0695782452821731567 -0.0379296056926250458
0.121181733906269073 -0.0694161355495452881 -0.0371756292879581451
0.0958980768918991089 -0.0634740144014358521 -0.0330777987837791443
0.0424638614058494568 -0.0503209009766578674 -0.0255606342107057571
0.0184557139873504639 -0.0448461100459098816 -0.0213476419448852539
0.052408851683139801 -0.053246617317199707 -0.0260420404374599457
0.0969911515712738037 -0.0630640536546707153 -0.0345359742641448975
0.0988778024911880493 -0.0640647560358047485 -0.0337711796164512634
0.0487772375345230103 -0.052243795245885849 -0.0257402956485748291
0.133784860372543335 -0.0719020366668701172 -0.0401327870786190033
0.10177360475063324 -0.0656844228506088257 -0.0324365198612213135
0.0857997536659240723 -0.0620470717549324036 -0.0296231880784034729
0.0938191264867782593 -0.0572865121066570282 -0.0419513285160064697
0.119128957390785217 -0.0605458095669746399 -0.0494822561740875244
0.0262394174933433533 -0.0403465777635574341 -0.0325780585408210754
0.0760145857930183411 -0.0523429252207279205 -0.0401081740856170654
0.0696775242686271667 -0.0509145520627498627 -0.0390205532312393188
0.104250416159629822 -0.057711385190486908 -0.0462520718574523926
0.121719688177108765 -0.0640608221292495728 -0.0461070574820041656
0.105986565351486206 -0.0583084374666213989 -0.0462819337844848633
0.129556000232696533 -0.0651790201663970947 -0.0482966117560863495
0.130601927638053894 -0.0660777762532234192 -0.0476120747625827789
0.124717064201831818 -0.0641001313924789429 -0.0474507324397563934
0.101572193205356598 -0.0569626986980438232 -0.0459813997149467468
0.122159689664840698 -0.0627436265349388123 -0.0480284281075000763
0.0859085917472839355 -0.0537749379873275757 -0.0428463481366634369
0.134086444973945618 -0.0644713416695594788 -0.0513272210955619812
0.0876764804124832153 -0.053576592355966568 -0.0439275652170181274
0.136130362749099731 -0.0673197433352470398 -0.0485663004219532013
0.12816329300403595 -0.063316933810710907 -0.0500751994550228119
0.134860232472419739 -0.0668451935052871704 -0.048593670129776001
0.132045149803161621 -0.0633073821663856506 -0.0518941618502140045
0.115524962544441223 -0.0626640021800994873 -0.0450445711612701416
0.0971392542123794556 -0.0582171082496643066 -0.0422836579382419586
0.0934436395764350891 -0.0543665140867233276 -0.0455819964408874512
0.114338777959346771 -0.0589585527777671814 -0.0493215806782245636
0.0867316275835037231 -0.0585742518305778503 -0.0364375337958335876
0.0691154226660728455 -0.0528082586824893951 -0.0361998565495014191
0.108483433723449707 -0.0645616650581359863 -0.038508240133523941
0.0499314442276954651 -0.0489081516861915588 -0.0322066731750965118
0.117504797875881195 -0.0639615729451179504 -0.0442068763077259064
0.11486130952835083 -0.0661643296480178833 -0.0393554121255874634
0.112461976706981659 -0.0630492120981216431 -0.0429800786077976227
0.0543034374713897705 -0.049984276294708252 -0.0328227020800113678
0.13144916296005249 -0.0694654062390327454 -0.0429200269281864166
0.0862125232815742493 -0.0566682964563369751 -0.0391555875539779663
0.131745398044586182 -0.0691841542720794678 -0.0435176976025104523
0.0881901979446411133 -0.0587756969034671783 -0.0368903949856758118
0.115917481482028961 -0.063428729772567749 -0.0442063324153423309
0.0759020894765853882 -0.0546343885362148285 -0.036911793053150177
0.135362610220909119 -0.0706017613410949707 -0.0431997403502464294
0.122077062726020813 -0.0649656131863594055 -0.0450416617095470428
0.134518876671791077 -0.0687178969383239746 -0.0457119494676589966
0.0290943384170532227 -0.0439503192901611328 -0.0290021523833274841
0.0375301539897918701 -0.0460371673107147217 -0.03017440065741539
0.114916808903217316 -0.0654866397380828857 -0.0404484383761882782
0.0226447954773902893 -0.0420161038637161255 -0.0286376066505908966
0.0893348753452301025 -0.0581827610731124878 -0.0384246595203876495
0.126015409827232361 -0.0686200782656669617 -0.0413818806409835815
0.0503340288996696472 -0.0485906936228275299 -0.0329172462224960327
0.100752651691436768 -0.0722510665655136108 -0.0100985392928123474
0.114822439849376678 -0.0763390883803367615 -0.00958479661494493484
0.0620098039507865906 -0.0617704242467880249 -0.0056171957403421402
0.130623340606689453 -0.0808794870972633362 -0.00939224660396575928
0.029429219663143158 -0.0525593757629394531 -0.00486732600256800652
0.11238454282283783 -0.0758032128214836121 -0.00836382899433374405
0.092100583016872406 -0.0699498727917671204 -0.00879889447242021561
0.0199819542467594147 -0.0498745255172252655 -0.00475587509572505951
0.12376800924539566 -0.0789199173450469971 -0.00939742289483547211
0.0789551138877868652 -0.0664392560720443726 -0.00693297432735562325
0.0797371715307235718 -0.0666341632604598999 -0.00714996457099914551
0.0628794804215431213 -0.0616552941501140594 -0.00837931316345930099
0.0965505242347717285 -0.0714446753263473511 -0.00710312649607658386
0.127635538578033447 -0.0798665434122085571 -0.0106013873592019081
0.0716886892914772034 -0.0641412287950515747 -0.00861678831279277802
0.138833984732627869 -0.083485335111618042 -0.00741966068744659424
0.0393199585378170013 -0.0552453957498073578 -0.00593240140005946159
0.0953766480088233948 -0.0711864307522773743 -0.00651686545461416245
0.137105986475944519 -0.082922130823135376 -0.00794712919741868973
0.0732119902968406677 -0.0647045671939849854 -0.00764405867084860802
0.0932979732751846313 -0.070107974112033844 -0.0101968962699174881
0.0835621654987335205 -0.0675864219665527344 -0.00821885652840137482
0.108633175492286682 -0.07424163818359375 -0.0120829744264483452
0.0989894270896911621 -0.0721880868077278137 -0.00674994383007287979
0.0850629433989524841 -0.0673335343599319458 -0.0127920098602771759
0.129346206784248352 -0.0787571519613265991 -0.0192265193909406662
0.132273077964782715 -0.0795007124543190002 -0.019703548401594162
0.112202361226081848 -0.0749366357922554016 -0.0140198878943920135
0.101900637149810791 -0.0719047561287879944 -0.0142117049545049667
0.0397949330508708954 -0.0548057854175567627 -0.010048961266875267
0.0645518079400062561 -0.0614351332187652588 -0.0125505821779370308
0.0832889527082443237 -0.0663811638951301575 -0.0147658670321106911
0.0443806834518909454 -0.0560730211436748505 -0.0103351827710866928
0.102865472435951233 -0.0718917921185493469 -0.0155330616980791092
0.0789441168308258057 -0.0656177103519439697 -0.0125225521624088287
0.1375313401222229 -0.0808683335781097412 -0.0204172544181346893
0.09353618323802948 -0.0689445808529853821 -0.0166158266365528107
0.0943989679217338562 -0.0692385435104370117 -0.016419118270277977
0.0576159507036209106 -0.0593812987208366394 -0.0127363763749599457
0.0826655477285385132 -0.0664082467555999756 -0.0138277206569910049
0.11820259690284729 -0.0761179327964782715 -0.0165451820939779282
0.0310832560062408447 -0.0523559749126434326 -0.00969646777957677841
0.0607666783034801483 -0.0601624250411987305 -0.0133370012044906616
0.117827102541923523 -0.0766794383525848389 -0.0135208852589130402
0.0388589650392532349 -0.0541881322860717773 -0.0116098839789628983
0.134754925966262817 -0.0811124220490455627 -0.0156821366399526596
0.10901331901550293 -0.0733464658260345459 -0.0170184876769781113
0.0575044155120849609 -0.0597916319966316223 -0.0107394717633724213
0.0824797824025154114 -0.0649674162268638611 -0.0193339064717292786
0.111365675926208496 -0.0722859278321266174 -0.0233365781605243683
0.113733522593975067 -0.0736309066414833069 -0.0213016476482152939
0.116954341530799866 -0.0738050937652587891 -0.0237836111336946487
0.139634698629379272 -0.0804391875863075256 -0.0241106078028678894
0.0619542822241783142 -0.0589479506015777588 -0.019087688997387886
0.0862521827220916748 -0.0660237520933151245 -0.0195376947522163391
0.0280086025595664978 -0.0504715107381343842 -0.0139905316755175591
0.0935369580984115601 -0.0683602318167686462 -0.0189904738217592239
0.0942123681306838989 -0.0683552473783493042 -0.0196425989270210266
0.125591591000556946 -0.0754277706146240234 -0.0267744585871696472
0.0566595345735549927 -0.0580862909555435181 -0.0168322250247001648
0.0759161859750747681 -0.0625702962279319763 -0.0207528695464134216
0.108326166868209839 -0.0724376663565635681 -0.0199917592108249664
0.0354655981063842773 -0.0525116100907325745 -0.0145455682650208473
0.0527364760637283325 -0.056582130491733551 -0.0179068185389041901
0.135771945118904114 -0.0800990164279937744 -0.0215503126382827759
0.112454310059547424 -0.0727066323161125183 -0.0230279136449098587
0.126016482710838318 -0.0768740102648735046 -0.022587895393371582
0.0403081327676773071 -0.0538163743913173676 -0.0149696506559848785
0.0831133425235748291 -0.0654047280550003052 -0.0185438133776187897
0.0962235331535339355 -0.0686684548854827881 -0.0205440092831850052
0.0139644145965576172 -0.0467403866350650787 -0.0125928139314055443
0.139486953616142273 -0.080721437931060791 -0.0230762530118227005
0.0428975038230419159 -0.0566001869738101959 -0.000327996036503463984
0.123553439974784851 -0.0792807713150978088 -0.0047056279145181179
0.115901127457618713 -0.0771393477916717529 -0.00405169976875185966
0.096003897488117218 -0.0714777782559394836 -0.00449339626356959343
0.126459628343582153 -0.0801173821091651917 -0.00441926158964633942
0.116279229521751404 -0.077169664204120636 -0.00581303751096129417
0.0651881247758865356 -0.0628910213708877563 -0.00101853010710328817
0.100539840757846832 -0.0727608352899551392 -0.00456671137362718582
0.0446272753179073334 -0.0570643395185470581 -0.000931760470848530531
0.079677388072013855 -0.0669003129005432129 -0.00329640484414994717
0.0790451541543006897 -0.066857561469078064 -0.000169219885719940066
0.0408867746591567993 -0.0560336410999298096 -0.000244703784119337797
0.0692621767520904541 -0.0639786571264266968 -0.00256792083382606506
0.136337578296661377 -0.0829113125801086426 -0.00458359019830822945
0.0766942799091339111 -0.0660334527492523193 -0.00377580663189291954
0.127763986587524414 -0.0804231315851211548 -0.00588820315897464752
0.131767570972442627 -0.0815270096063613892 -0.00660794507712125778
0.0647677257657051086 -0.0627610236406326294 -0.00126548740081489086
0.0921179503202438354 -0.0704354941844940186 -0.00312699913047254086
0.137548893690109253 -0.083428800106048584 -0.000598687911406159401
0.0973017439246177673 -0.0718544125556945801 -0.00429635168984532356
0.127339377999305725 -0.0802930966019630432 -0.00610855268314480782
0.0682153850793838501 -0.0636685639619827271 -0.00287154107354581356
0.109555982053279877 -0.0752721354365348816 -0.00560716306790709496
0.0207657516002655029 -0.0471939891576766968 -0.0174794550985097885
0.0941711068153381348 -0.065493166446685791 -0.0276435185223817825
0.119001083076000214 -0.0712639763951301575 -0.0320932343602180481
0.108620166778564453 -0.07032003253698349 -0.0266871079802513123
0.122086726129055023 -0.0727401375770568848 -0.0308137834072113037
0.114810541272163391 -0.0713997036218643188 -0.0286632981151342392
0.0749358087778091431 -0.0607619285583496094 -0.0248257964849472046
0.122861385345458984 -0.0726301148533821106 -0.0316528826951980591
0.126706734299659729 -0.0741286128759384155 -0.030881902202963829
0.100477240979671478 -0.068210117518901825 -0.0257526673376560211
0.132345765829086304 -0.075880393385887146 -0.0308273397386074066
0.0861885547637939453 -0.063393518328666687 -0.0268029980361461639
0.0719477534294128418 -0.0603056997060775757 -0.0237151570618152618
0.0189563333988189697 -0.0467557720839977264 -0.0171979032456874847
0.0954055637121200562 -0.066390596330165863 -0.0263908114284276962
0.124377653002738953 -0.0727613493800163269 -0.0324585586786270142
0.0603594481945037842 -0.0566592775285243988 -0.0239395499229431152
0.0903462767601013184 -0.0646272599697113037 -0.026902470737695694
0.0572287961840629578 -0.0568469129502773285 -0.021168924868106842
0.100573569536209106 -0.0669208616018295288 -0.0289365034550428391
0.0740621909499168396 -0.061458095908164978 -0.022498350590467453
0.0643824934959411621 -0.0587639883160591125 -0.0218365900218486786
0.0831497609615325928 -0.0631065517663955688 -0.0252461656928062439
0.0179494395852088928 -0.0465224981307983398 -0.0170156694948673248
0.108903452754020691 -0.0511902347207069397 -0.0551713518798351288
0.121416158974170685 -0.0511070713400840759 -0.060055609792470932
0.124135702848434448 -0.055237792432308197 -0.0573154985904693604
0.110746696591377258 -0.049065466970205307 -0.0578266158699989319
0.0942695140838623047 -0.046152312308549881 -0.0541646108031272888
0.0647261738777160645 -0.0415176860988140106 -0.047059331089258194
0.0794891193509101868 -0.0442475751042366028 -0.050230562686920166
0.136155039072036743 -0.0558019354939460754 -0.0614170357584953308
0.107191897928714752 -0.0516085401177406311 -0.0541303753852844238
0.0864386260509490967 -0.0467068850994110107 -0.050647396594285965
0.104587443172931671 -0.0515338703989982605 -0.0531980283558368683
0.125607416033744812 -0.0525362007319927216 -0.0603565610945224762
0.0963214337825775146 -0.0462707392871379852 -0.0548445545136928558
0.0673575028777122498 -0.0431244969367980957 -0.0465980544686317444
0.120711766183376312 -0.0550597235560417175 -0.056163005530834198
0.114633567631244659 -0.0503679290413856506 -0.0581266768276691437
0.118536107242107391 -0.054299619048833847 -0.0560235120356082916
0.0409088507294654846 -0.0373736396431922913 -0.0417047552764415741
0.101700678467750549 -0.0495564006268978119 -0.053900793194770813
0.0937519744038581848 -0.046874023973941803 -0.0533044189214706421
0.101037412881851196 -0.0503275804221630096 -0.0529392734169960022
0.111161112785339355 -0.0517026595771312714 -0.0555693134665489197
0.0884223431348800659 -0.0480771549046039581 -0.0501540303230285645
0.0979485660791397095 -0.0469824708998203278 -0.0548176057636737823
0.11201968789100647 -0.0381466597318649292 -0.0659798681735992432
0.096082150936126709 -0.0382349491119384766 -0.0605700872838497162
0.0718249678611755371 -0.0340782217681407928 -0.055070042610168457
0.0885455533862113953 -0.0348790623247623444 -0.0601764209568500519
0.124251693487167358 -0.0435968935489654541 -0.0666165053844451904
0.0425742641091346741 -0.0288846231997013092 -0.0485531985759735107
0.103179164230823517 -0.0406620651483535767 -0.0614077821373939514
0.0862637311220169067 -0.0358728803694248199 -0.0587768033146858215
0.105242364108562469 -0.0379473939538002014 -0.063830256462097168
0.104224853217601776 -0.0370901525020599365 -0.064034588634967804
0.0508461035788059235 -0.0302980542182922363 -0.0504313148558139801
0.130770966410636902 -0.042202293872833252 -0.0696948394179344177
0.0627995878458023071 -0.0315736904740333557 -0.053633909672498703
0.0610177591443061829 -0.032859165221452713 -0.0522164441645145416
0.105268605053424835 -0.0377501882612705231 -0.0639647096395492554
0.0402395017445087433 -0.028196355327963829 -0.0482074059545993805
0.102154798805713654 -0.0378188379108905792 -0.0628750249743461609
0.00909012556076049805 -0.0237029306590557098 -0.0406067259609699249
0.134274065494537354 -0.042850445955991745 -0.0704586431384086609
0.13302910327911377 -0.0452263206243515015 -0.0685268491506576538
0.124373942613601685 -0.043029293417930603 -0.0670191794633865356
0.0421487092971801758 -0.0289749428629875183 -0.048352707177400589
0.0165789909660816193 -0.024676203727722168 -0.0425022467970848083
0.0366300866007804871 -0.0287009365856647491 -0.0466735251247882843
0.0229852739721536636 -0.0294016767293214798 -0.041621871292591095
0.116858378052711487 -0.0460466593503952026 -0.062371227890253067
0.0339057072997093201 -0.031748991459608078 -0.0437203310430049896
0.0340010300278663635 -0.0317932814359664917 -0.0437203831970691681
0.0949093997478485107 -0.0428384914994239807 -0.0569950975477695465
0.0505129769444465637 -0.0339925102889537811 -0.0479291714727878571
0.106557548046112061 -0.0431264117360115051 -0.0609336495399475098
0.0225293897092342377 -0.0295564699918031693 -0.0413402989506721497
0.103617176413536072 -0.0453546009957790375 -0.0581739097833633423
0.0838551372289657593 -0.0414657555520534515 -0.0541010238230228424
0.0963168144226074219 -0.0431095361709594727 -0.0572896972298622131
0.0849108695983886719 -0.040955226868391037 -0.0548697635531425476
0.0951661542057991028 -0.0446311309933662415 -0.0557112395763397217
0.0424618422985076904 -0.0324255079030990601 -0.0462565645575523376
0.0916492044925689697 -0.0417127236723899841 -0.0566947311162948608
0.139734238386154175 -0.0521183609962463379 -0.0658810734748840332
0.055707491934299469 -0.0354080311954021454 -0.048697933554649353
0.130996093153953552 -0.0498677678406238556 -0.0644876733422279358
0.135116398334503174 -0.0516361594200134277 -0.0646020770072937012
0.0873752012848854065 -0.0417561978101730347 -0.0551351569592952728
0.136476784944534302 -0.0532722547650337219 -0.0638324469327926636
0.0993091613054275513 -0.0435219556093215942 -0.0580417811870574951
0.026037212461233139 -0.0297729428857564926 -0.0424268171191215515
0.11672702431678772 -0.0466046370565891266 -0.0618961676955223083
0.0890739411115646362 -0.0314687862992286682 -0.0621320605278015137
0.0357852280139923096 -0.0233867168426513672 -0.049319487065076828
0.118262797594070435 -0.0357343964278697968 -0.0692341253161430359
0.12826964259147644 -0.0380203984677791595 -0.0712401792407035828
0.0841642916202545166 -0.0298611801117658615 -0.0614008381962776184
0.118984311819076538 -0.0334658212959766388 -0.0706455111503601074
0.0660381689667701721 -0.0290762521326541901 -0.0560201592743396759
0.116069629788398743 -0.0362458787858486176 -0.0682673826813697815
0.091947801411151886 -0.034005679190158844 -0.0617293119430541992
0.0424685254693031311 -0.0246760658919811249 -0.0507828667759895325
0.0755306258797645569 -0.0280872397124767303 -0.059566795825958252
0.058782089501619339 -0.0260223820805549622 -0.0552923902869224548
