ply
format ascii 1.0
element vertex 714
property float x
property float y
property float z
end_header
0.0483000017702579498 0.0191254988312721252 0.0245899539440870285
0.0483000017702579498 0.0197289660573005676 0.0217034909874200821
0.0483000017702579498 0.023224852979183197 0.02303289994597435
0.0483000017702579498 0.0147583484649658203 0.0198632925748825073
0.0483000017702579498 0.0253372285515069962 0.0228647291660308838
0.0483000017702579498 0.0209212414920330048 0.0216494482010602951
0.0483000017702579498 0.0160998646169900894 0.0200231131166219711
0.0483000017702579498 -0.000850711017847061157 0.0222762897610664368
0.0483000017702579498 -0.0123571185395121574 0.0247028954327106476
0.0483000017702579498 -0.0061221136711537838 0.0231902003288269043
0.0483000017702579498 -0.00841328222304582596 0.02402520552277565
0.0483000017702579498 0.0203673504292964935 0.0212213974446058273
0.0483000017702579498 -3.52989882230758667e-05 0.0232265591621398926
0.0483000017702579498 0.0287696141749620438 0.0224158111959695816
0.0483000017702579498 -0.0174314007163047791 0.0238386299461126328
0.0483000017702579498 0.00685469619929790497 0.0241489186882972717
0.0483000017702579498 0.00240852218121290207 0.0222281143069267273
0.0483000017702579498 0.0156975351274013519 0.0226369686424732208
0.0483000017702579498 -0.0191277302801609039 0.0245986711233854294
0.0483000017702579498 -0.00936400517821311951 0.0234770551323890686
0.0483000017702579498 0.0160225667059421539 0.0199496988207101822
0.0483000017702579498 0.013749781996011734 0.0208150781691074371
0.0483000017702579498 0.00737251900136470795 0.021742669865489006
0.0483000017702579498 -0.0033285096287727356 0.0226305760443210602
0.0483000017702579498 0.0298977866768836975 0.0182508267462253571
0.0483000017702579498 -0.0115758161991834641 0.0249486435204744339
0.0483000017702579498 0.0308159328997135162 0.019665982574224472
0.0483000017702579498 0.00445814616978168488 0.0242395438253879547
0.0483000017702579498 -0.0130985230207443237 0.0234252754598855972
0.0483000017702579498 0.00392208248376846313 0.027795812115073204
0.0483000017702579498 0.0117679862305521965 0.0250520166009664536
0.0483000017702579498 0.0116405561566352844 0.0287351906299591064
0.0483000017702579498 9.98470932245254517e-05 0.0265752188861370087
0.0483000017702579498 0.0124988369643688202 0.029646674171090126
0.0483000017702579498 -0.0215829592198133469 0.0252055060118436813
0.0483000017702579498 0.0170140191912651062 0.0261470824480056763
0.0483000017702579498 -0.00388079509139060974 0.0272967536002397537
0.0483000017702579498 -0.00865141209214925766 0.0264226365834474564
0.0483000017702579498 0.0259403474628925323 0.026177847757935524
0.0483000017702579498 0.0248918496072292328 0.0265355966985225677
0.0483000017702579498 0.000647334149107336998 0.0252070184797048569
0.0483000017702579498 0.01097120251506567 0.0262774359434843063
0.0483000017702579498 -0.0233828835189342499 0.0252899359911680222
0.0483000017702579498 0.0169971566647291183 0.0271159671247005463
0.0483000017702579498 0.0134849622845649719 0.0284883975982666016
0.0483000017702579498 -0.0128789413720369339 0.0263819452375173569
0.0483000017702579498 0.00423311814665794373 0.0271778330206871033
0.0483000017702579498 0.0137575156986713409 0.0287362951785326004
0.0483000017702579498 0.0163157526403665543 0.0281658116728067398
0.0483000017702579498 0.0144997183233499527 0.0267830938100814819
0.0483000017702579498 0.0130252726376056671 0.026316450908780098
0.0483000017702579498 0.0228803642094135284 0.0257452167570590973
0.0483000017702579498 0.0175722315907478333 0.0291231684386730194
0.0483000017702579498 -0.00926869548857212067 0.0252052489668130875
0.0483000017702579498 0.00602235272526741028 0.0279521234333515167
0.0483000017702579498 -0.00537496898323297501 0.0251321736723184586
0.0483000017702579498 0.0161095522344112396 0.025977451354265213
0.0483000017702579498 0.0126729346811771393 0.0289589781314134598
0.0483000017702579498 0.0179649405181407928 0.0273460187017917633
0.0483000017702579498 0.0179924275726079941 0.0264871120452880859
0.0483000017702579498 0.00363838672637939453 0.0280081965029239655
0.0483000017702579498 0.00282068736851215363 0.0283934734761714935
0.0483000017702579498 0.0173799023032188416 0.0262703970074653625
0.0483000017702579498 0.000684976577758789062 0.0284185223281383514
0.0483000017702579498 0.0216887593269348145 0.0271226931363344193
0.0483000017702579498 0.0175154861062765121 0.0286066103726625443
0.0483000017702579498 0.00997279584407806396 0.0324146673083305359
0.0483000017702579498 -0.000129415653645992279 0.0298501104116439819
0.0483000017702579498 0.00546783208847045898 0.031249508261680603
0.0483000017702579498 0.0105434507131576538 0.0300884507596492767
0.0483000017702579498 0.01782950758934021 0.0308908410370349884
0.0483000017702579498 0.00413412973284721375 0.0327242426574230194
0.0483000017702579498 0.00736839137971401215 0.0319786928594112396
0.0483000017702579498 0.00376621866598725319 0.0289416518062353134
0.0483000017702579498 0.00459097698330879211 0.0315488800406455994
0.0483000017702579498 -0.00144132040441036224 0.0304729379713535309
0.0483000017702579498 -0.0204032287001609802 0.0260504819452762604
0.0483000017702579498 0.0122251305729150772 0.0307084619998931885
0.0483000017702579498 0.00871097482740879059 0.0319630876183509827
0.0483000017702579498 0.00793539732694625854 0.0300561878830194473
0.0483000017702579498 0.0101250018924474716 0.0339490994811058044
0.0483000017702579498 0.00971566326916217804 0.0322797857224941254
0.0483000017702579498 0.00170718133449554443 0.0307838823646306992
0.0483000017702579498 0.0103637222200632095 0.0316331163048744202
0.0483000017702579498 0.00350494310259819031 0.03068520687520504
0.0483000017702579498 0.000593442469835281372 0.0315182618796825409
0.0483000017702579498 -0.0129534266889095306 0.0277952961623668671
0.0483000017702579498 0.0194055214524269104 0.0316566005349159241
0.0483000017702579498 0.00790305808186531067 0.0309763029217720032
0.0483000017702579498 0.00712609663605690002 0.0322268307209014893
0.0483000017702579498 0.0115717044100165367 0.0304033719003200531
0.0483000017702579498 0.00622760225087404251 0.0318294204771518707
0.0483000017702579498 -0.00236979220062494278 0.0292126983404159546
0.0483000017702579498 0.0190103147178888321 0.0313561074435710907
0.0483000017702579498 0.0105575695633888245 0.0350584089756011963
0.0483000017702579498 -0.00944329053163528442 0.0318221487104892731
0.0483000017702579498 0.00590939261019229889 0.0350640937685966492
0.0483000017702579498 -0.00420929305255413055 0.0313591696321964264
0.0483000017702579498 -0.0029467511922121048 0.0342448800802230835
0.0483000017702579498 0.00584087055176496506 0.035271231085062027
0.0483000017702579498 -0.0200750865042209625 0.0277416221797466278
0.0483000017702579498 0.0055657336488366127 0.0352842323482036591
0.0483000017702579498 -0.0139351598918437958 0.0287844818085432053
0.0483000017702579498 0.00170242041349411011 0.0358650833368301392
0.0483000017702579498 -0.00408110767602920532 0.0316519513726234436
0.0483000017702579498 0.00727034918963909149 0.036374211311340332
0.0483000017702579498 -0.00312123075127601624 0.0338477455079555511
0.0483000017702579498 -0.00664108153432607651 0.0309839248657226562
0.0483000017702579498 -0.00549680646508932114 0.0322950556874275208
0.0483000017702579498 -0.0224389582872390747 0.027042977511882782
0.0483000017702579498 -0.00328412652015686035 0.0330548509955406189
0.0483000017702579498 -0.00645039835944771767 0.0309244561940431595
0.0483000017702579498 -0.00024908408522605896 0.0330031886696815491
0.0483000017702579498 -0.00178853049874305725 0.0357544794678688049
0.0483000017702579498 -0.0118781514465808868 0.0330273807048797607
0.0483000017702579498 -0.0135291479527950287 0.0323798097670078278
0.0483000017702579498 -0.0125191090628504753 0.0325481556355953217
0.0483000017702579498 0.00113646360114216805 0.0368396863341331482
0.0483000017702579498 -0.00619515776634216309 0.035501331090927124
0.0483000017702579498 -0.00490223988890647888 0.0349922105669975281
0.0483000017702579498 -0.00959500297904014587 0.0322740189731121063
0.0483000017702579498 -0.00455792061984539032 0.0352893099188804626
0.0483000017702579498 0.000207106582820415497 0.0372131504118442535
0.0483000017702579498 -0.00745822535827755928 0.03369869664311409
0.0483000017702579498 0.000546259339898824692 0.0366710759699344635
0.0483000017702579498 -0.00491451378911733627 0.0353982150554656982
0.0483000017702579498 -0.016731971874833107 0.0312848798930644989
0.0483000017702579498 -0.0166754722595214844 0.0328130125999450684
0.0483000017702579498 -0.0221511274576187134 0.0285762902349233627
0.0483000017702579498 -0.0142112448811531067 0.0345523059368133545
0.0483000017702579498 -0.0176269970834255219 0.0315332487225532532
0.0483000017702579498 -0.0148488050326704979 0.0334100499749183655
0.0483000017702579498 -0.0245027467608451843 0.0276030953973531723
0.0483000017702579498 -0.0200275760143995285 0.0308662541210651398
0.0483000017702579498 -0.0323391556739807129 0.0172726660966873169
0.0483000017702579498 -0.0335611402988433838 0.0156315937638282776
0.0483000017702579498 -0.0325218364596366882 0.0174223519861698151
0.0483000017702579498 -0.0370208881795406342 0.00472792424261569977
0.0483000017702579498 -0.0361116118729114532 0.00519331358373165131
0.0483000017702579498 -0.0324112474918365479 0.015150049701333046
0.0483000017702579498 -0.0367378555238246918 0.00415290147066116333
0.0483000017702579498 -0.0373970456421375275 0.00205206498503684998
0.0483000017702579498 -0.032023601233959198 0.0170845016837120056
0.0441725403070449829 -0.0373763032257556915 0.00225409353151917458
0.0386627800762653351 -0.0366760715842247009 0.00802105199545621872
0.0401766300201416016 -0.037384815514087677 0.00218398659490048885
0.0397839061915874481 -0.0368158444762229919 0.00686990143731236458
0.0411494337022304535 -0.0375480242073535919 0.000839846441522240639
0.0435566157102584839 -0.0376145653426647186 0.000291834119707345963
0.0420712679624557495 -0.0372536666691303253 0.00326408445835113525
0.0437883511185646057 -0.0373984239995479584 0.0020718919113278389
0.0377857349812984467 -0.0368932224810123444 0.00623264815658330917
0.0447819605469703674 -0.0376217104494571686 0.000232983846217393875
0.0401060879230499268 -0.0370030589401721954 0.00532805174589157104
0.0438867919147014618 -0.0371874794363975525 0.0038091978058218956
0.0456143319606781006 -0.0373206399381160736 0.00271253753453493118
0.0462419874966144562 -0.0371723994612693787 0.0039334162138402462
0.0482627525925636292 -0.0375342704355716705 0.000953110866248607635
0.0442794933915138245 -0.0371379069983959198 0.00421746587380766869
0.0440528988838195801 -0.0370118431746959686 0.00525571219623088837
0.0405160188674926758 -0.0368437543511390686 0.00664005335420370102
0.0399442724883556366 -0.0367115363478660583 0.00772894453257322311
0.0452242493629455566 -0.0370239466428756714 0.00515603413805365562
0.043505299836397171 -0.0366245955228805542 0.00844497419893741608
0.0455079823732376099 -0.0365691669285297394 0.00890146195888519287
0.0444028377532958984 -0.0344479009509086609 0.0145687274634838104
0.0480739139020442963 -0.0349523909389972687 0.0132385026663541794
0.0467049330472946167 -0.0333457626402378082 0.0174748208373785019
0.0478873290121555328 -0.0358804166316986084 0.0107915019616484642
0.0396656915545463562 -0.0339084938168525696 0.0159910228103399277
0.0465628020465373993 -0.0347852669656276703 0.0136791635304689407
0.0468396767973899841 -0.0344601161777973175 0.0145365204662084579
0.0448552146553993225 -0.0337846875190734863 0.0163174737244844437
0.0426550209522247314 -0.0333376117050647736 0.0174963194876909256
0.044237874448299408 -0.034455031156539917 0.0145499268546700478
0.0401718616485595703 -0.034306008368730545 0.0149428704753518105
0.0451922304928302765 -0.0357464738190174103 0.0111446697264909744
0.0378859266638755798 -0.0362803302705287933 0.00973700918257236481
0.0422249957919120789 -0.0361363776028156281 0.0101165873929858208
0.0381603538990020752 -0.0335478000342845917 0.016942095011472702
0.0411077961325645447 -0.034806765615940094 0.0136224851012229919
0.0385548919439315796 -0.0341574624180793762 0.0153345540165901184
0.0435569249093532562 -0.0357607044279575348 0.0111071579158306122
0.0428896024823188782 -0.0357059091329574585 0.0112516395747661591
0.042233005166053772 -0.0351883620023727417 0.0126162944361567497
0.0389659591019153595 -0.0344689637422561646 0.0145131815224885941
0.0433628782629966736 -0.0297442097216844559 0.0227024909108877182
0.0429082922637462616 -0.0290613807737827301 0.0236917398869991302
0.0470752045512199402 -0.0319235958158969879 0.0195451006293296814
0.0427460037171840668 -0.0299606118351221085 0.0223889760673046112
0.0471802502870559692 -0.031965840607881546 0.0194838996976613998
0.0444135889410972595 -0.0285085607320070267 0.0244926363229751587
0.0468521863222122192 -0.031137414276599884 0.0206840820610523224
0.0457341969013214111 -0.0298687834292650223 0.0225220117717981339
0.0472831316292285919 -0.0328021720051765442 0.0182722639292478561
0.0436511151492595673 -0.0305506307631731033 0.0215341877192258835
0.0380442626774311066 -0.0332425758242607117 0.0176342315971851349
0.040610823780298233 -0.0325955376029014587 0.0185716226696968079
0.0401788018643856049 -0.0312187764793634415 0.0205662082880735397
0.0450479127466678619 -0.0332584120333194733 0.017611287534236908
0.0396011248230934143 -0.0323616713285446167 0.0189104396849870682
0.0440300107002258301 -0.0323955751955509186 0.0188613235950469971
0.0426391288638114929 -0.0310301147401332855 0.0208395328372716904
0.0383253172039985657 -0.032130122184753418 0.0192458964884281158
0.0400532446801662445 -0.0315673984587192535 0.0200611427426338196
0.0403490401804447174 -0.0308984220027923584 0.0210303254425525665
0.0457090213894844055 -0.0229899249970912933 0.0295658409595489502
0.0458300262689590454 -0.0243922974914312363 0.0283234473317861557
0.0479598231613636017 -0.0270116217434406281 0.026002928614616394
0.0466845296323299408 -0.023580571636557579 0.0290425717830657959
0.0465835630893707275 -0.0258127860724925995 0.0270650051534175873
0.0452814996242523193 -0.0231748390942811966 0.0294020194560289383
0.0449221096932888031 -0.0254614744335412979 0.0273762382566928864
0.0404749028384685516 -0.0216738581657409668 0.0307317730039358139
0.0406449325382709503 -0.0230852589011192322 0.0294813830405473709
0.0458699017763137817 -0.0216069202870130539 0.0307910759001970291
0.0409997552633285522 -0.0281069930642843246 0.0250325128436088562
0.0379615873098373413 -0.0228967349976301193 0.0296483989804983139
0.0463660582900047302 -0.0275868494063615799 0.0254933200776576996
0.0406830534338951111 -0.0266118012368679047 0.026357138529419899
0.0397760085761547089 -0.0256944689899682999 0.0271698236465454102
0.0380051285028457642 -0.0226218234747648239 0.0298919491469860077
0.0391744859516620636 -0.026178186759352684 0.0267412867397069931
0.0380314290523529053 -0.0280159413814544678 0.0251131784170866013
0.0408040657639503479 -0.0274817869067192078 0.0255863964557647705
0.0380972661077976227 -0.0265112034976482391 0.0264462586492300034
0.042719181627035141 -0.0252146199345588684 0.027594931423664093
0.0377664864063262939 -0.0134011572226881981 0.0351769700646400452
0.0429101362824440002 -0.0169233400374650955 0.0333283841609954834
0.0462152473628520966 -0.017766827717423439 0.0328856892883777618
0.0482857935130596161 -0.0159357152879238129 0.0338467322289943695
0.042536664754152298 -0.0138922762125730515 0.0349192097783088684
0.0462825633585453033 -0.0146177159622311592 0.0345384702086448669
0.0472050793468952179 -0.0178463868796825409 0.0328439325094223022
0.0482129901647567749 -0.0144315464422106743 0.0346361808478832245
0.0433974191546440125 -0.0142574096098542213 0.0347275733947753906
0.0395231693983078003 -0.0147096486762166023 0.0344902202486991882
0.0423285476863384247 -0.0211223848164081573 0.031124558299779892
0.0408801212906837463 -0.0213155560195446014 0.031023174524307251
0.0407754108309745789 -0.0202840734273195267 0.0315645374357700348
0.0443127639591693878 -0.0204998403787612915 0.0314512960612773895
0.0402776561677455902 -0.0186380036175251007 0.0324284583330154419
0.0407185964286327362 -0.019009854644536972 0.0322333015501499176
0.0464832410216331482 -0.0208672210574150085 0.0312584787607192993
0.0391427725553512573 -0.020226629450917244 0.0315946862101554871
0.0389299057424068451 -0.0164388399571180344 0.0335826687514781952
0.0428103245794773102 -0.0191089194267988205 0.0321813076734542847
0.0402935892343521118 -0.00587189337238669395 0.0370467640459537506
0.0424976013600826263 -0.00563779845833778381 0.0371044613420963287
0.0418075136840343475 -0.00737918633967638016 0.0366752482950687408
0.0428664684295654297 -0.00562597345560789108 0.0371073782444000244
0.0481223836541175842 -0.0127691254019737244 0.0353467464447021484
0.0457168146967887878 -0.00976049713790416718 0.036088310182094574
0.0454427450895309448 -0.00793607905507087708 0.0365379862487316132
0.0435259751975536346 -0.00721328146755695343 0.0367161408066749573
0.0471277348697185516 -0.00797847937792539597 0.0365275368094444275
0.0415678359568119049 -0.00585157284513115883 0.0370517708361148834
0.0458677336573600769 -0.0076658264733850956 0.0366045981645584106
0.044487684965133667 -0.0112129291519522667 0.035730317234992981
0.0398789122700691223 -0.0124011533334851265 0.0354374460875988007
0.0377223677933216095 -0.0107887135818600655 0.0358348749577999115
0.0391755849123001099 -0.0120991254225373268 0.0355118885636329651
0.039243597537279129 -0.00937639456242322922 0.0361829809844493866
0.0442727655172348022 -0.0117945931851863861 0.0355869457125663757
0.0420876815915107727 -0.00827402342110872269 0.0364546887576580048
0.0395406559109687805 -0.0121239135041832924 0.0355057790875434875
0.040162350982427597 -0.00918733421713113785 0.0362295806407928467
0.0401023663580417633 -0.00689464248716831207 0.0367946773767471313
0.0383094288408756256 -0.00804930087178945541 0.036510080099105835
0.0405694097280502319 0.00332201411947607994 0.0373754873871803284
0.0449815131723880768 -0.000847930554300546646 0.0373754873871803284
0.0401412658393383026 0.00248818052932620049 0.0373754873871803284
0.0431071855127811432 0.000647502020001411438 0.0373754873871803284
0.0457149222493171692 0.00450979592278599739 0.0373754873871803284
0.0454938486218452454 -0.000314277596771717072 0.0373754873871803284
0.0445252023637294769 0.000276982318609952927 0.0373754873871803284
0.0457766130566596985 -0.00226421281695365906 0.0373754873871803284
0.048288542777299881 0.00129830744117498398 0.0373754873871803284
0.0396143607795238495 0.00442794477567076683 0.0373754873871803284
0.0445273704826831818 -0.000519695226103067398 0.0373754873871803284
0.039885353296995163 0.000561780529096722603 0.0373754873871803284
0.0382661893963813782 0.00207542022690176964 0.0373754873871803284
0.0382089205086231232 0.00162571296095848083 0.0373754873871803284
0.042911868542432785 -0.00120193790644407272 0.0373754873871803284
0.039447832852602005 -0.00288639776408672333 0.0373754873871803284
0.0406613759696483612 -0.000215108972042798996 0.0373754873871803284
0.0415857434272766113 -0.0041503608226776123 0.0373754873871803284
0.0404446013271808624 0.00117101334035396576 0.0373754873871803284
0.0381483025848865509 0.00395464897155761719 0.0373754873871803284
0.0390787795186042786 0.00111502711661159992 0.0373754873871803284
0.0445245876908302307 0.00991132576018571854 0.0360511317849159241
0.042052004486322403 0.0101085994392633438 0.0360025092959403992
0.0480121634900569916 0.0109527148306369781 0.0357944518327713013
0.0458607077598571777 0.00905842520296573639 0.0362613536417484283
0.0410233214497566223 0.0127346990630030632 0.0353552326560020447
0.047094590961933136 0.00885887444019317627 0.036310538649559021
0.0462230369448661804 0.0103563703596591949 0.035941440612077713
0.0452216006815433502 0.00978428032249212265 0.0360824465751647949
0.0393993444740772247 0.0131587907671928406 0.0352507047355175018
0.0463608652353286743 0.0105297788977622986 0.035898696631193161
0.043816443532705307 0.00520515302196145058 0.037211097776889801
0.0395863838493824005 0.0116459187120199203 0.0356235913932323456
0.0443208441138267517 0.00600231112912297249 0.0370146147906780243
0.0466767437756061554 0.00509132351726293564 0.0372391566634178162
0.0402682870626449585 0.00708149932324886322 0.0367486216127872467
0.0377118289470672607 0.0083658536896109581 0.0364320576190948486
0.0398497395217418671 0.00940876267850399017 0.0361750014126300812
0.0396972633898258209 0.00891165062785148621 0.036297529935836792
0.0425154753029346466 0.00751348678022623062 0.0366421453654766083
0.0387733727693557739 0.00700530875474214554 0.0367674008011817932
0.047200959175825119 0.0206143558025360107 0.031391192227602005
0.0477631799876689911 0.0183181539177894592 0.0325963310897350311
0.044785618782043457 0.0197753105312585831 0.0318315550684928894
0.0478577613830566406 0.0188001841306686401 0.0323433429002761841
0.0428308360278606415 0.0202656872570514679 0.0315741859376430511
0.0432835705578327179 0.021085735410451889 0.0311437938362360001
0.0407086499035358429 0.0211491268128156662 0.0311105232685804367
0.0399004817008972168 0.0206374824047088623 0.0313790552318096161
0.0446678400039672852 0.01667029969394207 0.0334611907601356506
0.043026309460401535 0.0185164846479892731 0.0324922390282154083
0.0478791333734989166 0.0205328091979026794 0.0314339920878410339
0.0399130024015903473 0.0171439815312623978 0.0332125835120677948
0.0409739650785923004 0.0166881680488586426 0.033451814204454422
0.0392276644706726074 0.0182470716536045074 0.0326336361467838287
0.0420402288436889648 0.015733182430267334 0.0339530259370803833
0.0390603430569171906 0.0154888918623328209 0.0340812429785728455
0.0384048298001289368 0.017366340383887291 0.0330958813428878784
0.0377083607017993927 0.0158314835280179977 0.0339014381170272827
0.0463878996670246124 0.0143550345674157143 0.0346763357520103455
0.0392453372478485107 0.0174170881509780884 0.0330692455172538757
0.0430603548884391785 0.0139051862061023712 0.0349124334752559662
0.0378083810210227966 0.0139757860451936722 0.034875381737947464
0.0477088801562786102 0.0230184160172939301 0.0295406002551317215
0.0446586906909942627 0.0281110834330320358 0.025028889998793602
0.0464843958616256714 0.0276646707206964493 0.0254243761301040649
0.0462446920573711395 0.0246589966118335724 0.0280871707946062088
0.0451949015259742737 0.0261373277753591537 0.0267774835228919983
0.0460006557404994965 0.026284392923116684 0.0266471952199935913
0.0447896048426628113 0.0276319254189729691 0.0254533868283033371
0.0451949834823608398 0.0239271707832813263 0.0287355128675699234
0.0441532433032989502 0.026875646784901619 0.0261233914643526077
0.0476832166314125061 0.0251160450279712677 0.0276822615414857864
0.0465667210519313812 0.0279564615339040756 0.025165872648358345
0.0391920916736125946 0.0218417085707187653 0.0305830705910921097
0.0395259149372577667 0.0234222412109375 0.0291828401386737823
0.0384925417602062225 0.0220134276896715164 0.0304309427738189697
0.0443755164742469788 0.022316470742225647 0.0301624685525894165
0.0378162786364555359 0.0239139720797538757 0.0287472046911716461
0.0392044410109519958 0.0268047209829092026 0.0261862240731716156
0.038305431604385376 0.0263133086264133453 0.0266215801239013672
0.0383651070296764374 0.0276951603591442108 0.0253973640501499176
0.0415189936757087708 0.0256532039493322372 0.0272063817828893661
0.038852497935295105 0.0215268451720476151 0.0308620166033506393
0.0390436537563800812 0.024408489465713501 0.0283091012388467789
0.0454257205128669739 0.0318358577787876129 0.0196722149848937988
0.0476117879152297974 0.031340133398771286 0.0203903932124376297
0.0445093140006065369 0.030063210055232048 0.0222403388470411301
0.0436674728989601135 0.0323599614202976227 0.0189129207283258438
0.0390692055225372314 0.0331881865859031677 0.0177130252122879028
0.0482980348169803619 0.0287103503942489624 0.02420029416680336
0.0474989116191864014 0.0308204200118780136 0.0211433302611112595
0.0480720773339271545 0.0317137613892555237 0.0198491010814905167
0.0472442656755447388 0.0321076326072216034 0.019278479740023613
0.0421508103609085083 0.0332885459065437317 0.0175676289945840836
0.0463043227791786194 0.0308892112225294113 0.0210436694324016571
0.0390605814754962921 0.0325950421392917633 0.0185723453760147095
0.0376420058310031891 0.0333069264888763428 0.0175410043448209763
0.0402906909584999084 0.0290028639137744904 0.023776516318321228
0.037703588604927063 0.0288808271288871765 0.0239533167332410812
0.0410699024796485901 0.0285244155675172806 0.0244696680456399918
0.0423746928572654724 0.0282076559960842133 0.0249285716563463211
0.0411283224821090698 0.0307562369853258133 0.0212363153696060181
0.0445811226963996887 0.0299524199217557907 0.0224008448421955109
0.041096951812505722 0.0303574781864881516 0.0218140184879302979
0.0382809117436408997 0.0313479863107204437 0.0203790180385112762
0.0444182269275188446 0.0349134169518947601 0.0133412666618824005
0.0482101514935493469 0.0353108569979667664 0.0122933052480220795
0.0462655983865261078 0.0343752205371856689 0.0147603722289204597
0.0444555692374706268 0.0346888750791549683 0.0139333326369524002
0.0391621142625808716 0.0363722629845142365 0.00949460733681917191
0.0453481227159500122 0.034923505038022995 0.0133146606385707855
0.0442981868982315063 0.0359785258769989014 0.0105328047648072243
0.0472000986337661743 0.0356588102877140045 0.011375822126865387
0.0407969802618026733 0.0359273478388786316 0.010667748749256134
0.0481988005340099335 0.0344764254987239838 0.0144935101270675659
0.0445061922073364258 0.0361564233899116516 0.0100637301802635193
0.0476971566677093506 0.0334982350468635559 0.0170727893710136414
0.0392677150666713715 0.0339680612087249756 0.0158339645713567734
0.0384898930788040161 0.034800264984369278 0.0136396186426281929
0.0425989367067813873 0.0337399877607822418 0.0164353363215923309
0.04181690514087677 0.0341564938426017761 0.0153371049091219902
0.0442617759108543396 0.0339950509369373322 0.0157627929002046585
0.038012482225894928 0.0339631661772727966 0.0158468708395957947
0.0422492809593677521 0.0348487012088298798 0.0135119026526808739
0.0415802001953125 0.0337769091129302979 0.0163379888981580734
0.0411110259592533112 0.0354086756706237793 0.0120353735983371735
0.0445608533918857574 0.0344550497829914093 0.0145498737692832947
0.0386769957840442657 0.0375857837498188019 0.000528867298271507025
0.0459245108067989349 0.0374836064875125885 0.00137038622051477432
0.0432794429361820221 0.0370743386447429657 0.00474100327119231224
0.0475141927599906921 0.0369407124817371368 0.00584152806550264359
0.0452622100710868835 0.0371503345668315887 0.00411512888967990875
0.0482862554490566254 0.0370507538318634033 0.00493522873148322105
0.0408451929688453674 0.0376108959317207336 0.000322049338137730956
0.0438683293759822845 0.0372536703944206238 0.00326406420208513737
0.0449577644467353821 0.0374006666243076324 0.00205344823189079762
0.0440233573317527771 0.0375048331916332245 0.00119555625133216381
0.0469698458909988403 0.037403549998998642 0.00202971207909286022
0.0377550125122070312 0.0370533876121044159 0.00491353729739785194
0.0417249985039234161 0.0367017462849617004 0.00780959846451878548
0.040790945291519165 0.0370011478662490845 0.00534377433359622955
0.0391669943928718567 0.0366142578423023224 0.00853011757135391235
0.0429908670485019684 0.0366119109094142914 0.0085494406521320343
0.0440265089273452759 0.0367946811020374298 0.00704420125111937523
0.0379900448024272919 0.0372360646724700928 0.00340908346697688103
0.0392138361930847168 0.0370701849460601807 0.00477524055168032646
0.0401420295238494873 0.0371489860117435455 0.00412624096497893333
0.0379141084849834442 0.0374757573008537292 0.00143504282459616661
0.0384740456938743591 0.0374724902212619781 -0.00146192754618823528
0.0386931374669075012 0.0369484350085258484 -0.00577790895476937294
0.04364771768450737 0.0372662842273712158 -0.00316016655415296555
0.039348989725112915 0.037266213446855545 -0.0031607714481651783
0.0426835939288139343 0.0370780676603317261 -0.00471031665802001953
0.0394170917570590973 0.037464682012796402 -0.00152623362373560667
0.0407968908548355103 0.037647642195224762 -1.94380991160869598e-05
0.0379009954631328583 0.0369508713483810425 -0.00575783662497997284
0.0454511567950248718 0.037589389830827713 -0.000499165616929531097
0.0409605801105499268 0.0370660312473773956 -0.00480943312868475914
0.0385482944548130035 0.0368445776402950287 -0.00663324445486068726
0.0426106899976730347 0.0367460586130619049 -0.00744462944567203522
0.0407777316868305206 0.0368004590272903442 -0.00699662044644355774
0.0386128872632980347 0.0365754291415214539 -0.00884988345205783844
0.0435758903622627258 0.0368026383221149445 -0.00697866873815655708
0.0435661822557449341 0.0371505692601203918 -0.00411320384591817856
0.0398031175136566162 0.0365827642381191254 -0.00878948625177145004
0.0403647907078266144 0.0366348810493946075 -0.0083602583035826683
0.0420465916395187378 0.0367355421185493469 -0.00753124617040157318
0.0479806959629058838 0.0371484905481338501 -0.00413030432537198067
0.0454648323357105255 0.0373287014663219452 -0.00264612492173910141
0.0459306128323078156 0.0357961058616638184 -0.0110138105228543282
0.0440178737044334412 0.0335760302841663361 -0.0168676599860191345
0.0454444773495197296 0.0354291051626205444 -0.0119815021753311157
0.045573018491268158 0.0352789834141731262 -0.0123773403465747833
0.0472813695669174194 0.0341471359133720398 -0.0153617821633815765
0.0474663972854614258 0.0339653193950653076 -0.0158411916345357895
0.0399623401463031769 0.0340471528470516205 -0.0156254153698682785
0.0442387722432613373 0.0352851413190364838 -0.0123611083254218102
0.0479508824646472931 0.0348096713423728943 -0.0136148137971758842
0.0447350628674030304 0.0335504934191703796 -0.0169349908828735352
0.0406072363257408142 0.0348233766853809357 -0.0135786775499582291
0.04129023477435112 0.0364816561341285706 -0.00920615717768669128
0.0401939637959003448 0.0354310497641563416 -0.0119763817638158798
0.0402522012591362 0.0362476371228694916 -0.00982321798801422119
0.0422857552766799927 0.0362422503530979156 -0.0098374243825674057
0.0413164831697940826 0.035767480731010437 -0.0110892802476882935
0.0396055541932582855 0.0339958444237709045 -0.0157607030123472214
0.0408484898507595062 0.0356090366840362549 -0.0115070687606930733
0.0435392521321773529 0.0354946628212928772 -0.0118086487054824829
0.0436175763607025146 0.0357191748917102814 -0.0112166590988636017
0.0477575995028018951 0.0329215675592422485 -0.0180992893874645233
0.0475322715938091278 0.0285840351134538651 -0.0243832934647798538
0.0480634421110153198 0.0322760604321956635 -0.0190344695001840591
0.0481619387865066528 0.032101023942232132 -0.0192880555987358093
0.0440735891461372375 0.031093250960111618 -0.0207480676472187042
0.0443688780069351196 0.0294885225594043732 -0.0230729170143604279
0.0466054938733577728 0.0288666356354951859 -0.0239738766103982925
0.0411185063421726227 0.0297552049160003662 -0.0226865597069263458
0.0461895912885665894 0.0322806872427463531 -0.0190277677029371262
0.0445399321615695953 0.0296171605587005615 -0.0228865519165992737
0.0474078729748725891 0.0301027186214923859 -0.0221830997616052628
0.0400863736867904663 0.0306983310729265213 -0.0213202070444822311
0.0414725504815578461 0.0332479514181613922 -0.0176264401525259018
0.0409220904111862183 0.0302663333714008331 -0.0219460614025592804
0.0427030660212039948 0.0317127332091331482 -0.0198505930602550507
0.0431287139654159546 0.0309135820716619492 -0.0210083611309528351
0.0425979979336261749 0.0332774370908737183 -0.0175837278366088867
0.0382086634635925293 0.0313117764890193939 -0.0204314775764942169
0.0389432273805141449 0.0330271199345588684 -0.0179463736712932587
0.0410125777125358582 0.0324337929487228394 -0.0188059527426958084
0.0460629686713218689 0.0329495370388031006 -0.0180587694048881531
0.0401084460318088531 0.0303093474358320236 -0.0218837466090917587
0.0389323793351650238 0.021852586418390274 -0.0305734351277351379
0.0422841869294643402 0.0238144434988498688 -0.0288353804498910904
0.0409884192049503326 0.0233805663883686066 -0.0292197614908218384
0.0385991446673870087 0.0217474065721035004 -0.0306666139513254166
0.0469520948827266693 0.0263777449727058411 -0.0265644937753677368
0.0448841080069541931 0.0243259090930223465 -0.0283822603523731232
0.0401587449014186859 0.0218342803418636322 -0.0305896513164043427
0.0442160218954086304 0.0219139475375413895 -0.0305190738290548325
0.0437920056283473969 0.0228291228413581848 -0.0297082997858524323
0.047860223799943924 0.0264257378876209259 -0.0265219751745462418
0.0479566231369972229 0.0249582845717668533 -0.0278220251202583313
0.0425265543162822723 0.0273825358599424362 -0.0256743263453245163
0.0384286046028137207 0.0228137224912643433 -0.0297219399362802505
0.0378310419619083405 0.0254760682582855225 -0.0273633096367120743
0.0392229817807674408 0.0238672196865081787 -0.0287886224687099457
0.0407300256192684174 0.0239652078598737717 -0.0287018138915300369
0.0406733155250549316 0.0246282443404197693 -0.02811441570520401
0.038234613835811615 0.0267326086759567261 -0.0262501128017902374
0.0407275184988975525 0.0248654671013355255 -0.0279042534530162811
0.0413730144500732422 0.0273815952241420746 -0.0256751589477062225
0.0427879616618156433 0.0281703826040029526 -0.0249763559550046921
0.0482848137617111206 0.0170157738029956818 -0.0332798734307289124
0.0465269759297370911 0.0172574985772371292 -0.0331530049443244934
0.0399433262646198273 0.013369416818022728 -0.0351936295628547668
0.0463683828711509705 0.0194567739963531494 -0.0319987386465072632
0.0463035665452480316 0.0147173246368765831 -0.0344861932098865509
0.0431749112904071808 0.0137421227991580963 -0.0349980182945728302
0.0472993701696395874 0.0145364943891763687 -0.0345810987055301666
0.0381341502070426941 0.013514278456568718 -0.0351176001131534576
0.0460189022123813629 0.0162644144147634506 -0.0336742177605628967
0.0465978607535362244 0.0191732682287693024 -0.032147534191608429
0.0452629029750823975 0.0148374075070023537 -0.0344231687486171722
0.0395747534930706024 0.0206088274717330933 -0.0313940942287445068
0.0392927862703800201 0.0153769860044121742 -0.034139975905418396
0.0376990959048271179 0.0141360228881239891 -0.0347912833094596863
0.0376840345561504364 0.0186920464038848877 -0.0324000976979732513
0.0419713370501995087 0.0186231248080730438 -0.032436273992061615
0.0382562391459941864 0.0167564339935779572 -0.0334159843623638153
0.0397805124521255493 0.0207709353417158127 -0.0313090123236179352
0.0439522899687290192 0.0210203565657138824 -0.0311781056225299835
0.0444922894239425659 0.0213022567331790924 -0.0310301538556814194
0.0437248572707176208 0.020044274628162384 -0.0316903963685035706
0.042773168534040451 0.00863562524318695068 -0.0363655649125576019
0.0410263948142528534 0.00637505389750003815 -0.036922745406627655
0.0466563068330287933 0.00788646936416625977 -0.0365502163767814636
0.0439198687672615051 0.0045704166404902935 -0.037367548793554306
0.0450657494366168976 0.00734883919358253479 -0.0366827286779880524
0.0411501526832580566 0.00543039944022893906 -0.0371555797755718231
0.0468371808528900146 0.0103401560336351395 -0.0359454341232776642
0.0417896322906017303 0.00455489940941333771 -0.037371370941400528
0.0462620370090007782 0.00596459629014134407 -0.0370239131152629852
0.0442310869693756104 0.00795511249452829361 -0.0365332961082458496
0.0422637574374675751 0.00779230520129203796 -0.0365734249353408813
0.0407818891108036041 0.0105841886252164841 -0.0358852855861186981
0.0377597175538539886 0.0121915759518742561 -0.0354891009628772736
0.038172110915184021 0.00668036192655563354 -0.0368474945425987244
0.0388913713395595551 0.00886812619864940643 -0.0363082587718963623
0.0465447604656219482 0.0126528218388557434 -0.0353754162788391113
0.0392671376466751099 0.00597636494785547256 -0.0370210148394107819
0.038285478949546814 0.0102439019829034805 -0.0359691604971885681
0.0393400117754936218 0.01222987100481987 -0.0354796610772609711
0.0416376851499080658 0.00844677351415157318 -0.0364121124148368835
0.0382561199367046356 0.00642342027276754379 -0.0369108244776725769
0.0451341420412063599 0.00134344398975372314 -0.0373754873871803284
0.041547037661075592 -0.0017593067605048418 -0.0373754873871803284
0.0472707897424697876 -0.00363353313878178596 -0.0373754873871803284
0.0428686439990997314 -0.0032849207054823637 -0.0373754873871803284
0.0451896451413631439 0.00114995473995804787 -0.0373754873871803284
0.0446565486490726471 0.000655867625027894974 -0.0373754873871803284
0.0477370172739028931 0.00223463913425803185 -0.0373754873871803284
0.0480121113359928131 -0.00183877837844192982 -0.0373754873871803284
0.0478976219892501831 0.00410372717306017876 -0.0373754873871803284
0.0407559946179389954 -0.00340970233082771301 -0.0373754873871803284
0.0430763065814971924 -0.000379383563995361328 -0.0373754873871803284
0.0402990095317363739 2.95217614620923996e-05 -0.0373754873871803284
0.0401367396116256714 0.00391512922942638397 -0.0373754873871803284
0.0452309101819992065 0.00197731517255306244 -0.0373754873871803284
0.038899596780538559 0.00310640130192041397 -0.0373754873871803284
0.0446153618395328522 0.00443743541836738586 -0.0373754873871803284
0.0393691025674343109 0.00277768587693572044 -0.0373754873871803284
0.0427786931395530701 0.00451716501265764236 -0.0373754873871803284
0.0405668541789054871 0.00407590577378869057 -0.0373754873871803284
0.0388304665684700012 0.000686230487190186977 -0.0373754873871803284
0.0425397157669067383 0.000307524111121892929 -0.0373754873871803284
0.0465292856097221375 0.00358489574864506721 -0.0373754873871803284
0.0457284413278102875 -0.0116032026708126068 -0.0356341227889060974
0.0415938086807727814 -0.0104174800217151642 -0.035926375538110733
0.041337430477142334 -0.0104625709354877472 -0.0359152629971504211
0.0471767783164978027 -0.00865617208182811737 -0.0363604985177516937
0.0479629039764404297 -0.00690413685515522957 -0.0367923378944396973
0.0424371734261512756 -0.0132601801306009293 -0.0352257154881954193
0.0433737300336360931 -0.0110130123794078827 -0.0357795916497707367
0.0456084161996841431 -0.00943225249648094177 -0.0361692123115062714
0.0415094532072544098 -0.0126818614080548286 -0.0353682562708854675
0.0416093580424785614 -0.0113675873726606369 -0.0356921963393688202
0.0429108068346977234 -0.00719003425911068916 -0.0367218703031539917
0.0449044667184352875 -0.0065345466136932373 -0.0368834324181079865
0.0384836941957473755 -0.00755330268293619156 -0.0366323329508304596
0.0379304662346839905 -0.0128065021708607674 -0.0353375338017940521
0.038868095725774765 -0.00578906526789069176 -0.0370671749114990234
0.0418836399912834167 -0.00757794780656695366 -0.0366262607276439667
0.0424478501081466675 -0.00682831136509776115 -0.0368110276758670807
0.043572399765253067 -0.0048276437446475029 -0.0373041443526744843
0.0444432199001312256 -0.00581485731527209282 -0.0370608195662498474
0.0376909114420413971 -0.00873979553580284119 -0.036339886486530304
0.0429100729525089264 -0.00692426459863781929 -0.036787375807762146
0.0380324199795722961 -0.0212151668965816498 -0.0310758613049983978
0.0479345321655273438 -0.0173305030912160873 -0.0331146903336048126
0.0396783724427223206 -0.0201770775020122528 -0.0316206924617290497
0.0449167974293231964 -0.0171925760805606842 -0.0331870801746845245
0.0419922210276126862 -0.0205085203051567078 -0.0314467400312423706
0.0462038591504096985 -0.0210851524025201797 -0.0311440993100404739
0.0396051853895187378 -0.0210764743387699127 -0.0311486534774303436
0.0476448424160480499 -0.0169024541974067688 -0.0333393476903438568
0.0470090880990028381 -0.0162869729101657867 -0.0336623787879943848
0.0429878607392311096 -0.0206912830471992493 -0.0313508175313472748
0.0385957136750221252 -0.0167963393032550812 -0.0333950407803058624
0.0382873527705669403 -0.0152018172666430473 -0.0342319123446941376
0.0403437614440917969 -0.0170882157981395721 -0.0332418531179428101
0.0426863282918930054 -0.0160391870886087418 -0.0337924249470233917
0.0401136390864849091 -0.0194042716175317764 -0.032026294618844986
0.04262571781873703 -0.0140282539650797844 -0.0348478443920612335
0.0407364517450332642 -0.0144009534269571304 -0.0346522368490695953
0.0460889935493469238 -0.0148800080642104149 -0.0344008095562458038
0.0418226048350334167 -0.0167874060571193695 -0.033399730920791626
0.0388356000185012817 -0.0174166485667228699 -0.0330694764852523804
0.0423123911023139954 -0.0156698655337095261 -0.033986259251832962
0.0470436103641986847 -0.0236887149512767792 -0.0289467666298151016
0.0397834889590740204 -0.027393026277422905 -0.0256650317460298538
0.0446470454335212708 -0.0274533964693546295 -0.0256115496158599854
0.0453083999454975128 -0.0242290366441011429 -0.0284680835902690887
0.0482411906123161316 -0.026865735650062561 -0.0261321719735860825
0.0457946844398975372 -0.0270172879099845886 -0.0259979069232940674
0.0439541339874267578 -0.0279396045953035355 -0.0251808073371648788
0.0388665348291397095 -0.0280727315694093704 -0.0250628665089607239
0.0402357392013072968 -0.0274274516850709915 -0.0256345346570014954
0.0398699268698692322 -0.0270155444741249084 -0.0259994529187679291
0.0384610630571842194 -0.0268556419759988785 -0.0261411126703023911
0.0417625829577445984 -0.0220337975770235062 -0.0304128937423229218
0.0389755293726921082 -0.0232680421322584152 -0.0293194502592086792
0.0438084825873374939 -0.0223588719964027405 -0.0301249045878648758
0.0461778491735458374 -0.0223916880786418915 -0.0300958305597305298
0.0392521806061267853 -0.0232982747256755829 -0.029292665421962738
0.0381257981061935425 -0.0221279207617044449 -0.0303295087069272995
0.0443434044718742371 -0.0236781425774097443 -0.0289561320096254349
0.0405118204653263092 -0.0224953275173902512 -0.0300040151923894882
0.0416580848395824432 -0.0233324058353900909 -0.0292624272406101227
0.0464425869286060333 -0.0299103278666734695 -0.0224618259817361832
0.0469262413680553436 -0.0290733836591243744 -0.0236743483692407608
0.0416101627051830292 -0.0328635349869728088 -0.0181833691895008087
0.0468121320009231567 -0.0325029678642749786 -0.0187057387083768845
0.044972151517868042 -0.0298917386680841446 -0.0224887579679489136
0.0479612872004508972 -0.030319875106215477 -0.0218684952706098557
0.047478850930929184 -0.0322419069707393646 -0.0190839525312185287
0.0481147468090057373 -0.0309735555201768875 -0.0209214761853218079
0.041459348052740097 -0.0317875072360038757 -0.0197422616183757782
0.0420619398355484009 -0.0328492224216461182 -0.0182041004300117493
0.0433402694761753082 -0.0309501383453607559 -0.0209554005414247513
0.0398626029491424561 -0.0289572067558765411 -0.0238426625728607178
0.0457546897232532501 -0.028913542628288269 -0.0239059161394834518
0.0396867543458938599 -0.0320380032062530518 -0.0193793568760156631
0.0410022623836994171 -0.0287133995443582535 -0.0241958778351545334
0.0388319976627826691 -0.0297935586422681808 -0.0226309970021247864
0.0387089699506759644 -0.0318803191184997559 -0.0196077991276979446
0.0437268577516078949 -0.0286118388175964355 -0.0243430137634277344
0.0396227091550827026 -0.0307772886008024216 -0.0212058145552873611
0.0415783189237117767 -0.0289381705224514008 -0.0238702371716499329
0.0384522750973701477 -0.0300531405955553055 -0.0222549233585596085
0.0383979193866252899 -0.0285309925675392151 -0.0244601387530565262
0.0448776595294475555 -0.0354708507657051086 -0.0118714300915598869
0.0416556932032108307 -0.0364683754742145538 -0.0092411823570728302
0.0421820022165775299 -0.0364483483135700226 -0.00929398927837610245
0.0469062477350234985 -0.0353248901665210724 -0.0122562944889068604
0.0457285866141319275 -0.0342532694339752197 -0.0150819327682256699
0.0411611795425415039 -0.0361815057694911957 -0.00999758858233690262
0.0453724972903728485 -0.0346101894974708557 -0.0141408080235123634
0.0464061088860034943 -0.0363162457942962646 -0.00964231323450803757
0.0438898354768753052 -0.0347927398979663849 -0.0136594641953706741
0.0401020050048828125 -0.036342129111289978 -0.00957406125962734222
0.0442762896418571472 -0.0336193963885307312 -0.0167533103376626968
0.0402680262923240662 -0.0349884554743766785 -0.0131434006616473198
0.0390296652913093567 -0.0346261151134967804 -0.0140988221392035484
0.0452839396893978119 -0.033634532243013382 -0.016713406890630722
0.0396969504654407501 -0.0335746556520462036 -0.0168712809681892395
0.0403654761612415314 -0.0338968150317668915 -0.0160218235105276108
0.040881715714931488 -0.0342332981526851654 -0.0151345841586589813
0.0400200709700584412 -0.0335102155804634094 -0.0170411933213472366
0.038671594113111496 -0.0335757844150066376 -0.0168683100491762161
0.0388173460960388184 -0.033651839941740036 -0.0166677739471197128
0.0463628992438316345 -0.0338609777390956879 -0.0161163099110126495
0.0454623661935329437 -0.0370674319565296173 -0.00479787681251764297
0.0447295606136322021 -0.0372940637171268463 -0.00293140602298080921
0.0468102768063545227 -0.0373876318335533142 -0.00216079456731677055
0.0474462062120437622 -0.0375323295593261719 -0.000969093525782227516
0.045724920928478241 -0.0371996983885765076 -0.0037085807416588068
0.0450573116540908813 -0.037341240793466568 -0.00254286895506083965
0.0464696399867534637 -0.0368756093084812164 -0.00637769186869263649
0.046730436384677887 -0.0372072048485279083 -0.00364675582386553288
0.0412162840366363525 -0.0375699065625667572 -0.000659642857499420643
0.0422773845493793488 -0.0375481769442558289 -0.000838602485600858927
0.04573783278465271 -0.0375023745000362396 -0.00121580110862851143
0.0411929525434970856 -0.0367870554327964783 -0.00710701756179332733
0.0381736084818840027 -0.0369632095098495483 -0.00565623259171843529
0.0426600649952888489 -0.0368843786418437958 -0.00630547013133764267
0.0433662980794906616 -0.0370268300175666809 -0.00513228215277194977
0.041986364871263504 -0.0370559319853782654 -0.00489258626475930214
0.0413399115204811096 -0.0365603081881999969 -0.00897443108260631561
0.0385270863771438599 -0.0370198599994182587 -0.00518969306722283363
0.0435178503394126892 -0.0367438085377216339 -0.00746318232268095016
0.0440389849245548248 -0.036800481379032135 -0.00699645094573497772
0.0409667156636714935 -0.0371796786785125732 -0.00387344369664788246
0.0413520894944667816 -0.0366892442107200623 -0.00791255198419094086
-0.024443507194519043 -0.0343333184719085693 0.00327553669922053814
-0.02448304183781147 -0.0356585457921028137 0.00286196055822074413
-0.0242968425154685974 -0.0365445129573345184 0.00421025557443499565
-0.024179212749004364 -0.0371327623724937439 0.00505605340003967285
-0.022733660414814949 -0.0356394685804843903 0.00966637581586837769
-0.0228838399052619934 -0.0356371775269508362 0.0092706531286239624
-0.0230034776031970978 -0.0371844731271266937 0.00877124816179275513
-0.0236168168485164642 -0.0340686514973640442 0.00715278089046478271
-0.0241384189575910568 -0.0363424494862556458 0.00549306673929095268
-0.0202260799705982208 -0.0375820249319076538 0.0140043040737509727
-0.0204595550894737244 -0.036994200199842453 0.0136928940191864967
-0.021334182471036911 -0.0373815931379795074 0.0124080907553434372
-0.0219057798385620117 -0.0346348881721496582 0.0114676859229803085
-0.0215558893978595734 -0.032817106693983078 0.012110510841012001
-0.0174582172185182571 -0.0341710075736045837 0.0173984691500663757
-0.0165091212838888168 -0.0360709838569164276 0.0182388909161090851
-0.016901770606637001 -0.0350465774536132812 0.0178912505507469177
-0.018349016085267067 -0.0355543121695518494 0.0166089944541454315
-0.0186613406985998154 -0.0373630821704864502 0.0162793863564729691
-0.0197313092648983002 -0.0320582352578639984 0.0148367360234260559
-0.0189768262207508087 -0.0348843149840831757 0.0158543530851602554
