ply
format ascii 1.0
element vertex 742
property float x
property float y
property float z
end_header
0.104303695261478424 0.159999996423721313 0.0430518798530101776
0.0132164359092712402 0.159999996423721313 0.000820502638816833496
0.0837775766849517822 0.159999996423721313 0.00536790862679481506
0.134562090039253235 0.159999996423721313 0.045029226690530777
0.115326434373855591 0.159999996423721313 0.0551540441811084747
0.155828356742858887 0.159999996423721313 0.0533037222921848297
0.138445481657981873 0.159999996423721313 0.00679472833871841431
0.0613050907850265503 0.159999996423721313 0.037381291389465332
0.0597849935293197632 0.159999996423721313 0.0170223340392112732
0.0144477337598800659 0.159999996423721313 4.78699803352355957e-05
0.126494824886322021 0.159999996423721313 0.036454424262046814
0.131332874298095703 0.159999996423721313 0.0791854336857795715
0.142944350838661194 0.159999996423721313 0.0216438807547092438
0.0660364925861358643 0.159999996423721313 0.00877007842063903809
0.0713586881756782532 0.159999996423721313 0.0220309235155582428
0.0954745858907699585 0.159999996423721313 0.0625088736414909363
0.0917830467224121094 0.159999996423721313 0.0165262594819068909
0.159417763352394104 0.159999996423721313 0.0309819169342517853
0.040661640465259552 0.159999996423721313 0.0221504345536231995
0.0581172630190849304 0.159999996423721313 0.0229491442441940308
0.0606098324060440063 0.159999996423721313 0.0283580496907234192
0.134547442197799683 0.159999996423721313 0.0243990439921617508
0.117137141525745392 0.159999996423721313 0.0560796335339546204
0.140161812305450439 0.159999996423721313 0.0545985698699951172
0.0301678627729415894 0.159999996423721313 0.0196684524416923523
0.143480315804481506 0.159999996423721313 0.0193438306450843811
0.109434828162193298 0.159999996423721313 0.00275143980979919434
0.149349823594093323 0.159999996423721313 0.0193826723843812943
0.137084618210792542 0.159999996423721313 0.0442277714610099792
0.0832654610276222229 0.159999996423721313 0.0273346006870269775
0.134466007351875305 0.159999996423721313 0.0446859784424304962
0.107441797852516174 0.159999996423721313 0.00507036969065666199
0.102615341544151306 0.159999996423721313 0.00656037032604217529
0.118476971983909607 0.159999996423721313 0.0151969157159328461
0.13192807137966156 0.159999996423721313 0.0336437895894050598
0.0311075598001480103 0.159999996423721313 0.00256060808897018433
0.0928768441081047058 0.159999996423721313 0.0481157675385475159
0.147302031517028809 0.159999996423721313 0.0131242899224162102
0.110299885272979736 0.159999996423721313 0.0266874246299266815
0.132264226675033569 0.159999996423721313 0.0122462213039398193
0.15893884003162384 0.159999996423721313 0.0363339260220527649
0.118881165981292725 0.159999996423721313 0.0405424386262893677
0.113992899656295776 0.159999996423721313 0.0639516562223434448
0.0664085745811462402 0.159999996423721313 0.0350949764251708984
0.051088087260723114 0.159999996423721313 9.92044806480407715e-05
0.0680852457880973816 0.159999996423721313 0.0411501526832580566
0.153612390160560608 0.159999996423721313 0.0897853747010231018
0.123503372073173523 0.159999996423721313 0.051647476851940155
0.148137331008911133 0.159999996423721313 0.0223042275756597519
0.0815857425332069397 0.159999996423721313 0.0418034940958023071
0.15778467059135437 0.159999996423721313 0.0464109443128108978
0.0154217928647994995 0.159999996423721313 0.00357603281736373901
0.114977180957794189 0.159999996423721313 0.0514950565993785858
0.0803620293736457825 0.159999996423721313 0.0173111297190189362
0.0973839461803436279 0.159999996423721313 0.00120249763131141663
0.130745694041252136 0.159999996423721313 0.0346908606588840485
0.0869640782475471497 0.159999996423721313 0.0564764402806758881
0.131206855177879333 0.159999996423721313 0.0536448061466217041
0.0934163480997085571 0.159999996423721313 0.0631770417094230652
0.102670952677726746 0.159999996423721313 0.0266885906457901001
0.145049974322319031 0.159999996423721313 0.0955845192074775696
0.155978530645370483 0.159999996423721313 0.00883330311626195908
0.153133198618888855 0.159999996423721313 0.102783218026161194
0.0765220373868942261 0.159999996423721313 0.00486117973923683167
0.123630344867706299 0.159999996423721313 0.0704973042011260986
0.129134178161621094 0.159999996423721313 0.0741015002131462097
0.030848085880279541 0.159999996423721313 0.00855787843465805054
0.0585730895400047302 0.159999996423721313 0.0300144106149673462
0.122430771589279175 0.159999996423721313 0.00541047193109989166
0.0231991708278656006 0.159999996423721313 0.00751914829015731812
0.0644319579005241394 0.159999996423721313 0.0400950014591217041
0.103140130639076233 0.159999996423721313 0.0383220687508583069
0.123064890503883362 0.159999996423721313 0.0801461711525917053
0.107717305421829224 0.159999996423721313 0.00499546155333518982
0.146051302552223206 0.159999996423721313 0.0854939296841621399
0.105298995971679688 0.159999996423721313 0.0223788395524024963
0.0686004906892776489 0.159999996423721313 0.0396220609545707703
0.0978697985410690308 0.159999996423721313 0.0271966233849525452
0.120838187634944916 0.159999996423721313 0.022432299330830574
0.148846045136451721 0.159999996423721313 0.00178594561293721199
0.0698354765772819519 0.159999996423721313 0.00983097776770591736
0.146803230047225952 0.159999996423721313 0.093448244035243988
0.147416621446609497 0.159999996423721313 0.0343749746680259705
0.0899904072284698486 0.159999996423721313 0.0238060504198074341
0.0960564166307449341 0.159999996423721313 0.0271975696086883545
0.152019187808036804 0.159999996423721313 0.0310637801885604858
0.110954523086547852 0.159999996423721313 0.0336989201605319977
0.147886931896209717 0.159999996423721313 0.0496974140405654907
0.150884971022605896 0.159999996423721313 0.0879836380481719971
0.104138687252998352 0.159999996423721313 0.0180691629648208618
0.140292584896087646 0.159999996423721313 0.0123272482305765152
0.139801144599914551 0.159999996423721313 0.0391306467354297638
0.0718428865075111389 0.159999996423721313 0.0490259304642677307
0.0751039460301399231 0.159999996423721313 0.0398687571287155151
0.125894695520401001 0.159999996423721313 0.0184128265827894211
0.116230115294456482 0.159999996423721313 0.0180586837232112885
0.060541205108165741 0.159999996423721313 0.0311289504170417786
0.0411637946963310242 0.159999996423721313 0.00326596200466156006
0.0909258723258972168 0.159999996423721313 0.0511601530015468597
0.0895248726010322571 0.159999996423721313 0.00987378880381584167
0.0958921238780021667 0.159999996423721313 0.00646693259477615356
0.119360081851482391 0.159999996423721313 0.0547001957893371582
0.119490951299667358 0.159999996423721313 0.0121819619089365005
0.140403926372528076 0.159999996423721313 0.0719052702188491821
0.0569476708769798279 0.159999996423721313 0.0154277458786964417
0.137033626437187195 0.159999996423721313 0.0600030943751335144
0.10839448869228363 0.159999996423721313 0.0544921010732650757
0.136873841285705566 0.159999996423721313 0.0345124863088130951
0.143793001770973206 0.159999996423721313 0.0959307476878166199
0.154773205518722534 0.159999996423721313 0.0645218119025230408
0.0456269755959510803 0.159999996423721313 0.0230919346213340759
0.061853453516960144 0.159999996423721313 0.0147350355982780457
0.00455911457538604736 0.159999996423721313 0.000158734619617462158
0.158824041485786438 0.159999996423721313 0.0830958932638168335
0.143493786454200745 0.159999996423721313 0.0479479357600212097
0.134479105472564697 0.159999996423721313 0.0556521490216255188
0.109837859869003296 0.159999996423721313 0.00519234687089920044
0.102522768080234528 0.159999996423721313 0.0644994378089904785
0.0764071270823478699 0.159999996423721313 0.0444756895303726196
0.134405851364135742 0.159999996423721313 0.00633344240486621857
0.0834316685795783997 0.159999996423721313 0.00976032018661499023
0.037130400538444519 0.159999996423721313 0.0137511491775512695
0.126352995634078979 0.159999996423721313 0.0557754337787628174
0.117655202746391296 0.159999996423721313 0.0223532672971487045
0.0874905139207839966 0.159999996423721313 0.00993833690881729126
0.0824604034423828125 0.159999996423721313 0.027018282562494278
0.0560700595378875732 0.159999996423721313 0.0336539596319198608
0.126746654510498047 0.159999996423721313 0.0754419714212417603
0.126654654741287231 0.159999996423721313 0.044497467577457428
0.124834664165973663 0.159999996423721313 0.0032891836017370224
0.0499874204397201538 0.159999996423721313 0.0329267233610153198
0.0681921392679214478 0.159999996423721313 0.0367117598652839661
0.11384303867816925 0.159999996423721313 0.0136446729302406311
0.0681882873177528381 0.159999996423721313 0.0297623723745346069
0.13475114107131958 0.159999996423721313 0.0281713027507066727
0.0926053896546363831 0.159999996423721313 0.0205756984651088715
0.0312400460243225098 0.159999996423721313 0.0138753801584243774
0.159735023975372314 0.159999996423721313 0.107050955295562744
0.0980295836925506592 0.159999996423721313 0.00649966299533843994
0.0947454348206520081 0.159999996423721313 0.0109648443758487701
0.112465851008892059 0.159999996423721313 0.0139911435544490814
0.111272439360618591 0.159999996423721313 0.0440336242318153381
0.124301493167877197 0.159999996423721313 0.0193602126091718674
0.0688816830515861511 0.159999996423721313 0.0414015203714370728
0.0544428154826164246 0.159999996423721313 0.0177719295024871826
0.112167090177536011 0.159999996423721313 0.0661993920803070068
0.137628063559532166 0.159999996423721313 0.0684951469302177429
0.117374494671821594 0.159999996423721313 0.0484323054552078247
0.158540412783622742 0.159999996423721313 0.068673357367515564
0.0473308935761451721 0.159999996423721313 0.0306928455829620361
0.119415968656539917 0.159999996423721313 0.0534411966800689697
0.135977804660797119 0.159999996423721313 0.0603398755192756653
0.0947785228490829468 0.159999996423721313 0.00935422629117965698
0.100507527589797974 0.159999996423721313 0.0146015919744968414
0.0995296239852905273 0.159999996423721313 0.0134033672511577606
0.124296724796295166 0.159999996423721313 0.0654663816094398499
0.0987731963396072388 0.159999996423721313 0.0396662205457687378
0.0803902596235275269 0.159999996423721313 0.0321893133223056793
0.0930914133787155151 0.159999996423721313 0.0141180716454982758
0.100811168551445007 0.159999996423721313 0.0358843356370925903
0.0652584433555603027 0.159999996423721313 0.0386094450950622559
0.118070602416992188 0.159999996423721313 0.0556241497397422791
0.136489957571029663 0.159999996423721313 0.0640702620148658752
0.149721503257751465 0.159999996423721313 0.0482652187347412109
0.137203708291053772 0.159999996423721313 0.0753584876656532288
0.0905963405966758728 0.159999996423721313 0.0669140741229057312
0.0382218174636363983 0.159999996423721313 0.0883216634392738342
0.0178349371999502182 0.159999996423721313 0.0443020835518836975
0.0387880392372608185 0.159999996423721313 0.0433342829346656799
0.000124927828437648714 0.159999996423721313 0.100286886096000671
0.0691850632429122925 0.159999996423721313 0.0752569958567619324
0.0784975066781044006 0.159999996423721313 0.0637424290180206299
0.0116123426705598831 0.159999996423721313 0.10327892005443573
0.0283909719437360764 0.159999996423721313 0.103436112403869629
0.133409202098846436 0.159999996423721313 0.107779502868652344
0.0390200428664684296 0.159999996423721313 0.0364484861493110657
0.0683159679174423218 0.159999996423721313 0.0756832361221313477
0.0555928945541381836 0.159999996423721313 0.0500617735087871552
0.0575565993785858154 0.159999996423721313 0.0956765562295913696
0.031223442405462265 0.159999996423721313 0.0574897192418575287
0.0932686030864715576 0.159999996423721313 0.0763606354594230652
0.0692198723554611206 0.159999996423721313 0.055096801370382309
0.0261432155966758728 0.159999996423721313 0.0715252459049224854
0.0388633348047733307 0.159999996423721313 0.104794114828109741
0.0510786287486553192 0.159999996423721313 0.110377982258796692
0.079389914870262146 0.159999996423721313 0.0588334836065769196
0.0416703410446643829 0.159999996423721313 0.0297414213418960571
0.0671771690249443054 0.159999996423721313 0.0641191080212593079
0.0721380934119224548 0.159999996423721313 0.0638470500707626343
0.0281747095286846161 0.159999996423721313 0.0363701358437538147
0.0856813713908195496 0.159999996423721313 0.0974587723612785339
0.0125664696097373962 0.159999996423721313 0.0773163586854934692
0.0506558157503604889 0.159999996423721313 0.0495021864771842957
0.0499392077326774597 0.159999996423721313 0.0421588867902755737
0.115892462432384491 0.159999996423721313 0.088536091148853302
0.0123034510761499405 0.159999996423721313 0.0551416017115116119
0.0702832713723182678 0.159999996423721313 0.0924010425806045532
0.0181478802114725113 0.159999996423721313 0.0571551807224750519
0.115867935121059418 0.159999996423721313 0.0825680121779441833
0.0517347753047943115 0.159999996423721313 0.0624103210866451263
0.0230622831732034683 0.159999996423721313 0.0321996808052062988
0.0275414343923330307 0.159999996423721313 0.101205624639987946
0.0581905171275138855 0.159999996423721313 0.109762147068977356
0.00125024782028049231 0.159999996423721313 0.0357028990983963013
0.00733357807621359825 0.159999996423721313 0.0226213261485099792
0.102373108267784119 0.159999996423721313 0.0923373997211456299
0.0636151954531669617 0.159999996423721313 0.101493775844573975
0.0185860097408294678 0.159999996423721313 0.104751370847225189
0.0518868900835514069 0.159999996423721313 0.0376301780343055725
0.139665991067886353 0.159999996423721313 0.0978844091296195984
0.0795561820268630981 0.159999996423721313 0.0917058885097503662
0.109053082764148712 0.159999996423721313 0.0937533751130104065
0.0381187349557876587 0.159999996423721313 0.0822874382138252258
0.0283674560487270355 0.159999996423721313 0.0431337282061576843
0.0792272388935089111 0.159999996423721313 0.0943204313516616821
0.0103096626698970795 0.159999996423721313 0.0849751383066177368
0.00455666938796639442 0.159999996423721313 0.0595083422958850861
0.0824841558933258057 0.159999996423721313 0.0917933881282806396
0.122854135930538177 0.159999996423721313 0.103564344346523285
0.0476628541946411133 0.159999996423721313 0.071168161928653717
0.0293558146804571152 0.159999996423721313 0.0788911059498786926
0.0609412975609302521 0.159999996423721313 0.0875366181135177612
0.0170707814395427704 0.159999996423721313 0.0750129371881484985
0.0743972212076187134 0.159999996423721313 0.10415639728307724
0.0398397371172904968 0.159999996423721313 0.0577126890420913696
0.120950721204280853 0.159999996423721313 0.100523166358470917
0.00429768720641732216 0.159999996423721313 0.0602318048477172852
0.0959934145212173462 0.159999996423721313 0.08185538649559021
0.0319101735949516296 0.159999996423721313 0.0545050911605358124
0.0893562138080596924 0.159999996423721313 0.0975499972701072693
0.117836713790893555 0.159999996423721313 0.0816436037421226501
0.0401099473237991333 0.159999996423721313 0.103624843060970306
0.0217275321483612061 0.159999996423721313 0.0619364939630031586
0.00412248121574521065 0.159999996423721313 0.0598999336361885071
0.0170267596840858459 0.159999996423721313 0.0183711424469947815
0.0650418996810913086 0.159999996423721313 0.0832168906927108765
0.0271013230085372925 0.159999996423721313 0.0960062816739082336
0.0315070599317550659 0.159999996423721313 0.0332122743129730225
0.0807780995965003967 0.159999996423721313 0.107224762439727783
0.0152321634814143181 0.159999996423721313 0.0754018872976303101
0.124714352190494537 0.159999996423721313 0.107292704284191132
0.0490033775568008423 0.159999996423721313 0.0977530777454376221
0.00557370670139789581 0.159999996423721313 0.042696930468082428
0.0359456315636634827 0.159999996423721313 0.09871692955493927
0.109193466603755951 0.159999996423721313 0.103492103517055511
0.121702589094638824 0.159999996423721313 0.105948708951473236
0.140205323696136475 0.159999996423721313 0.109216578304767609
0.0322867557406425476 0.159999996423721313 0.0383336097002029419
0.0567451119422912598 0.159999996423721313 0.0429989323019981384
0.032846406102180481 0.159999996423721313 0.0852085277438163757
0.0484835505485534668 0.159999996423721313 0.0748811513185501099
0.0714946314692497253 0.159999996423721313 0.0715411901473999023
0.0958263352513313293 0.159999996423721313 0.0859151259064674377
0.0144590232521295547 0.159999996423721313 0.041808396577835083
0.120738372206687927 0.159999996423721313 0.0921932235360145569
0.0464386530220508575 0.159999996423721313 0.0513587743043899536
0.1310272216796875 0.159999996423721313 0.108445823192596436
0.141576215624809265 0.159999996423721313 0.104402974247932434
0.0873085856437683105 0.159999996423721313 0.105445355176925659
0.0471256040036678314 0.159999996423721313 0.094226345419883728
0.0110576124861836433 0.159999996423721313 0.0333766341209411621
0.0529553219676017761 0.159999996423721313 0.0503740459680557251
0.0459179915487766266 0.159999996423721313 0.0912370756268501282
0.017492443323135376 0.159999996423721313 0.103251434862613678
0.110823161900043488 0.159999996423721313 0.0893910229206085205
0.0750204771757125854 0.159999996423721313 0.0857681557536125183
0.000408290827181190252 0.159999996423721313 0.0149786099791526794
0.0176778249442577362 0.159999996423721313 0.039976269006729126
0.135866761207580566 0.159999996423721313 0.10648588091135025
0.0134391188621520996 0.159999996423721313 0.0922465473413467407
0.0511321723461151123 0.159999996423721313 0.0867637023329734802
0.00188913708552718163 0.159999996423721313 0.0712186545133590698
0.0914149433374404907 0.159999996423721313 0.0914990454912185669
0.0907673686742782593 0.159999996423721313 0.0645757094025611877
0.0646968185901641846 0.159999996423721313 0.0525424107909202576
0.108443327248096466 0.159999996423721313 0.0853152796626091003
0.0642607212066650391 0.159999996423721313 0.064037516713142395
0.0944868326187133789 0.159999996423721313 0.0683171451091766357
0.120820708572864532 0.159999996423721313 0.104345358908176422
0.0245031658560037613 0.159999996423721313 0.0736653581261634827
0.104480266571044922 0.159999996423721313 0.103254988789558411
0.0413262546062469482 0.159999996423721313 0.105863124132156372
0.0737937167286872864 0.159999996423721313 0.0938770845532417297
0.0906802043318748474 0.159999996423721313 0.0803394019603729248
0.109176270663738251 0.159999996423721313 0.100570447742938995
0.0815823823213577271 0.159999996423721313 0.0754177123308181763
0.00645860005170106888 0.159999996423721313 0.00537760555744171143
0.0427030064165592194 0.159999996423721313 0.0586072653532028198
0.0597698725759983063 0.159999996423721313 0.0750527828931808472
0.0359808541834354401 0.159999996423721313 0.108864322304725647
0.0702565237879753113 0.159999996423721313 0.105792716145515442
0.0216950345784425735 0.159999996423721313 0.0478587299585342407
0.12754020094871521 0.159999996423721313 0.102112680673599243
0.109631814062595367 0.159999996423721313 0.107665546238422394
0.00177219964098185301 0.159999996423721313 0.0529603026807308197
0.0166691169142723083 0.159999996423721313 0.100057072937488556
0.0830264464020729065 0.159999996423721313 0.0753848105669021606
0.042887464165687561 0.159999996423721313 0.0711541324853897095
0.0405412092804908752 0.159999996423721313 0.0955504253506660461
0.0498694926500320435 0.159999996423721313 0.10967332124710083
0.000665307627059519291 0.159999996423721313 0.0177099928259849548
0.00507073802873492241 0.159999996423721313 0.110605016350746155
0.00974154006689786911 0.159999996423721313 0.0119072049856185913
0.0606819242238998413 0.159999996423721313 0.0426302999258041382
0.118974991142749786 0.159999996423721313 0.0916843414306640625
0.018327660858631134 0.159999996423721313 0.0824878737330436707
0.0867325887084007263 0.159999996423721313 0.0716334283351898193
0.0327209122478961945 0.159999996423721313 0.0764770805835723877
0.000402864679927006364 0.159999996423721313 0.0709784775972366333
0.0460923388600349426 0.159999996423721313 0.0759222209453582764
0.0290221497416496277 0.159999996423721313 0.0964323431253433228
0.00938528217375278473 0.159999996423721313 0.00819222629070281982
0.0200191307812929153 0.159999996423721313 0.0582744516432285309
0.0103427106514573097 0.159999996423721313 0.0371680259704589844
0.120124317705631256 0.159999996423721313 0.0953259989619255066
0.00648400653153657913 0.159999996423721313 0.0752809047698974609
0.020887911319732666 0.159999996423721313 0.052898995578289032
0.0496462136507034302 0.159999996423721313 0.0371558666229248047
0.045345604419708252 0.159999996423721313 0.0708000212907791138
0.0121898865327239037 0.159999996423721313 0.0481601282954216003
0.010567009449005127 0.159999996423721313 0.0766811370849609375
0.0211599059402942657 0.159999996423721313 0.040244661271572113
0.0198892354965209961 0.159999996423721313 0.102889202535152435
0.0752260684967041016 0.159999996423721313 0.0837210789322853088
0.0998696386814117432 0.159999996423721313 0.106105312705039978
0.0382104143500328064 0.159999996423721313 0.0738287866115570068
0.0249504279345273972 0.159999996423721313 0.0434693768620491028
0.0580811873078346252 0.159999996423721313 0.0827158764004707336
0.00829262100160121918 0.159999996423721313 0.0722477436065673828
0.0281104445457458496 0.159999996423721313 0.0207304805517196655
0.0435191057622432709 0.159999996423721313 0.031168811023235321
0.0418985113501548767 0.159999996423721313 0.0367529392242431641
0.0028918928001075983 0.159999996423721313 0.102487929165363312
0.107109449803829193 0.159999996423721313 0.0909065753221511841
0.0340341739356517792 0.159999996423721313 0.0802148580551147461
0.0241659674793481827 0.159999996423721313 0.0597913451492786407
0.0354963913559913635 0.159999996423721313 0.0832043439149856567
0.067016109824180603 0.159999996423721313 0.102706782519817352
0.0119719346985220909 0.159999996423721313 0.109510265290737152
0.0254516266286373138 0.159999996423721313 0.0916318893432617188
0.110564716160297394 0.159999996423721313 0.0900664925575256348
0.033910658210515976 0.159999996423721313 0.0306035280227661133
0.053205784410238266 0.159999996423721313 0.0427866652607917786
0.0458468534052371979 0.159999996423721313 0.0973725020885467529
0.00369853246957063675 0.159999996423721313 0.059586651623249054
0.0229576528072357178 0.159999996423721313 0.0625946372747421265
0.055256970226764679 0.159999996423721313 0.0390446484088897705
0.0230711307376623154 0.159999996423721313 0.0196016803383827209
0.0359948016703128815 0.159999996423721313 0.0254249200224876404
0.0289432946592569351 0.159999996423721313 0.0382471457123756409
0.0511204786598682404 0.159999996423721313 0.0749320387840270996
0.011544177308678627 0.159999996423721313 0.10948268324136734
0.00520546175539493561 0.159999996423721313 0.0323983132839202881
0.034147944301366806 0.159999996423721313 0.107840880751609802
0.0720690712332725525 0.159999996423721313 0.0594061501324176788
0.124621748924255371 0.159999996423721313 0.105222105979919434
0.0733557567000389099 0.159999996423721313 0.0699907988309860229
0.0316006354987621307 0.159999996423721313 0.0511421635746955872
0.071762382984161377 0.159999996423721313 0.0879028588533401489
0.105608850717544556 0.159999996423721313 0.10834725946187973
0.0691770762205123901 0.159999996423721313 0.101674042642116547
0.0213606394827365875 0.159999996423721313 0.0201888754963874817
0.0631846562027931213 0.159999996423721313 0.06229352205991745
0.0242394153028726578 0.159999996423721313 0.0593587644398212433
0.0555208325386047363 0.159999996423721313 0.0498703494668006897
0.0538316443562507629 0.159999996423721313 0.0662987455725669861
0.0187228508293628693 0.159999996423721313 0.0675314068794250488
0.093488745391368866 0.159999996423721313 0.0651486441493034363
0.0576067231595516205 0.159999996423721313 0.105795644223690033
0.0148542243987321854 0.159999996423721313 0.0251414477825164795
0.0477748662233352661 0.159999996423721313 0.0397361814975738525
0.05242171511054039 0.159999996423721313 0.0560295209288597107
0.0507819652557373047 0.159999996423721313 0.0608233548700809479
0.0131220016628503799 0.159999996423721313 0.0237835720181465149
0.0778314843773841858 0.159999996423721313 0.0614553391933441162
0.0137603972107172012 0.159999996423721313 0.0816474258899688721
0.132706999778747559 0.159999996423721313 0.098014533519744873
0.00320901349186897278 0.159999996423721313 0.0727972835302352905
0.109872989356517792 0.159999996423721313 0.0909038633108139038
0.0296875517815351486 0.159999996423721313 0.105736851692199707
0.050969976931810379 0.159999996423721313 0.0955509990453720093
0.0198663771152496338 0.159999996423721313 0.0929439961910247803
0.0390668958425521851 0.159999996423721313 0.0480300486087799072
0.0498225167393684387 0.159999996423721313 0.109935775399208069
0.063454553484916687 0.159999996423721313 0.0637953802943229675
0.000115670634841080755 0.159999996423721313 0.0419866591691970825
0.134395807981491089 0.159999996423721313 0.103138431906700134
0.0121530340984463692 0.159999996423721313 0.0746345669031143188
0.053303789347410202 0.159999996423721313 0.107196062803268433
0.0659826695919036865 0.159999996423721313 0.0918611660599708557
0.0527621544897556305 0.159999996423721313 0.0962444990873336792
0.1409272700548172 0.159999996423721313 0.100019201636314392
0.149370923638343811 0.159999996423721313 0.106610596179962158
0.0318312123417854309 0.159999996423721313 0.0260072425007820129
0.0739426538348197937 0.159999996423721313 0.0779778361320495605
0.0712438896298408508 0.159999996423721313 0.0627700686454772949
0.0539502985775470734 0.159999996423721313 0.106795512139797211
0.0878973454236984253 0.159999996423721313 0.110182575881481171
0.0264081619679927826 0.159999996423721313 0.110238038003444672
0.00388764659874141216 0.159999996423721313 0.0780322924256324768
0.014116041362285614 0.159999996423721313 0.046108737587928772
0.0436742641031742096 0.159999996423721313 0.0832359492778778076
0.0554989054799079895 0.159999996423721313 0.0439387932419776917
0.0640089213848114014 0.159999996423721313 0.0776634067296981812
0.0477868653833866119 0.159999996423721313 0.0615384168922901154
0.0246603265404701233 0.159999996423721313 0.0894176661968231201
0.0520820207893848419 0.159999996423721313 0.108479969203472137
0.0443588569760322571 0.159999996423721313 0.030796542763710022
0.0467199161648750305 0.159999996423721313 0.0601656995713710785
0.0231227446347475052 0.159999996423721313 0.07605762779712677
0.0306641720235347748 0.159999996423721313 0.106437154114246368
0.0281698070466518402 0.159999996423721313 0.104505740106105804
0.0512559562921524048 0.159999996423721313 0.0901332646608352661
0.0221288967877626419 0.159999996423721313 0.0280167609453201294
0.00701290927827358246 0.159999996423721313 0.0788236856460571289
0.013442428782582283 0.159999996423721313 0.0121869444847106934
0.0301195979118347168 0.159999996423721313 0.0912864059209823608
0.126074507832527161 0.159999996423721313 0.0890835076570510864
0.109619922935962677 0.159999996423721313 0.07976493239402771
0.0695561990141868591 0.159999996423721313 0.101198911666870117
0.122811473906040192 0.159999996423721313 0.102560438215732574
0.0325531624257564545 0.159999996423721313 0.034302152693271637
0.00897570978850126266 0.159999996423721313 0.0343303382396697998
0.095134049654006958 0.159999996423721313 0.107318520545959473
0.0178814344108104706 0.159999996423721313 0.0319269225001335144
0.138664335012435913 0.159999996423721313 0.102917082607746124
0.0376788638532161713 0.159999996423721313 0.0727311223745346069
0.111486606299877167 0.159999996423721313 0.102148324251174927
0.0155957825481891632 0.159999996423721313 0.0371227413415908813
0.12818281352519989 0.159999996423721313 0.0986482501029968262
0.0170840881764888763 0.159999996423721313 0.1040305495262146
0.0118122026324272156 0.159999996423721313 0.0971801504492759705
0.0210435669869184494 0.159999996423721313 0.0316086634993553162
0.105253644287586212 0.159999996423721313 0.104109533131122589
0.0149258924648165703 0.159999996423721313 0.101660683751106262
0.0124015547335147858 0.159999996423721313 0.0780614614486694336
0.00221815751865506172 0.159999996423721313 0.0431324169039726257
0.00864888262003660202 0.159999996423721313 0.059154115617275238
0.00731287244707345963 0.159999996423721313 0.0436969175934791565
0.0275122690945863724 0.159999996423721313 0.0533665716648101807
0.0581163614988327026 0.159999996423721313 0.0441536679863929749
0.00610012002289295197 0.159999996423721313 0.0254199504852294922
0.0136013850569725037 0.159999996423721313 0.02532215416431427
0.0578682012856006622 0.159999996423721313 0.0940039604902267456
0.0798947140574455261 0.159999996423721313 0.0955621823668479919
0.0429254919290542603 0.159999996423721313 0.0414116084575653076
0.0810209959745407104 0.159999996423721313 0.0925008952617645264
0.0153161082416772842 0.159999996423721313 0.100447691977024078
0.0199289694428443909 0.159999996423721313 0.0577831156551837921
0.120345287024974823 0.159999996423721313 0.107959292829036713
0.0642461255192756653 0.159999996423721313 0.0501312650740146637
0.0848751068115234375 0.159999996423721313 0.069661751389503479
0.00685154879465699196 0.159999996423721313 0.00812579691410064697
0.0391931682825088501 0.159999996423721313 0.0839988216757774353
0.065449543297290802 0.159999996423721313 0.0798777192831039429
0.00544452574104070663 0.159999996423721313 0.0541891232132911682
0.0473241619765758514 0.159999996423721313 0.0601659342646598816
0.0379994362592697144 0.159999996423721313 0.069340243935585022
0.0715904533863067627 0.159999996423721313 0.0855934545397758484
0.0229289792478084564 0.159999996423721313 0.0410722270607948303
0.0723393335938453674 0.159999996423721313 0.0988996177911758423
0.0317198522388935089 0.159999996423721313 0.089150547981262207
0.0339468978345394135 0.159999996423721313 0.106168866157531738
0.0391182824969291687 0.159999996423721313 0.085954129695892334
0.0115567445755004883 0.159999996423721313 0.0244944393634796143
0.0321177653968334198 0.159999996423721313 0.063723832368850708
0.0347184650599956512 0.159999996423721313 0.0261921584606170654
0.0204474609345197678 0.159999996423721313 0.104453817009925842
0.0444465391337871552 0.159999996423721313 0.0524987019598484039
0.00320266303606331348 0.159999996423721313 0.0323009863495826721
0.0182250086218118668 0.159999996423721313 0.104804851114749908
0.0141919320449233055 0.159999996423721313 0.0892422348260879517
0.105046972632408142 0.159999996423721313 0.0950220301747322083
0.0674747228622436523 0.159999996423721313 0.089222639799118042
0.112409681081771851 0.159999996423721313 0.0931696817278862
0.114772580564022064 0.159999996423721313 0.110507391393184662
0.0285142697393894196 0.159999996423721313 0.0913868248462677002
0.0122738536447286606 0.159999996423721313 0.0373757407069206238
0.0214286781847476959 0.159999996423721313 0.0168715938925743103
0.0364512652158737183 0.159999996423721313 0.0356003344058990479
0.0230746399611234665 0.159999996423721313 0.0691710859537124634
0.0970209464430809021 0.159999996423721313 0.107302159070968628
0.11712685227394104 0.159999996423721313 0.0877306535840034485
0.0565915107727050781 0.159999996423721313 0.0511282123625278473
0.0163581613451242447 0.159999996423721313 0.0902839601039886475
0.0425034575164318085 0.159999996423721313 0.046401388943195343
0.0237620044499635696 0.159999996423721313 0.103665873408317566
0.0761517509818077087 0.159999996423721313 0.09117116779088974
0.00468132179230451584 0.159999996423721313 0.0902353078126907349
0.0113748284056782722 0.159999996423721313 0.0544175989925861359
0.017401374876499176 0.159999996423721313 0.094080999493598938
0.04694366455078125 0.159999996423721313 0.0773596763610839844
0.0453644171357154846 0.159999996423721313 0.0684166401624679565
0.0184236224740743637 0.159999996423721313 0.106754399836063385
0.088471829891204834 0.159999996423721313 0.0933331549167633057
0.0525018684566020966 0.159999996423721313 0.0759182348847389221
0.0416077598929405212 0.159999996423721313 0.0871323198080062866
0.0869370028376579285 0.159999996423721313 0.0709771662950515747
0.0459390692412853241 0.159999996423721313 0.045397050678730011
0.0905384719371795654 0.159999996423721313 0.0655513331294059753
0.0021925934124737978 0.159999996423721313 0.097568705677986145
0.128138646483421326 0.159999996423721313 0.090933479368686676
0.0867856889963150024 0.159999996423721313 0.0637469887733459473
0.0295310299843549728 0.159999996423721313 0.10579334944486618
0.0462244153022766113 0.159999996423721313 0.0463813990354537964
0.103578723967075348 0.159999996423721313 0.0718518942594528198
0.115992903709411621 0.159999996423721313 0.103074915707111359
0.0337186716496944427 0.159999996423721313 0.0861755013465881348
0.0793832987546920776 0.159999996423721313 0.0843697190284729004
0.103123888373374939 0.159999996423721313 0.101991988718509674
0.0416392572224140167 0.159999996423721313 0.0853983089327812195
0.0573645196855068207 0.159999996423721313 0.058017875999212265
0.137043878436088562 0.159999996423721313 0.102470017969608307
0.127069532871246338 0.159999996423721313 0.0879047960042953491
0.0499884895980358124 0.159999996423721313 0.101890146732330322
0.0565013475716114044 0.159999996423721313 0.0616343207657337189
0.0496951490640640259 0.159999996423721313 0.103340849280357361
0.0604462176561355591 0.159999996423721313 0.0749855488538742065
0.0390016660094261169 0.159999996423721313 0.0401876941323280334
0.0130921183153986931 0.159999996423721313 0.0919026583433151245
0.0607777722179889679 0.159999996423721313 0.0739904195070266724
0.0455538034439086914 0.159999996423721313 0.0332779288291931152
0.0117413755506277084 0.159999996423721313 0.0804700702428817749
0.0585013814270496368 0.159999996423721313 0.0768379122018814087
0.066686779260635376 0.159999996423721313 0.085699617862701416
0.0954276993870735168 0.159999996423721313 0.105787910521030426
0.0957936272025108337 0.159999996423721313 0.0729016810655593872
0.0636724680662155151 0.159999996423721313 0.103206045925617218
0.00105110579170286655 0.159999996423721313 0.0811375528573989868
0.0339798927307128906 0.159999996423721313 0.0852523595094680786
0.0877210870385169983 0.159999996423721313 0.0784433409571647644
0.0453227832913398743 0.159999996423721313 0.0475133508443832397
0.0249277036637067795 0.159999996423721313 0.0384362712502479553
0.0587292462587356567 0.159999996423721313 0.0893312841653823853
0.028823360800743103 0.159999996423721313 0.0842495709657669067
0.0934541523456573486 0.159999996423721313 0.075307309627532959
0.00364432088099420071 0.159999996423721313 0.023146606981754303
0.0271303486078977585 0.159999996423721313 0.0430035144090652466
0.028959568589925766 0.159999996423721313 0.0707323551177978516
0.0909096971154212952 0.159999996423721313 0.0999796688556671143
0.0985799282789230347 0.159999996423721313 0.0874254778027534485
0.0593948550522327423 0.159999996423721313 0.108721211552619934
0.0647922977805137634 0.159999996423721313 0.0452222749590873718
0.125628814101219177 0.159999996423721313 0.0982121080160140991
0.0295689105987548828 0.159999996423721313 0.0668011754751205444
0.0161501932889223099 0.159999996423721313 0.0717727541923522949
0.114326655864715576 0.159999996423721313 0.102107331156730652
0.103516407310962677 0.159999996423721313 0.0910960659384727478
0.0815212801098823547 0.159999996423721313 0.105382680892944336
0.0101787541061639786 0.159999996423721313 0.0550678744912147522
0.110678486526012421 0.159999996423721313 0.103492990136146545
0.0959696397185325623 0.159999996423721313 0.089489281177520752
0.0808183103799819946 0.159999996423721313 0.0888613909482955933
0.0825888365507125854 0.159999996423721313 0.0668486654758453369
0.0368954204022884369 0.159999996423721313 0.029572412371635437
0.0287827420979738235 0.159999996423721313 0.0755513608455657959
0.024709334596991539 0.159999996423721313 0.0897511467337608337
0.0587229058146476746 0.159999996423721313 0.0728468447923660278
0.0349711552262306213 0.159999996423721313 0.0517810434103012085
0.00115437281783670187 0.159999996423721313 0.0800852850079536438
0.058978494256734848 0.159999996423721313 0.0626543685793876648
0.0010067295515909791 0.159999996423721313 0.0379222705960273743
0.0150743275880813599 0.159999996423721313 0.0753725096583366394
0.0386110283434391022 0.159999996423721313 0.102611958980560303
0.0300992783159017563 0.159999996423721313 0.0797784179449081421
0.00667700357735157013 0.159999996423721313 0.0811511129140853882
0.0841320902109146118 0.159999996423721313 0.0600710809230804443
0.0550675317645072937 0.159999996423721313 0.0480659827589988708
0.00625830795615911484 0.159999996423721313 0.009072132408618927
0.0607835985720157623 0.159999996423721313 0.0580327287316322327
0.0148531710729002953 0.159999996423721313 0.0930531099438667297
0.00292721018195152283 0.159999996423721313 0.0542059168219566345
0.0303863193839788437 0.159999996423721313 0.0230860784649848938
0.0582394301891326904 0.159999996423721313 0.0985355973243713379
0.156813070178031921 0.159999996423721313 0.108903840184211731
0.0181507300585508347 0.159999996423721313 0.0314624384045600891
0.0437344685196876526 0.159999996423721313 0.0931286215782165527
0.0444228015840053558 0.159999996423721313 0.101133778691291809
0.057490181177854538 0.159999996423721313 0.0583238750696182251
0.0790630355477333069 0.159999996423721313 0.108826123178005219
0.0261447727680206299 0.159999996423721313 0.100026786327362061
0.0206513255834579468 0.159999996423721313 0.0424980968236923218
0.0136809451505541801 0.159999996423721313 0.0379557162523269653
0.0182378813624382019 0.159999996423721313 0.105996169149875641
0.0660711675882339478 0.159999996423721313 0.0486598126590251923
0.134610682725906372 0.159999996423721313 0.103877067565917969
0.132850602269172668 0.159999996423721313 0.107182629406452179
0.0619806461036205292 0.159999996423721313 0.0618630684912204742
0.0627932548522949219 0.159999996423721313 0.064584389328956604
0.092923484742641449 0.159999996423721313 0.0785298049449920654
0.061277337372303009 0.159999996423721313 0.0967687666416168213
0.0456735230982303619 0.159999996423721313 0.0624426752328872681
0.0707055330276489258 0.159999996423721313 0.0710123777389526367
0.0066537889651954174 0.159999996423721313 0.00541868805885314941
0.0591726414859294891 0.159999996423721313 0.0651949942111968994
0.0379985980689525604 0.159999996423721313 0.041859261691570282
0.0142798814922571182 0.159999996423721313 0.0402323156595230103
0.0960298255085945129 0.159999996423721313 0.101332098245620728
0.0671703293919563293 0.159999996423721313 0.100201845169067383
0.0138046042993664742 0.159999996423721313 0.0887901335954666138
0.116778038442134857 0.159999996423721313 0.1011795774102211
0.0493605993688106537 0.159999996423721313 0.0514318905770778656
0.082768075168132782 0.159999996423721313 0.0579007379710674286
0.0407107099890708923 0.159999996423721313 0.0942404940724372864
0.0765623748302459717 0.159999996423721313 0.0769097656011581421
0.0167121794074773788 0.159999996423721313 0.0381770431995391846
0.0490978024899959564 0.159999996423721313 0.0604462213814258575
0.0423155762255191803 0.159999996423721313 0.0388377010822296143
0.0230208318680524826 0.159999996423721313 0.0608889758586883545
0.0725830793380737305 0.159999996423721313 0.0739196985960006714
0.124115981161594391 0.159999996423721313 0.0870551466941833496
0.0219743456691503525 0.159999996423721313 0.0563766062259674072
0.0551376566290855408 0.159999996423721313 0.087971612811088562
0.0690517798066139221 0.159999996423721313 0.0819091349840164185
0.0885834470391273499 0.159999996423721313 0.074426993727684021
0.0599641203880310059 0.159999996423721313 0.0970597788691520691
0.109071612358093262 0.159999996423721313 0.0831883475184440613
0.0131199425086379051 0.159999996423721313 0.0708558559417724609
0.0758048966526985168 0.159999996423721313 0.0765530616044998169
0.024474121630191803 0.159999996423721313 0.0267874151468276978
0.0146918473765254021 0.159999996423721313 0.0273202806711196899
0.0227364562451839447 0.159999996423721313 0.0285634398460388184
0.0346177183091640472 0.159999996423721313 0.0479219704866409302
0.0248324126005172729 0.159999996423721313 0.0345347151160240173
0.0610469989478588104 0.159999996423721313 0.0744786188006401062
0.0334476418793201447 0.159999996423721313 0.0735721439123153687
0.120232820510864258 0.159999996423721313 0.103721342980861664
0.0792819783091545105 0.159999996423721313 0.0575311072170734406
0.0486500002443790436 0.159999996423721313 0.0653711110353469849
0.0705875754356384277 0.159999996423721313 0.103208430111408234
0.0216774772852659225 0.159999996423721313 0.0424245968461036682
0.140591859817504883 0.159999996423721313 0.102149888873100281
0.127001956105232239 0.159999996423721313 0.108672447502613068
0.0328735373914241791 0.159999996423721313 0.0564147345721721649
0.0160906277596950531 0.159999996423721313 0.0951562896370887756
0.0429311357438564301 0.159999996423721313 0.0651934966444969177
0.0448211021721363068 0.159999996423721313 0.037654973566532135
0.0302243363112211227 0.159999996423721313 0.0493675507605075836
0.025647379457950592 0.159999996423721313 0.095930635929107666
0.0313219837844371796 0.159999996423721313 0.0843772739171981812
0.142745211720466614 0.159999996423721313 0.0997897908091545105
0.00406255340203642845 0.159999996423721313 0.0242591500282287598
0.0924054905772209167 0.159999996423721313 0.106475114822387695
0.0566433146595954895 0.159999996423721313 0.0561199262738227844
0.111416995525360107 0.159999996423721313 0.102888695895671844
0.0947281792759895325 0.159999996423721313 0.068468436598777771
0.00288857310079038143 0.159999996423721313 0.0656496584415435791
0.136474609375 0.159999996423721313 0.110337935388088226
0.0272444691509008408 0.159999996423721313 0.0639273375272750854
0.0851812213659286499 0.159999996423721313 0.0770072042942047119
0.0258107893168926239 0.159999996423721313 0.0329289957880973816
0.00603574933484196663 0.159999996423721313 0.0341089963912963867
0.0344557128846645355 0.159999996423721313 0.105027578771114349
0.0113301072269678116 0.159999996423721313 0.0920380502939224243
0.0574780404567718506 0.159999996423721313 0.0701311081647872925
0.0907227173447608948 0.159999996423721313 0.084814026951789856
0.0208676736801862717 0.159999996423721313 0.0334192067384719849
0.134991824626922607 0.159999996423721313 0.105027139186859131
0.0212636534124612808 0.159999996423721313 0.0926332399249076843
0.0075008380226790905 0.159999996423721313 0.054271794855594635
0.020475851371884346 0.159999996423721313 0.0235531330108642578
0.00439641205593943596 0.159999996423721313 0.0787917673587799072
0.0373993068933486938 0.159999996423721313 0.0600461512804031372
0.127804040908813477 0.159999996423721313 0.0997996479272842407
0.08081045001745224 0.159999996423721313 0.0698077678680419922
0.0976192280650138855 0.159999996423721313 0.0995650067925453186
0.115451857447624207 0.159999996423721313 0.081104762852191925
0.11037619411945343 0.159999996423721313 0.0878167152404785156
0.0687812194228172302 0.159999996423721313 0.0889547690749168396
0.09039345383644104 0.159999996423721313 0.104583807289600372
0.0491174310445785522 0.159999996423721313 0.0666305273771286011
0.0458651594817638397 0.159999996423721313 0.106833271682262421
0.0460909828543663025 0.159999996423721313 0.0909742116928100586
0.0604710057377815247 0.159999996423721313 0.0934750735759735107
0.0477263405919075012 0.159999996423721313 0.0587591417133808136
0.018270883709192276 0.159999996423721313 0.0242274180054664612
0.0353467129170894623 0.159999996423721313 0.0357288643717765808
0.0156215066090226173 0.159999996423721313 0.0400250107049942017
0.0165412109345197678 0.159999996423721313 0.0411920249462127686
0.0250095296651124954 0.159999996423721313 0.0860242992639541626
0.0642564818263053894 0.159999996423721313 0.0866457372903823853
0.013170044869184494 0.159999996423721313 0.0555175431072711945
0.00498650688678026199 0.159999996423721313 0.0566460825502872467
0.153935372829437256 0.159999996423721313 0.109405912458896637
0.0894757732748985291 0.159999996423721313 0.0861357226967811584
0.0601300038397312164 0.159999996423721313 0.102281287312507629
0.038944881409406662 0.159999996423721313 0.0946337655186653137
0.061327807605266571 0.159999996423721313 0.0930093154311180115
0.0898969992995262146 0.159999996423721313 0.0867028981447219849
0.0250537320971488953 0.159999996423721313 0.077412731945514679
0.0259809717535972595 0.159999996423721313 0.0318831056356430054
0.0695445016026496887 0.159999996423721313 0.0947812050580978394
0.0174065753817558289 0.159999996423721313 0.0906618684530258179
0.0657970309257507324 0.159999996423721313 0.0479844063520431519
0.0682626441121101379 0.159999996423721313 0.0758288800716400146
0.0509826801717281342 0.159999996423721313 0.0727112442255020142
0.0267123058438301086 0.159999996423721313 0.109895601868629456
0.0114339776337146759 0.159999996423721313 0.0457985475659370422
0.0747039094567298889 0.159999996423721313 0.0800683796405792236
0.0542229413986206055 0.159999996423721313 0.0832808464765548706
0.102463528513908386 0.159999996423721313 0.101959541440010071
0.0449476279318332672 0.159999996423721313 0.0910037979483604431
0.0477931685745716095 0.159999996423721313 0.0451552495360374451
0.0275348946452140808 0.159999996423721313 0.0220877975225448608
0.0986490249633789062 0.159999996423721313 0.0890339016914367676
0.00305086467415094376 0.159999996423721313 0.0490630753338336945
0.0257486738264560699 0.159999996423721313 0.0611346177756786346
0.0261944625526666641 0.159999996423721313 0.108804605901241302
0.0833787620067596436 0.159999996423721313 0.097188316285610199
0.110930241644382477 0.159999996423721313 0.10255085676908493
0.136155560612678528 0.159999996423721313 0.107403755187988281
0.0471059828996658325 0.159999996423721313 0.085030674934387207
0.0261197909712791443 0.159999996423721313 0.0825353711843490601
0.0235271155834197998 0.159999996423721313 0.0506484881043434143
0.0387520864605903625 0.159999996423721313 0.0377726554870605469
0.0389592461287975311 0.159999996423721313 0.0929179415106773376
0.0317796654999256134 0.159999996423721313 0.0725546404719352722
0.121103405952453613 0.159999996423721313 0.101717337965965271
0.00854702480137348175 0.159999996423721313 0.1100802943110466
0.0192837752401828766 0.159999996423721313 0.097757682204246521
0.00175558484625071287 0.159999996423721313 0.0210889279842376709
0.0273856110870838165 0.159999996423721313 0.0838362723588943481
0.040654938668012619 0.159999996423721313 0.0603469312191009521
0.00979899056255817413 0.159999996423721313 0.0624670796096324921
0.0720108002424240112 0.159999996423721313 0.0511595718562602997
0.0347308851778507233 0.159999996423721313 0.0883579105138778687
0.0433806665241718292 0.159999996423721313 0.0362385287880897522
0.0567743442952632904 0.159999996423721313 0.0696479156613349915
0.0526823475956916809 0.159999996423721313 0.0544947795569896698
0.0167940277606248856 0.159999996423721313 0.040592290461063385
0.0124679692089557648 0.159999996423721313 0.0824934914708137512
0.111822411417961121 0.159999996423721313 0.0968114286661148071
0.0234428383409976959 0.159999996423721313 0.103736415505409241
0.0322256386280059814 0.159999996423721313 0.0404863208532333374
0.0353610143065452576 0.159999996423721313 0.0733051300048828125
0.120448879897594452 0.159999996423721313 0.086276710033416748
0.087711922824382782 0.159999996423721313 0.0668550580739974976
0.0622552298009395599 0.159999996423721313 0.0868891328573226929
0.14593583345413208 0.159999996423721313 0.106922931969165802
0.0232200883328914642 0.159999996423721313 0.107540622353553772
0.00913673639297485352 0.159999996423721313 0.07692699134349823
0.0452797897160053253 0.159999996423721313 0.0689115971326828003
