ply
format ascii 1.0
element vertex 747
property float x
property float y
property float z
end_header
0.272240221500396729 0.122905276715755463 0.0790718942880630493
0.371691107749938965 0.0840474963188171387 0.099492490291595459
0.302056044340133667 0.111255548894405365 0.101242393255233765
0.521777033805847168 0.0254054311662912369 0.0371058657765388489
0.224656671285629272 0.14149726927280426 0.0971014201641082764
0.514397501945495605 0.0282887835055589676 0.0467773079872131348
0.475396394729614258 0.0435274317860603333 0.0391818583011627197
0.352501392364501953 0.0915453657507896423 0.0879399850964546204
0.345129549503326416 0.0944257229566574097 0.0890500694513320923
0.418567538261413574 0.0657317936420440674 0.0765690281987190247
0.471633553504943848 0.0449976734817028046 0.0893501192331314087
0.341907322406768799 0.0956847220659255981 0.0581807456910610199
0.395045310258865356 0.0749224722385406494 0.0780304670333862305
0.554008662700653076 0.0128118051216006279 0.100323662161827087
0.535128414630889893 0.0201887506991624832 0.0774125084280967712
0.550819635391235352 0.0140578160062432289 0.0168261975049972534
0.547684907913208008 0.015282641164958477 0.119790807366371155
0.499812602996826172 0.0339874625205993652 0.0296560749411582947
0.377973675727844238 0.081592753529548645 0.0964024960994720459
0.543022751808166504 0.0171042438596487045 0.0806993842124938965
0.264231473207473755 0.126034483313560486 0.103042289614677429
0.496843606233596802 0.0351475179195404053 0.100762054324150085
0.330244004726409912 0.100241847336292267 0.0567532926797866821
0.335123389959335327 0.09833536297082901 0.0866879671812057495
0.464865744113922119 0.0476420111954212189 0.104168891906738281
0.518409252166748047 0.026721317321062088 0.014831244945526123
0.528342664241790771 0.0228400956839323044 0.0417677164077758789
0.346941351890563965 0.0937178060412406921 0.104244455695152283
0.490248590707778931 0.0377243347465991974 0.0923842266201972961
0.428792119026184082 0.0617368072271347046 0.0750136077404022217
0.401907175779342651 0.0722413882613182068 0.0439032465219497681
0.377569526433944702 0.0817506685853004456 0.0697962567210197449
0.512944161891937256 0.028856644406914711 0.0856103599071502686
0.469796925783157349 0.0457152761518955231 0.113551042973995209
0.112374931573867798 0.185368359088897705 0.104038849472999573
0.211085528135299683 0.146799832582473755 0.0940542295575141907
0.437007367610931396 0.0585269220173358917 0.0642725229263305664
0.291135966777801514 0.115522265434265137 0.119277000427246094
0.554779171943664551 0.0125107429921627045 0.0219324901700019836
0.542555689811706543 0.0172867421060800552 0.0792758464813232422
0.552792489528656006 0.0132869835942983627 0.0367264747619628906
0.289934009313583374 0.11599191278219223 0.0852601975202560425
0.337823569774627686 0.0972803458571434021 0.0946631729602813721
0.106818914413452148 0.187539234757423401 0.110888630151748657
0.554549574851989746 0.0126004405319690704 0.102318033576011658
0.398574620485305786 0.0735434964299201965 0.0784877315163612366
0.568572938442230225 0.00712120253592729568 0.0712198913097381592
0.139785468578338623 0.174658432602882385 0.119772873818874359
0.272985666990280151 0.122614011168479919 0.0657059252262115479
0.38463708758354187 0.0789892077445983887 0.0772217884659767151
0.404137611389160156 0.0713698938488960266 0.0617170147597789764
0.343196332454681396 0.0951810702681541443 0.0819226205348968506
0.409141898155212402 0.0694146156311035156 0.0377958640456199646
0.190495699644088745 0.154844760894775391 0.113018319010734558
0.504132390022277832 0.0322996042668819427 0.0821605175733566284
0.0649184584617614746 0.203910708427429199 0.118677340447902679
0.327512562274932861 0.101309090852737427 0.0827398374676704407
0.479347646236419678 0.0419835858047008514 0.0701208561658859253
0.543788373470306396 0.0168050918728113174 0.10347352921962738
0.520856142044067383 0.0257652625441551208 0.115353994071483612
0.54183584451675415 0.017568003386259079 0.0403479710221290588
0.24893653392791748 0.132010564208030701 0.103438973426818848
0.454219996929168701 0.0518015474081039429 0.068215198814868927
0.406659126281738281 0.070384681224822998 0.0944568365812301636
0.499858707189559937 0.033969443291425705 0.101226359605789185
0.268816709518432617 0.124242924153804779 0.087575867772102356
0.454387307167053223 0.0517361760139465332 0.1113414466381073
0.293368220329284668 0.11465008556842804 0.0668472945690155029
0.344153821468353271 0.094806961715221405 0.0774893760681152344
0.47197723388671875 0.0448633767664432526 0.0726356133818626404
0.153462141752243042 0.169314637780189514 0.118513211607933044
0.340743839740753174 0.0961393266916275024 0.0837737768888473511
0.385012120008468628 0.0788426771759986877 0.10483860969543457
0.447728008031845093 0.0543381199240684509 0.0835489332675933838
0.278086394071578979 0.120621047914028168 0.0699769705533981323
0.0750421881675720215 0.199955150485038757 0.116138726472854614
0.461623311042785645 0.0489088930189609528 0.116876125335693359
0.462251901626586914 0.0486632883548736572 0.0986661463975906372
0.305520772933959961 0.109901785850524902 0.102517865598201752
0.580209553241729736 0.00257449294440448284 0.0254305601119995117
0.552030563354492188 0.0135846734046936035 0.027958996593952179
0.42470279335975647 0.0633346065878868103 0.0435646027326583862
0.208360075950622559 0.147864744067192078 0.113037951290607452
0.573655366897583008 0.00513536110520362854 0.0779022276401519775
0.470559060573577881 0.04541749507188797 0.0834637358784675598
0.577547967433929443 0.00361442985013127327 0.0819296613335609436
0.426624447107315063 0.0625837743282318115 0.0969198942184448242
0.383279025554656982 0.0795198306441307068 0.0551492124795913696
0.240130156278610229 0.135451421141624451 0.0996550321578979492
0.262763112783432007 0.126608207821846008 0.111808404326438904
0.411516964435577393 0.0684866234660148621 0.0496500208973884583
0.562370777130126953 0.00954451970756053925 0.0650048181414604187
0.175597459077835083 0.160665854811668396 0.101578764617443085
0.401572167873382568 0.0723722800612449646 0.0571307018399238586
0.555842280387878418 0.0120953591540455818 0.100531630218029022
0.443989992141723633 0.0557986535131931305 0.112401582300662994
0.284208983182907104 0.118228800594806671 0.0812318176031112671
0.356399565935134888 0.0900222659111022949 0.0479390770196914673
0.306990981101989746 0.109327346086502075 0.0749550908803939819
0.543923318386077881 0.016752367839217186 0.0355829298496246338
0.507396519184112549 0.0310242492705583572 0.104484841227531433
0.230166882276535034 0.139344304800033569 0.102609008550643921
0.152554333209991455 0.16966933012008667 0.0964076220989227295
0.566365063190460205 0.0079838605597615242 0.1002921462059021
0.345929145812988281 0.0941133052110671997 0.0966852009296417236
0.26111215353012085 0.127253279089927673 0.0960518568754196167
0.557958662509918213 0.0112684397026896477 0.0973696261644363403
0.379597872495651245 0.080958150327205658 0.0778292715549468994
0.261198729276657104 0.127219453454017639 0.0731397420167922974
0.529858708381652832 0.0222477465867996216 0.0553014203906059265
0.475687980651855469 0.0434135086834430695 0.0337956324219703674
0.0742235183715820312 0.200275003910064697 0.115249551832675934
0.492849856615066528 0.0367079637944698334 0.0544737428426742554
0.391686081886291504 0.0762350037693977356 0.0450020283460617065
0.401490569114685059 0.0724041610956192017 0.0636373087763786316
0.352012217044830322 0.0917365103960037231 0.082662627100944519
0.539707839488983154 0.0183994509279727936 0.0542045757174491882
0.414114832878112793 0.0674715712666511536 0.0648579448461532593
0.353494048118591309 0.0911575183272361755 0.0829402506351470947
0.543269693851470947 0.0170077551156282425 0.0637797340750694275
0.167804330587387085 0.163710817694664001 0.0949419140815734863
0.564185798168182373 0.0088353501632809639 0.0476236194372177124
0.260655015707015991 0.127431884407997131 0.068579748272895813
0.468598842620849609 0.0461833924055099487 0.0960963219404220581
0.432873070240020752 0.0601422898471355438 0.115636646747589111
0.537986636161804199 0.0190719682723283768 0.012579798698425293
0.248332411050796509 0.132246613502502441 0.0864065811038017273
0.362362384796142578 0.0876924619078636169 0.118703030049800873
0.246366769075393677 0.133014649152755737 0.0851618349552154541
0.305957913398742676 0.109730988740921021 0.0742563754320144653
0.0818431377410888672 0.197297856211662292 0.110262908041477203
0.57878953218460083 0.00312932347878813744 0.0686060041189193726
0.339446485042572021 0.096646234393119812 0.116482235491275787
0.543574094772338867 0.016888834536075592 0.0271983817219734192
0.307466685771942139 0.109141483902931213 0.0577702745795249939
0.47914588451385498 0.0420624241232872009 0.0687608569860458374
0.328467130661010742 0.10093611478805542 0.0628591328859329224
0.158299416303634644 0.167424604296684265 0.101831533014774323
0.550975799560546875 0.0139968013390898705 0.0315222516655921936
0.563404262065887451 0.00914072059094905853 0.0542416349053382874
0.276930868625640869 0.121072538197040558 0.065730266273021698
0.111466437578201294 0.185723334550857544 0.107497960329055786
0.394318997859954834 0.075206264853477478 0.0439336374402046204
0.530081689357757568 0.0221606213599443436 0.0735089108347892761
0.14252808690071106 0.173586830496788025 0.103731617331504822
0.43558579683303833 0.0590823665261268616 0.0621544532477855682
0.238232702016830444 0.136192813515663147 0.111430227756500244
0.398487687110900879 0.0735774636268615723 0.112667106091976166
0.236811280250549316 0.136748194694519043 0.0717694759368896484
0.469038903713226318 0.046011459082365036 0.119065038859844208
0.372804939746856689 0.0836123004555702209 0.0469871163368225098
0.244100868701934814 0.133899971842765808 0.0707715302705764771
0.367421448230743408 0.085715755820274353 0.100795671343803406
0.552662968635559082 0.0133375795558094978 0.0925225242972373962
0.351412415504455566 0.0919708609580993652 0.114533275365829468
0.438560009002685547 0.0579202659428119659 0.0745193362236022949
0.386124759912490845 0.0784079432487487793 0.0846578776836395264
0.574622213840484619 0.00475759245455265045 0.0397475436329841614
0.222023338079452515 0.142526179552078247 0.0978056341409683228
0.444144070148468018 0.055738452821969986 0.0424583852291107178
0.421153485774993896 0.0647213980555534363 0.078925691545009613
0.131533920764923096 0.17788250744342804 0.108983784914016724
0.436158239841461182 0.0588586926460266113 0.0570073202252388
0.197827309370040894 0.151980131864547729 0.0852987244725227356
0.317752867937088013 0.105122432112693787 0.0886267945170402527
0.441372871398925781 0.0568212084472179413 0.0910995453596115112
0.312658995389938354 0.10711272805929184 0.0778714120388031006
0.208505243062973022 0.1478080153465271 0.107553936541080475
0.532033443450927734 0.0213980190455913544 0.110961779952049255
0.471183180809020996 0.0451736412942409515 0.0376591607928276062
0.383224189281463623 0.0795412659645080566 0.119594298303127289
0.546397805213928223 0.015785539522767067 0.0327936708927154541
0.466706275939941406 0.0469228662550449371 0.0987000018358230591
0.476591825485229492 0.04306035116314888 0.0999451130628585815
0.101893246173858643 0.189463794231414795 0.108382962644100189
0.433246076107025146 0.0599965564906597137 0.043639063835144043
0.336178362369537354 0.0979231595993041992 0.0801248252391815186
0.22920149564743042 0.139721512794494629 0.0898134782910346985
0.375252842903137207 0.0826558545231819153 0.0976987481117248535
0.33529546856880188 0.0982681214809417725 0.067323245108127594
0.132261127233505249 0.177598357200622559 0.106130123138427734
0.333985775709152222 0.0987798571586608887 0.0595971532166004181
0.224670767784118652 0.14149177074432373 0.0864140689373016357
0.45712888240814209 0.0506649836897850037 0.0689589753746986389
0.521853506565093994 0.0253755636513233185 0.10317828506231308
0.305159837007522583 0.110042817890644073 0.105050310492515564
0.497816145420074463 0.0347675271332263947 0.0346681326627731323
0.394731223583221436 0.0750451907515525818 0.0504884123802185059
0.295786201953887939 0.113705314695835114 0.112722598016262054
0.270604997873306274 0.123544193804264069 0.0779870301485061646
0.040728151798248291 0.213362440466880798 0.118195295333862305
0.380534380674362183 0.080592229962348938 0.0963193550705909729
0.390183299779891968 0.0768221765756607056 0.101853832602500916
0.484367698431015015 0.040022142231464386 0.0304592177271842957
0.328862428665161133 0.100781664252281189 0.0720525830984115601
0.578535974025726318 0.00322841131128370762 0.105807594954967499
0.493094265460968018 0.0366124622523784637 0.0741138607263565063
0.52062612771987915 0.0258551184087991714 0.02091197669506073
0.528155803680419922 0.0229131206870079041 0.0513115152716636658
0.202208131551742554 0.150268450379371643 0.105453647673130035
0.181269973516464233 0.158449470996856689 0.0892636105418205261
0.148596107959747314 0.171215906739234924 0.103930942714214325
0.306348323822021484 0.109578453004360199 0.0891840532422065735
0.557215631008148193 0.0115587674081325531 0.0914870202541351318
0.232507258653640747 0.13842986524105072 0.0848960801959037781
0.515795707702636719 0.0277424752712249756 0.0440659597516059875
0.565880358219146729 0.00817325804382562637 0.0324397012591362
0.326691746711730957 0.101629801094532013 0.118402503430843353
0.454359829425811768 0.051746908575296402 0.0365959480404853821
0.475868672132492065 0.0433429069817066193 0.0374740660190582275
0.548296272754669189 0.0150437531992793083 0.0372993499040603638
0.539499461650848389 0.018480885773897171 0.0999732688069343567
0.511302769184112549 0.0294979829341173172 0.0193803980946540833
0.437408119440078735 0.0583703406155109406 0.106344155967235565
0.281045258045196533 0.119464948773384094 0.0929660946130752563
0.517418086528778076 0.0271085891872644424 0.0974483788013458252
0.578491389751434326 0.00324581447057425976 0.110536828637123108
0.540575921535491943 0.0180602706968784332 0.0857015848159790039
0.349378705024719238 0.0927654728293418884 0.110189080238342285
0.476866245269775391 0.0429531298577785492 0.0382112488150596619
0.403362661600112915 0.0716726928949356079 0.082914792001247406
0.441691040992736816 0.0566968992352485657 0.0845631211996078491
0.510711610317230225 0.0297289527952671051 0.0614459365606307983
0.22536507248878479 0.14122048020362854 0.115836247801780701
0.0308321714401245117 0.217229008674621582 0.11514890193939209
0.463278770446777344 0.0482620671391487122 0.0298063904047012329
0.574738264083862305 0.00471224915236234665 0.046107165515422821
0.300608187913894653 0.111821264028549194 0.100546814501285553
0.505144417285919189 0.0319041982293128967 0.0832266360521316528
0.337141901254653931 0.0975466817617416382 0.0812782943248748779
0.253349423408508301 0.130286350846290588 0.0789175480604171753
0.567767500877380371 0.00743589224293828011 0.101758807897567749
0.387227714061737061 0.0779769942164421082 0.0653596371412277222
0.263879239559173584 0.126172110438346863 0.0686920583248138428
0.398922264575958252 0.0734076574444770813 0.118793882429599762
0.245161950588226318 0.133485391736030579 0.0862403810024261475
0.52782595157623291 0.0230419877916574478 0.0316239222884178162
0.113244771957397461 0.185028508305549622 0.108087942004203796
0.283670693635940552 0.118439130485057831 0.107962451875209808
0.492210209369659424 0.0369578935205936432 0.0275721326470375061
0.479252398014068604 0.042020801454782486 0.0578792020678520203
0.57597118616104126 0.004230523481965065 0.0261798128485679626
0.448914468288421631 0.0538745485246181488 0.0505974516272544861
0.584120988845825195 0.00104621693026274443 0.0812584981322288513
0.521543979644775391 0.0254964884370565414 0.0411944761872291565
0.0663595199584960938 0.203347653150558472 0.114375784993171692
0.15070033073425293 0.17039373517036438 0.118472941219806671
0.363774985074996948 0.0871405154466629028 0.0814916640520095825
0.3694133460521698 0.0849374756217002869 0.0703079849481582642
0.510702848434448242 0.0297323726117610931 0.108870632946491241
0.296018540859222412 0.113614544272422791 0.114119939506053925
0.216566622257232666 0.144658252596855164 0.107355915009975433
0.321035802364349365 0.103839710354804993 0.106485076248645782
0.189202070236206055 0.155350208282470703 0.102234423160552979
0.346924245357513428 0.0937244966626167297 0.0966911837458610535
0.45230633020401001 0.0525492653250694275 0.0555116012692451477
0.52278214693069458 0.0250127203762531281 0.11525522917509079
0.303114265203475952 0.110842078924179077 0.107916191220283508
0.575740337371826172 0.0043207160197198391 0.00371620059013366699
0.45808333158493042 0.0502920560538768768 0.0643468499183654785
0.539662003517150879 0.0184173807501792908 0.0695289075374603271
0.482492417097091675 0.0407548584043979645 0.0803072229027748108
0.576582431793212891 0.00399169279262423515 0.0805840790271759033
0.144750326871871948 0.172718539834022522 0.0930753648281097412
0.299083232879638672 0.11241709440946579 0.0875469371676445007
0.52673649787902832 0.0234676692634820938 0.0388090386986732483
0.52701413631439209 0.0233591720461845398 0.0178330838680267334
0.51178133487701416 0.0293109994381666183 0.0628624707460403442
0.397026747465133667 0.0741482749581336975 0.0833051577210426331
0.137681275606155396 0.175480589270591736 0.0986964479088783264
0.120654016733169556 0.182133525609970093 0.101120077073574066
0.355133414268493652 0.0905169770121574402 0.0665879324078559875
0.518466770648956299 0.0266988314688205719 0.0981123149394989014
0.568104982376098633 0.00730403931811451912 0.118478462100028992
0.363144993782043457 0.0873866751790046692 0.117726624011993408
0.20418885350227356 0.149494543671607971 0.0880088508129119873
0.447140276432037354 0.0545677579939365387 0.0626115500926971436
0.5085335373878479 0.0305799730122089386 0.0338193327188491821
0.382079243659973145 0.0799886137247085571 0.0433016940951347351
0.124319970607757568 0.180701166391372681 0.118665322661399841
0.172345638275146484 0.16193641722202301 0.0908013433218002319
0.191710799932479858 0.15436999499797821 0.0969666391611099243
0.197886139154434204 0.151957139372825623 0.0829987078905105591
0.426330417394638062 0.06269865483045578 0.0901095718145370483
0.273811787366867065 0.122291237115859985 0.110172383487224579
0.378079116344451904 0.0815515592694282532 0.0913201048970222473
0.432353049516677856 0.0603454746305942535 0.10671563446521759
0.416872560977935791 0.0663940533995628357 0.0860288217663764954
0.327556073665618896 0.101292088627815247 0.0917624831199645996
0.430484771728515625 0.0610754452645778656 0.0450445637106895447
0.342050552368164062 0.0956287533044815063 0.117985598742961884
0.328006535768508911 0.101116076111793518 0.0947718247771263123
0.570645034313201904 0.00631158100441098213 0.00863073766231536865
0.132716983556747437 0.177420258522033691 0.0961912572383880615
0.316934823989868164 0.105442062020301819 0.070171058177947998
0.394368499517440796 0.0751869231462478638 0.102067127823829651
0.534781813621520996 0.0203241724520921707 0.0125607922673225403
0.360179394483566284 0.0885453969240188599 0.0694115385413169861
0.462492078542709351 0.0485694520175457001 0.0673133283853530884
0.460132479667663574 0.0494914017617702484 0.087137565016746521
0.492473781108856201 0.0368549078702926636 0.114629149436950684
0.317728877067565918 0.10513179749250412 0.119290411472320557
0.347944170236587524 0.0933259874582290649 0.117259092628955841
0.250820547342300415 0.131274446845054626 0.0743870958685874939
0.582256793975830078 0.00177458103280514479 0.0838836580514907837
0.290947049856185913 0.115596093237400055 0.0734426975250244141
0.358982563018798828 0.089013025164604187 0.058021843433380127
0.366600871086120605 0.0860363766551017761 0.0663914978504180908
0.57958376407623291 0.00281900865957140923 0.0344662144780158997
0.469023436307907104 0.0460175015032291412 0.0758455395698547363
0.165703356266021729 0.164531707763671875 0.0893382728099822998
0.230610907077789307 0.139170825481414795 0.108551099896430969
0.401254534721374512 0.0724963769316673279 0.087508663535118103
0.314329266548156738 0.106460101902484894 0.0670978277921676636
0.524343669414520264 0.0244025904685258865 0.118774726986885071
0.194786489009857178 0.153168261051177979 0.105547286570072174
0.22355186939239502 0.141928955912590027 0.0748440027236938477
0.0441327691078186035 0.212032169103622437 0.119539536535739899
0.247991472482681274 0.132379829883575439 0.112928405404090881
0.171775370836257935 0.162159234285354614 0.107867181301116943
0.514138519763946533 0.0283899866044521332 0.0280430838465690613
0.496069073677062988 0.0354501381516456604 0.103997409343719482
0.575033783912658691 0.00459678098559379578 0.00779031962156295776
0.0487461090087890625 0.210229635238647461 0.118111900985240936
0.412610381841659546 0.0680593922734260559 0.111492879688739777
0.164723396301269531 0.164914593100547791 0.0971642136573791504
0.53932422399520874 0.0185493491590023041 0.0126734524965286255
0.556823968887329102 0.0117117837071418762 0.101221621036529541
0.195522308349609375 0.152880758047103882 0.117274224758148193
0.393076717853546143 0.0756916403770446777 0.0782711803913116455
0.573806881904602051 0.00507616158574819565 0.0482286810874938965
0.224808484315872192 0.141437962651252747 0.0824119746685028076
0.576219439506530762 0.00413353834301233292 0.0327485799789428711
0.580257952213287354 0.00255559221841394901 0.0269388556480407715
0.22260633111000061 0.142298400402069092 0.0847260653972625732
0.513661324977874756 0.0285764411091804504 0.1006513312458992
0.215535074472427368 0.145061299204826355 0.0983576327562332153
0.51806032657623291 0.026857646182179451 0.104584783315658569
0.496380239725112915 0.0353285595774650574 0.0581336319446563721
0.271036982536315918 0.123375408351421356 0.079577714204788208
0.220934092998504639 0.14295177161693573 0.0889169126749038696
0.298987418413162231 0.112454533576965332 0.0677156448364257812
0.569740772247314453 0.00666489731520414352 0.0915100574493408203
0.553655683994293213 0.0129497144371271133 0.0950887426733970642
0.416649311780929565 0.0664812847971916199 0.101491987705230713
0.499225258827209473 0.0342169515788555145 0.0466937124729156494
0.5737723708152771 0.00508965738117694855 0.00923977047204971313
0.31008070707321167 0.10812012106180191 0.0593333020806312561
0.255140781402587891 0.12958642840385437 0.073377460241317749
0.153632372617721558 0.169248133897781372 0.0994093269109725952
0.487216413021087646 0.0389090739190578461 0.0421394780278205872
0.551962912082672119 0.0136111071333289146 0.0250018611550331116
0.551119387149810791 0.013940698467195034 0.116542212665081024
0.123427301645278931 0.181049942970275879 0.115986339747905731
0.243147224187850952 0.134272590279579163 0.0770910680294036865
0.58484041690826416 0.000765109842177480459 0.071254432201385498
0.53702390193939209 0.0194481387734413147 0.0184647068381309509
0.573579788208007812 0.00516490265727043152 0.018533557653427124
0.547950148582458496 0.0151789868250489235 0.0238291695713996887
0.109569549560546875 0.186464488506317139 0.10357356071472168
0.37707364559173584 0.0819444209337234497 0.110226117074489594
0.459337055683135986 0.0498021878302097321 0.0780484229326248169
0.547814130783081055 0.0152321411296725273 0.0388189628720283508
0.44738537073135376 0.0544719956815242767 0.0838591158390045166
0.581801831722259521 0.00195235153660178185 0.0799679607152938843
0.321496009826660156 0.103659890592098236 0.0719464123249053955
0.494843006134033203 0.0359291955828666687 0.0352081060409545898
0.407012701034545898 0.0702465400099754333 0.0494458600878715515
0.252215355634689331 0.130729451775550842 0.0733736604452133179
0.528672933578491211 0.0227110590785741806 0.104446917772293091
0.075378715991973877 0.199823647737503052 0.108277000486850739
0.472479552030563354 0.0446671172976493835 0.0576104708015918732
0.481246978044509888 0.041241474449634552 0.0297094732522964478
0.452241420745849609 0.0525746159255504608 0.109212256968021393
0.384337246417999268 0.0791063606739044189 0.0478821918368339539
0.340741991996765137 0.0961400419473648071 0.0903752371668815613
0.434839308261871338 0.0593740306794643402 0.101537473499774933
0.41993558406829834 0.0651972740888595581 0.0443752110004425049
0.545400798320770264 0.0161750819534063339 0.0958979129791259766
0.401235342025756836 0.072503894567489624 0.0634391307830810547
0.204000949859619141 0.149567946791648865 0.0965750589966773987
0.416793763637542725 0.0664248540997505188 0.0401280596852302551
0.068621516227722168 0.202463835477828979 0.115497902035713196
0.498384773731231689 0.0345453433692455292 0.0659128874540328979
0.584434926509857178 0.000923555402550846338 0.0377442315220832825
0.11249232292175293 0.185322493314743042 0.101719960570335388
0.48897242546081543 0.038222968578338623 0.0252736210823059082
0.412676453590393066 0.0680335685610771179 0.0636939406394958496
0.351988017559051514 0.0917459577322006226 0.102955393493175507
0.255792617797851562 0.129331737756729126 0.0950020104646682739
0.437843501567840576 0.0582002252340316772 0.112952753901481628
0.269376218318939209 0.12402430921792984 0.115019649267196655
0.530749201774597168 0.0218998119235038757 0.112953260540962219
0.299261569976806641 0.112347401678562164 0.060895036906003952
0.531560540199279785 0.0215828046202659607 0.0297231599688529968
0.425902068614959717 0.0628660246729850769 0.0476389899849891663
0.219550848007202148 0.143492236733436584 0.108881674706935883
0.480050623416900635 0.041708923876285553 0.0633523315191268921
0.51561439037322998 0.0278133302927017212 0.109611824154853821
0.454260438680648804 0.0517857447266578674 0.041674688458442688
0.392697691917419434 0.0758397430181503296 0.112805299460887909
0.315868198871612549 0.105858810245990753 0.105064831674098969
0.169937282800674438 0.16287742555141449 0.112382352352142334
0.362289994955062866 0.0877207368612289429 0.0588389970362186432
0.210278630256652832 0.147115111351013184 0.0924259424209594727
0.157779186964035034 0.167627871036529541 0.100818999111652374
0.462067693471908569 0.0487352684140205383 0.109142616391181946
0.308304369449615479 0.108814172446727753 0.0586991198360919952
0.170111000537872314 0.162809550762176514 0.0996805056929588318
0.550483047962188721 0.0141893262043595314 0.102309137582778931
0.477059394121170044 0.0428776666522026062 0.0886838510632514954
0.395501196384429932 0.0747443437576293945 0.0791024491190910339
0.274234563112258911 0.12212604284286499 0.100907832384109497
0.362371444702148438 0.0876889079809188843 0.102465234696865082
0.514563143253326416 0.0282240696251392365 0.0203451067209243774
0.518960535526275635 0.0265059135854244232 0.0391004681587219238
0.484367072582244873 0.0400223806500434875 0.0358202382922172546
0.424660027027130127 0.0633513182401657104 0.0466409698128700256
0.158721894025802612 0.167259529232978821 0.114966943860054016
0.351736724376678467 0.0918441489338874817 0.0549472570419311523
0.359715938568115234 0.0887264832854270935 0.102143853902816772
0.55373692512512207 0.0129179591313004494 0.0310193672776222229
0.259229212999343872 0.12798897922039032 0.0818987786769866943
0.413571745157241821 0.0676837638020515442 0.0733660012483596802
0.272676557302474976 0.122734792530536652 0.0741376876831054688
0.531918644905090332 0.021442880854010582 0.104736611247062683
0.248267889022827148 0.132271826267242432 0.104683168232440948
0.367600023746490479 0.0856459885835647583 0.11199728399515152
0.348874509334564209 0.0929624885320663452 0.0524634793400764465
0.198738276958465576 0.151624202728271484 0.0910801962018013
0.223910301923751831 0.141788899898529053 0.0981542319059371948
0.459485471248626709 0.0497442111372947693 0.0385955199599266052
0.503477931022644043 0.0325553268194198608 0.0226643234491348267
0.363783091306686401 0.0871373564004898071 0.0561800673604011536
0.408383071422576904 0.0697110965847969055 0.0806982517242431641
0.281558245420455933 0.119264513254165649 0.0907298028469085693
0.425330132246017456 0.0630894899368286133 0.0480892956256866455
0.582393825054168701 0.00172106060199439526 0.0410220399498939514
0.121868878602981567 0.18165886402130127 0.11428099125623703
0.539873898029327393 0.0183345694094896317 0.0319802984595298767
0.541837632656097412 0.0175673030316829681 0.0418080240488052368
0.322639405727386475 0.103213146328926086 0.063852265477180481
0.448694229125976562 0.0539605990052223206 0.0525173097848892212
0.158567100763320923 0.167320013046264648 0.113978348672389984
0.291162937879562378 0.115511730313301086 0.0997500792145729065
0.535095572471618652 0.0202015694230794907 0.0658657699823379517
0.554497480392456055 0.0126208141446113586 0.0409244000911712646
0.272444009780883789 0.122825659811496735 0.0676386803388595581
0.474417656660079956 0.0439098551869392395 0.0537691935896873474
0.518007814884185791 0.0268781613558530807 0.0802221894264221191
0.520940959453582764 0.0257321223616600037 0.0230786129832267761
0.584317803382873535 0.000969299580901861191 0.00194258242845535278
0.579660594463348389 0.00278898188844323158 0.0709667801856994629
0.539709031581878662 0.0183989908546209335 0.0223040655255317688
0.564378142356872559 0.00876020826399326324 0.0661459267139434814
0.496597409248352051 0.0352437123656272888 0.0892411172389984131
0.483100175857543945 0.0405173823237419128 0.044871106743812561
0.376145303249359131 0.0823071524500846863 0.0868505537509918213
0.368486553430557251 0.0852995961904525757 0.0702777877449989319
0.36745038628578186 0.0857044532895088196 0.105614379048347473
0.387824773788452148 0.0777437016367912292 0.109409153461456299
0.581909537315368652 0.00191026611719280481 0.087926916778087616
0.570689260959625244 0.00629429658874869347 0.00828941911458969116
0.488022148609161377 0.0385942645370960236 0.0686260759830474854
0.243707776069641113 0.134053558111190796 0.103098765015602112
0.466066539287567139 0.0471728332340717316 0.108735062181949615
0.311304181814193726 0.107642084360122681 0.0648594871163368225
0.584340810775756836 0.0009603109210729599 0.0384008213877677917
0.527389764785766602 0.0232124272733926773 0.0219970867037773132
0.427736818790435791 0.0621491484344005585 0.0986541509628295898
0.551483213901519775 0.0137985358014702797 0.11735796183347702
0.263125628232955933 0.126466572284698486 0.111486159265041351
0.187995105981826782 0.155821815133094788 0.114816702902317047
0.386977553367614746 0.0780747309327125549 0.0580678917467594147
0.377440452575683594 0.081801094114780426 0.0431132763624191284
0.310986489057540894 0.107766211032867432 0.0855741798877716064
0.553943634033203125 0.012837202288210392 0.0257925838232040405
0.47386738657951355 0.0441248603165149689 0.0663148611783981323
0.171186387538909912 0.162389352917671204 0.108279168605804443
0.407393962144851685 0.0700975656509399414 0.0672543793916702271
0.466948628425598145 0.0468281768262386322 0.0752453804016113281
0.492811620235443115 0.0367229096591472626 0.0777602344751358032
0.536035060882568359 0.0198345035314559937 0.0846780538558959961
0.526789963245391846 0.0234467741101980209 0.0708873718976974487
0.5042153000831604 0.0322672128677368164 0.086610749363899231
0.364575862884521484 0.0868275910615921021 0.0897268801927566528
0.331942915916442871 0.0995780453085899353 0.110417038202285767
0.545143365859985352 0.0162756834179162979 0.08660908043384552
0.467850297689437866 0.046475876122713089 0.0657344311475753784
0.553978502750396729 0.0128235844895243645 0.0906392857432365417
0.505398929119110107 0.031804744154214859 0.116726092994213104
0.494409918785095215 0.0360984019935131073 0.0914475694298744202
0.427900433540344238 0.0620852112770080566 0.0701823234558105469
0.320872396230697632 0.10390356183052063 0.104918360710144043
0.57020723819732666 0.0064826267771422863 0.0832290127873420715
0.42855679988861084 0.0618287511169910431 0.0416683778166770935
0.358857929706573486 0.0890617296099662781 0.0971432626247406006
0.38173598051071167 0.080122731626033783 0.100990347564220428
0.348124206066131592 0.0932556465268135071 0.0879830494523048401
0.456217318773269653 0.0510211475193500519 0.0529390126466751099
0.517009437084197998 0.0272682607173919678 0.0754218548536300659
0.423414289951324463 0.0638380646705627441 0.105892449617385864
0.336068660020828247 0.097966022789478302 0.093719974160194397
0.468719273805618286 0.0461363419890403748 0.0335029438138008118
0.572430014610290527 0.00561415357515215874 0.0596448183059692383
0.573850870132446289 0.00505899405106902122 0.0991250425577163696
0.101297676563262939 0.189696505665779114 0.116329923272132874
0.322643429040908813 0.103211574256420135 0.108236655592918396
0.419173777103424072 0.065494924783706665 0.0897939503192901611
0.385814398527145386 0.0785292088985443115 0.103265449404716492
0.405690670013427734 0.0707630887627601624 0.0521652325987815857
0.54339367151260376 0.0169593226164579391 0.119220949709415436
0.258009344339370728 0.128465622663497925 0.114133320748806
0.320278435945510864 0.104135632514953613 0.10403837263584137
0.143020719289779663 0.173394352197647095 0.107688635587692261
0.437015056610107422 0.058523915708065033 0.0872154384851455688
0.528774499893188477 0.022671358659863472 0.107771269977092743
0.163889080286026001 0.165240585803985596 0.0894746929407119751
0.55510181188583374 0.0123846651986241341 0.101220786571502686
0.335264921188354492 0.0982800722122192383 0.116625033318996429
0.253338783979415894 0.130290508270263672 0.0899813622236251831
0.53066939115524292 0.0219310000538825989 0.0679252743721008301
0.410196959972381592 0.0690023675560951233 0.117776907980442047
0.527348220348358154 0.0232286471873521805 0.0422367975115776062
0.402450680732727051 0.0720290243625640869 0.0990592017769813538
0.231113821268081665 0.138974323868751526 0.108579337596893311
0.347999513149261475 0.0933043584227561951 0.067833922803401947
0.060690760612487793 0.205562576651573181 0.115525998175144196
0.344572752714157104 0.0946432799100875854 0.110058717429637909
0.174511104822158813 0.161090314388275146 0.114473544061183929
0.493134856224060059 0.0365966074168682098 0.115861095488071442
0.477913230657577515 0.0425440482795238495 0.0634622573852539062
0.448678642511367798 0.0539666861295700073 0.078551948070526123
0.279162973165512085 0.120200395584106445 0.0937054678797721863
0.568948149681091309 0.00697458581998944283 0.0819478407502174377
0.405602455139160156 0.070797555148601532 0.0591168440878391266
0.52896958589553833 0.0225951354950666428 0.0906172320246696472
0.543257713317871094 0.0170124433934688568 0.106273964047431946
0.47344362735748291 0.0442904308438301086 0.052652314305305481
0.327079713344573975 0.101478219032287598 0.0627280250191688538
0.443417280912399292 0.0560224168002605438 0.0727369040250778198
0.462341248989105225 0.048628389835357666 0.10570865124464035
0.365978211164474487 0.0862796679139137268 0.0925103873014450073
0.355952292680740356 0.0901970267295837402 0.115158684551715851
0.242779135704040527 0.13441641628742218 0.102925479412078857
0.326348096132278442 0.101764075458049774 0.0811722278594970703
0.493859142065048218 0.0363136120140552521 0.0903554558753967285
0.503517985343933105 0.032539665699005127 0.0953299030661582947
0.397394180297851562 0.0740047171711921692 0.0771311819553375244
0.227832913398742676 0.140256240963935852 0.0749102309346199036
0.302505761384963989 0.111079826951026917 0.0677771419286727905
0.368566989898681641 0.0852681621909141541 0.0813007056713104248
0.251407384872436523 0.131045147776603699 0.114589899778366089
0.452122956514358521 0.052620910108089447 0.064410872757434845
0.538139700889587402 0.0190121680498123169 0.112793490290641785
0.520860135555267334 0.0257636997848749161 0.0946009531617164612
0.140942603349685669 0.17420630156993866 0.114508219063282013
0.36102256178855896 0.088215954601764679 0.0461992323398590088
0.267454177141189575 0.124775305390357971 0.0706189945340156555
0.174681425094604492 0.161023765802383423 0.117317549884319305
0.47437092661857605 0.0439281053841114044 0.0479702726006507874
0.251989036798477173 0.130817890167236328 0.0726331621408462524
0.330499023199081421 0.100142203271389008 0.0917771831154823303
0.270096659660339355 0.123742818832397461 0.0945365056395530701
0.350435197353363037 0.0923526808619499207 0.0669756010174751282
0.278117656707763672 0.120608828961849213 0.106607720255851746
0.178906947374343872 0.159372761845588684 0.115897931158542633
0.489759266376495361 0.0379155352711677551 0.043320000171661377
0.555341005325317383 0.0122912181541323662 0.094254031777381897
0.429223239421844482 0.0615683682262897491 0.0927651152014732361
0.178635746240615845 0.159478724002838135 0.100068733096122742
0.430442273616790771 0.0610920563340187073 0.110640399158000946
0.558263242244720459 0.0111494408920407295 0.116612769663333893
0.58536064624786377 0.000561842694878578186 0.0192509070038795471
0.443483442068099976 0.0559965707361698151 0.091627657413482666
0.392800033092498779 0.0757997483015060425 0.0516860261559486389
0.403443515300750732 0.071641094982624054 0.0484487265348434448
0.399093091487884521 0.0733409076929092407 0.0994755774736404419
0.477257072925567627 0.0428004227578639984 0.113752096891403198
0.317187875509262085 0.10534319281578064 0.113796308636665344
0.46212044358253479 0.048714660108089447 0.0579849667847156525
0.572744369506835938 0.00549132237210869789 0.0202270373702049255
0.43031919002532959 0.0611401461064815521 0.0812345147132873535
0.536855220794677734 0.0195140447467565536 0.0610828399658203125
0.563684701919555664 0.00903113745152950287 0.028634980320930481
0.36374250054359436 0.087153211236000061 0.0827352702617645264
0.169563353061676025 0.163023531436920166 0.106949776411056519
0.585274875164031982 0.000595352670643478632 0.105460435152053833
0.423866629600524902 0.0636613070964813232 0.0473094284534454346
0.273957788944244385 0.122234180569648743 0.105628788471221924
0.052552640438079834 0.208742320537567139 0.11289755254983902
0.55123668909072876 0.0138948597013950348 0.0346842780709266663
0.441052675247192383 0.0569463297724723816 0.0359475761651992798
0.556857585906982422 0.0116986557841300964 0.0317256078124046326
0.553481757640838623 0.0130176665261387825 0.0896490737795829773
0.297564089298248291 0.11301065981388092 0.108007855713367462
0.438823997974395752 0.0578171238303184509 0.0929834097623825073
0.20371130108833313 0.149681121110916138 0.113501220941543579
0.4832344651222229 0.0404649265110492706 0.0269108191132545471
0.408789336681365967 0.0695523619651794434 0.115827567875385284
0.560326933860778809 0.0103430915623903275 0.0919867008924484253
0.558215737342834473 0.0111679947003722191 0.0373911038041114807
0.34676891565322876 0.0937851816415786743 0.0985920652747154236
0.404035836458206177 0.071409665048122406 0.100384801626205444
0.567629456520080566 0.00748983491212129593 0.0700000524520874023
0.378276675939559937 0.0814743712544441223 0.046293996274471283
0.586789250373840332 3.64494735549669713e-06 0.0716238915920257568
0.168673008680343628 0.16337139904499054 0.0957384034991264343
0.553020477294921875 0.0131978951394557953 0.0660172700881958008
0.460284769535064697 0.0494318939745426178 0.0700321346521377563
0.546740174293518066 0.0156517717987298965 0.0759417563676834106
0.501044154167175293 0.0335062630474567413 0.0570393204689025879
0.573975205421447754 0.00501040183007717133 0.0182844623923301697
0.114826351404190063 0.184410542249679565 0.111550182104110718
0.521094560623168945 0.0256721135228872299 0.0590681359171867371
0.567093253135681152 0.00769934710115194321 0.0625514388084411621
0.30697333812713623 0.109334245324134827 0.0641447454690933228
0.586453378200531006 0.000134888032334856689 0.0278441905975341797
0.559960603713989258 0.0104862311854958534 0.0341533571481704712
0.503429770469665527 0.032574143260717392 0.0919893234968185425
0.303021341562271118 0.11087837815284729 0.10402873158454895
0.136810004711151123 0.175821021199226379 0.094914652407169342
0.53028571605682373 0.0220808926969766617 0.0714166611433029175
0.36283499002456665 0.0875077992677688599 0.11207030713558197
0.584939002990722656 0.000726590922567993402 0.0218486860394477844
0.434044241905212402 0.0596846938133239746 0.0673812627792358398
0.49774247407913208 0.0347963087260723114 0.113054066896438599
0.412775576114654541 0.0679948478937149048 0.085057675838470459
0.571877539157867432 0.00583001319319009781 0.074354127049446106
0.225124001502990723 0.141314685344696045 0.0741917937994003296
0.200254589319229126 0.151031747460365295 0.111227527260780334
0.252397805452346802 0.130658179521560669 0.0731994807720184326
0.514726996421813965 0.0281600486487150192 0.103725485503673553
0.550702929496765137 0.0141034219413995743 0.0761544331908226013
0.547908365726470947 0.0151953175663948059 0.0517430305480957031
0.411181151866912842 0.0686178207397460938 0.0769156515598297119
0.343152761459350586 0.0951980948448181152 0.0662296637892723083
0.325070232152938843 0.102263368666172028 0.11182384192943573
0.241616189479827881 0.134870797395706177 0.117300316691398621
0.160307615995407104 0.166639953851699829 0.102503508329391479
0.420398801565170288 0.0650162771344184875 0.0536220669746398926
0.540204703807830811 0.0182053148746490479 0.0241133496165275574
0.18198433518409729 0.158170357346534729 0.102697908878326416
0.534523367881774902 0.0204251427203416824 0.10786428302526474
0.580752670764923096 0.0023622903972864151 0.087946966290473938
0.47003936767578125 0.045620553195476532 0.0287483930587768555
0.506786823272705078 0.0312624573707580566 0.0219795331358909607
0.575931131839752197 0.00424616970121860504 0.0665294229984283447
0.343122959136962891 0.0952097401022911072 0.087899722158908844
0.560684025287628174 0.0102035775780677795 0.118255332112312317
0.580225050449371338 0.00256843399256467819 0.0953340157866477966
0.564342260360717773 0.0087742069736123085 0.0119228735566139221
0.266462117433547974 0.12516292929649353 0.0847908109426498413
0.535566031932830811 0.0200177561491727829 0.0325665175914764404
0.402731239795684814 0.0719194114208221436 0.0579890571534633636
0.413666754961013794 0.0676466375589370728 0.044415399432182312
0.202225238084793091 0.150261774659156799 0.0942817926406860352
0.522873163223266602 0.0249771513044834137 0.0647586733102798462
0.482113957405090332 0.0409027338027954102 0.111219592392444611
0.563585877418518066 0.00906975753605365753 0.0904006063938140869
0.379870682954788208 0.0808515548706054688 0.0860894843935966492
0.408169955015182495 0.0697943717241287231 0.0387131050229072571
0.331201821565628052 0.0998676121234893799 0.0598444528877735138
0.486897587776184082 0.0390336513519287109 0.0412205606698989868
0.461740255355834961 0.0488632023334503174 0.0518619716167449951
0.352835237979888916 0.0914149284362792969 0.066904313862323761
0.163899809122085571 0.165236398577690125 0.0937304869294166565
0.250953048467636108 0.1312226802110672 0.118116170167922974
0.289412140846252441 0.116195805370807648 0.10384630411863327
0.531261444091796875 0.0216996669769287109 0.0542313307523727417
0.565496742725372314 0.00832312740385532379 0.112492918968200684
0.247540891170501709 0.132555872201919556 0.072918429970741272
0.453258335590362549 0.0521772950887680054 0.10973193496465683
0.200960904359817505 0.150755763053894043 0.107849381864070892
0.523153483867645264 0.0248676389455795288 0.116811342537403107
0.166180789470672607 0.16434517502784729 0.102386213839054108
0.320126771926879883 0.104194886982440948 0.077549666166305542
0.127434670925140381 0.179484173655509949 0.103401556611061096
0.502493441104888916 0.0329399891197681427 0.0771761685609817505
0.45078963041305542 0.0531418658792972565 0.057389676570892334
0.380061179399490356 0.0807771235704421997 0.101952455937862396
0.505859255790710449 0.0316248983144760132 0.0446334779262542725
0.210492461919784546 0.147031575441360474 0.0825331509113311768
0.570183932781219482 0.00649173697456717491 0.043901592493057251
0.488016396760940552 0.0385965034365653992 0.0217127278447151184
0.33034786581993103 0.10020127147436142 0.0641031041741371155
0.358621537685394287 0.0891540870070457458 0.114121615886688232
0.117129594087600708 0.18351060152053833 0.115731485188007355
0.521641314029693604 0.0254584737122058868 0.0493696928024291992
0.553605377674102783 0.0129693765193223953 0.118982315063476562
0.195458054542541504 0.152905866503715515 0.0943504869937896729
0.577096819877624512 0.00379070686176419258 0.066324770450592041
0.508632540702819824 0.0305412989109754562 0.0281006023287773132
0.279640406370162964 0.120013855397701263 0.0860060006380081177
0.499955445528030396 0.0339316464960575104 0.100267544388771057
0.173463881015777588 0.161499485373497009 0.0934647321701049805
0.379172146320343018 0.0811244919896125793 0.116802789270877838
0.463241517543792725 0.0482766218483448029 0.106294184923171997
0.344611018896102905 0.0946283265948295593 0.119502410292625427
0.307144433259963989 0.109267398715019226 0.0997005924582481384
0.0567478537559509277 0.207103148102760315 0.114273048937320709
0.547407448291778564 0.0153910424560308456 0.0382313951849937439
0.364464938640594482 0.0868709459900856018 0.0634778663516044617
0.429871976375579834 0.0613148771226406097 0.0544934496283531189
0.579067766666412354 0.00302060856483876705 0.060488920658826828
0.294462889432907104 0.114222370088100433 0.0773169994354248047
0.261759549379348755 0.127000316977500916 0.0855597704648971558
0.507761061191558838 0.0308817997574806213 0.0691697746515274048
0.267848402261734009 0.124621264636516571 0.0750759690999984741
0.567795634269714355 0.00742490123957395554 0.0713889896869659424
0.413859367370605469 0.0675713866949081421 0.0420342162251472473
0.160093992948532104 0.16672341525554657 0.119338594377040863
0.380278229713439941 0.0806923210620880127 0.0557167083024978638
0.252958595752716064 0.130439057946205139 0.0876797661185264587
0.521813809871673584 0.0253910757601261139 0.0279542058706283569
0.411624670028686523 0.0684445351362228394 0.0845879167318344116
0.534878730773925781 0.0202862955629825592 0.0996881425380706787
0.179263979196548462 0.159233257174491882 0.111780337989330292
0.408975422382354736 0.0694796591997146606 0.0980987772345542908
0.508969426155090332 0.0304096657782793045 0.0348942801356315613
0.396015346050262451 0.0745434612035751343 0.0640275552868843079
0.214643239974975586 0.145409762859344482 0.0780562981963157654
0.469955146312713623 0.0456534624099731445 0.106262966990470886
0.336678266525268555 0.0977278351783752441 0.0940013676881790161
0.400898098945617676 0.0726356431841850281 0.0505888760089874268
0.402501285076141357 0.0720092505216598511 0.113964259624481201
0.0141148567199707031 0.223760873079299927 0.117976129055023193
0.46169513463973999 0.0488808304071426392 0.114882528781890869
0.520014166831970215 0.0260942224413156509 0.0832217931747436523
0.551810264587402344 0.0136707499623298645 0.101814240217208862
0.34263688325881958 0.0953996703028678894 0.082957923412322998
0.34398457407951355 0.0948730930685997009 0.109221339225769043
0.531863033771514893 0.0214646011590957642 0.0265455767512321472
0.151661127805709839 0.170018330216407776 0.10773865133523941
0.57885974645614624 0.00310188834555447102 0.113693147897720337
0.415005326271057129 0.0671236366033554077 0.0784908980131149292
0.399728298187255859 0.073092728853225708 0.0959705933928489685
0.268769174814224243 0.124261491000652313 0.0880237966775894165
0.0823518037796020508 0.197099104523658752 0.106281839311122894
0.2074851393699646 0.148206591606140137 0.112253740429878235
0.456526756286621094 0.050900239497423172 0.0666816681623458862
0.376955568790435791 0.0819905549287796021 0.0574963092803955078
0.486337602138519287 0.039252452552318573 0.0872180163860321045
0.343840420246124268 0.0949294194579124451 0.0510297268629074097
0.538674831390380859 0.0188030879944562912 0.0418714210391044617
0.287610381841659546 0.116899803280830383 0.0852278023958206177
0.244104683399200439 0.133898481726646423 0.0990494042634963989
