ply
format ascii 1.0
element vertex 753
property float x
property float y
property float z
end_header
0.225495606660842896 0.177809908986091614 0.247329428791999817
0.245036602020263672 0.167235329747200012 0.256786465644836426
0.497454285621643066 0.0306397024542093277 0.300845950841903687
0.401385962963104248 0.0826269909739494324 0.180285841226577759
0.492928594350814819 0.0330887734889984131 0.0948047041893005371
0.216904819011688232 0.182458817958831787 0.21782258152961731
0.444036692380905151 0.0595465898513793945 0.167392820119857788
0.456764519214630127 0.0526589415967464447 0.22812555730342865
0.46876370906829834 0.0461655743420124054 0.06832122802734375
0.295923829078674316 0.139697730541229248 0.199361473321914673
0.516393721103668213 0.0203906409442424774 0.198864027857780457
0.434060811996459961 0.064945027232170105 0.127081200480461121
0.419564366340637207 0.0727897807955741882 0.294223695993423462
0.122298926115036011 0.233654692769050598 0.304388493299484253
0.251579374074935913 0.163694694638252258 0.182884559035301208
0.377265483140945435 0.0956797748804092407 0.188809424638748169
0.338836312294006348 0.116475678980350494 0.271153002977371216
0.446821063756942749 0.0580398291349411011 0.272489219903945923
0.313964694738388062 0.129934936761856079 0.167647063732147217
0.360626548528671265 0.104683913290500641 0.165937766432762146
0.322429478168487549 0.125354215502738953 0.248682945966720581
0.417864501476287842 0.0737096592783927917 0.285303473472595215
0.265276134014129639 0.156282722949981689 0.309963494539260864
0.0861659049987792969 0.253208070993423462 0.293651461601257324
0.473224937915802002 0.0437513850629329681 0.312990963459014893
0.404545903205871582 0.0809169858694076538 0.258363276720046997
0.304809272289276123 0.134889379143714905 0.202965572476387024
0.13057243824005127 0.229177504777908325 0.271429896354675293
0.346306860446929932 0.112432993948459625 0.139082729816436768
0.316666394472122192 0.128472909331321716 0.314146190881729126
0.431244581937789917 0.0664690285921096802 0.123369723558425903
0.166028767824172974 0.209990337491035461 0.225751146674156189
0.440845847129821777 0.0612733177840709686 0.291237682104110718
0.216519176959991455 0.182667508721351624 0.256794154644012451
0.44227147102355957 0.0605018362402915955 0.0650573074817657471
0.0998575985431671143 0.245798811316490173 0.276472806930541992
0.377090990543365479 0.0957741960883140564 0.220283582806587219
0.399850606918334961 0.0834578573703765869 0.319720238447189331
0.448097288608551025 0.0573491975665092468 0.309482425451278687
0.477209299802780151 0.04159526526927948 0.233934938907623291
0.355812758207321167 0.107288897037506104 0.175173267722129822
0.494928479194641113 0.0320065394043922424 0.166518211364746094
0.213910549879074097 0.184079155325889587 0.282489866018295288
0.354537278413772583 0.107979118824005127 0.180382817983627319
0.390571892261505127 0.0884790346026420593 0.222000211477279663
0.350741267204284668 0.110033340752124786 0.260683894157409668
0.271735221147537231 0.152787372469902039 0.295521289110183716
0.10640832781791687 0.242253899574279785 0.302125275135040283
0.314301550388336182 0.129752665758132935 0.19808119535446167
0.351861089468002319 0.10942734032869339 0.256055593490600586
0.300764709711074829 0.13707810640335083 0.191029936075210571
0.497453451156616211 0.0306401532143354416 0.0654492080211639404
0.490083634853363037 0.0346283316612243652 0.157869026064872742
0.320847928524017334 0.12621009349822998 0.283705651760101318
0.279397785663604736 0.14864078164100647 0.198666498064994812
0.308613419532775879 0.132830768823623657 0.14188113808631897
0.126093387603759766 0.231601327657699585 0.270012378692626953
0.503464818000793457 0.0273871198296546936 0.177295297384262085
0.438804924488067627 0.0623777545988559723 0.17644423246383667
0.290135592222213745 0.142830029129981995 0.188335791230201721
0.419024527072906494 0.0730818957090377808 0.268526375293731689
0.353415936231613159 0.108585931360721588 0.245415180921554565
0.46175113320350647 0.0499604344367980957 0.250751703977584839
0.429882049560546875 0.0672063529491424561 0.124278426170349121
0.419754058122634888 0.0726871192455291748 0.20878523588180542
0.448204994201660156 0.0572909228503704071 0.241936713457107544
0.350066781044006348 0.110398314893245697 0.248827561736106873
0.217336982488632202 0.182224944233894348 0.257656186819076538
0.168696820735931396 0.20854651927947998 0.265904217958450317
0.409380078315734863 0.0783009752631187439 0.133980423212051392
0.203818857669830322 0.189540266990661621 0.243269950151443481
0.336569070816040039 0.117702603340148926 0.226735949516296387
0.343910157680511475 0.113729968667030334 0.296064704656600952
0.253520786762237549 0.162644118070602417 0.246865391731262207
0.485584855079650879 0.0370628386735916138 0.196317031979560852
0.165939778089523315 0.210038498044013977 0.261409968137741089
0.300014495849609375 0.137484088540077209 0.182199686765670776
0.382859468460083008 0.0926525890827178955 0.116553127765655518
0.285549670457839966 0.145311713218688965 0.158952578902244568
0.372796535491943359 0.0980981364846229553 0.212472259998321533
0.376372456550598145 0.0961630195379257202 0.217461183667182922
0.407297194004058838 0.0794281288981437683 0.125535100698471069
0.375566303730010986 0.096599288284778595 0.197508186101913452
0.287248402833938599 0.144392445683479309 0.281213104724884033
0.321129560470581055 0.126057669520378113 0.223188012838363647
0.49410402774810791 0.0324526950716972351 0.0487159192562103271
0.150788247585296631 0.218237727880477905 0.23977234959602356
0.461759388446807861 0.0499559566378593445 0.261535912752151489
0.381851673126220703 0.0931979641318321228 0.184330940246582031
0.275640010833740234 0.150674298405647278 0.19408397376537323
0.548965275287628174 0.00276457704603672028 0.116725802421569824
0.439929783344268799 0.0617690309882164001 0.319704413414001465
0.443118095397949219 0.0600436963140964508 0.150784343481063843
0.545438230037689209 0.00467322114855051041 0.295548826456069946
0.406822443008422852 0.0796850472688674927 0.300496757030487061
0.247577667236328125 0.165860220789909363 0.219053030014038086
0.370828002691268921 0.0991634055972099304 0.256448507308959961
0.459289520978927612 0.0512925311923027039 0.209223538637161255
0.467799067497253418 0.0466875992715358734 0.202745020389556885
0.223877847194671631 0.178685352206230164 0.261322438716888428
0.436255574226379395 0.0637573301792144775 0.23037421703338623
0.231862753629684448 0.174364328384399414 0.236162424087524414
0.341124773025512695 0.115237288177013397 0.211337924003601074
0.489267200231552124 0.0350701436400413513 0.115617677569389343
0.135321944952011108 0.2266073077917099 0.272550344467163086
0.420611798763275146 0.0722229629755020142 0.26781657338142395
0.389204263687133789 0.0892191231250762939 0.12724795937538147
0.498835980892181396 0.02989199198782444 0.0469444692134857178
0.299921184778213501 0.137534573674201965 0.270171374082565308
0.338423877954483032 0.116698868572711945 0.165978580713272095
0.377098977565765381 0.0957698822021484375 0.174530297517776489
0.258871942758560181 0.15974833071231842 0.252867549657821655
0.254090934991836548 0.162335574626922607 0.289859563112258911
0.186059355735778809 0.199150800704956055 0.312760591506958008
0.222233444452285767 0.179575219750404358 0.210030391812324524
0.356317520141601562 0.107015758752822876 0.318306326866149902
0.370383203029632568 0.0994041189551353455 0.108384415507316589
0.544129252433776855 0.00538160139694809914 0.117233231663703918
0.18683287501335144 0.19873221218585968 0.266209244728088379
0.489262163639068604 0.035072866827249527 0.0680761933326721191
0.529391288757324219 0.0133570320904254913 0.186640039086341858
0.446589827537536621 0.0581649541854858398 0.292169004678726196
0.431091010570526123 0.0665521249175071716 0.206063389778137207
0.283782035112380981 0.146268263459205627 0.159233227372169495
0.543743669986724854 0.0055902460590004921 0.234001472592353821
0.455860525369644165 0.0531481355428695679 0.1656218022108078
0.235546797513961792 0.17237071692943573 0.232707738876342773
0.278398036956787109 0.14918181300163269 0.253400295972824097
0.448701858520507812 0.0570220313966274261 0.31177365779876709
0.327949076890945435 0.122367307543754578 0.212308436632156372
0.453518331050872803 0.0544156022369861603 0.26231500506401062
0.33433002233505249 0.118914246559143066 0.24089580774307251
0.413266420364379883 0.076197892427444458 0.228492304682731628
0.343921482563018799 0.113723859190940857 0.172423586249351501
0.408009141683578491 0.0790428668260574341 0.172549918293952942
0.366347014904022217 0.101588286459445953 0.108492404222488403
0.407655596733093262 0.0792341902852058411 0.200752377510070801
0.509512245655059814 0.0241145361214876175 0.244117617607116699
0.462175458669662476 0.0497308075428009033 0.171814918518066406
0.252846896648406982 0.163008779287338257 0.284172147512435913
0.442087620496749878 0.0606013238430023193 0.213080659508705139
0.342988342046737671 0.114228822290897369 0.254707932472229004
0.447730123996734619 0.0575479008257389069 0.177989423274993896
0.395523935556411743 0.0857992321252822876 0.201341956853866577
0.508453607559204102 0.0246874392032623291 0.116216167807579041
0.279233813285827637 0.148729532957077026 0.201793387532234192
0.131098926067352295 0.228892594575881958 0.275309979915618896
0.468718081712722778 0.0461902730166912079 0.0563622415065765381
0.498328208923339844 0.0301667805761098862 0.0468529164791107178
0.269457489252090454 0.154019966721534729 0.311162263154983521
0.244355827569961548 0.167603716254234314 0.200921356678009033
0.41122591495513916 0.077302105724811554 0.194649219512939453
0.183411210775375366 0.200583845376968384 0.307596057653427124
0.42078244686126709 0.0721306055784225464 0.088814958930015564
0.403098642826080322 0.0817001834511756897 0.315510660409927368
0.356513828039169312 0.106909506022930145 0.195052579045295715
0.0727555155754089355 0.260465085506439209 0.305993437767028809
0.49221491813659668 0.0334749855101108551 0.273557007312774658
0.513307869434356689 0.0220605451613664627 0.257575184106826782
0.466078281402587891 0.0476188063621520996 0.0526935160160064697
0.475818932056427002 0.0423476621508598328 0.188096910715103149
0.285448402166366577 0.145366504788398743 0.230753630399703979
0.267580360174179077 0.155035778880119324 0.225214511156082153
0.287634879350662231 0.144183292984962463 0.16512124240398407
0.509625911712646484 0.0240530483424663544 0.21661493182182312
0.508938312530517578 0.024425119161605835 0.0713098198175430298
0.441563397645950317 0.0608850084245204926 0.250920116901397705
0.309618771076202393 0.132286727428436279 0.179251834750175476
0.204565256834030151 0.189136341214179993 0.258467555046081543
0.172361403703689575 0.206563442945480347 0.317020177841186523
0.441109299659729004 0.0611307471990585327 0.3007354736328125
0.396412432193756104 0.0853184163570404053 0.0981122255325317383
0.279028266668319702 0.148840755224227905 0.209564566612243652
0.522059917449951172 0.0173243936151266098 0.306694388389587402
0.531179964542388916 0.0123890843242406845 0.310529410839080811
0.410710930824279785 0.0775807946920394897 0.237179204821586609
0.229146659374237061 0.175834149122238159 0.272472620010375977
0.511188626289367676 0.0232073869556188583 0.211131125688552856
0.419726848602294922 0.0727018490433692932 0.292577683925628662
0.331470519304275513 0.120461679995059967 0.186270087957382202
0.250093638896942139 0.164498716592788696 0.293269425630569458
0.201908677816390991 0.190573960542678833 0.240272492170333862
0.43981286883354187 0.0618323050439357758 0.214643865823745728
0.315164387226104736 0.129285737872123718 0.1543293297290802
0.168189883232116699 0.208820849657058716 0.282266378402709961
0.282460689544677734 0.146983310580253601 0.199272513389587402
0.53227996826171875 0.0117938173934817314 0.30308869481086731
0.518665790557861328 0.0191611219197511673 0.0457997918128967285
0.478923439979553223 0.0406676642596721649 0.0839628130197525024
0.377581477165222168 0.095508769154548645 0.234597161412239075
0.322201520204544067 0.125477582216262817 0.259356588125228882
0.446099579334259033 0.0584302544593811035 0.177824556827545166
0.536777019500732422 0.0093602323904633522 0.288617908954620361
0.467120915651321411 0.047054588794708252 0.110442295670509338
0.542219698429107666 0.00641492381691932678 0.239513605833053589
0.239256769418716431 0.170363068580627441 0.249759018421173096
0.463474392890930176 0.0490278862416744232 0.123478025197982788
0.505681931972503662 0.026187332347035408 0.232890963554382324
0.335864782333374023 0.118083715438842773 0.261505216360092163
0.254755228757858276 0.161976084113121033 0.251815855503082275
0.411534905433654785 0.0771349072456359863 0.0909345746040344238
0.340099453926086426 0.115792125463485718 0.196398168802261353
0.486768156290054321 0.0364224947988986969 0.275317579507827759
0.535828530788421631 0.00987352244555950165 0.137232452630996704
0.280521661043167114 0.148032605648040771 0.3082752525806427
0.49547925591468811 0.0317084863781929016 0.295897930860519409
0.0662309527397155762 0.263995856046676636 0.284864425659179688
0.255735069513320923 0.161445856094360352 0.234660208225250244
0.47754475474357605 0.0414137281477451324 0.136568173766136169
0.214128792285919189 0.183961048722267151 0.217057511210441589
0.516124963760375977 0.0205360986292362213 0.271232157945632935
0.460814148187637329 0.0504674874246120453 0.302727013826370239
0.30592036247253418 0.134288117289543152 0.28428494930267334
0.510712563991546631 0.0234649982303380966 0.0716251283884048462
0.446405470371246338 0.0582647360861301422 0.311263233423233032
0.233920872211456299 0.173250585794448853 0.228671789169311523
0.220834702253341675 0.180332154035568237 0.272108882665634155
0.479759752750396729 0.0402150824666023254 0.212214142084121704
0.267891496419906616 0.154867410659790039 0.260298997163772583
0.484137028455734253 0.0378463268280029297 0.265881627798080444
0.192584484815597534 0.195619732141494751 0.219805702567100525
0.440382122993469238 0.0615242533385753632 0.265916347503662109
0.345758885145187378 0.112729541957378387 0.223566651344299316
0.516556322574615479 0.0203026421368122101 0.0295891463756561279
0.549755990505218506 0.00233667716383934021 0.30284804105758667
0.198431223630905151 0.192455768585205078 0.287606269121170044
0.316420435905456543 0.128606021404266357 0.247433304786682129
0.489738523960113525 0.0348150767385959625 0.0415512621402740479
0.336355745792388916 0.11781802773475647 0.315331190824508667
0.46868482232093811 0.0462082736194133759 0.174270704388618469
0.217156022787094116 0.182322859764099121 0.232108056545257568
0.449268311262130737 0.0567155070602893829 0.14935535192489624
0.549992263317108154 0.00220883451402187347 0.267360210418701172
0.435971170663833618 0.0639112368226051331 0.212071061134338379
0.243178725242614746 0.168240711092948914 0.27255713939666748
0.525209665298461914 0.0156199168413877487 0.172904953360557556
0.509368598461151123 0.024192269891500473 0.249477028846740723
0.2125968337059021 0.184790059924125671 0.268631398677825928
0.407626360654830933 0.0792500078678131104 0.10933297872543335
0.487702518701553345 0.0359168611466884613 0.248825252056121826
0.498498588800430298 0.0300745796412229538 0.193946510553359985
0.346058905124664307 0.112567178905010223 0.299927383661270142
0.424596309661865234 0.0700667500495910645 0.316576987504959106
0.195312201976776123 0.194143623113632202 0.309255301952362061
0.465979516506195068 0.0476722456514835358 0.197411417961120605
0.377684712409973145 0.095452919602394104 0.193813860416412354
0.535903811454772949 0.00983276590704917908 0.155893146991729736
0.309031397104263306 0.132604598999023438 0.305441319942474365
0.317886233329772949 0.127812802791595459 0.288407713174819946
0.0783415138721466064 0.257442206144332886 0.309770494699478149
0.4570809006690979 0.0524877235293388367 0.0915757417678833008
0.495239794254302979 0.0318380668759346008 0.26061132550239563
0.545602738857269287 0.00458420533686876297 0.100532650947570801
0.542271852493286133 0.00638672104105353355 0.16323736310005188
0.422286182641983032 0.0713168531656265259 0.122700914740562439
0.259313374757766724 0.159509465098381042 0.194149047136306763
0.507087647914886475 0.0254266057163476944 0.215300098061561584
0.512783288955688477 0.022344440221786499 0.211596280336380005
0.327438592910766602 0.122643552720546722 0.183891952037811279
0.434371769428253174 0.0647767484188079834 0.161036491394042969
0.506572484970092773 0.025705413892865181 0.285053133964538574
0.140120357275009155 0.224010646343231201 0.254919707775115967
0.412041127681732178 0.0768609717488288879 0.174195334315299988
0.389040708541870117 0.0893076211214065552 0.278287559747695923
0.20055815577507019 0.191304787993431091 0.281163394451141357
0.366794586181640625 0.101346097886562347 0.133825093507766724
0.492896437644958496 0.0331061892211437225 0.136902540922164917
0.0834147930145263672 0.254696816205978394 0.291497677564620972
0.127196609973907471 0.231004327535629272 0.255228877067565918
0.531744003295898438 0.0120838694274425507 0.0922448933124542236
0.503946423530578613 0.0271264873445034027 0.225450962781906128
0.52264481782913208 0.017007855698466301 0.181554049253463745
0.416452348232269287 0.074473842978477478 0.309673458337783813
0.39560931921005249 0.0857530161738395691 0.135490640997886658
0.282255947589874268 0.147094100713729858 0.299604862928390503
0.544450581073760986 0.00520769599825143814 0.0990667492151260376
0.398947983980178833 0.0839463025331497192 0.306405782699584961
0.2008705735206604 0.191135719418525696 0.295712649822235107
0.452518582344055176 0.0549566261470317841 0.149633228778839111
0.193579047918319702 0.195081532001495361 0.226746708154678345
0.313328027725219727 0.130279481410980225 0.284617036581039429
0.418778568506240845 0.0732150077819824219 0.156352207064628601
0.48390159010887146 0.0379737317562103271 0.0922429710626602173
0.552354633808135986 0.000930442649405449629 0.111780121922492981
0.487902462482452393 0.0358086712658405304 0.193896174430847168
0.339129030704498291 0.116317294538021088 0.238409474492073059
0.342740535736083984 0.114362925291061401 0.156083717942237854
0.204200506210327148 0.189333736896514893 0.256509095430374146
0.0759146511554718018 0.258755505084991455 0.296158730983734131
0.145792007446289062 0.220941439270973206 0.274568736553192139
0.27797853946685791 0.149408817291259766 0.278157502412796021
0.221573233604431152 0.179932489991188049 0.310013324022293091
0.535531520843505859 0.010034242644906044 0.0817395895719528198
0.345121502876281738 0.113074451684951782 0.306833177804946899
0.314073950052261353 0.129875808954238892 0.242662906646728516
0.331765949726104736 0.120301805436611176 0.301323652267456055
0.252115309238433838 0.163404673337936401 0.290805459022521973
0.0640375018119812012 0.265182822942733765 0.310775488615036011
0.197254151105880737 0.193092748522758484 0.260324090719223022
0.245274752378463745 0.16710643470287323 0.29670107364654541
0.173365265130996704 0.206020206212997437 0.267991065979003906
0.201496422290802002 0.190797045826911926 0.213300213217735291
0.504449129104614258 0.0268544666469097137 0.300959408283233643
0.406638801097869873 0.0797844156622886658 0.177301466464996338
0.455841004848480225 0.0531587004661560059 0.230821937322616577
0.544513404369354248 0.00517368689179420471 0.212605595588684082
0.46165505051612854 0.0500124320387840271 0.171591207385063171
0.0854230225086212158 0.253610074520111084 0.28373071551322937
0.482866883277893066 0.0385336615145206451 0.240748330950737
0.515064537525177002 0.0211099311709403992 0.214623630046844482
0.180108249187469482 0.20237123966217041 0.227414116263389587
0.313516497611999512 0.130177482962608337 0.182416334748268127
0.264422059059143066 0.156744897365570068 0.22624698281288147
0.526207208633422852 0.0150800785049796104 0.275520294904708862
0.500818789005279541 0.0288190040737390518 0.0520318448543548584
0.374181687831878662 0.0973485633730888367 0.232769101858139038
0.155149161815643311 0.215877830982208252 0.246472641825675964
0.409041404724121094 0.0784842595458030701 0.169028371572494507
0.553104281425476074 0.000524771865457296371 0.0555171668529510498
0.166320979595184326 0.20983220636844635 0.276662349700927734
0.419037759304046631 0.0730747431516647339 0.234172165393829346
0.380962908267974854 0.0936789140105247498 0.234107494354248047
0.337581545114517212 0.117154702544212341 0.240888833999633789
0.526112973690032959 0.0151310758665204048 0.0170108675956726074
0.343884825706481934 0.113743677735328674 0.225508630275726318
0.378389537334442139 0.0950715020298957825 0.291105479001998901
0.0725632011890411377 0.260569155216217041 0.31820949912071228
0.456429660320281982 0.0528401471674442291 0.288291752338409424
0.386144638061523438 0.0908748134970664978 0.115120813250541687
0.358547329902648926 0.105809085071086884 0.280474364757537842
0.339918434619903564 0.115890108048915863 0.245104163885116577
0.388364344835281372 0.0896736383438110352 0.12905333936214447
0.338521450757980347 0.116646066308021545 0.31949421763420105
0.372347861528396606 0.098340943455696106 0.166128084063529968
0.295621812343597412 0.139861181378364563 0.284938424825668335
0.514993607997894287 0.021148310974240303 0.234674334526062012
0.550586104393005371 0.00188746338244527578 0.313173592090606689
0.547394633293151855 0.00361452321521937847 0.0518723428249359131
0.476376205682754517 0.0420460924506187439 0.255193501710891724
0.412294328212738037 0.0767239406704902649 0.252051413059234619
0.307461589574813843 0.133454084396362305 0.160503670573234558
0.199637711048126221 0.191802889108657837 0.210867837071418762
0.547326922416687012 0.00365118356421589851 0.15203489363193512
0.310479700565338135 0.131820827722549438 0.30881965160369873
0.395520567893981934 0.085801050066947937 0.186856642365455627
0.300077706575393677 0.137449860572814941 0.213741570711135864
0.35268557071685791 0.108981169760227203 0.291266471147537231
0.535257816314697266 0.0101823573932051659 0.282157808542251587
0.278658449649810791 0.149040877819061279 0.209603577852249146
0.418560117483139038 0.0733332186937332153 0.197697877883911133
0.514161288738250732 0.02159871906042099 0.218520760536193848
0.522762656211853027 0.016944102942943573 0.103576406836509705
0.489089131355285645 0.0351665019989013672 0.2568531334400177
0.351181507110595703 0.109795093536376953 0.243383198976516724
0.456331104040145874 0.0528934784233570099 0.137482509016990662
0.167460471391677856 0.20921558141708374 0.237893223762512207
0.532347261905670166 0.0117574073374271393 0.250531494617462158
0.138840526342391968 0.224703237414360046 0.267536312341690063
0.389778494834899902 0.0889083594083786011 0.203660726547241211
0.400625288486480713 0.08303862065076828 0.152877703309059143
0.248443275690078735 0.165391787886619568 0.204581707715988159
0.452068209648132324 0.0552003383636474609 0.26375088095664978
0.442585647106170654 0.0603318251669406891 0.285564839839935303
0.428963541984558105 0.0677034184336662292 0.0764164477586746216
0.298301756381988525 0.13841092586517334 0.287004023790359497
0.412250638008117676 0.0767475739121437073 0.188762262463569641
0.540769219398498535 0.00719985878095030785 0.306001067161560059
0.553621351718902588 0.000244955823291093111 0.304023027420043945
0.408266007900238037 0.0789038687944412231 0.171717703342437744
0.429876327514648438 0.0672094598412513733 0.12733142077922821
0.189230024814605713 0.197434991598129272 0.300895065069198608
0.340901494026184082 0.115358099341392517 0.269223809242248535
0.307953715324401855 0.133187770843505859 0.150920629501342773
0.493607044219970703 0.0327216275036334991 0.241228163242340088
0.204231053590774536 0.189317211508750916 0.29186442494392395
0.364244788885116577 0.102725908160209656 0.178042680025100708
0.378556311130523682 0.0949812382459640503 0.215318590402603149
0.453392952680587769 0.0544834621250629425 0.184349358081817627
0.425991237163543701 0.069311879575252533 0.287716448307037354
0.377058207988739014 0.095791943371295929 0.276906490325927734
0.4201507568359375 0.0724724307656288147 0.235555142164230347
0.49355471134185791 0.032749958336353302 0.201688617467880249
0.238195508718490601 0.170937374234199524 0.237786233425140381
0.243334561586380005 0.168156370520591736 0.267442494630813599
0.412426769733428955 0.0766522809863090515 0.290599942207336426
0.343448102474212646 0.113980017602443695 0.260942161083221436
0.139135599136352539 0.224543556571006775 0.248245537281036377
0.386083155870437622 0.0909080952405929565 0.288002312183380127
0.426912158727645874 0.068813517689704895 0.150962069630622864
0.392301738262176514 0.0875429064035415649 0.108184635639190674
0.47235637903213501 0.0442214086651802063 0.15294116735458374
0.218263506889343262 0.181723549962043762 0.28709980845451355
0.4054718017578125 0.0804159492254257202 0.310933887958526611
0.468034565448760986 0.0465601533651351929 0.315007776021957397
0.34288671612739563 0.114283807575702667 0.195902913808822632
0.500366032123565674 0.0290640071034431458 0.18773980438709259
0.48083457350730896 0.0396334528923034668 0.239576965570449829
0.369169503450393677 0.100060902535915375 0.193204328417778015
0.463386029005050659 0.0490757077932357788 0.094544827938079834
0.40208810567855835 0.0822470411658287048 0.145959869027137756
0.482969850301742554 0.0384779460728168488 0.131980657577514648
0.493395060300827026 0.0328363515436649323 0.0357034802436828613
0.264076173305511475 0.156932070851325989 0.229576289653778076
0.139014512300491333 0.224609091877937317 0.316896826028823853
0.321076452732086182 0.126086413860321045 0.264506876468658447
0.325173318386077881 0.1238693967461586 0.293749630451202393
0.369429230690002441 0.0999203622341156006 0.275520920753479004
0.421599686145782471 0.0716883614659309387 0.107607528567314148
0.540655553340911865 0.00726136565208435059 0.174178868532180786
0.468504011631011963 0.046306125819683075 0.270512431859970093
0.252786189317703247 0.163041636347770691 0.301772832870483398
0.299611479043960571 0.13770216703414917 0.233746722340583801
0.354798793792724609 0.107837602496147156 0.128415241837501526
0.543475031852722168 0.00573561480268836021 0.240451902151107788
0.400739073753356934 0.0829770639538764954 0.157274201512336731
0.509086191654205322 0.0243451166898012161 0.304635733366012573
0.223533034324645996 0.178871959447860718 0.246957346796989441
0.366042912006378174 0.10175284743309021 0.12860967218875885
0.519106447696685791 0.0189226698130369186 0.126931115984916687
0.340605318546295166 0.115518391132354736 0.204017966985702515
0.35769316554069519 0.106271311640739441 0.271567642688751221
0.527166128158569336 0.0145611613988876343 0.29787251353263855
0.447775006294250488 0.0575235933065414429 0.316863268613815308
0.3467598557472229 0.112187877297401428 0.148928537964820862
0.296794682741165161 0.139226466417312622 0.183511480689048767
0.260800987482070923 0.158704429864883423 0.263661712408065796
0.232888609170913696 0.173809200525283813 0.238327652215957642
0.209289669990539551 0.186579734086990356 0.222641319036483765
0.552818059921264648 0.000679637654684484005 0.0502616763114929199
0.42046433687210083 0.0723027512431144714 0.290046066045761108
0.393623054027557373 0.086827889084815979 0.187254086136817932
0.204330652952194214 0.189263299107551575 0.229225605726242065
0.40806010365486145 0.079015292227268219 0.267898321151733398
0.296675175428390503 0.139291152358055115 0.24139326810836792
0.508991241455078125 0.0243964754045009613 0.129010140895843506
0.264945060014724731 0.15646187961101532 0.2460135817527771
0.385709017515182495 0.0911105573177337646 0.214961811900138855
0.35945659875869751 0.105317048728466034 0.135231360793113708
0.455153733491897583 0.053530614823102951 0.173234090209007263
0.431231677532196045 0.0664760172367095947 0.211201474070549011
0.152488589286804199 0.217317596077919006 0.293854564428329468
0.253418773412704468 0.162699326872825623 0.28975638747215271
0.184335172176361084 0.200083836913108826 0.302956700325012207
0.464670091867446899 0.0483808480203151703 0.217999696731567383
0.11005672812461853 0.240279555320739746 0.293553799390792847
0.357861101627349854 0.106180436909198761 0.193106353282928467
0.134438037872314453 0.22708563506603241 0.30860409140586853
0.355292022228240967 0.107570677995681763 0.216221362352371216
0.419326514005661011 0.0729184746742248535 0.225337594747543335
0.541467487812042236 0.00682200491428375244 0.263910084962844849
0.448536068201065063 0.0571117587387561798 0.120479479432106018
0.544383108615875244 0.00524420337751507759 0.0752255767583847046
0.312423110008239746 0.13076917827129364 0.214044958353042603
0.495358973741531372 0.0317735858261585236 0.296669363975524902
0.335320949554443359 0.118378028273582458 0.158129066228866577
0.0773459076881408691 0.257981002330780029 0.31583133339881897
0.251633405685424805 0.163665458559989929 0.198128730058670044
0.179394811391830444 0.202757313847541809 0.316572099924087524
0.413801223039627075 0.0759084895253181458 0.223087355494499207
0.425541341304779053 0.0695553421974182129 0.279834717512130737
0.421614199876785278 0.0716805011034011841 0.299935847520828247
0.239836603403091431 0.170049294829368591 0.292932212352752686
0.294253647327423096 0.140601545572280884 0.158722221851348877
0.262887060642242432 0.157575547695159912 0.181072920560836792
0.545747637748718262 0.0045057893730700016 0.070841863751411438
0.186963498592376709 0.198661521077156067 0.256534039974212646
0.500970363616943359 0.0287369750440120697 0.13962969183921814
0.147208631038665771 0.220174834132194519 0.248191148042678833
0.54252326488494873 0.00625065527856349945 0.113622337579727173
0.242354154586791992 0.168686911463737488 0.242643192410469055
0.512084543704986572 0.0227225665003061295 0.0255718529224395752
0.319799274206161499 0.126777559518814087 0.201101422309875488
0.292344123125076294 0.141634896397590637 0.241434216499328613
0.358858704566955566 0.105640575289726257 0.222433418035507202
0.347585499286651611 0.111741058528423309 0.209655821323394775
0.426377952098846436 0.0691026076674461365 0.267334282398223877
0.425652951002120972 0.0694949403405189514 0.158981561660766602
0.432547450065612793 0.0657639801502227783 0.242504775524139404
0.193544924259185791 0.195099994540214539 0.26771467924118042
0.0779681205749511719 0.257644295692443848 0.278924047946929932
0.202967852354049683 0.190000772476196289 0.300078392028808594
0.450460672378540039 0.0560702569782733917 0.091188579797744751
0.474963724613189697 0.0428104586899280548 0.299305260181427002
0.337675154209136963 0.117104038596153259 0.141160979866981506
0.484831124544143677 0.0374707169830799103 0.132974341511726379
0.252804875373840332 0.163031518459320068 0.303067535161972046
0.168989598751068115 0.208388090133666992 0.304188311100006104
0.518622636795043945 0.0191844627261161804 0.0371929705142974854
0.325773179531097412 0.123544789850711823 0.225981801748275757
0.376779556274414062 0.0959427356719970703 0.115142717957496643
0.457757323980331421 0.052121676504611969 0.101484179496765137
0.0752574801445007324 0.259111136198043823 0.287816524505615234
0.166968315839767456 0.209481909871101379 0.252909660339355469
0.117039203643798828 0.236500993371009827 0.318553388118743896
0.406566858291625977 0.0798233523964881897 0.233792752027511597
0.191897124052047729 0.195991694927215576 0.316365867853164673
0.276707321405410767 0.150096729397773743 0.247069001197814941
0.532652139663696289 0.0115924077108502388 0.0484535098075866699
0.349465787410736084 0.110723555088043213 0.287304848432540894
0.404431134462356567 0.0809791013598442078 0.313474833965301514
0.272061944007873535 0.152610570192337036 0.217285126447677612
0.182974785566329956 0.200820013880729675 0.220560580492019653
0.302268475294113159 0.136264339089393616 0.215214133262634277
0.300153285264968872 0.137408971786499023 0.231060013175010681
0.262656360864639282 0.157700404524803162 0.18491363525390625
0.305457651615142822 0.134538516402244568 0.175206959247589111
0.140369594097137451 0.223875775933265686 0.242638736963272095
0.273629993200302124 0.151762023568153381 0.303936272859573364
0.254984885454177856 0.161851808428764343 0.187067165970802307
0.162094712257385254 0.212119251489639282 0.238413304090499878
0.224863201379776001 0.178152143955230713 0.285780072212219238
0.0777517557144165039 0.257761359214782715 0.304946422576904297
0.387455344200134277 0.0901655256748199463 0.19024030864238739
0.5392264723777771 0.00803472753614187241 0.237196892499923706
0.483543902635574341 0.0381672978401184082 0.29566153883934021
0.388015776872634888 0.0898622646927833557 0.169927015900611877
0.505183935165405273 0.0264568161219358444 0.308248192071914673
0.236316770315170288 0.171954050660133362 0.317297250032424927
0.394951462745666504 0.0861090049147605896 0.188990458846092224
0.436610311269760132 0.063565373420715332 0.134311571717262268
0.201477885246276855 0.190807074308395386 0.208938181400299072
0.401840507984161377 0.082381024956703186 0.110296398401260376
0.442551255226135254 0.0603504292666912079 0.161122113466262817
0.381812542676925659 0.0932191312313079834 0.215187340974807739
0.448503434658050537 0.0571294091641902924 0.142576560378074646
0.0947860479354858398 0.248543277382850647 0.296325445175170898
0.432790547609329224 0.0656324252486228943 0.266280025243759155
0.515154540538787842 0.0210612397640943527 0.262524604797363281
0.266102969646453857 0.155835255980491638 0.256765931844711304
0.17240181565284729 0.206541568040847778 0.272979319095611572
0.266349762678146362 0.155701726675033569 0.253843337297439575
0.463767766952514648 0.0488691292703151703 0.235495612025260925
0.281162291765213013 0.147685930132865906 0.16960221529006958
0.219623982906341553 0.180987328290939331 0.202587723731994629
0.347035825252532959 0.11203853040933609 0.14172084629535675
0.551129341125488281 0.00159348675515502691 0.250554144382476807
0.218590855598449707 0.181546419858932495 0.292729586362838745
0.163183480501174927 0.21153007447719574 0.28237953782081604
0.534542083740234375 0.0105696786195039749 0.105864822864532471
0.415382742881774902 0.0750526413321495056 0.161763831973075867
0.0556814968585968018 0.269704669713973999 0.296052753925323486
0.513705313205718994 0.0218454841524362564 0.133167251944541931
0.171463966369628906 0.207049086689949036 0.301051497459411621
0.487151533365249634 0.036215025931596756 0.0645821094512939453
0.549647808074951172 0.00239523057825863361 0.125605091452598572
0.453627347946166992 0.0543566122651100159 0.291820943355560303
0.546578288078308105 0.00405630096793174744 0.291795283555984497
0.0279874205589294434 0.284691303968429565 0.317000925540924072
0.291832953691482544 0.141911521553993225 0.170389503240585327
0.489285588264465332 0.035060197114944458 0.151871100068092346
0.135509461164474487 0.226505845785140991 0.246856704354286194
0.5311698317527771 0.0123945800587534904 0.284032583236694336
0.0397824645042419434 0.27830842137336731 0.299897879362106323
0.403210431337356567 0.0816396847367286682 0.133937925100326538
0.214688777923583984 0.183658018708229065 0.302448123693466187
0.447822928428649902 0.0574976764619350433 0.0943211764097213745
0.569693207740783691 0.0288630407303571701 0.106378823518753052
0.59227830171585083 0.0705985426902770996 0.201356321573257446
0.603972852230072021 0.09220905601978302 0.0648639500141143799
0.56401515007019043 0.0183704886585474014 0.143262892961502075
0.623421907424926758 0.128149434924125671 0.0972622185945510864
0.572505474090576172 0.034059867262840271 0.200968176126480103
0.555716097354888916 0.00303451204672455788 0.272155821323394775
0.563818693161010742 0.0180073976516723633 0.171972647309303284
0.634575426578521729 0.148760214447975159 0.033620983362197876
0.572316944599151611 0.033711560070514679 0.229923725128173828
0.564921259880065918 0.0200449004769325256 0.019575413316488266
0.588855147361755371 0.0642727985978126526 0.0685608461499214172
0.621805787086486816 0.125162944197654724 0.0703849345445632935
0.60582733154296875 0.0956360548734664917 0.0057106316089630127
0.563523232936859131 0.0174614060670137405 0.103323496878147125
0.557836055755615234 0.00695196306332945824 0.171433746814727783
0.580786645412445068 0.0493628382682800293 0.239946186542510986
0.55971139669418335 0.0104174809530377388 0.139494180679321289
0.590018510818481445 0.0664225518703460693 0.157857537269592285
0.560987591743469238 0.012775779701769352 0.0591224245727062225
0.585399031639099121 0.057886216789484024 0.161052018404006958
0.59856569766998291 0.0822170674800872803 0.00415034592151641846
0.554206192493438721 0.000244314840529114008 0.2745627760887146
0.595899462699890137 0.0772901028394699097 0.0938561484217643738
0.579265415668487549 0.0465517006814479828 0.0280997753143310547
0.611670136451721191 0.106433011591434479 0.110977649688720703
0.590295910835266113 0.0669351965188980103 0.0396576523780822754
0.591501414775848389 0.0691628530621528625 0.188390478491783142
0.59032970666885376 0.066997624933719635 0.0466610193252563477
0.555094718933105469 0.00188617559615522623 0.237718895077705383
0.57989579439163208 0.0477166622877120972 0.0832288190722465515
0.595543622970581055 0.0766325891017913818 0.16556878387928009
0.589235901832580566 0.0649764016270637512 0.215037047863006592
0.587992191314697266 0.0626781284809112549 0.182243779301643372
0.572643935680389404 0.0343158245086669922 0.121218368411064148
0.56197124719619751 0.0145935239270329475 0.210248425602912903
0.638832986354827881 0.156627878546714783 0.0505520999431610107
0.579160988330841064 0.0463587269186973572 0.0249633491039276123
0.566361606121063232 0.0227065756916999817 0.208288684487342834
0.568867146968841553 0.0273366179317235947 0.0953694432973861694
0.607446968555450439 0.0986289456486701965 0.0873061418533325195
0.632298052310943604 0.144551753997802734 0.0359338819980621338
0.578596830368041992 0.0453163012862205505 0.0723285749554634094
0.556891918182373047 0.00520728994160890579 0.297377407550811768
0.582069814205169678 0.0517340674996376038 0.0153112560510635376
0.593438565731048584 0.0727425813674926758 0.192107945680618286
0.616251647472381592 0.114899367094039917 0.0629722923040390015
0.577408075332641602 0.0431195497512817383 0.229157805442810059
0.629311561584472656 0.139033064246177673 0.0802054703235626221
0.565742731094360352 0.0215628538280725479 0.0530818365514278412
0.591133475303649902 0.0684829279780387878 0.149253010749816895
0.616769552230834961 0.115856416523456573 0.0447409600019454956
0.599593102931976318 0.0841156914830207825 0.155087336897850037
0.593541562557220459 0.072932898998260498 0.0981537699699401855
0.612496793270111084 0.107960700988769531 0.0252518206834793091
0.582935094833374023 0.0533329658210277557 0.17075684666633606
0.619877934455871582 0.121600426733493805 0.0271637886762619019
0.573071002960205078 0.0351049900054931641 0.0306640081107616425
0.601213157176971436 0.0871094241738319397 0.141121864318847656
0.562514603137969971 0.0155975976958870888 0.172529548406600952
0.601373434066772461 0.087405569851398468 0.065814971923828125
0.586719214916229248 0.0603257417678833008 0.114638485014438629
0.565391957759857178 0.0209147129207849503 0.149593725800514221
0.601570487022399902 0.0877697095274925232 0.137071684002876282
0.646448016166687012 0.170699834823608398 0.00332596898078918457
0.564904510974884033 0.0200139433145523071 0.229671090841293335
0.570332348346710205 0.03004409559071064 0.0175593271851539612
0.561749279499053955 0.0141833070665597916 0.169664785265922546
0.590012729167938232 0.0664118677377700806 0.0563568100333213806
0.579354226589202881 0.0467158295214176178 0.00882697105407714844
0.612847030162811279 0.10860782116651535 0.103861838579177856
0.597152948379516602 0.0796064659953117371 0.0118003040552139282
0.581775307655334473 0.0511898249387741089 0.234041750431060791
0.603362917900085449 0.0910819545388221741 0.108657136559486389
0.564017176628112793 0.0183741729706525803 0.0325658097863197327
0.580483436584472656 0.0488025322556495667 0.0370820611715316772
0.597461044788360596 0.0801757648587226868 0.137665033340454102
0.648034334182739258 0.173631161451339722 0.0362969338893890381
0.616804420948028564 0.115920849144458771 0.0408021211624145508
0.57868194580078125 0.0454735271632671356 0.00554156303405761719
0.582373559474945068 0.0522953495383262634 0.224438965320587158
0.579021811485290527 0.046101592481136322 0.157829552888870239
0.632488250732421875 0.144903317093849182 0.089221760630607605
0.621215939521789551 0.12407289445400238 0.0597053617238998413
0.578752994537353516 0.0456048436462879181 0.0206713080406188965
0.603967666625976562 0.0921995267271995544 0.138040557503700256
0.583613216876983643 0.054586116224527359 0.121853359043598175
0.557841837406158447 0.0069627310149371624 0.118977345526218414
0.569722235202789307 0.0289167482405900955 0.124046266078948975
0.5638885498046875 0.0181364957243204117 0.130482733249664307
0.581383109092712402 0.0504650920629501343 0.202274948358535767
0.578695297241210938 0.0454982519149780273 0.160686582326889038
0.59512627124786377 0.0758613049983978271 0.0374342501163482666
0.58604729175567627 0.0590840913355350494 0.0527362897992134094
0.615006327629089355 0.112598054111003876 0.000628143548965454102
0.570994079113006592 0.0312669761478900909 0.230440437793731689
0.604482710361480713 0.0931513011455535889 0.101996749639511108
0.592696309089660645 0.0713710039854049683 0.124340616166591644
0.568044960498809814 0.0258172061294317245 0.156158819794654846
0.589343011379241943 0.0651743263006210327 0.150199741125106812
0.556602299213409424 0.00467209098860621452 0.158113747835159302
0.563742518424987793 0.0178666524589061737 0.217410176992416382
0.589791595935821533 0.0660032555460929871 0.184252768754959106
0.611174166202545166 0.105516530573368073 0.0105003267526626587
0.603128015995025635 0.0906479507684707642 0.0396201461553573608
0.56974029541015625 0.028950132429599762 0.00664810091257095337
0.582662463188171387 0.0528291575610637665 0.00822854042053222656
0.562409758567810059 0.0154038127511739731 0.0832878574728965759
0.569110989570617676 0.0277871228754520416 0.0318011119961738586
0.580061078071594238 0.0480220578610897064 0.117233134806156158
0.580185115337371826 0.0482512786984443665 0.10395234078168869
0.572562217712402344 0.03416481614112854 0.173850983381271362
0.59092402458190918 0.0680959224700927734 0.112665772438049316
0.640834987163543701 0.16032738983631134 0.0075346827507019043
0.579963982105255127 0.0478426329791545868 0.0795062482357025146
0.587608516216278076 0.0619690902531147003 0.127120137214660645
0.572869598865509033 0.034732770174741745 0.077149510383605957
0.570165395736694336 0.0297356154769659042 0.135942384600639343
0.575612545013427734 0.039801526814699173 0.00190331786870956421
0.594344735145568848 0.0744170695543289185 0.0977134108543395996
0.574994921684265137 0.0386602208018302917 0.0854711085557937622
0.559418976306915283 0.00987707078456878662 0.294566452503204346
0.569949984550476074 0.0293376222252845764 0.201393544673919678
0.556660652160644531 0.00477995071560144424 0.114362142980098724
0.60386359691619873 0.0920072495937347412 0.104422464966773987
0.579725205898284912 0.0474013425409793854 0.168794810771942139
0.601424336433410645 0.0874996930360794067 0.17138439416885376
0.564495086669921875 0.0192573927342891693 0.188970133662223816
0.58608168363571167 0.0591476559638977051 0.0805876404047012329
0.555049419403076172 0.00180249172262847424 0.189257562160491943
0.578894257545471191 0.0458659008145332336 0.0821040868759155273
0.585867047309875488 0.0587509796023368835 0.219678252935409546
0.58812326192855835 0.0629203170537948608 0.124260418117046356
0.631082773208618164 0.142306044697761536 0.0953987538814544678
0.58629143238067627 0.0595352835953235626 0.0161752179265022278
0.618787527084350586 0.119585379958152771 0.00190405547618865967
0.55785214900970459 0.00698177330195903778 0.0708095580339431763
0.567906498908996582 0.0255613271147012711 0.178861901164054871
0.58257448673248291 0.0526666305959224701 0.178512170910835266
0.607779920101165771 0.0992442294955253601 0.14673982560634613
0.559335589408874512 0.00972296763211488724 0.0272302553057670593
0.605035543441772461 0.0941728502511978149 0.00666411221027374268
0.590360820293426514 0.0670551806688308716 0.060092538595199585
0.629050016403198242 0.138549700379371643 0.0706855654716491699
0.562948942184448242 0.0164001863449811935 0.267481684684753418
0.651000797748565674 0.179112955927848816 0.028971254825592041
0.601262986660003662 0.087201535701751709 0.0697088390588760376
0.619050562381744385 0.120071537792682648 0.0625850558280944824
0.557341158390045166 0.00603745505213737488 0.219784855842590332
0.55408400297164917 1.84896052815020084e-05 0.158011987805366516
0.59448552131652832 0.0746772810816764832 0.0594895333051681519
0.592855453491210938 0.0716649889945983887 0.187658607959747314
0.569825530052185059 0.0291075892746448517 0.218324244022369385
0.560559272766113281 0.011984298937022686 0.223670884966850281
0.601571857929229736 0.0877722799777984619 0.149213969707489014
0.567070662975311279 0.0240168608725070953 0.260317057371139526
0.655000746250152588 0.186504557728767395 0.0086224973201751709
0.598798036575317383 0.0826464518904685974 0.0503058582544326782
0.572836577892303467 0.0346717983484268188 0.222132474184036255
0.604037582874298096 0.0923287421464920044 0.116319775581359863
0.633390665054321289 0.146570831537246704 0.0503682047128677368
0.587248504161834717 0.0613038912415504456 0.116205833852291107
0.607564210891723633 0.0988456085324287415 0.0395756959915161133
0.580667197704315186 0.0491421595215797424 0.195455417037010193
0.617783486843109131 0.117730066180229187 0.0929063111543655396
0.607097506523132324 0.0979831740260124207 0.0467436760663986206
0.626682460308074951 0.13417467474937439 0.0519987791776657104
0.573070228099822998 0.0351035520434379578 0.169070452451705933
0.642512798309326172 0.163427814841270447 0.0275096595287322998
0.556868910789489746 0.00516484444960951805 0.198416292667388916
0.576158106327056885 0.0408096387982368469 0.0100971534848213196
0.581306636333465576 0.0503237284719944 0.107880592346191406
0.587874174118041992 0.0624600760638713837 0.12835182249546051
0.55841529369354248 0.00802239496260881424 0.168803378939628601
0.583289265632629395 0.0539874620735645294 0.0789798945188522339
0.586043238639831543 0.0590766295790672302 0.177360609173774719
0.555326402187347412 0.00231430795975029469 0.204488933086395264
0.589467942714691162 0.0654051750898361206 0.164594352245330811
0.635753095149993896 0.150936469435691833 0.0805817246437072754
0.598997175693511963 0.0830144882202148438 0.087184607982635498
0.57886272668838501 0.045807618647813797 0.0963295400142669678
0.584756851196289062 0.0566994659602642059 0.21072445809841156
0.568490445613861084 0.0266404189169406891 0.205834314227104187
0.594339609146118164 0.0744076967239379883 0.00856871157884597778
0.561691105365753174 0.0140758296474814415 0.189528480172157288
0.562253952026367188 0.0151159046217799187 0.00716837868094444275
0.628053545951843262 0.136708274483680725 0.082930147647857666
0.658383369445800781 0.192755326628684998 0.0137009024620056152
0.569145381450653076 0.0278507303446531296 0.0191322453320026398
0.603363037109375 0.091082252562046051 0.137700200080871582
0.565011739730834961 0.0202121399343013763 0.25842711329460144
0.565098285675048828 0.0203720591962337494 0.140451133251190186
0.600200355052947998 0.0852378681302070618 0.0641559809446334839
0.571803927421569824 0.032763555645942688 0.078358769416809082
0.585600972175598145 0.0582593977451324463 0.00816769152879714966
0.58582758903503418 0.0586781278252601624 0.162352830171585083
0.584683537483215332 0.0565639622509479523 0.0557032003998756409
