ply
format ascii 1.0
element vertex 694
property float x
property float y
property float z
end_header
-0.0275309011340141296 -0.010655147023499012 -0.0169882010668516159
-0.0269426144659519196 -0.0109799774363636971 -0.016748327761888504
-0.0258586723357439041 -0.0105164460837841034 -0.0169829521328210831
-0.0205334201455116272 0.0202486626803874969 -0.0101888123899698257
-0.0206835456192493439 0.0197781119495630264 -0.0108060240745544434
-0.022932419553399086 0.0193302556872367859 -0.00920772925019264221
-0.021008569747209549 0.0199563372880220413 -0.0101759033277630806
-0.0223120991140604019 0.0201996117830276489 -0.0084233628585934639
-0.0222451146692037582 0.0198739934712648392 -0.00902780517935752869
-0.0221306290477514267 0.0193785354495048523 -0.00996056478470563889
-0.0211044251918792725 -0.0135345738381147385 -0.0139835430309176445
-0.0271243378520011902 -0.0129916435107588768 -0.0152079518884420395
-0.026112288236618042 -0.0128228580579161644 -0.0152016589418053627
-0.0185844618827104568 -0.0137813352048397064 -0.0134560447186231613
-0.0276528000831604004 -0.0129244932904839516 -0.0153303910046815872
-0.0274501480162143707 -0.0118223661556839943 -0.0161488894373178482
-0.013212958350777626 -0.00194330327212810516 -0.0191975124180316925
-0.0119516793638467789 -0.00154178147204220295 -0.0191391259431838989
-0.0118856821209192276 0.000628289999440312386 -0.0196201000362634659
-0.0140342898666858673 -0.00196171458810567856 -0.0192902740091085434
-0.0118661168962717056 -0.00225789705291390419 -0.0189677421003580093
-0.0166739150881767273 -0.0017242358298972249 -0.0196552127599716187
-0.0143292797729372978 -0.000382705038646236062 -0.0196807160973548889
-0.0157499536871910095 -0.00128940248396247625 -0.0196441300213336945
-0.0136798061430454254 -0.00231720786541700363 -0.0191683806478977203
-0.0167789459228515625 -0.00205382867716252804 -0.0195933729410171509
-0.0114803668111562729 -3.74013325199484825e-06 -0.0194299258291721344
-0.0102245882153511047 -0.000855417456477880478 -0.0190899334847927094
-0.0246098116040229797 -0.0174801405519247055 -0.00936900544911623001
-0.0260991938412189484 -0.0173749197274446487 -0.00977397523820400238
-0.0247705020010471344 -0.0177075881510972977 -0.00903785694390535355
-0.0225410554558038712 -0.0105209024623036385 -0.0167298950254917145
-0.0217230543494224548 -0.0122648989781737328 -0.0151178194209933281
-0.0253137387335300446 -0.0118154799565672874 -0.0159051977097988129
-0.0207160823047161102 -0.0111158890649676323 -0.0160097870975732803
-0.0259594228118658066 -0.0110460519790649414 -0.0166477654129266739
-0.0220852978527545929 -0.0116578824818134308 -0.0156874489039182663
-0.0262385942041873932 -0.011310407891869545 -0.016447773203253746
-0.0215707756578922272 -0.010965920053422451 -0.0162347294390201569
-0.0238459091633558273 -0.0120797902345657349 -0.0155129889026284218
-0.0198748596012592316 -0.0123833911493420601 -0.0148110119625926018
-0.0259468294680118561 -0.0119282277300953865 -0.0158764682710170746
-0.0236024335026741028 -0.0110821174457669258 -0.0163569040596485138
-0.0208301171660423279 -0.0123080667108297348 -0.0149818761274218559
-0.0271155629307031631 -0.00860609207302331924 -0.0180950257927179337
-0.0255638714879751205 -0.00871942378580570221 -0.0179321542382240295
-0.0247179940342903137 -0.0088855307549238205 -0.0178001541644334793
-0.0261635668575763702 -0.00774494465440511703 -0.0183806009590625763
-0.00630198465660214424 -0.0147888697683811188 -0.000416970346122980118
-0.00467177527025341988 -0.0138855762779712677 -0.000599474820774048567
-0.0049419282004237175 -0.0140905901789665222 -0.000252743600867688656
-0.00648622214794158936 -0.0142052248120307922 -0.00431923056021332741
-0.00660399999469518661 -0.0144924735650420189 -0.00303610390983521938
-0.00580855458974838257 -0.0142121110111474991 -0.00220760563388466835
-0.0183522868901491165 -0.0183165166527032852 -0.00482229143381118774
-0.016770707443356514 -0.0177662055939435959 -0.0055304383859038353
-0.017476055771112442 -0.017955046147108078 -0.00546796247363090515
-0.0181460250169038773 -0.0182775035500526428 -0.00476800044998526573
-0.0166750606149435043 -0.0179491303861141205 -0.00460530444979667664
-0.0193597842007875443 -0.0185331255197525024 -0.00497088860720396042
-0.017347380518913269 -0.0180701538920402527 -0.00480978144332766533
-0.0185576882213354111 -0.0182497836649417877 -0.00534906145185232162
0.0080469595268368721 0.0143036702647805214 -0.016846461221575737
0.00835959054529666901 0.0146214505657553673 -0.0167121980339288712
0.00866373069584369659 0.0156125426292419434 -0.0167161561548709869
0.00729550421237945557 0.0150387417525053024 -0.0174649562686681747
0.0071986587718129158 0.0160733498632907867 -0.0177301336079835892
0.00780622614547610283 0.0153857972472906113 -0.0172116681933403015
0.00686955871060490608 0.0154369566589593887 -0.0178118962794542313
0.00765703571960330009 0.0140169579535722733 -0.0170355457812547684
0.00709513947367668152 0.0146794430911540985 -0.0175202898681163788
-0.0203027203679084778 -0.00447577657178044319 -0.019185919314622879
-0.0207306221127510071 -0.00415572104975581169 -0.0193396862596273422
-0.0212326683104038239 -0.00668263621628284454 -0.0183807499706745148
-0.021146995946764946 -0.00800765957683324814 -0.0178549811244010925
-0.0218316614627838135 -0.00775617733597755432 -0.0179987084120512009
-0.0218721870332956314 -0.0063360678032040596 -0.0185588356107473373
-0.0237319394946098328 -0.00569055927917361259 -0.0189344845712184906
-0.0236114505678415298 -0.00757148908451199532 -0.0181882064789533615
-0.0230633355677127838 -0.00625796988606452942 -0.0186677947640419006
-0.021586880087852478 -0.00781264528632164001 -0.0179604515433311462
-0.0210904888808727264 -0.00432935077697038651 -0.0192951839417219162
-0.0202193055301904678 -0.00689560640603303909 -0.0182305332273244858
-0.0219109486788511276 -0.00480068661272525787 -0.0191640984266996384
-0.0212533678859472275 -0.00664613582193851471 -0.0183964390307664871
-0.0219833701848983765 -0.00508472230285406113 -0.0190573614090681076
-0.0209522005170583725 -0.0065546547994017601 -0.0184125527739524841
-0.0197937414050102234 -0.00379598932340741158 -0.0194193106144666672
-0.0227404609322547913 -0.00666435156017541885 -0.018487047404050827
-0.0124594923108816147 -0.0171790774911642075 -0.00296272477135062218
-0.0130960326641798019 -0.0174119919538497925 -0.00258363108150660992
-0.0146986134350299835 -0.0181048586964607239 -0.000615503173321485519
0.00617475435137748718 0.0157447569072246552 -0.0181638132780790329
0.00710113067179918289 0.0183008313179016113 -0.018098045140504837
0.00520100072026252747 0.0193782523274421692 -0.0187566876411437988
0.00598189793527126312 0.0166590102016925812 -0.0182973612099885941
0.00641476735472679138 0.0170716606080532074 -0.0182018503546714783
0.00423298636451363564 0.0183145981281995773 -0.0189586058259010315
0.00615239143371582031 0.0190989654511213303 -0.0184484664350748062
0.00239401776343584061 0.0206000469624996185 -0.0196990296244621277
0.00677340617403388023 0.0194129031151533127 -0.0182883981615304947
0.00641875900328159332 0.0193499121814966202 -0.0183894466608762741
0.00472025014460086823 0.0179266724735498428 -0.0187804531306028366
0.00558307580649852753 0.0196389444172382355 -0.0186638049781322479
0.00432570045813918114 0.0203979816287755966 -0.0191034674644470215
0.00397246144711971283 0.017580496147274971 -0.0189758390188217163
0.00154313119128346443 -0.00844580866396427155 -0.00616168230772018433
0.00174173363484442234 -0.00713001331314444542 -0.00850922241806983948
0.0018053743988275528 -0.008900495246052742 -0.00481975637376308441
0.00203458219766616821 -0.00811664480715990067 -0.00604036916047334671
0.00309133948758244514 -0.00615824433043599129 -0.00831351615488529205
0.00254547316581010818 -0.00702806701883673668 -0.00742661440744996071
0.00143208540976047516 -0.0089917769655585289 -0.00523354299366474152
0.00108002813067287207 -0.00818153563886880875 -0.00743996119126677513
0.000151971005834639072 -0.00877231080085039139 -0.00773149402812123299
-0.0275546330958604813 -0.00402062851935625076 -0.019659796729683876
-0.0260916147381067276 -0.00418260321021080017 -0.019579760730266571
-0.0233125165104866028 -0.00401862245053052902 -0.0195322912186384201
-0.0268516633659601212 -0.00426892656832933426 -0.0195835456252098083
-0.0273358337581157684 -0.00477626034989953041 -0.0194856785237789154
-0.0273921992629766464 -0.00121479167137295008 -0.0200157742947340012
-0.0202648080885410309 -0.00280510052107274532 -0.0196439716964960098
-0.0235392116010189056 -0.00228888867422938347 -0.0198054220527410507
-0.0244427844882011414 -0.00174954812973737717 -0.0198673009872436523
-0.0239192023873329163 -0.00228543765842914581 -0.0198216922581195831
-0.00933441612869501114 -0.0160111002624034882 -0.00175183592364192009
-0.0100060217082500458 -0.0163183584809303284 -0.00173232890665531158
-0.00809346605092287064 -0.0156834106892347336 -0.000200834590941667557
-0.00882268790155649185 -0.0158543139696121216 -0.0012554429704323411
0.0142446616664528847 0.019659360870718956 -0.0130735170096158981
0.0134364543482661247 0.0168454870581626892 -0.0132893770933151245
0.013081713579595089 0.0189069714397192001 -0.0142337735742330551
0.0144006982445716858 0.0176754109561443329 -0.0123804807662963867
0.0139566939324140549 0.016280636191368103 -0.012538006529211998
0.0136625925078988075 0.0164402946829795837 -0.0129216192290186882
-0.000145569269079715014 -0.00825535692274570465 -0.00903445295989513397
0.00123547203838825226 -0.00659247813746333122 -0.00982894934713840485
-0.000757482543122023344 -0.0088438279926776886 -0.00888691376894712448
0.000204904150450602174 -0.0074781361036002636 -0.00972582399845123291
0.00171531201340258121 -0.00678483955562114716 -0.0090432213619351387
-0.00149652746040374041 -0.00967338774353265762 -0.00854489672929048538
-0.00221830513328313828 -0.0102096851915121078 -0.00858846772462129593
-0.000167669015354476869 -0.00678628869354724884 -0.0110838329419493675
-0.000134432717459276319 -0.00730688171461224556 -0.0103300372138619423
-0.0232249777764081955 0.000497514673043042421 -0.0199979469180107117
-0.021213579922914505 -0.000768755970057100058 -0.0198362376540899277
-0.0232988707721233368 -0.00139423832297325134 -0.019845917820930481
-0.0225441288203001022 -0.000993505469523370266 -0.0198566243052482605
-0.0209144726395606995 -0.000952735776081681252 -0.0198125429451465607
-0.0220733731985092163 -0.000646766391582787037 -0.0198711901903152466
-0.0264346655458211899 0.000369549874449148774 -0.02008088119328022
-0.023846132680773735 -0.000542307563591748476 -0.0199312698096036911
-0.02573385089635849 1.10647524707019329e-05 -0.0200312789529561996
-0.0241094417870044708 -0.00043469041702337563 -0.0199477002024650574
-0.0208807885646820068 -0.00205261656083166599 -0.0197219233959913254
0.00952774938195943832 0.00608780421316623688 -0.0127373058348894119
0.00561616569757461548 0.00389586668461561203 -0.0145407533273100853
0.00364756956696510315 0.00493255723267793655 -0.0165986157953739166
0.0062822406180202961 0.00421083811670541763 -0.0142023321241140366
0.00616158870980143547 0.00541816651821136475 -0.0149432811886072159
0.00540170073509216309 0.00166183826513588428 -0.0135033708065748215
0.00567964371293783188 0.003846009261906147 -0.0144655667245388031
0.0059624137356877327 0.00176364881917834282 -0.0131306815892457962
0.00630553532391786575 0.00479098409414291382 -0.0144964233040809631
0.00531800044700503349 0.00386744039133191109 -0.014752756804227829
0.0068224957212805748 0.00486908433958888054 -0.0141443405300378799
0.00528755458071827888 0.00265361694619059563 -0.0141234938055276871
0.00384345930069684982 0.00395818240940570831 -0.0159255340695381165
0.00769611913710832596 0.00518013350665569305 -0.0136456023901700974
0.00572721892967820168 0.00430872384458780289 -0.0146780256181955338
-0.0249043349176645279 0.00232559628784656525 -0.0199809819459915161
-0.0267439000308513641 0.00241439184173941612 -0.0199504531919956207
-0.0277356486767530441 0.00240077893249690533 -0.0199420899152755737
-0.0260153152048587799 0.0031072874553501606 -0.0198548175394535065
-0.0272968467324972153 0.00344095565378665924 -0.0197958536446094513
-0.0272044185549020767 0.00360291474498808384 -0.0197588652372360229
0.00759582547470927238 -0.00184544757939875126 -0.00747145526111125946
0.0064546964131295681 -0.00323450262658298016 -0.0072242366150021553
0.00407014740630984306 -0.00544084282591938972 -0.00790063943713903427
0.00723856594413518906 -0.00277758250012993813 -0.00654206983745098114
0.00544115062803030014 -0.00394846498966217041 -0.00789525546133518219
0.00582075957208871841 -0.00342746940441429615 -0.00807843264192342758
0.00603472674265503883 -0.00318800006061792374 -0.00808883178979158401
0.00685481354594230652 -0.00280662998557090759 -0.00720953010022640228
0.00666394038125872612 -0.00377529812976717949 -0.00590657442808151245
-0.025154532864689827 0.00731876445934176445 -0.0188543237745761871
-0.0226269625127315521 0.00414462992921471596 -0.0195770915597677231
-0.0231886450201272964 0.00682749133557081223 -0.0189982075244188309
-0.022829052060842514 0.00696172704920172691 -0.0189771261066198349
-0.022100549191236496 0.00482138106599450111 -0.0194446519017219543
-0.02465866319835186 0.00637089787051081657 -0.0190648920834064484
-0.0243226084858179092 0.00789912324398756027 -0.0187484864145517349
-0.0261083841323852539 0.00726033654063940048 -0.0188472867012023926
-0.0225080735981464386 0.00751480739563703537 -0.0188666693866252899
-0.0221291333436965942 0.00252263480797410011 -0.0199302881956100464
-0.0256862752139568329 0.00556917022913694382 -0.019213574007153511
-0.0253963898867368698 0.00503019941970705986 -0.0193334687501192093
-0.0216071344912052155 0.00558760669082403183 -0.0192926172167062759
-0.0264455769211053848 0.00702830450609326363 -0.0188895091414451599
-0.0251896530389785767 0.00638254638761281967 -0.0190516319125890732
-0.0270720478147268295 0.0159917939454317093 -0.0124360639601945877
-0.0274456329643726349 0.0161824040114879608 -0.0120848026126623154
-0.0253265481442213058 0.016101788729429245 -0.0127732809633016586
-0.0266913250088691711 0.00534474663436412811 -0.0192849729210138321
-0.0248873718082904816 0.00392187060788273811 -0.0196265578269958496
-0.0266058556735515594 0.00458165816962718964 -0.0195205006748437881
-0.0262150876224040985 0.0108202649280428886 -0.0170381851494312286
-0.0263108909130096436 0.0114895841106772423 -0.016676783561706543
-0.0255286619067192078 0.0116186067461967468 -0.0166913978755474091
-0.0230075884610414505 0.0120888901874423027 -0.0167099162936210632
-0.0257451198995113373 0.0120949046686291695 -0.0164186097681522369
-0.0216403622180223465 0.0111392214894294739 -0.017352299764752388
-0.0224599745124578476 0.0104448115453124046 -0.0176305174827575684
-0.0244798325002193451 0.0113690858706831932 -0.0169327687472105026
-0.0244321450591087341 0.0118205370381474495 -0.0167008247226476669
-0.0228309258818626404 0.0103314220905303955 -0.0176509898155927658
-0.0213222131133079529 0.0133244665339589119 -0.0162387751042842865
-0.00500515848398208618 0.00629141321405768394 -0.0196907073259353638
-0.00445826631039381027 0.00690485397353768349 -0.0197057072073221207
-0.00475697405636310577 0.0085231587290763855 -0.0198827758431434631
-0.0054996442049741745 0.00750657869502902031 -0.0198449976742267609
-0.00602487754076719284 0.00807703565806150436 -0.019940568134188652
-0.00463775452226400375 0.00956116151064634323 -0.0199718084186315536
-0.0142749790102243423 0.0065864836797118187 -0.0199297778308391571
-0.0102900257334113121 0.00769024621695280075 -0.0200246553868055344
-0.0130738392472267151 0.00769503600895404816 -0.0198870953172445297
-0.0123959816992282867 0.00667453650385141373 -0.0200142394751310349
-0.0123298345133662224 0.00702005671337246895 -0.0199857540428638458
-0.0132572967559099197 0.0073214871808886528 -0.0199123788625001907
-0.0142383109778165817 0.00601033587008714676 -0.0199845153838396072
-0.0152766602113842964 0.0181911550462245941 -0.0162618514150381088
-0.0158972423523664474 0.0171886421740055084 -0.0162629261612892151
-0.0153332827612757683 0.0178918968886137009 -0.0163370557129383087
-0.0161223504692316055 0.0172166489064693451 -0.0161217488348484039
-0.0149557590484619141 0.0173784922808408737 -0.0167424213141202927
-0.016001187264919281 0.0163412131369113922 -0.0165087245404720306
-0.013143390417098999 0.0203151870518922806 -0.016736052930355072
-0.0145502090454101562 0.0154336495324969292 -0.0176815111190080643
-0.016233569011092186 0.0171902589499950409 -0.0160665400326251984
-0.0253414660692214966 0.00981435831636190414 -0.0177339781075716019
-0.0261972229927778244 0.0100303646177053452 -0.0175420753657817841
-0.0256544612348079681 0.0104335779324173927 -0.0173196345567703247
-0.0237299650907516479 0.00982712209224700928 -0.017828088253736496
-0.00165471585933119059 0.0112510863691568375 -0.0197947453707456589
-0.00170743570197373629 0.00945665221661329269 -0.0195432938635349274
0.000152891501784324646 0.0110004302114248276 -0.0193948522210121155
0.00051290437113493681 0.0103766303509473801 -0.0192314032465219498
0.000458463677205145359 0.00979597680270671844 -0.0191575493663549423
-0.00210532243363559246 0.0100897299125790596 -0.0197157096117734909
-0.00144285289570689201 0.0113784400746226311 -0.0197707656770944595
-0.0258394032716751099 0.012422807514667511 -0.0161856077611446381
-0.026145249605178833 0.0126048605889081955 -0.0159915611147880554
-0.025038471445441246 0.0126276938244700432 -0.0161707215011119843
-0.0239522885531187057 0.0129611892625689507 -0.0161078441888093948
-0.0249026753008365631 0.0148174688220024109 -0.0142045905813574791
-0.0226434189826250076 0.0145386252552270889 -0.0149020068347454071
-0.0232299007475376129 0.0144285103306174278 -0.0149036580696702003
-0.0223842766135931015 0.0144783519208431244 -0.0150103215128183365
-0.0249080173671245575 0.0154635822400450706 -0.0135567979887127876
-0.0264427922666072845 0.0144922565668821335 -0.0142450127750635147
-0.0267220828682184219 0.014832586981356144 -0.0138526121154427528
-0.0229216217994689941 0.0157466083765029907 -0.0136412279680371284
-0.0255788266658782959 0.0152024626731872559 -0.0136940032243728638
-0.000605190696660429239 0.0143143776804208755 -0.0197893306612968445
-0.00276783434674143791 0.0111095607280731201 -0.019931107759475708
-0.00225761695764958858 0.0145982112735509872 -0.020007055252790451
-0.00178568437695503235 0.0131620094180107117 -0.0198906213045120239
-0.00108492420986294746 0.0129286367446184158 -0.0197937656193971634
-0.00211920100264251232 0.0143688227981328964 -0.0199805852025747299
-0.000134952482767403126 0.0135462014004588127 -0.0196998529136180878
-0.0271776840090751648 0.0151184014976024628 -0.0134400287643074989
-0.025378664955496788 0.0159187093377113342 -0.0129747362807393074
-0.0222678091377019882 0.0171779654920101166 -0.0126912035048007965
-0.0204570535570383072 0.0186290368437767029 -0.0124111901968717575
-0.0188366658985614777 0.0174850281327962875 -0.0144987385720014572
-0.0214944202452898026 0.017136499285697937 -0.0132045727223157883
-0.0177543535828590393 0.0176332052797079086 -0.0150197781622409821
-0.0207427907735109329 0.0177930146455764771 -0.0130364708602428436
-0.0272409599274396896 -0.00617080321535468102 -0.0190060287714004517
-0.0278632752597332001 -0.00664672162383794785 -0.0189287792891263962
-0.0240080058574676514 -0.00828538276255130768 -0.0179610773921012878
-0.0236810464411973953 -0.00864571426063776016 -0.0178092140704393387
0.00418779347091913223 -0.00363599974662065506 -0.0100258262827992439
0.00519249821081757545 -0.00373112107627093792 -0.00871663354337215424
0.00574352964758872986 -0.00243468745611608028 -0.00949257146567106247
0.00514240097254514694 -0.00103143067099153996 -0.0117673445492982864
0.00649521872401237488 -0.00209071394056081772 -0.00897296052426099777
0.00555358733981847763 -0.00185981474351137877 -0.0103569943457841873
0.00431247148662805557 -0.00255562132224440575 -0.0110732689499855042
0.0049979817122220993 -0.00306022097356617451 -0.00969291385263204575
0.00403855741024017334 -0.00308893970213830471 -0.0108106639236211777
0.00427822675555944443 -0.00230194209143519402 -0.0113953240215778351
0.0044081113301217556 -0.00291141681373119354 -0.0105645293369889259
-0.0243365634232759476 0.0189995132386684418 -0.00869579613208770752
-0.0248009897768497467 0.0189913269132375717 -0.0084594041109085083
-0.0266214590519666672 0.019184596836566925 -0.00680109253153204918
-0.0280983410775661469 0.0191470421850681305 -0.00606917496770620346
-0.0115315327420830727 -0.00806515850126743317 -0.0161262992769479752
-0.0120405629277229309 -0.00958963483572006226 -0.0152488304302096367
-0.0114839086309075356 -0.00791570171713829041 -0.0162130445241928101
-0.013141619972884655 -0.0101228002458810806 -0.0152323190122842789
-0.0138691086322069168 -0.00921159610152244568 -0.0160813704133033752
-0.0108834179118275642 -0.00858703814446926117 -0.0155672049149870872
-0.011815899983048439 -0.00927133578807115555 -0.0153947984799742699
-0.0137396091595292091 -0.00951246172189712524 -0.0158358532935380936
-0.0145970592275261879 -0.0138970613479614258 -0.011784035712480545
-0.0139345899224281311 -0.0135589316487312317 -0.0119027458131313324
-0.016377205029129982 -0.0141904596239328384 -0.0122023960575461388
-0.0152316158637404442 -0.0143174193799495697 -0.0115546975284814835
-0.0133890863507986069 -0.0135032003745436668 -0.0117335813120007515
-0.0150759201496839523 -0.015354890376329422 -0.0102438898757100105
-0.0100400242954492569 -0.0125220585614442825 -0.0114608705043792725
-0.0140377581119537354 -0.0139053929597139359 -0.0115321213379502296
-0.0124278394505381584 -0.0127771282568573952 -0.0121880220249295235
-0.015448370948433876 -0.0138837434351444244 -0.0121682370081543922
-0.00576736871153116226 0.0134267685934901237 -0.0199039429426193237
-0.00362352421507239342 0.0113037107512354851 -0.0199117697775363922
-0.00252974103204905987 0.0159314293414354324 -0.0200910158455371857
-0.00334894307889044285 0.0139478268101811409 -0.0200022589415311813
-0.00369095290079712868 0.0108807208016514778 -0.0198964942246675491
-0.0080334395170211792 0.0127110276371240616 -0.0198048409074544907
-0.00360686215572059155 0.0152857359498739243 -0.0200345348566770554
-0.00431998260319232941 0.0128432046622037888 -0.0199353042989969254
-0.00289648119360208511 0.0142426788806915283 -0.0200267080217599869
-0.00576090253889560699 0.0142549602314829826 -0.0199295785278081894
-0.00527830282226204872 0.0126188760623335838 -0.019895799458026886
-0.0231528002768754959 0.0216849390417337418 -0.000888999784365296364
-0.0217541083693504333 0.0219597015529870987 -0.00540937716141343117
-0.00948284845799207687 0.0111233415082097054 -0.0198503229767084122
-0.00919499620795249939 0.00910456851124763489 -0.0199773218482732773
-0.00921921711415052414 0.0116971470415592194 -0.0198327545076608658
-0.00941663142293691635 0.0111738406121730804 -0.0198510847985744476
-0.00834925845265388489 0.00990296155214309692 -0.0199785605072975159
-0.0103011392056941986 0.0105143003165721893 -0.019840095192193985
-0.0252185259014368057 0.020824408158659935 -0.00431190896779298782
-0.0266234297305345535 0.0204716846346855164 -0.00281647918745875359
-0.0217340458184480667 0.0219439100474119186 -0.00616248417645692825
-0.0272201411426067352 0.0201159417629241943 -0.00374548649415373802
-0.0278954952955245972 0.0200626496225595474 -0.0011163841700181365
-0.00134562596213072538 0.00726446602493524551 -0.0191542282700538635
-0.0029664954636245966 0.00814209692180156708 -0.0196098946034908295
-0.00297346687875688076 0.00935342907905578613 -0.0197854507714509964
-2.88071605609729886e-05 0.00737422658130526543 -0.0189023185521364212
-0.00180895975790917873 0.00756930839270353317 -0.0192922409623861313
-0.00258093001320958138 0.00634038820862770081 -0.0192725006490945816
-0.00435343338176608086 0.00557069713249802589 -0.0195221733301877975
-0.0277894195169210434 0.017716381698846817 -0.00961231719702482224
-0.025226270779967308 0.0186831187456846237 -0.00894169788807630539
-0.0269434526562690735 0.0182596538215875626 -0.00896029733121395111
-0.0183977857232093811 -0.00911462120711803436 -0.0171222314238548279
-0.0161306466907262802 -0.00972200743854045868 -0.0161993987858295441
-0.0153734609484672546 -0.0104657476767897606 -0.0154957147315144539
-0.0151239689439535141 -0.00987390894442796707 -0.0158757623285055161
-0.0177826322615146637 -0.00893464777618646622 -0.0171239245682954788
-0.0175212491303682327 -0.00942128058522939682 -0.016712922602891922
-0.0145355481654405594 -0.00834961514919996262 -0.0168660152703523636
-0.017227858304977417 -0.010418982245028019 -0.0159214884042739868
-0.0169533174484968185 -0.00854663178324699402 -0.0172325056046247482
-0.00386396679095923901 0.0185220278799533844 -0.0198205597698688507
-0.00505067547783255577 0.0203971732407808304 -0.0195817817002534866
-0.00596050871536135674 0.0202197432518005371 -0.0194260925054550171
-0.00448740879073739052 0.0187237467616796494 -0.0197083968669176102
-0.00236828159540891647 0.0215383358299732208 -0.0200303066521883011
-0.00267086783424019814 0.01902792789041996 -0.0200200863182544708
-0.00439566932618618011 0.0211280602961778641 -0.0196836404502391815
-0.00393627677112817764 0.019510660320520401 -0.0197911877185106277
-0.00325350859202444553 0.0182921737432479858 -0.0199309326708316803
-0.011639830656349659 -0.0145766669884324074 -0.00903235655277967453
-0.00819569732993841171 -0.013034965842962265 -0.00913692731410264969
-0.0109948404133319855 -0.013829454779624939 -0.00989698804914951324
-0.00939719192683696747 -0.0131513038650155067 -0.00987728964537382126
-0.0110588874667882919 -0.0136658633127808571 -0.0102493995800614357
-0.00877269823104143143 -0.0140813468024134636 -0.00766686955466866493
-0.00885210465639829636 -0.0127241630107164383 -0.0102313896641135216
-0.0119388233870267868 -0.0144938640296459198 -0.00942256860435009003
-0.0084061846137046814 -0.014325764961540699 -0.00692512700334191322
-0.00773060275241732597 -0.0133916912600398064 -0.0081098536029458046
-0.0101198833435773849 -0.0129413837566971779 -0.0108384899795055389
-0.0095163341611623764 -0.013892369344830513 -0.00860611256211996078
-0.0133103784173727036 -0.0148045280948281288 -0.0099399099126458168
-0.0121995424851775169 -0.0146797709167003632 -0.00928710959851741791
-0.0247795190662145615 0.0196028128266334534 -0.00735239032655954361
-0.0233540050685405731 0.0208566151559352875 -0.00660193478688597679
-0.02286553755402565 0.0208751559257507324 -0.00692820502445101738
-0.0237249918282032013 0.0206977911293506622 -0.00655955355614423752
-0.0275092199444770813 0.0196261089295148849 -0.00534898322075605392
-0.0243691001087427139 0.0205963607877492905 -0.00623857695609331131
-0.0253244992345571518 0.0197896510362625122 -0.00669384747743606567
-0.0237701237201690674 0.0208245217800140381 -0.00634711980819702148
-0.0217178594321012497 0.0219420157372951508 -0.00588600616902112961
-0.0237983707338571548 0.0211954321712255478 -0.0025506727397441864
-0.0229048840701580048 0.0215446744114160538 -0.00444368040189146996
-0.0266392994672060013 0.0204074941575527191 -0.00172289041802287102
-0.0228061433881521225 0.0215539000928401947 -0.00418014824390411377
-0.0233510583639144897 0.0213584750890731812 -0.00330842914991080761
-0.0236964654177427292 0.0213207453489303589 -0.00414252281188964844
-0.0255878474563360214 0.02074398472905159 -0.00275148847140371799
-0.0156078040599822998 -0.0110524315387010574 -0.0150888329371809959
-0.0194872207939624786 -0.0109816137701272964 -0.0159253831952810287
-0.0180656034499406815 -0.0124563155695796013 -0.0144552206620573997
-0.0165054686367511749 -0.0113761927932500839 -0.0150092048570513725
-0.0184845868498086929 -0.0117195434868335724 -0.0151311866939067841
-0.0133222630247473717 -0.0110535938292741776 -0.0146285602822899818
-0.0207764990627765656 -0.00999492593109607697 -0.0169769842177629471
-0.0184936989098787308 -0.012286861427128315 -0.0146773587912321091
-0.0187895186245441437 -0.0122948894277215004 -0.0147303631529211998
-0.0192379727959632874 -0.0106819253414869308 -0.0161159932613372803
-0.0172116998583078384 -0.0113896802067756653 -0.0151403071358799934
-0.0239741578698158264 0.0212068352848291397 -0.000526950228959321976
-0.0217298101633787155 0.0219471976161003113 -0.00563142681494355202
-0.0232653599232435226 0.0214038379490375519 -0.00255153118632733822
0.0187253151088953018 0.0198955852538347244 -0.00418008863925933838
0.0188419278711080551 0.0194868054240942001 -0.00298038567416369915
0.0192577838897705078 0.0209049712866544724 -0.00179580016992986202
0.0195159539580345154 0.0211252309381961823 -0.000350222107954323292
0.019438399001955986 0.0206523798406124115 -0.000346990447724238038
0.0191223844885826111 0.0210301000624895096 -0.00281280046328902245
-0.0208761896938085556 0.00292022270150482655 -0.0199212469160556793
-0.0212033838033676147 0.00375090516172349453 -0.0197098050266504288
-0.0164969395846128464 0.00469265133142471313 -0.01993604376912117
-0.0205381866544485092 0.00390936899930238724 -0.0197362415492534637
-0.0186493154615163803 0.00335963047109544277 -0.0200296435505151749
-0.0180739127099514008 0.00516401370987296104 -0.0196883827447891235
-0.0212059766054153442 0.00491640949621796608 -0.01945502869784832
-0.0190866384655237198 0.00391855975612998009 -0.0198674425482749939
-0.0177595000714063644 0.00566458702087402344 -0.0196079127490520477
-0.0180205255746841431 0.00539830559864640236 -0.0196421146392822266
-0.0206113904714584351 0.00388151220977306366 -0.019735606387257576
-0.0270292647182941437 0.0166821032762527466 -0.0114957578480243683
-0.0254148673266172409 0.0168087892234325409 -0.0117493178695440292
-0.0278164874762296677 0.0165564157068729401 -0.0114724375307559967
0.0100718159228563309 0.0233122557401657104 -0.0168966148048639297
0.00876819808036088943 0.0213345605880022049 -0.0176738668233156204
0.00980638433247804642 0.0223622210323810577 -0.0169988032430410385
0.00956422276794910431 0.0256702844053506851 -0.0175196845084428787
0.00916379597038030624 0.0226618070155382156 -0.0175124797970056534
0.0103206634521484375 0.0229101981967687607 -0.0166683848947286606
0.0110363457351922989 0.0202930215746164322 -0.0158623643219470978
0.00976980570703744888 0.0222747363150119781 -0.0170173346996307373
0.0105134332552552223 0.0190106760710477829 -0.0161240436136722565
0.0114930048584938049 0.0209681056439876556 -0.0155882770195603371
0.00973800569772720337 0.0249263346195220947 -0.017312854528427124
0.0096208471804857254 0.0228024628013372421 -0.0171833541244268417
0.0107380393892526627 0.0216764211654663086 -0.0162282902747392654
0.00928684510290622711 0.0227954667061567307 -0.0174336843192577362
-0.025261973962187767 0.013676532544195652 -0.0152557874098420143
-0.0276411529630422592 0.0132765881717205048 -0.0151643464341759682
-0.0244530700147151947 0.0134911080822348595 -0.015581388957798481
-0.0137987285852432251 -0.0163564495742321014 -0.00696029094979166985
-0.0130882542580366135 -0.0157370381057262421 -0.00776686659082770348
-0.0119645195081830025 -0.0156841464340686798 -0.00691325636580586433
-0.0128429466858506203 -0.0157719012349843979 -0.00747390370815992355
-0.0105444146320223808 -0.0153381023555994034 -0.0064759901724755764
-0.011173611506819725 -0.0150065189227461815 -0.00778378825634717941
-0.014438459649682045 -0.0160402357578277588 -0.00824191980063915253
-0.00965686142444610596 -0.0150274541229009628 -0.00641952129080891609
-0.0146621689200401306 -0.0157217029482126236 -0.00916787330061197281
-0.0105285728350281715 -0.0148170981556177139 -0.0076592443510890007
-0.0111638074740767479 -0.0154277710244059563 -0.00680745579302310944
0.00192508567124605179 0.0222354959696531296 -0.0199195630848407745
0.00212548882700502872 0.0259860008955001831 -0.0199447367340326309
0.00266304751858115196 0.0250430628657341003 -0.0198610033839941025
0.00185841007623821497 0.0236832909286022186 -0.0199482422322034836
0.00911905523389577866 0.00212274165824055672 -0.00976065732538700104
0.00944689102470874786 0.00289734057150781155 -0.00998070649802684784
0.00861066579818725586 0.00108390138484537601 -0.00956909544765949249
0.0111976778134703636 0.00306973489932715893 -0.00750131160020828247
0.00870730075985193253 0.00102284422609955072 -0.00936718564480543137
0.0107809165492653847 0.00396720226854085922 -0.0089566865935921669
0.00966490153223276138 0.00123741792049258947 -0.00812195334583520889
0.0117985149845480919 0.00434166938066482544 -0.00776844145730137825
0.0103254849091172218 0.00389597867615520954 -0.0095773329958319664
0.010448395274579525 0.00209596403874456882 -0.00773274479433894157
0.00888835731893777847 0.000711091444827616215 -0.00880695320665836334
0.00865746662020683289 0.00129520474001765251 -0.00969336275011301041
0.00987667404115200043 0.00431758537888526917 -0.0106423255056142807
0.0126391313970088959 0.00298381014727056026 -0.00179075379855930805
0.0124954814091324806 0.00297755468636751175 -0.0024886690080165863
0.0125074349343776703 0.0037275578361004591 -0.00475781969726085663
0.0129568725824356079 0.00410252483561635017 -0.0036777774803340435
0.012662956491112709 0.00297075789421796799 -0.00163124676328152418
0.0131704723462462425 0.00334980967454612255 -0.000273864599876105785
-0.0186834950000047684 -0.00311506306752562523 -0.0195739343762397766
-0.0200631376355886459 0.00189591594971716404 -0.0200360473245382309
-0.0140659157186746597 0.00158506748266518116 -0.0198951568454504013
-0.0169372726231813431 -0.000325399800203740597 -0.0197834670543670654
-0.0135862529277801514 0.00215698708780109882 -0.0199358034878969193
-0.0181283634155988693 -0.000589128234423696995 -0.0197831336408853531
-0.0183465126901865005 0.00117888371460139751 -0.0199410803616046906
-0.0175782404839992523 -0.0015517696738243103 -0.0196889471262693405
-0.0184792932122945786 -0.000822118890937417746 -0.0197695288807153702
-0.0175070054829120636 4.44123288616538048e-05 -0.0198264531791210175
-0.0158423557877540588 0.000165223143994808197 -0.0198053624480962753
-0.0185584016144275665 -0.00288247363641858101 -0.019591793417930603
-0.0180801786482334137 -0.000249919132329523563 -0.0198117289692163467
-0.0179036408662796021 -0.000822063651867210865 -0.0197586044669151306
-0.014241296797990799 0.000654357252642512321 -0.0198175199329853058
-0.0181388594210147858 -0.000411904067732393742 -0.0197987500578165054
-0.0188902746886014938 -0.0190058071166276932 -0.00140423746779561043
-0.016987331211566925 -0.0187251362949609756 -0.000300912768580019474
-0.0180737655609846115 -0.0188033506274223328 -0.00148589094169437885
-0.0198058895766735077 -0.0190901197493076324 -0.00227842386811971664
0.0124584734439849854 0.0253534689545631409 -0.0154526811093091965
0.0123554253950715065 0.0255497284233570099 -0.015547996386885643
0.0110741211101412773 0.0267562679946422577 -0.016546664759516716
0.0162849109619855881 0.00983527768403291702 -0.00161500659305602312
0.0173958241939544678 0.0132850371301174164 -0.00296473316848278046
0.0166826285421848297 0.0115547087043523788 -0.00352187827229499817
0.0161643698811531067 0.0104037933051586151 -0.00423964252695441246
0.0164498854428529739 0.0111399115994572639 -0.00414419034495949745
0.0162928439676761627 0.0102561069652438164 -0.00278909923508763313
0.0166817717254161835 0.0111668845638632774 -0.00238879048265516758
-0.0070945005863904953 -0.00210321322083473206 -0.0179737769067287445
-0.0085049578920006752 -0.00244571734219789505 -0.0182480774819850922
-0.00890924874693155289 -0.00228583021089434624 -0.0184286180883646011
-0.0057431953027844429 -0.00106639042496681213 -0.0179908517748117447
-0.00666098063811659813 -0.00292152026668190956 -0.0175247266888618469
-0.00812978483736515045 -0.00161333393771201372 -0.0184678621590137482
-0.00390618760138750076 0.000503067392855882645 -0.0180772393941879272
-0.00711215613409876823 -0.00332222715951502323 -0.0174974910914897919
-0.0073027508333325386 -0.00211821240372955799 -0.0180283244699239731
0.0175049640238285065 0.0132441911846399307 -0.00202022399753332138
0.0173238739371299744 0.0128422155976295471 -0.00224512722343206406
0.0168837308883666992 0.0111315138638019562 -0.00070860033156350255
0.0169096086174249649 0.0110177164897322655 -0.000190256687346845865
0.0125982277095317841 0.00416996190324425697 -0.00567527348175644875
0.0146957794204354286 0.00764508545398712158 -0.00488439062610268593
0.015058186836540699 0.00782610010355710983 -0.0035686129704117775
0.0137375863268971443 0.00493284827098250389 -0.00208350992761552334
0.0136913144960999489 0.0044132256880402565 -0.000855601159855723381
0.01347378920763731 0.00499247666448354721 -0.00357934809289872646
0.0143827721476554871 0.00670932047069072723 -0.00382950389757752419
0.0140505889430642128 0.00655690021812915802 -0.00507349614053964615
0.0140087921172380447 0.00547435088083148003 -0.00224041659384965897
0.0140855871140956879 0.00530472537502646446 -0.00137686857488006353
0.0136505654081702232 0.00531140482053160667 -0.00358594488352537155
0.0139110451564192772 0.00577162671834230423 -0.00356833357363939285
0.0145495282486081123 0.00663035642355680466 -0.00276789767667651176
0.0156828388571739197 0.00807729363441467285 -0.000188187317689880729
0.015629088506102562 0.00792961567640304565 -8.06804964668117464e-05
0.0159442108124494553 0.00947965960949659348 -0.00324389408342540264
0.0158836487680673599 0.00924843177199363708 -0.00288276374340057373
-0.021278727799654007 -0.0167849622666835785 -0.0100449640303850174
-0.0219207033514976501 -0.0178478062152862549 -0.00829100050032138824
-0.0218415185809135437 -0.0171352401375770569 -0.00960575509816408157
-0.0209037270396947861 -0.0164919383823871613 -0.0104502551257610321
-0.0209585782140493393 -0.0168575495481491089 -0.00978128425776958466
-0.0209130141884088516 -0.0166905950754880905 -0.0100786546245217323
-0.0174034666270017624 0.0230849813669919968 -0.0115076825022697449
-0.0193414650857448578 0.0209879297763109207 -0.0111347613856196404
-0.0179521720856428146 0.0228618811815977097 -0.0110572483390569687
-0.0186299998313188553 0.0234317835420370102 -0.0097141508013010025
-0.018698032945394516 0.0213090255856513977 -0.0116076124832034111
-0.0188067778944969177 0.0208551008254289627 -0.0118995402008295059
-0.0176071189343929291 0.0215717460960149765 -0.0126713952049612999
0.0186289474368095398 0.0171089936047792435 -0.00146917137317359447
0.0184502303600311279 0.0156481675803661346 -5.54225589439738542e-05
0.0183724109083414078 0.0156676750630140305 -0.00077488733222708106
0.00124352506827563047 0.0276456326246261597 -0.0200398750603199005
0.00112717633601278067 0.0251333862543106079 -0.0200147833675146103
0.00158888997975736856 0.0211772602051496506 -0.0199471153318881989
0.000546736584510654211 0.0256190821528434753 -0.0200459584593772888
0.0103996479883790016 0.0127085037529468536 -0.0147955529391765594
0.0107161952182650566 0.0102622490376234055 -0.0134060196578502655
0.0103361476212739944 0.013319922611117363 -0.0151263559237122536
0.0108685027807950974 0.0132852904498577118 -0.0145491072908043861
0.0116119571030139923 0.01462571881711483 -0.0143420025706291199
0.00978767778724431992 0.00928658805787563324 -0.0139659401029348373
0.010706605389714241 0.0121382828801870346 -0.0142253618687391281
0.00976752396672964096 0.00759810442104935646 -0.0132589144632220268
0.0115902218967676163 0.0140313711017370224 -0.014108593575656414
0.0148317180573940277 0.012803100049495697 -0.00963900890201330185
0.0152289271354675293 0.0148912826552987099 -0.0101981731131672859
0.0144618004560470581 0.0134339556097984314 -0.010607144795358181
0.0139532815665006638 0.0108012771233916283 -0.00991479866206645966
0.0149389719590544701 0.0147210266441106796 -0.0105727575719356537
0.0144852790981531143 0.0144507968798279762 -0.0111566558480262756
0.0148944826796650887 0.0151564357802271843 -0.0108970338478684425
-0.0015642605721950531 0.0264645572751760483 -0.0200418196618556976
-0.00101803522557020187 0.027059236541390419 -0.0200620684772729874
-0.000728348852135241032 0.0277538169175386429 -0.0200705099850893021
-0.00787859596312046051 0.0150615423917770386 -0.0196752622723579407
-0.00773948058485984802 0.0177234113216400146 -0.0194367654621601105
-0.00828200951218605042 0.0144427279010415077 -0.0196942780166864395
-0.00656791636720299721 0.0160456839948892593 -0.0197107177227735519
-0.00700466800481081009 0.017183622345328331 -0.0195600427687168121
-0.00327503448352217674 0.0160159152001142502 -0.020036822184920311
-0.00602663913741707802 0.0174246039241552353 -0.0196332335472106934
-0.00380433164536952972 0.0157190281897783279 -0.020012982189655304
-0.00589505815878510475 0.0173110552132129669 -0.0196569077670574188
-0.00696140527725219727 0.0164165478199720383 -0.0196369532495737076
-0.00802850350737571716 0.0133380871266126633 -0.0198238063603639603
-0.00451292796060442924 0.01670883409678936 -0.0198496486991643906
-0.00823083426803350449 0.0154119972139596939 -0.0196074824780225754
0.00638571428135037422 0.0279088318347930908 -0.0190269351005554199
0.00526523776352405548 0.0280380845069885254 -0.0193889010697603226
0.00729903671890497208 0.0254204608500003815 -0.0185718704015016556
0.00662763742730021477 0.0267790984362363815 -0.0188747942447662354
-0.00782228820025920868 -0.0113329049199819565 -0.0117372535169124603
-0.00636684102937579155 -0.00953087955713272095 -0.0126586128026247025
-0.00712858512997627258 -0.00892705842852592468 -0.0137472767382860184
-0.00499006640166044235 -0.00905935745686292648 -0.0122780017554759979
-0.00607877317816019058 -0.00994213949888944626 -0.0120611721649765968
-0.00540498457849025726 -0.00852297525852918625 -0.0130816837772727013
-0.00605744402855634689 -0.00872229412198066711 -0.0132865700870752335
-0.00632080808281898499 -0.00952387508004903793 -0.0126369912177324295
-0.0083710821345448494 -0.0115842819213867188 -0.0118245631456375122
-0.00541613856330513954 -0.00796988885849714279 -0.0136502878740429878
0.00569915957748889923 0.0269046220928430557 -0.0191736556589603424
0.00595847144722938538 0.0255750026553869247 -0.0189736839383840561
0.00465931463986635208 0.0270908717066049576 -0.01942414790391922
0.00770839489996433258 0.0221736021339893341 -0.0182212330400943756
-0.0154249826446175575 0.0223370809108018875 -0.0141239119693636894
-0.0142971957102417946 0.0206014122813940048 -0.0158036574721336365
-0.014873347245156765 0.021928589791059494 -0.0147163467481732368
-0.0144133614376187325 0.0213956795632839203 -0.015310400165617466
-0.0162751134485006332 0.0197463724762201309 -0.0148863848298788071
-0.0163169596344232559 0.0192465297877788544 -0.0151176350191235542
-0.0141172325238585472 0.0200130026787519455 -0.0162337422370910645
-0.0145764993503689766 0.0213031210005283356 -0.0152462096884846687
0.00299667147919535637 -0.00707610836252570152 -0.00647510215640068054
0.00455803563818335533 -0.00584184145554900169 -0.00594167923554778099
0.00567639060318470001 -0.0049613569863140583 -0.00555144157260656357
0.00250901305116713047 -0.00763563066720962524 -0.00624501332640647888
0.00431333994492888451 -0.00551437539979815483 -0.00721266539767384529
0.0042805895209312439 -0.00554341636598110199 -0.00721667055040597916
0.00267143035307526588 -0.0078523857519030571 -0.00540276290848851204
0.00243040313944220543 -0.00801955815404653549 -0.00553835835307836533
0.00327664078213274479 -0.00740253832191228867 -0.00513086281716823578
0.00800122320652008057 0.0236942656338214874 -0.0182110201567411423
0.00774722360074520111 0.0274568144232034683 -0.0184941906481981277
0.00795389339327812195 0.0260200072079896927 -0.0183406267315149307
0.00734903197735548019 0.0259506497532129288 -0.0185878891497850418
-0.00226405588909983635 -0.010393521748483181 -0.00829536188393831253
-0.00318623380735516548 -0.0118827177211642265 -0.00559541350230574608
-0.00263111107051372528 -0.0113228112459182739 -0.00620451942086219788
-0.00484430603682994843 -0.0126526886597275734 -0.00650084158405661583
0.000362874474376440048 -0.00981899909675121307 -0.00491221621632575989
-0.0022268085740506649 -0.0104269590228796005 -0.00812183413654565811
-0.00124467257410287857 -0.0107672838494181633 -0.00518079660832881927
-0.00081415567547082901 -0.0101817166432738304 -0.00611014384776353836
-0.0054236091673374176 -0.0131803257390856743 -0.00603628624230623245
-0.000243017449975013733 -0.00996651407331228256 -0.00564722344279289246
0.0182965639978647232 0.0183533001691102982 -0.00505167711526155472
0.0182782802730798721 0.0176421459764242172 -0.0043171420693397522
0.0183089170604944229 0.0171730238944292068 -0.00356506998650729656
0.0179973971098661423 0.0159558970481157303 -0.0040637534111738205
0.0181579757481813431 0.0172245204448699951 -0.00457231048494577408
0.0189372319728136063 0.018923172727227211 -0.00171787536237388849
0.0184985902160406113 0.0174841117113828659 -0.00274808146059513092
0.0184385459870100021 0.0179239828139543533 -0.00364947156049311161
0.0184029210358858109 0.0195540823042392731 -0.00581895420327782631
0.0150470277294516563 0.0188797805458307266 -0.011914585717022419
0.0144822588190436363 0.0187000762671232224 -0.0125454599037766457
0.014925922267138958 0.0177877955138683319 -0.0117816533893346786
0.014201674610376358 0.0213308427482843399 -0.0135514186695218086
0.0147173143923282623 0.0210024118423461914 -0.0128500312566757202
0.0145121496170759201 0.0198968630284070969 -0.0128143541514873505
0.0195661876350641251 0.0218980275094509125 -0.000739576935302466154
0.0192208085209131241 0.0223317276686429977 -0.00300387642346322536
0.0190177746117115021 0.0231880601495504379 -0.00468002725392580032
0.0187836848199367523 0.0216888021677732468 -0.00518579641357064247
0.0190763026475906372 0.0236872974783182144 -0.00462493766099214554
0.0187366548925638199 0.0212782919406890869 -0.00522470148280262947
0.0189202930778264999 0.0220461152493953705 -0.00459365127608180046
0.0194321181625127792 0.0249859541654586792 -0.00329372542910277843
0.0193326268345117569 0.0266642794013023376 -0.00483730342239141464
0.0192518178373575211 0.0239455215632915497 -0.00374888232909142971
0.0194580797106027603 0.0269363410770893097 -0.00426132790744304657
0.0196441896259784698 0.0227175131440162659 -0.00075461389496922493
0.0186278708279132843 0.0209204349666833878 -0.00565417250618338585
0.0187121331691741943 0.0213424749672412872 -0.00540461624041199684
-0.00889831036329269409 -0.000573404715396463871 -0.0189574658870697021
-0.00730678858235478401 0.00178718613460659981 -0.0192266572266817093
-0.00905278325080871582 0.00281718606129288673 -0.0197095908224582672
-0.00971787888556718826 -7.79830734245479107e-05 -0.0191867221146821976
-0.00823031924664974213 0.0029938907828181982 -0.0196244120597839355
-0.00796055793762207031 0.00279654702171683311 -0.0195415839552879333
-0.00764151988551020622 0.00193195254541933537 -0.0193079132586717606
-0.00877250824123620987 0.00172272883355617523 -0.0194323044270277023
-0.00992578174918889999 0.000609612441621720791 -0.0193656925112009048
0.00842327997088432312 0.00968440435826778412 -0.0152615029364824295
0.00962894782423973083 0.00694284215569496155 -0.0130832679569721222
0.00475046364590525627 0.00577525142580270767 -0.0161748267710208893
0.00930327083915472031 0.00920176785439252853 -0.0143802948296070099
0.00767636625096201897 0.00795677024871110916 -0.0150119578465819359
0.00742379762232303619 0.00716467015445232391 -0.0148305445909500122
0.00542392535135149956 0.00672815972939133644 -0.0161175522953271866
0.00629659648984670639 0.00664948578923940659 -0.0154303340241312981
0.00652069365605711937 0.00770389381796121597 -0.0157553907483816147
0.0084286220371723175 0.00624092668294906616 -0.0136504136025905609
0.00701186107471585274 0.00902700331062078476 -0.0160067770630121231
0.00777785945683717728 0.00951782241463661194 -0.0156648624688386917
0.00832487735897302628 0.0103832166641950607 -0.0156609956175088882
