ply
format ascii 1.0
element vertex 709
property float x
property float y
property float z
end_header
-0.0146076465025544167 0.0158884357661008835 0.000461904099211096764
-0.0170915964990854263 0.0177723467350006104 0.000375702453311532736
-0.0145490821450948715 0.0160091090947389603 0.000520191912073642015
-0.013658059760928154 0.0157310795038938522 0.000686647719703614712
-0.014733901247382164 0.0155833084136247635 0.000320920516969636083
-0.0157380066812038422 0.0159953366965055466 0.000166975485626608133
-0.0150345545262098312 0.0157267339527606964 0.000281658663880079985
-0.0131909726187586784 0.015110870823264122 0.000612233125139027834
-0.0132964514195919037 0.0154985999688506126 0.000713432731572538614
-0.0126014081761240959 0.0151361450552940369 0.00079367123544216156
-0.0150503842160105705 0.0157810300588607788 0.000295520643703639507
-0.0146136283874511719 0.0154601261019706726 0.000314202712615951896
-0.0144405299797654152 0.0160426534712314606 0.000563443114515393972
-0.013372945599257946 0.0163238570094108582 0.000689912936650216579
-0.0130865303799510002 0.0178328827023506165 0.000472533691208809614
-0.0149787710979580879 0.0187510345131158829 0.00032698447466827929
-0.0180749800056219101 0.0186659675091505051 0.000319434446282684803
-0.0147198550403118134 0.0181794818490743637 0.000411680492106825113
-0.0118334274739027023 0.0166092868894338608 0.00065834634006023407
-0.014688028022646904 0.0165925454348325729 0.000642424391116946936
-0.0159784052520990372 0.0175183136016130447 0.000499638146720826626
-0.0148571832105517387 0.0168496556580066681 0.00060398539062589407
-0.0125881657004356384 0.0153480423614382744 0.000836718478240072727
-0.0128274885937571526 0.0163247194141149521 0.000693294801749289036
-0.0153075987473130226 0.0186758451163768768 0.00033579333103261888
-0.0142590682953596115 0.0174648761749267578 0.000518455985002219677
-0.0134572498500347137 0.0169873908162117004 0.000592977274209260941
-0.0117147639393806458 0.0160599425435066223 0.000738914473913609982
-0.0114260651171207428 0.0153629379346966743 0.000842026784084737301
-0.0138484276831150055 0.0171582866460084915 0.000565635738894343376
-0.0124219264835119247 0.0152405751869082451 0.000853399629704654217
-0.0165783204138278961 0.0183008816093206406 0.000382094818633049726
-0.0127146290615200996 0.0178563501685857773 0.000471515872050076723
-0.0122165996581315994 0.0161273423582315445 0.000725896330550312996
-0.0121329426765441895 0.0166742466390132904 0.000646983855403959751
-0.0120288049802184105 0.0169916506856679916 0.000601543113589286804
-0.0122287385165691376 0.0180475041270256042 0.000446870340965688229
-0.0156631395220756531 0.0186212398111820221 0.000341439881594851613
-0.0131291002035140991 0.0162108819931745529 0.000707892933860421181
-0.0141506092622876167 0.0188313145190477371 0.000320646824548020959
-0.0114654693752527237 0.0153013337403535843 0.000850722834002226591
-0.0116789080202579498 0.0151001270860433578 0.000878580322023481131
-0.0138609474524855614 0.0171498842537403107 0.000566775619518011808
-0.0144032640382647514 0.0182254742830991745 0.000407034531235694885
-0.0170648936182260513 0.0181320328265428543 0.000403495534555986524
-0.0129050901159644127 0.0154713653028011322 0.000816765299532562494
-0.0119726359844207764 0.0174037367105484009 0.000542039168067276478
-0.0120158437639474869 0.0154293244704604149 0.000828590360470116138
-0.0125966910272836685 0.0166508741676807404 0.000647397362627089024
-0.0137632237747311592 0.0167834572494029999 0.000620636274106800556
-0.0131792677566409111 0.0171797033399343491 0.000566826900467276573
-0.0132846999913454056 0.0158366858959197998 0.000761253410018980503
-0.0124957673251628876 0.0153066776692867279 0.000843321904540061951
-0.0150872105732560158 0.0175616201013326645 0.000499077083077281713
-0.0120064672082662582 0.0151333408430218697 0.000871649011969566345
-0.0127782486379146576 0.0181710943579673767 0.000425382808316498995
-0.0147413797676563263 0.0186836831271648407 0.000338294950779527426
-0.0169021077454090118 0.0180134344846010208 0.000421771110268309712
-0.0143815027549862862 0.0179688241332769394 0.000444458913989365101
-0.0178750213235616684 0.0186421759426593781 0.000324176333379000425
-0.0121391816064715385 0.0178612805902957916 0.000474499625852331519
-0.0165616702288389206 0.0184631533920764923 0.000358628196408972144
-0.0119138304144144058 0.015774998813867569 0.000779028981924057007
-0.0207587946206331253 0.0209097862243652344 0.00144852010998874903
-0.0216875039041042328 0.0223286226391792297 0.00245400425046682358
-0.0218511670827865601 0.0223449692130088806 0.00251231156289577484
-0.0218507125973701477 0.0231047291308641434 0.00288615468889474869
-0.0208281222730875015 0.0214764438569545746 0.00177061452995985746
-0.022363835945725441 0.0224629566073417664 0.00272783171385526657
-0.0217636171728372574 0.0231338273733854294 0.00287373177707195282
-0.0219024643301963806 0.0224022511392831802 0.0025562625378370285
-0.0210015159100294113 0.0215302426367998123 0.0018503447063267231
-0.0215095262974500656 0.0218856632709503174 0.00218130555003881454
-0.0208635274320840836 0.021061209961771965 0.00153391540516167879
-0.0109070315957069397 0.0142285823822021484 0.0291569661349058151
-0.0131085701286792755 0.0149021577090024948 0.029899202287197113
-0.0132502913475036621 0.0155496234074234962 0.0300008337944746017
-0.0124429157003760338 0.0136033529415726662 0.0295771602541208267
-0.0135061200708150864 0.0147890727967023849 0.0300123114138841629
-0.0114109572023153305 0.0139114828780293465 0.0292848534882068634
-0.0127434590831398964 0.0152301834896206856 0.0298153068870306015
-0.0116198090836405754 0.0144028505310416222 0.029393371194601059
-0.0123083516955375671 0.0137912863865494728 0.0295522138476371765
-0.0118967927992343903 0.0136175770312547684 0.0294091999530792236
-0.0108190299943089485 0.0143468938767910004 0.0291402433067560196
-0.0132801821455359459 0.0140590472146868706 0.029877224937081337
-0.0128181790933012962 0.0134967295452952385 0.0296839401125907898
-0.0121802017092704773 0.0135694174095988274 0.0294927284121513367
-0.0100425891578197479 0.0137330610305070877 0.0288449283689260483
-0.01205479446798563 0.0149149661883711815 0.0295738093554973602
-0.0125590050593018532 0.0147314881905913353 0.0297136958688497543
-0.0107123181223869324 0.0136732039973139763 0.0290471240878105164
-0.0136887114495038986 0.0151976272463798523 0.0301053114235401154
-0.0120023787021636963 0.0134744960814714432 0.029429163783788681
-0.0138507001101970673 0.0162527561187744141 0.0302495602518320084
-0.015543605200946331 0.0158332288265228271 0.0303872749209403992
-0.0146495681256055832 0.0160661786794662476 0.030333762988448143
-0.0142880966886878014 0.0158034190535545349 0.0302855558693408966
-0.0155609464272856712 0.0157450158149003983 0.0303820837289094925
-0.0156615953892469406 0.015783725306391716 0.0303929392248392105
-0.0149318967014551163 0.0156591534614562988 0.0303258392959833145
-0.0134076708927750587 0.0171595830470323563 0.0302197188138961792
-0.0113313468173146248 0.0182108264416456223 0.0297321267426013947
-0.0123560205101966858 0.0182683952152729034 0.0300380699336528778
-0.0114475125446915627 0.0183215849101543427 0.0297786220908164978
-0.0125258481130003929 0.0187432523816823959 0.0301415082067251205
-0.0101564424112439156 0.0185562130063772202 0.0294279493391513824
-0.0129424827173352242 0.0183435734361410141 0.0302179586142301559
-0.0123514439910650253 0.0183006487786769867 0.0300403870642185211
-0.013089488260447979 0.0172261390835046768 0.0301342848688364029
-0.0129153076559305191 0.0181205663830041885 0.0301847457885742188
-0.0111837759613990784 0.0183089878410100937 0.029700128361582756
-0.0130090508610010147 0.017347307875752449 0.0301245115697383881
-0.0106614334508776665 0.0187103468924760818 0.0295929796993732452
-0.0102706644684076309 0.0184114817529916763 0.0294449254870414734
-0.0125445341691374779 0.0181547794491052628 0.0300802793353796005
-0.0137024251744151115 0.0151145681738853455 0.0301004908978939056
-0.013910958543419838 0.0143454847857356071 0.030060451477766037
-0.0140922935679554939 0.014718654565513134 0.030140463262796402
-0.0141006791964173317 0.0150922965258359909 0.0301834363490343094
-0.0141023052856326103 0.0145356124266982079 0.0301224365830421448
-0.0141110224649310112 0.0159467905759811401 0.0302798226475715637
-0.00980277732014656067 0.0168778356164693832 0.0291323289275169373
-0.00971611123532056808 0.0150476135313510895 0.0288973785936832428
-0.0109865693375468254 0.0163545887917280197 0.0294190477579832077
-0.0137932021170854568 0.0164735876023769379 0.0302545074373483658
-0.00959714874625205994 0.0176838673651218414 0.0291644111275672913
-0.010870995931327343 0.0156970508396625519 0.0293099153786897659
-0.00983664672821760178 0.016515025869011879 0.0291007012128829956
-0.0106302360072731972 0.0166351459920406342 0.0293468348681926727
-0.0105115156620740891 0.0161541346460580826 0.0292569920420646667
-0.013147248886525631 0.01646384596824646 0.0300642456859350204
-0.0100838486105203629 0.017914915457367897 0.0293333828449249268
-0.00989409349858760834 0.0162213314324617386 0.0290838945657014847
-0.00968020223081111908 0.0180443041026592255 0.0292300041764974594
-0.0112873129546642303 0.0165715087205171585 0.0295319501310586929
-0.00998208485543727875 0.0142673030495643616 0.028885912150144577
-0.0129977250471711159 0.0167415831238031387 0.0300522651523351669
-0.0107190338894724846 0.0145416948944330215 0.0291331242769956589
-0.0109970718622207642 0.01728099025785923 0.0295282024890184402
-0.0125213135033845901 0.0158947017043828964 0.0298157893121242523
-0.0105756856501102448 0.0168640483170747757 0.0293570719659328461
-0.0124167324975132942 0.0163779035210609436 0.029840497300028801
-0.0102555640041828156 0.015354241244494915 0.0290904510766267776
-0.0111573440954089165 0.0154214520007371902 0.0293622054159641266
-0.010331273078918457 0.0179593581706285477 0.0294109228998422623
-0.0116141075268387794 0.0157093685120344162 0.0295289214700460434
-0.0115424292162060738 0.01518997922539711 0.0294484607875347137
-0.0103810150176286697 0.0159344244748353958 0.0291936211287975311
-0.0110966973006725311 0.0168014653027057648 0.0295024663209915161
-0.0104222409427165985 0.0162625983357429504 0.0292432717978954315
-0.0108273625373840332 0.0170191600918769836 0.0294485278427600861
-0.0102113205939531326 0.0160865224897861481 0.0291613470762968063
-0.0115793291479349136 0.0157716050744056702 0.0295258648693561554
-0.0119675491005182266 0.0170600935816764832 0.0297870822250843048
-0.0106987887993454933 0.0156253408640623093 0.0292512793093919754
-0.0100148515775799751 0.0155297704041004181 0.0290400665253400803
-0.011592591181397438 0.0174686703830957413 0.02972407266497612
-0.0102930273860692978 0.0173792354762554169 0.0293332953006029129
-0.010081365704536438 0.0148938251659274101 0.0289867240935564041
-0.0117590893059968948 0.0153382355347275734 0.0295288786292076111
-0.0103905918076634407 0.0156422238796949387 0.029162965714931488
-0.0129220094531774521 0.0158631261438131332 0.0299295056611299515
-0.0093931201845407486 0.0172382574528455734 0.0290536452084779739
-0.0121506210416555405 0.0167388617992401123 0.0298039056360721588
-0.00960034877061843872 0.014657110907137394 0.0288187675178050995
-0.0236271079629659653 0.0189355183392763138 0.027753632515668869
-0.0240783318877220154 0.0190293341875076294 0.0272783804684877396
-0.0236900374293327332 0.0190692469477653503 0.0275207515805959702
-0.023850390687584877 0.0189889408648014069 0.0275087952613830566
-0.0247362423688173294 0.0195436403155326843 0.026757214218378067
-0.0240333378314971924 0.0197354070842266083 0.0272002220153808594
-0.0243173576891422272 0.0200686287134885788 0.0269773807376623154
-0.0241443850100040436 0.0195093005895614624 0.027151135727763176
-0.0239986460655927658 0.0196597054600715637 0.0272311773151159286
-0.0221793483942747116 0.0198224075138568878 0.0284134037792682648
-0.0235322099179029465 0.0199551023542881012 0.0275072026997804642
-0.0238363724201917648 0.0208503957837820053 0.0272110886871814728
-0.0223331283777952194 0.0201165657490491867 0.0282806083559989929
-0.0227259639650583267 0.0199462175369262695 0.0280397646129131317
-0.0238923858851194382 0.0194147583097219467 0.027327386662364006
-0.0228791609406471252 0.0198437254875898361 0.0279496908187866211
-0.0226710699498653412 0.0192755237221717834 0.0281475484371185303
-0.023160027340054512 0.0199467837810516357 0.0277534965425729752
-0.0233308263123035431 0.0207175221294164658 0.0275586117058992386
-0.0234691072255373001 0.0204525608569383621 0.0274957120418548584
-0.0236581712961196899 0.0206625126302242279 0.0273486413061618805
-0.0236413795500993729 0.0197416525334119797 0.0274580009281635284
-0.0214467737823724747 0.0196890924125909805 0.0289106722921133041
-0.0214558858424425125 0.019415268674492836 0.028933890163898468
-0.0232709422707557678 0.0198369622230529785 0.0276920851320028305
-0.024113822728395462 0.0215075425803661346 0.026958005502820015
-0.0250102672725915909 0.0197767838835716248 0.0265516452491283417
-0.0243799164891242981 0.0195132847875356674 0.0269954074174165726
-0.021938050165772438 0.0194859281182289124 0.028608422726392746
-0.0214088894426822662 0.019291246309876442 0.0289781168103218079
-0.0233405046164989471 0.0208309479057788849 0.0275401212275028229
-0.0238822288811206818 0.0204970370978116989 0.0272185653448104858
-0.0247310567647218704 0.0191797297447919846 0.0267994757741689682
-0.0215209070593118668 0.0198126789182424545 0.0288607068359851837
-0.022004544734954834 0.0204089898616075516 0.0285570546984672546
-0.0209721922874450684 0.0201086513698101044 0.0291166305541992188
-0.0204816032201051712 0.0199425648897886276 0.0293363593518733978
-0.0226546879857778549 0.0212457142770290375 0.0279253795742988586
-0.0219859462231397629 0.0205380879342556 0.0285635348409414291
-0.0224260985851287842 0.0207983478903770447 0.0282330252230167389
-0.0234421715140342712 0.0216145068407058716 0.0273762494325637817
-0.0150288073346018791 0.0107915028929710388 0.0291282441467046738
-0.016190817579627037 0.0116453729569911957 0.0296027585864067078
-0.0170017480850219727 0.0106089264154434204 0.0293727349489927292
-0.0138162318617105484 0.0094678075984120369 0.0284843388944864273
-0.0168063677847385406 0.0111300311982631683 0.0295214559882879257
-0.0148395514115691185 0.0107862241566181183 0.0290969554334878922
-0.0137178441509604454 0.00944054126739501953 0.0284596402198076248
-0.0176447108387947083 0.0111277112737298012 0.0296512171626091003
-0.0171285104006528854 0.0109452325850725174 0.0295080933719873428
-0.0172652062028646469 0.0110800294205546379 0.0295757222920656204
-0.0160421617329120636 0.011854102835059166 0.0296513661742210388
-0.0156810656189918518 0.009027872234582901 0.0286235157400369644
-0.0158024951815605164 0.0120291123166680336 0.0296742059290409088
-0.0163733325898647308 0.00947617087513208389 0.0288854464888572693
-0.0161497052758932114 0.00978058576583862305 0.0289552696049213409
-0.0166104584932327271 0.0100010493770241737 0.0291028190404176712
-0.0170965343713760376 0.0103900609537959099 0.0293122548609972
-0.0164453610777854919 0.0105754872784018517 0.0292745903134346008
-0.0141714327037334442 0.00994447804987430573 0.0287035256624221802
-0.0152777489274740219 0.0106115546077489853 0.0291051510721445084
-0.0141776036471128464 0.00918069668114185333 0.0284419115632772446
-0.0171048715710639954 0.00948154646903276443 0.0290012191981077194
-0.0162324421107769012 0.012766481377184391 0.0299946609884500504
-0.016599336639046669 0.011562887579202652 0.029638020321726799
-0.0156884081661701202 0.0126246828585863113 0.0298611856997013092
-0.0154439881443977356 0.0121934060007333755 0.0296748559921979904
-0.01477028988301754 0.00917242188006639481 0.028531370684504509
-0.014050215482711792 0.0097294151782989502 0.0286107137799263
-0.0153849758207798004 0.00991713255643844604 0.0288831181824207306
-0.0168443452566862106 0.0117638017982244492 0.0297452490776777267
-0.0152751803398132324 0.00968093704432249069 0.0287848189473152161
-0.0161755625158548355 0.0131481140851974487 0.0301170013844966888
-0.0146997291594743729 0.00965848006308078766 0.0286874789744615555
-0.0165218692272901535 0.0110687268897891045 0.0294560715556144714
-0.0143993645906448364 0.00934261176735162735 0.0285321101546287537
-0.0153339225798845291 0.010274968110024929 0.0289981849491596222
-0.0162421669811010361 0.0123923458158969879 0.0298675522208213806
-0.0174812115728855133 0.0092658698558807373 0.0289856847375631332
-0.0139807797968387604 0.0100574027746915817 0.0287126563489437103
-0.0166325978934764862 0.0125698437914252281 0.0299893766641616821
-0.0169214662164449692 0.011719713918864727 0.0297421030700206757
-0.0167308822274208069 0.00989571399986743927 0.0290853604674339294
-0.0175633281469345093 0.00953967403620481491 0.0290926005691289902
-0.0145424837246537209 0.0103121064603328705 0.0288876984268426895
-0.0176135580986738205 0.0100591704249382019 0.029279019683599472
-0.0173813868314027786 0.00945627689361572266 0.029035596176981926
-0.0161676853895187378 0.0131210368126630783 0.0301064662635326385
-0.0186037775129079819 0.00939401984214782715 0.0292045623064041138
-0.016866413876414299 0.012567814439535141 0.0300191845744848251
-0.0188165754079818726 0.00951552297919988632 0.0292740892618894577
-0.0182023104280233383 0.011469782330095768 0.0297988895326852798
-0.0186312329024076462 0.0113732330501079559 0.0298029631376266479
-0.017542397603392601 0.0121785486117005348 0.0299563203006982803
-0.0183933321386575699 0.010225110687315464 0.0294495746493339539
-0.0182181261479854584 0.0107657862827181816 0.02959437295794487
-0.0184486508369445801 0.0105534717440605164 0.0295496843755245209
-0.0171371176838874817 0.0130104925483465195 0.0301689114421606064
-0.0187993850558996201 0.0125134596601128578 0.0301487967371940613
-0.0183385536074638367 0.0123315565288066864 0.0300609562546014786
-0.0168248321861028671 0.0128499157726764679 0.0300984829664230347
-0.0186495725065469742 0.0108128581196069717 0.0296406019479036331
-0.0169912632554769516 0.0128671284765005112 0.0301160421222448349
-0.0173654668033123016 0.0131017006933689117 0.0302127506583929062
-0.0173659436404705048 0.0120933372527360916 0.0299181416630744934
-0.0171719547361135483 0.0122779058292508125 0.0299574695527553558
-0.0158803854137659073 0.0143592078238725662 0.0302857719361782074
-0.0153759317472577095 0.0141984876245260239 0.0302380062639713287
-0.0151587370783090591 0.0147668542340397835 0.0302726458758115768
-0.0150389103218913078 0.0145509727299213409 0.0302459113299846649
-0.0152332009747624397 0.0145363984629511833 0.0302576888352632523
-0.0148598821833729744 0.0144002586603164673 0.0302208494395017624
-0.0144931627437472343 0.0134088499471545219 0.029992859810590744
-0.01428265031427145 0.0134579231962561607 0.0299745034426450729
-0.0143814161419868469 0.0143057182431221008 0.0301507972180843353
-0.0136228948831558228 0.0134467585012316704 0.0298852082341909409
-0.014104871079325676 0.0134556442499160767 0.029950583353638649
-0.0149058708921074867 0.0134278247132897377 0.0300510283559560776
-0.0134776383638381958 0.0121279451996088028 0.029409363865852356
-0.0140267638489603996 0.0111721670255064964 0.0291254576295614243
-0.0136648193001747131 0.0106712616980075836 0.0288977138698101044
-0.0145504055544734001 0.0129111455753445625 0.0298270527273416519
-0.0152594782412052155 0.0123748993501067162 0.0297164935618638992
-0.0139221446588635445 0.0112953223288059235 0.0291579253971576691
-0.0154504720121622086 0.0126409400254487991 0.0298373028635978699
-0.0141555313020944595 0.0120816100388765335 0.0294747427105903625
-0.0133145693689584732 0.010302339680492878 0.0287198051810264587
-0.0145280510187149048 0.013124469667673111 0.0299025960266590118
-0.0132971238344907761 0.00999745726585388184 0.0286058355122804642
-0.0140552716329693794 0.0123306130990386009 0.0295539088547229767
-0.0147724375128746033 0.0119024617597460747 0.0294839907437562943
-0.0149979237467050552 0.0132853090763092041 0.0300187021493911743
-0.0142611283808946609 0.0133060021325945854 0.0299367569386959076
-0.0133191840723156929 0.0129989953711628914 0.0297096613794565201
-0.0135355927050113678 0.0108139738440513611 0.0289343632757663727
-0.0147035587579011917 0.01172664575278759 0.0294111184775829315
-0.0138923367485404015 0.0113430442288517952 0.0291718095541000366
-0.0147969089448451996 0.0116171138361096382 0.0293822810053825378
-0.0144158415496349335 0.0116894887760281563 0.0293625239282846451
-0.0143222184851765633 0.0128329247236251831 0.0297706257551908493
-0.0133988885208964348 0.0103784091770648956 0.0287579596042633057
-0.0154579179361462593 0.0124716507270932198 0.0297761019319295883
-0.0208204593509435654 0.0205442290753126144 0.0290791038423776627
-0.020267074927687645 0.020587509498000145 0.0292365048080682755
-0.0197746939957141876 0.0204425528645515442 0.0293817948549985886
-0.0204616766422986984 0.0215146113187074661 0.028780616819858551
-0.0208002384752035141 0.0218757577240467072 0.0284939426928758621
-0.0189330875873565674 0.0247728396207094193 0.0268805194646120071
-0.0191058274358510971 0.0227968562394380569 0.0281556639820337296
-0.0190292205661535263 0.0240328963845968246 0.0273145940154790878
-0.0192004088312387466 0.0223387908190488815 0.0283759478479623795
-0.019258454442024231 0.0233088433742523193 0.027736075222492218
-0.0198166072368621826 0.0240339450538158417 0.0272339489310979843
-0.0208142437040805817 0.0238963700830936432 0.0272748228162527084
-0.0202426128089427948 0.0244188681244850159 0.0269609969109296799
-0.0209640581160783768 0.0228542573750019073 0.0279495548456907272
-0.0190591048449277878 0.0249909497797489166 0.0266448762267827988
-0.0199159551411867142 0.0219183787703514099 0.0286137964576482773
-0.0205199494957923889 0.022998318076133728 0.0278771501034498215
-0.0204752478748559952 0.023095790296792984 0.0278155524283647537
-0.0191417839378118515 0.0241375155746936798 0.0271994173526763916
-0.0193200428038835526 0.0209952797740697861 0.0292473845183849335
-0.0190571118146181107 0.0255101658403873444 0.026305120438337326
-0.0198814496397972107 0.0222097430378198624 0.0284247864037752151
-0.0204203091561794281 0.0238616988062858582 0.0273169334977865219
-0.020089663565158844 0.0236532725393772125 0.0274696573615074158
-0.0198675412684679031 0.0215949565172195435 0.0288278795778751373
-0.0192868877202272415 0.02414708212018013 0.0271860044449567795
-0.0192678328603506088 0.0240838844329118729 0.027228308841586113
-0.0191930755972862244 0.0241243354976177216 0.0272055156528949738
-0.0203512739390134811 0.0241054557263851166 0.0271607842296361923
-0.0213568620383739471 0.0233728457242250443 0.0275907497853040695
-0.0203061308711767197 0.024264797568321228 0.0270587150007486343
-0.0196043811738491058 0.0247230250388383865 0.0267933681607246399
-0.0205727536231279373 0.0221537817269563675 0.028429422527551651
-0.0202254187315702438 0.0217229835689067841 0.0287290643900632858
-0.0219607129693031311 0.0190154127776622772 0.00167528237216174603
-0.0218757316470146179 0.0191045366227626801 0.00177582609467208385
-0.0239635612815618515 0.0189911592751741409 0.00304491049610078335
-0.0242149997502565384 0.020878152921795845 0.00351408729329705238
-0.0246545858681201935 0.0194377880543470383 0.00348274968564510345
-0.024072699248790741 0.0215991735458374023 0.0035886736586689949
-0.0250092800706624985 0.0218951143324375153 0.00437305355444550514
-0.0239083878695964813 0.0209743790328502655 0.00330614973790943623
-0.0233469177037477493 0.0212153103202581406 0.00294174766167998314
-0.0249745137989521027 0.0197796877473592758 0.00381160154938697815
-0.0252037607133388519 0.0206284113228321075 0.00419996073469519615
-0.0244400277733802795 0.0206009130924940109 0.00361442961730062962
-0.0252433326095342636 0.0215525534003973007 0.00446370942518115044
-0.0248469933867454529 0.0210136547684669495 0.00402713846415281296
-0.0248355697840452194 0.0219102408736944199 0.00424528401345014572
-0.0251593794673681259 0.0219627097249031067 0.00450386153534054756
-0.0251806732267141342 0.0190232638269662857 0.00377643737010657787
-0.0230522248893976212 0.020375547930598259 0.00250607426278293133
-0.0243440736085176468 0.02001991868019104 0.00339477183297276497
-0.023877335712313652 0.0197715610265731812 0.00297836493700742722
-0.0232468564063310623 0.020315876230597496 0.00263842358253896236
-0.0249996408820152283 0.0214365348219871521 0.00424974923953413963
-0.0249116178601980209 0.0215151291340589523 0.00420294702053070068
-0.024921780452132225 0.0218664016574621201 0.00429950468242168427
-0.0239906460046768188 0.0215936284512281418 0.00352511089295148849
-0.0249272305518388748 0.0196421481668949127 0.00374099006876349449
-0.0242121405899524689 0.0196523647755384445 0.0032018488273024559
-0.0249174013733863831 0.0220191441476345062 0.00433482415974140167
-0.0227659791707992554 0.0193638782948255539 0.00231617200188338757
-0.0225420799106359482 0.020268535241484642 0.00212495890446007252
-0.0223174057900905609 0.0196675844490528107 0.00203031091950833797
-0.0231679081916809082 0.0199408493936061859 0.00251759076490998268
-0.0238740481436252594 0.0193965956568717957 0.00297185499221086502
-0.0232086107134819031 0.0196106340736150742 0.00256303278729319572
-0.0216148365288972855 0.0191978886723518372 0.00164350913837552071
-0.0224198456853628159 0.0195684041827917099 0.00209751492366194725
-0.0225519817322492599 0.0190918724983930588 0.00220666476525366306
-0.0223288778215646744 0.020053565502166748 0.00201224698685109615
-0.0237922482192516327 0.0196885950863361359 0.00290447822771966457
-0.0237419344484806061 0.0192651655524969101 0.00290189683437347412
-0.0222999546676874161 0.0194604154676198959 0.00203330186195671558
-0.0212180856615304947 0.0195086169987916946 0.00138795888051390648
-0.0222618859261274338 0.0194118935614824295 0.00201382976956665516
-0.022014029324054718 0.0211393367499113083 0.00203523994423449039
-0.022207949310541153 0.0213060695677995682 0.00219552614726126194
-0.0222844798117876053 0.0217013545334339142 0.00238155573606491089
-0.0224203895777463913 0.0215399544686079025 0.00240204483270645142
-0.0245792791247367859 0.0223695151507854462 0.00419034622609615326
-0.0231103245168924332 0.0215238891541957855 0.00287634879350662231
-0.0225903410464525223 0.0222023762762546539 0.00274924072436988354
-0.0229564867913722992 0.0219101812690496445 0.00290288915857672691
-0.0234359819442033768 0.0217481795698404312 0.00318038184195756912
-0.0226664282381534576 0.0218378696590662003 0.00267615402117371559
-0.0224532671272754669 0.0218976587057113647 0.00254856562241911888
-0.0228065419942140579 0.021429307758808136 0.00263236858882009983
-0.0234377067536115646 0.0221074298024177551 0.00330577092245221138
-0.0227083731442689896 0.0210682880133390427 0.00243929075077176094
-0.020392291247844696 0.0201831292361021042 0.00111292337533086538
-0.0214557740837335587 0.0209515485912561417 0.00173041061498224735
-0.0209454484283924103 0.0204461067914962769 0.00140147935599088669
-0.0214728973805904388 0.0212459899485111237 0.00181445607449859381
-0.0214516501873731613 0.0209651440382003784 0.00173240446019917727
-0.0207107216119766235 0.0217032283544540405 0.00184215779881924391
-0.0203707925975322723 0.0210961177945137024 0.00143221730832010508
-0.0202607158571481705 0.0212842226028442383 0.00146732700522989035
-0.0197337940335273743 0.0202174801379442215 0.000959784490987658501
-0.0199138913303613663 0.021178489550948143 0.00137258239556103945
-0.0206413827836513519 0.0221956931054592133 0.00207049236632883549
-0.0204314645379781723 0.0234792232513427734 0.00288458028808236122
-0.0196119453758001328 0.0247714892029762268 0.00359218334779143333
-0.0197136849164962769 0.0234710201621055603 0.00281721213832497597
-0.0192431174218654633 0.021070210263133049 0.00132927345111966133
-0.0196925122290849686 0.0214856360107660294 0.00161874061450362206
-0.0193818379193544388 0.0243948120623826981 0.00334514118731021881
-0.0201654210686683655 0.0221116244792938232 0.00203716475516557693
-0.0190806854516267776 0.0233883596956729889 0.00271234195679426193
-0.0191526729613542557 0.0232365801930427551 0.00262712244875729084
-0.0198270175606012344 0.0233268700540065765 0.00274018803611397743
-0.0207361094653606415 0.0234205890446901321 0.00287573505192995071
-0.0200536921620368958 0.0234203115105628967 0.00281622074544429779
-0.0202079862356185913 0.0225028786808252335 0.00227668345905840397
-0.0203021224588155746 0.0234459917992353439 0.00285330275073647499
-0.0211043953895568848 0.0235740039497613907 0.00300022982992231846
-0.0208786893635988235 0.0230215396732091904 0.00264761922881007195
-0.0192431677132844925 0.02333788201212883 0.00269604939967393875
-0.0200101640075445175 0.0243108309805393219 0.00334916776046156883
-0.0193400606513023376 0.0208922680467367172 0.00123045430518686771
-0.019923720508813858 0.0223162882030010223 0.00213949871249496937
-0.0193324536085128784 0.0212467964738607407 0.0014434747863560915
-0.0198417678475379944 0.0226151123642921448 0.00231247954070568085
-0.0198350641876459122 0.0237999409437179565 0.00302601605653762817
-0.0207028910517692566 0.0234874766319990158 0.00291315955109894276
-0.0196451358497142792 0.0226608701050281525 0.00232295901514589787
-0.0192926302552223206 0.0225345566868782043 0.0022161705419421196
-0.019589034840464592 0.0209971126168966293 0.00131529965437948704
-0.0190304350107908249 0.0227648410946130753 0.00226792460307478905
-0.0189410392194986343 0.022771129384636879 0.00211135437712073326
-0.0189252123236656189 0.0225678700953722 0.00193944142665714025
-0.0144166788086295128 0.0134121589362621307 0.000445782963652163744
-0.0153510523959994316 0.0133230555802583694 0.000339590362273156643
-0.0138821694999933243 0.0133272288367152214 0.000540049746632575989
-0.0144270658493041992 0.0136679308488965034 0.000381273624952882528
-0.0137374633923172951 0.0132927093654870987 0.000568413408473134041
-0.013821491040289402 0.0133758699521422386 0.000536376144737005234
-0.0154696404933929443 0.0140542080625891685 0.000192975392565131187
-0.0155159235000610352 0.0146683854982256889 0.000118989933980628848
-0.0157292503863573074 0.0141648314893245697 0.000155243964400142431
-0.0154956979677081108 0.0148792965337634087 9.70911132753826678e-05
-0.0155737707391381264 0.0147832939401268959 0.000100370343716349453
-0.0148287294432520866 0.0147032309323549271 0.000181792565854266286
-0.0180254802107810974 0.0147631755098700523 8.00680863903835416e-05
-0.0180177986621856689 0.0141537841409444809 0.000134347443236038089
-0.0180046241730451584 0.014252491295337677 0.000125484439195133746
-0.0187605638056993484 0.0134063875302672386 0.000204622803721576929
-0.01850123330950737 0.0136071778833866119 0.000185448705451563001
-0.017835298553109169 0.0139483986422419548 0.000151755433762446046
-0.0183481909334659576 0.0130294095724821091 0.000236193562159314752
-0.0174719709903001785 0.0129046402871608734 0.00024300019140355289
-0.0179412923753261566 0.0129928681999444962 0.000237447064137086272
-0.0181666053831577301 0.0128763578832149506 0.000248941476456820965
-0.0174110140651464462 0.0131684765219688416 0.000219183406443335116
-0.0171910692006349564 0.0130276782438158989 0.00023065027198754251
-0.0179252550005912781 0.0134062385186553001 0.000200522961677052081
-0.0172781124711036682 0.0142493415623903275 0.000122187775559723377
-0.0169932674616575241 0.0135887516662478447 0.000179665876203216612
-0.018864097073674202 0.0125618316233158112 0.000280410749837756157
-0.0169324278831481934 0.0138807669281959534 0.000153337925439700484
-0.0186311677098274231 0.00963099952787160873 0.00118220876902341843
-0.0176848899573087692 0.010991203598678112 0.000839080894365906715
-0.0173430778086185455 0.0127647100016474724 0.000285045272903516889
-0.0171690285205841064 0.0119004864245653152 0.000595748366322368383
-0.0181674249470233917 0.0114011308178305626 0.000643883307930082083
-0.0179175175726413727 0.0119366394355893135 0.000494131760206073523
-0.0176861565560102463 0.011228904128074646 0.000759195303544402122
-0.0176492948085069656 0.0125324847176671028 0.000326331239193677902
-0.0181508734822273254 0.0123229166492819786 0.000336659402819350362
-0.0183626525104045868 0.0108613576740026474 0.000801602669525891542
-0.0167558453977108002 0.0129451239481568336 0.000294736790237948298
-0.0180945787578821182 0.0110177481546998024 0.000781194481533020735
-0.0187353454530239105 0.0113049522042274475 0.000608244561590254307
-0.018855266273021698 0.0118283331394195557 0.000418344920035451651
-0.0165724661201238632 0.0128780361264944077 0.000339165679179131985
-0.0177751984447240829 0.0126192532479763031 0.000282172550214454532
-0.0186666157096624374 0.0119298957288265228 0.000406831386499106884
-0.0135877905413508415 0.00958862528204917908 0.00182609516195952892
-0.0180730447173118591 0.00915178749710321426 0.00141295278444886208
-0.0152104534208774567 0.0109306890517473221 0.00116872962098568678
-0.0159151740372180939 0.0122996596619486809 0.000617076701018959284
-0.0152106359601020813 0.00976052694022655487 0.00156489689834415913
-0.0153691833838820457 0.00964331347495317459 0.00158475036732852459
-0.0157842505723237991 0.0105189690366387367 0.0012363543501123786
-0.016884632408618927 0.0111140282824635506 0.000897237914614379406
-0.0173278190195560455 0.00990712083876132965 0.00125043257139623165
-0.0156201720237731934 0.0110288448631763458 0.00108424609061330557
-0.0162648018449544907 0.00920763891190290451 0.00162023003213107586
-0.0139868427067995071 0.0100437840446829796 0.00162207311950623989
-0.0175346340984106064 0.00960019230842590332 0.00132848159410059452
-0.0143861500546336174 0.0103236641734838486 0.00147736410144716501
-0.0163908526301383972 0.00892965681850910187 0.00169858115259557962
-0.0177903808653354645 0.0100680245086550713 0.00113809388130903244
-0.0161081701517105103 0.011101393960416317 0.000998640665784478188
-0.0167062319815158844 0.0121668484061956406 0.000563092413358390331
-0.0166978891938924789 0.0096730552613735199 0.00140847708098590374
-0.0166871286928653717 0.00895476527512073517 0.00165301980450749397
-0.0143830785527825356 0.00998219288885593414 0.00159336207434535027
-0.0150353731587529182 0.00986808817833662033 0.00155040249228477478
-0.0185132771730422974 0.00884871464222669601 0.00146049901377409697
-0.0162149835377931595 0.0117369405925273895 0.000770098180510103703
-0.0168032087385654449 0.012010469101369381 0.00060390867292881012
-0.0163539424538612366 0.0123441936448216438 0.000547114177606999874
-0.0173699557781219482 0.011248268187046051 0.000791079888585954905
-0.0146000301465392113 0.0107856616377830505 0.00129418866708874702
-0.0171999372541904449 0.00983968190848827362 0.00128926173783838749
-0.0145874107256531715 0.0103783616796135902 0.00143366947304457426
-0.0149826193228363991 0.0107612088322639465 0.00125461083371192217
-0.0169532876461744308 0.00906699150800704956 0.00158172938972711563
-0.0136711914092302322 0.00935490615665912628 0.00189479487016797066
-0.0175857935100793839 0.00932373944669961929 0.00141568249091506004
-0.0147960688918828964 0.00985301844775676727 0.0015854384982958436
-0.0155031848698854446 0.0101203881204128265 0.0014064619317650795
-0.0159106217324733734 0.0121428864076733589 0.000670725712552666664
-0.0180094931274652481 0.00938816182315349579 0.00134087167680263519
-0.0169963762164115906 0.00942023470997810364 0.00145673961378633976
-0.0140683799982070923 0.0101946070790290833 0.00156080862507224083
-0.0142781808972358704 0.0101946126669645309 0.00153456325642764568
-0.014325091615319252 0.0101236868649721146 0.00155270891264081001
-0.0160038601607084274 0.0107866916805505753 0.00111823948100209236
-0.0152943655848503113 0.0111829396337270737 0.00107282691169530153
-0.0164889227598905563 0.0105676436796784401 0.00113172899000346661
-0.0142479417845606804 0.010034000501036644 0.00159272528253495693
-0.0146897332742810249 0.0111791482195258141 0.00114974228199571371
-0.013574688695371151 0.0113660916686058044 0.00122063606977462769
-0.0141341360285878181 0.0124112199991941452 0.000796122534666210413
-0.0133580099791288376 0.0102140717208385468 0.00164027279242873192
-0.0137111209332942963 0.0118823349475860596 0.00102783949114382267
-0.0144714033231139183 0.0115086790174245834 0.00106366479303687811
-0.0155276171863079071 0.0130452262237668037 0.000411325599998235703
-0.0132928434759378433 0.0100612211972475052 0.0017003470566123724
-0.0134460357949137688 0.0113298920914530754 0.00124853372108191252
-0.0137292565777897835 0.0109084723517298698 0.00135827413760125637
-0.0149208987131714821 0.0120186023414134979 0.000835226848721504211
-0.014192516915500164 0.0121973231434822083 0.000862130080349743366
-0.0142810838297009468 0.0118810916319489479 0.000959445955231785774
-0.0140798231586813927 0.0121212117373943329 0.000901733292266726494
-0.0154073042795062065 0.0127882091328501701 0.000513637089170515537
-0.0134080015122890472 0.00936683826148509979 0.00192361080553382635
-0.0140826413407921791 0.0108588123694062233 0.00133256730623543262
-0.0130270132794976234 0.0122642461210489273 0.000979997334070503712
-0.0135532161220908165 0.0126000856980681419 0.000801756046712398529
-0.0144270369783043861 0.0111790094524621964 0.00118162063881754875
-0.0147001063451170921 0.0131761766970157623 0.000466514262370765209
-0.0139772510156035423 0.0128164375200867653 0.000676662137266248465
-0.0136143695563077927 0.0109564326703548431 0.00135576468892395496
-0.0149728301912546158 0.0131739368662238121 0.000434350105933845043
-0.0141088394448161125 0.0172538012266159058 0.0302992183715105057
-0.0140828266739845276 0.0178385656327009201 0.0302848238497972488
-0.0144902374595403671 0.0179808400571346283 0.0302971675992012024
-0.0144730145111680031 0.0169546026736497879 0.0303200241178274155
-0.0137170497328042984 0.0174285005778074265 0.0302802082151174545
-0.0142584787681698799 0.0175191778689622879 0.0302988700568675995
-0.0152807282283902168 0.0175427645444869995 0.0303374864161014557
-0.0161230806261301041 0.0180820077657699585 0.0303573943674564362
-0.0136764068156480789 0.0186667703092098236 0.0302502773702144623
-0.0139478724449872971 0.0176829751580953598 0.030283220112323761
-0.0142081752419471741 0.0171099156141281128 0.0303063225001096725
-0.0146749783307313919 0.0171126183122396469 0.0303241405636072159
-0.0136079294607043266 0.0176963303238153458 0.0302698928862810135
-0.0144749153405427933 0.0176757033914327621 0.0303035732358694077
-0.0156550891697406769 0.018769092857837677 0.0303497295826673508
-0.0155668091028928757 0.018423544242978096 0.03033478744328022
-0.0150336716324090958 0.0188090167939662933 0.0303201209753751755
-0.0151759311556816101 0.0187622662633657455 0.0303257498890161514
-0.0163728222250938416 0.0181965958327054977 0.0303678344935178757
-0.0176030118018388748 0.0187027044594287872 0.0302238017320632935
-0.0164139550179243088 0.0186681207269430161 0.0303689837455749512
-0.0203819684684276581 0.019445003941655159 0.0294441822916269302
-0.0207721646875143051 0.0196105819195508957 0.0292727351188659668
-0.0216909293085336685 0.0202838201075792313 0.0288075152784585953
-0.016361849382519722 0.0140596115961670876 0.0302622709423303604
-0.0167561601847410202 0.0149267828091979027 0.0302984695881605148
-0.0163552500307559967 0.0147771984338760376 0.0303082242608070374
-0.0165665298700332642 0.014430806040763855 0.0302760414779186249
-0.0166025646030902863 0.0160712152719497681 0.0303786303848028183
-0.0169065333902835846 0.0161764379590749741 0.030370716005563736
-0.0162651184946298599 0.0145510835573077202 0.0302981752902269363
-0.0161390975117683411 0.0150007903575897217 0.0303328316658735275
-0.0185635816305875778 0.0154765164479613304 0.0303488187491893768
-0.0185312256217002869 0.0162077564746141434 0.0303854234516620636
-0.0184558499604463577 0.0153969544917345047 0.0303459726274013519
-0.0182874836027622223 0.0151436803862452507 0.0303351301699876785
-0.0184636451303958893 0.0161334965378046036 0.0303824320435523987
-0.0178991351276636124 0.016397230327129364 0.0303814895451068878
-0.0167377032339572906 0.0144135942682623863 0.0302767772227525711
-0.0173788294196128845 0.0133254490792751312 0.030231185257434845
-0.0181472562253475189 0.0149253644049167633 0.0303224828094244003
-0.0174108445644378662 0.0138822728767991066 0.030261404812335968
-0.0184838715940713882 0.0132089853286743164 0.0302322078496217728
-0.0172830596566200256 0.0138614717870950699 0.0302594378590583801
-0.0174075178802013397 0.0135859409347176552 0.030245412141084671
-0.018175637349486351 0.0151282008737325668 0.0303336046636104584
-0.0170956719666719437 0.0142413489520549774 0.0302786733955144882
-0.0180973578244447708 0.0140830380842089653 0.0302767585963010788
-0.0176260527223348618 0.014160962775349617 0.0302778445184230804
-0.0174073688685894012 0.013499673455953598 0.0302407611161470413
-0.0179331712424755096 0.0148108387365937233 0.0303148981183767319
-0.0183601714670658112 0.0144688431173563004 0.0302992891520261765
-0.017919173464179039 0.016061561182141304 0.0303822103887796402
-0.0183179862797260284 0.014035101979970932 0.0302756335586309433
-0.0182592514902353287 0.0138497138395905495 0.0302652548998594284
-0.0195595864206552505 0.0210203547030687332 0.029211064800620079
-0.0186369363218545914 0.0165502894669771194 0.0303485821932554245
-0.0187997929751873016 0.0172603577375411987 0.0302616991102695465
-0.0188328325748443604 0.0165543220937252045 0.0303460396826267242
-0.020543169230222702 0.0193922724574804306 0.00101092422846704721
-0.0211791582405567169 0.0198479536920785904 0.00135667633730918169
-0.0200744457542896271 0.0193814970552921295 0.000841544358991086483
-0.0215979442000389099 0.0202406775206327438 0.00159903080202639103
-0.0171936322003602982 0.0155245549976825714 0.000261935463640838861
-0.0166861098259687424 0.0161609034985303879 0.000195533037185668945
-0.0163838714361190796 0.0141369765624403954 0.000194802370970137417
-0.0173663273453712463 0.0161512270569801331 0.000270910444669425488
-0.0166643280535936356 0.0162676703184843063 0.000191399783943779767
-0.0164687521755695343 0.015956830233335495 0.000174793036421760917
-0.015588417649269104 0.0154163772240281105 8.61720545799471438e-05
-0.0164226386696100235 0.0150652173906564713 0.000184095610165968537
-0.0176150128245353699 0.0175335332751274109 0.000276082893833518028
-0.0170983262360095978 0.0155633594840764999 0.000250769546255469322
-0.0170498155057430267 0.0153758134692907333 0.000248434313107281923
-0.0183682069182395935 0.0181654077023267746 0.000349167414242401719
-0.017118699848651886 0.0165681969374418259 0.000236791413044556975
-0.0167383160442113876 0.0165448617190122604 0.000195104104932397604
-0.0156465824693441391 0.0152745451778173447 9.48951274040155113e-05
-0.0178770571947097778 0.0174298379570245743 0.00030673571745865047
-0.0161970220506191254 0.015455121174454689 0.000152848122525028884
-0.0165785271674394608 0.0165762957185506821 0.000113237852929159999
-0.0194138567894697189 0.0205462314188480377 0.00101490295492112637
-0.0180081091821193695 0.0187493860721588135 0.0301583372056484222
-0.0150817940011620522 0.0164597369730472565 0.0303526986390352249
-0.0142882075160741806 0.0163788050413131714 0.0303264148533344269
-0.0144124012440443039 0.0163167808204889297 0.0303328689187765121
-0.0155468471348285675 0.0164148341864347458 0.0303709935396909714
-0.0150591693818569183 0.0168391447514295578 0.0303399860858917236
-0.014863302931189537 0.0164518896490335464 0.0303450096398591995
-0.0147819686681032181 0.0169854108244180679 0.0303310658782720566
-0.0161512643098831177 0.0175237823277711868 0.0303641036152839661
-0.0160176344215869904 0.0174224711954593658 0.0303609687834978104
-0.0167746543884277344 0.0170619338750839233 0.0303602572530508041
-0.0166049990803003311 0.0170953124761581421 0.0303734559565782547
-0.0170683600008487701 0.0171613730490207672 0.0303151886910200119
-0.0165806431323289871 0.0162163637578487396 0.0303776208311319351
-0.0158071257174015045 0.0157943405210971832 0.0303967967629432678
-0.016178324818611145 0.0159853361546993256 0.0303895100951194763
-0.0165305882692337036 0.0164405647665262222 0.0303342491388320923
-0.0178793482482433319 0.0177428368479013443 0.0301829669624567032
-0.0183168798685073853 0.0179287455976009369 0.0301940310746431351
-0.0183728337287902832 0.0177317038178443909 0.0302096251398324966
-0.0181558206677436829 0.0170561559498310089 0.0302973520010709763
-0.0183486975729465485 0.0173207726329565048 0.0302642900496721268
-0.0192332342267036438 0.019620286300778389 0.0297392979264259338
-0.0184646956622600555 0.0171470046043395996 0.0302789974957704544
-0.0171843692660331726 0.0188407991081476212 0.000138894072733819485
-0.0165694523602724075 0.0166504606604576111 0.000175596651388332248
-0.0171984210610389709 0.0173304323107004166 0.000232986785704270005
-0.0170275066047906876 0.0170705262571573257 0.000233895640121772885
-0.0162504762411117554 0.0162629801779985428 0.000149291387060657144
-0.0175708495080471039 0.0175951626151800156 0.000206548807909712195
-0.0202034097164869308 0.020250348374247551 0.00105856731534004211
-0.0176875125616788864 0.0164365451782941818 0.00031902236514724791
-0.0185739863663911819 0.0165374502539634705 0.000119503842142876238
-0.0187976192682981491 0.0157840754836797714 3.20631806971505284e-05
-0.0185952819883823395 0.0160473212599754333 7.88136894698254764e-05
-0.0188418067991733551 0.016866687685251236 0.000110043474705889821
-0.0186323430389165878 0.0169282406568527222 0.000142121920362114906
-0.0185941178351640701 0.016087215393781662 8.20514469523914158e-05
-0.0173225384205579758 0.0148386871442198753 0.000151306914631277323
-0.018343878909945488 0.0159271806478500366 0.000102307109045796096
-0.0185807179659605026 0.0179979316890239716 0.000358993944246321917
-0.0179988816380500793 0.0161757823079824448 0.000178290414623916149
-0.0177273768931627274 0.0164252854883670807 0.00031103548826649785
-0.0181168746203184128 0.0168185681104660034 0.000268871372099965811
-0.0182592142373323441 0.0167551897466182709 0.000212587299756705761
-0.0187248699367046356 0.0179025344550609589 0.000295832433039322495
-0.0227305460721254349 0.0189441293478012085 0.0284011606127023697
-0.0215711556375026703 0.0190485287457704544 0.02893858402967453
-0.0205100160092115402 0.0189659297466278076 0.0293919462710618973
-0.0198305472731590271 0.0190432202070951462 0.0296891629695892334
-0.0184848736971616745 0.0188035853207111359 0.0300618857145309448
-0.0169953722506761551 0.0179075077176094055 0.0303287077695131302
-0.018437044695019722 0.0184749774634838104 0.0301047507673501968
-0.0178135950118303299 0.0179715119302272797 0.0302382092922925949
-0.0189144406467676163 0.0201953239738941193 0.0295241940766572952
-0.0191484466195106506 0.0209613032639026642 0.0292311012744903564
-0.0190819092094898224 0.0204029716551303864 0.0294620804488658905
-0.0192088428884744644 0.0190130732953548431 0.000540651846677064896
-0.01995064876973629 0.019890783354640007 0.00090111949248239398
-0.0179895088076591492 0.0185400694608688354 0.0301444772630929947
-0.0181132350116968155 0.0185259710997343063 0.0301424320787191391
-0.0188967958092689514 0.0165142100304365158 0.0303502678871154785
-0.0190038532018661499 0.0197506994009017944 0.0297202747315168381
-0.0182770136743783951 0.0187559742480516434 0.000325901171891018748
-0.0165760908275842667 0.0188921894878149033 0.00012856960529461503
-0.0195303652435541153 0.0193819142878055573 0.000684155325870960951
-0.0167705696076154709 0.0145567934960126877 0.000238014632486738265
-0.0207464545965194702 0.0189409144222736359 0.00116042420268058777
-0.0220772270113229752 0.0189393777400255203 0.00167963956482708454
-0.0170632824301719666 0.0188912618905305862 0.000124633137602359056
-0.0189942177385091782 0.0197350252419710159 0.00074687605956569314
