ply
format ascii 1.0
element vertex 756
property float x
property float y
property float z
end_header
0.200000002980232239 0.528499901294708252 0.058155357837677002
0.200000002980232239 0.277822762727737427 0.0431387200951576233
0.200000002980232239 0.0433689989149570465 0.0486236438155174255
0.200000002980232239 1.38296294212341309 0.0043909028172492981
0.200000002980232239 0.255659013986587524 0.134745240211486816
0.200000002980232239 1.11998879909515381 0.0487399548292160034
0.200000002980232239 0.922581255435943604 0.0644392073154449463
0.200000002980232239 1.24479007720947266 0.0527182221412658691
0.200000002980232239 1.25938594341278076 0.0150953829288482666
0.200000002980232239 0.135479018092155457 0.060608990490436554
0.200000002980232239 0.902869284152984619 0.00370763987302780151
0.200000002980232239 0.999419212341308594 0.0258695334196090698
0.200000002980232239 0.618920743465423584 0.098499491810798645
0.200000002980232239 0.869371414184570312 0.0114111453294754028
0.200000002980232239 1.09176838397979736 0.0329286754131317139
0.200000002980232239 1.71751010417938232 0.0209431350231170654
0.200000002980232239 0.886619150638580322 0.00261343270540237427
0.200000002980232239 0.761873066425323486 0.00827061384916305542
0.200000002980232239 0.329109787940979004 0.0566540136933326721
0.200000002980232239 0.646487057209014893 0.0879491716623306274
0.200000002980232239 0.00653491448611021042 0.0393549799919128418
0.200000002980232239 0.288287103176116943 0.0314428322017192841
0.200000002980232239 0.0751536712050437927 0.118025071918964386
0.200000002980232239 0.0141126774251461029 0.151889920234680176
0.200000002980232239 1.16174197196960449 0.0258096382021903992
0.200000002980232239 1.35343587398529053 0.00146794319152832031
0.200000002980232239 1.99459028244018555 0.000907182693481445312
0.200000002980232239 0.515155553817749023 0.0323918499052524567
0.200000002980232239 0.687210559844970703 0.0294932536780834198
0.200000002980232239 1.66172456741333008 0.0172090679407119751
0.200000002980232239 0.778298795223236084 0.070932537317276001
0.200000002980232239 0.168304115533828735 0.0551211275160312653
0.200000002980232239 1.21555531024932861 0.0397727116942405701
0.200000002980232239 0.637236952781677246 0.0433728322386741638
0.200000002980232239 1.41202199459075928 0.0388687625527381897
0.200000002980232239 0.796457409858703613 0.0374960005283355713
0.200000002980232239 1.16419327259063721 0.0376618281006813049
0.200000002980232239 0.276239842176437378 0.0951994508504867554
0.200000002980232239 1.2810056209564209 0.0602253824472427368
0.200000002980232239 0.550466477870941162 0.00703895464539527893
0.200000002980232239 1.29064011573791504 0.00104834884405136108
0.200000002980232239 1.76713621616363525 0.0116044133901596069
0.200000002980232239 1.25796449184417725 0.0252235829830169678
0.200000002980232239 0.318830013275146484 0.0104949604719877243
0.200000002980232239 1.10203611850738525 0.0625214874744415283
0.200000002980232239 0.876820564270019531 0.0751913711428642273
0.200000002980232239 1.06824588775634766 0.0248350352048873901
0.200000002980232239 1.07510268688201904 0.00681544095277786255
0.200000002980232239 0.409016907215118408 0.0563221313059329987
0.200000002980232239 0.00208213762380182743 0.119501426815986633
0.200000002980232239 0.612509846687316895 0.0595902092754840851
0.200000002980232239 0.989105284214019775 0.0498819276690483093
0.200000002980232239 0.698977887630462646 0.0211812332272529602
0.200000002980232239 1.92610681056976318 0.00947540998458862305
0.200000002980232239 0.0176210254430770874 0.00573645858094096184
0.200000002980232239 0.488351166248321533 0.0423735529184341431
0.200000002980232239 1.27342593669891357 0.0429768934845924377
0.200000002980232239 1.06187891960144043 0.0381249859929084778
0.200000002980232239 0.657177448272705078 0.0671641826629638672
0.200000002980232239 0.0827291682362556458 0.0593187659978866577
0.200000002980232239 0.0595021210610866547 0.0438988916575908661
0.200000002980232239 0.612768411636352539 0.101970776915550232
0.200000002980232239 0.857484102249145508 0.091804206371307373
0.200000002980232239 0.225697711110115051 0.0773162767291069031
0.200000002980232239 0.0962535664439201355 0.0858970433473587036
0.200000002980232239 1.29250633716583252 0.00394862890243530273
0.200000002980232239 1.55176937580108643 0.00264846533536911011
0.200000002980232239 0.316391438245773315 0.118652425706386566
0.200000002980232239 0.837325870990753174 0.0243795663118362427
0.200000002980232239 1.05280971527099609 0.0654421672224998474
0.200000002980232239 0.925574004650115967 0.0150075405836105347
0.200000002980232239 0.600718140602111816 0.027161717414855957
0.200000002980232239 1.40618860721588135 0.0330376178026199341
0.200000002980232239 0.940611898899078369 0.0729248151183128357
0.200000002980232239 0.198726058006286621 0.055884968489408493
0.200000002980232239 0.129608258605003357 0.00186952389776706696
0.200000002980232239 1.23664736747741699 0.0421461388468742371
0.200000002980232239 0.195998296141624451 0.035112231969833374
0.200000002980232239 0.959478855133056641 0.0369920134544372559
0.200000002980232239 1.23764431476593018 0.0201546624302864075
0.200000002980232239 0.0709991902112960815 0.142507284879684448
0.200000002980232239 0.803436040878295898 0.0667763799428939819
0.200000002980232239 1.87701225280761719 0.0155953764915466309
0.200000002980232239 1.03118216991424561 0.0472375303506851196
0.200000002980232239 0.372887372970581055 0.0305436402559280396
0.200000002980232239 0.66637873649597168 0.096937522292137146
0.200000002980232239 0.0334949754178524017 0.0851768329739570618
0.200000002980232239 0.81881636381149292 0.0598030611872673035
0.200000002980232239 1.27889180183410645 0.0140084028244018555
0.200000002980232239 0.279665142297744751 0.137144505977630615
0.200000002980232239 0.670364260673522949 0.0558025799691677094
0.200000002980232239 1.06715548038482666 0.0577700287103652954
0.200000002980232239 0.166595429182052612 0.133489102125167847
0.200000002980232239 0.375367313623428345 0.0477756187319755554
0.200000002980232239 0.0165516771376132965 0.0790652260184288025
0.200000002980232239 0.374689042568206787 0.00412322580814361572
0.200000002980232239 0.210245296359062195 0.134346097707748413
0.200000002980232239 0.189998418092727661 0.0881591141223907471
0.200000002980232239 0.385879874229431152 0.0604917481541633606
0.200000002980232239 1.75018548965454102 0.0229150503873825073
0.200000002980232239 0.583234429359436035 0.0457577928900718689
0.200000002980232239 1.58303487300872803 0.000645250082015991211
0.200000002980232239 0.528854250907897949 0.067515738308429718
0.200000002980232239 0.62509465217590332 0.0578367188572883606
0.200000002980232239 0.894497334957122803 0.0572235509753227234
0.200000002980232239 0.313968151807785034 0.05092620849609375
0.200000002980232239 0.139252021908760071 0.117974221706390381
0.200000002980232239 0.238554075360298157 0.0572835877537727356
0.200000002980232239 0.495062887668609619 0.115742310881614685
0.200000002980232239 0.182410299777984619 0.0420964360237121582
0.200000002980232239 0.629637002944946289 0.0151168294250965118
0.200000002980232239 0.474593102931976318 0.0547316409647464752
0.200000002980232239 0.581963598728179932 0.0564088188111782074
0.200000002980232239 0.551714003086090088 0.00264830887317657471
0.200000002980232239 1.0527266263961792 0.0262577608227729797
0.200000002980232239 0.0171492826193571091 0.0308966320008039474
0.200000002980232239 1.24817752838134766 0.0288483649492263794
0.200000002980232239 0.166818529367446899 0.0154971452429890633
0.200000002980232239 0.951781332492828369 0.0717137977480888367
0.200000002980232239 0.0768216177821159363 0.0340465269982814789
0.200000002980232239 0.338584750890731812 0.0665682554244995117
0.200000002980232239 0.78508448600769043 0.00770402327179908752
0.200000002980232239 1.06684970855712891 0.0447749197483062744
0.200000002980232239 0.78972017765045166 0.0375005230307579041
0.200000002980232239 1.72906792163848877 0.0155230313539505005
0.200000002980232239 0.842683136463165283 0.022861965000629425
0.200000002980232239 0.573786258697509766 0.0578312762081623077
0.200000002980232239 0.905935347080230713 0.0540783479809761047
0.200000002980232239 0.24889819324016571 0.0506784319877624512
0.200000002980232239 0.102954298257827759 0.126554191112518311
0.200000002980232239 0.246117100119590759 0.116515934467315674
0.200000002980232239 0.409243404865264893 0.100214056670665741
0.200000002980232239 0.165696635842323303 0.113620266318321228
0.200000002980232239 0.162746444344520569 0.0254546813666820526
0.200000002980232239 0.171938955783843994 0.00994189456105232239
0.200000002980232239 0.56709754467010498 0.0912927016615867615
0.200000002980232239 1.09654831886291504 0.0131537988781929016
0.200000002980232239 0.0771633461117744446 0.0768413692712783813
0.200000002980232239 1.4533841609954834 0.0376648455858230591
0.200000002980232239 0.283879280090332031 0.0624644756317138672
0.200000002980232239 0.378753304481506348 0.0119022224098443985
0.200000002980232239 1.62219846248626709 0.0199484601616859436
0.200000002980232239 0.282215386629104614 0.100130006670951843
0.200000002980232239 1.06129717826843262 0.043471895158290863
0.200000002980232239 0.410523325204849243 0.0428421013057231903
0.200000002980232239 0.0619235634803771973 0.0650670826435089111
0.200000002980232239 0.0841298922896385193 0.0324780270457267761
0.200000002980232239 0.0619287304580211639 0.127433180809020996
0.200000002980232239 0.515415608882904053 0.102380350232124329
0.200000002980232239 0.495009928941726685 0.121193200349807739
0.200000002980232239 0.294579118490219116 0.114283852279186249
0.200000002980232239 0.110743753612041473 0.0391638055443763733
0.200000002980232239 0.674349069595336914 0.00293131172657012939
0.200000002980232239 0.824141502380371094 0.0552166178822517395
0.200000002980232239 0.131247028708457947 0.0959087610244750977
0.200000002980232239 0.902170479297637939 0.0197116285562515259
0.200000002980232239 1.3310248851776123 0.0203810557723045349
0.200000002980232239 0.685412585735321045 0.0503714531660079956
0.200000002980232239 0.646742165088653564 0.00635294616222381592
0.200000002980232239 0.536207377910614014 0.113990172743797302
0.200000002980232239 0.660611569881439209 0.00801579281687736511
0.200000002980232239 0.00821107905358076096 0.150404080748558044
0.200000002980232239 1.32927751541137695 0.0168241187930107117
0.200000002980232239 0.00604474497959017754 0.0350040048360824585
0.200000002980232239 0.0808833763003349304 0.0253863595426082611
0.200000002980232239 0.230790108442306519 0.0389140993356704712
0.200000002980232239 0.334496468305587769 0.101021617650985718
0.200000002980232239 1.28513181209564209 0.0582619383931159973
0.200000002980232239 0.828339755535125732 0.0500727668404579163
0.200000002980232239 0.523297429084777832 0.0957883596420288086
0.200000002980232239 0.585892140865325928 0.0237547792494297028
0.200000002980232239 1.27361166477203369 0.0186776593327522278
0.200000002980232239 0.94693601131439209 0.0310055539011955261
0.200000002980232239 0.529425442218780518 0.109684377908706665
0.200000002980232239 0.700377523899078369 0.0355686917901039124
0.200000002980232239 0.59699702262878418 0.0944513827562332153
0.200000002980232239 0.518930733203887939 0.0121091417968273163
0.200000002980232239 0.872663259506225586 0.0310266464948654175
0.200000002980232239 0.577923893928527832 0.033852897584438324
0.200000002980232239 1.10720705986022949 0.0128918588161468506
0.200000002980232239 0.384681612253189087 0.0109888315200805664
0.200000002980232239 0.752142190933227539 0.0967185348272323608
0.200000002980232239 1.50401663780212402 0.0424089804291725159
0.200000002980232239 0.235244125127792358 0.0498380251228809357
0.200000002980232239 0.415487527847290039 0.0729751437902450562
0.200000002980232239 0.822993636131286621 0.0298687368631362915
0.200000002980232239 0.333948642015457153 0.010041872039437294
0.200000002980232239 0.495977520942687988 0.0801724046468734741
0.200000002980232239 1.31223094463348389 0.0386241748929023743
0.200000002980232239 0.357809394598007202 0.0744571313261985779
0.200000002980232239 0.360519260168075562 0.0793848484754562378
0.200000002980232239 0.8775787353515625 0.0927793905138969421
0.200000002980232239 1.08249855041503906 0.0565943941473960876
0.200000002980232239 0.0391964539885520935 0.0387577079236507416
0.200000002980232239 1.04129993915557861 0.0589215010404586792
0.200000002980232239 0.47844734787940979 0.00858222693204879761
0.200000002980232239 0.329274535179138184 0.113114386796951294
0.200000002980232239 1.10173678398132324 0.0556244328618049622
0.200000002980232239 0.448681265115737915 0.0858670920133590698
0.200000002980232239 1.1023634672164917 0.0429626703262329102
0.200000002980232239 1.09518706798553467 0.0702612698078155518
0.200000002980232239 1.00827288627624512 0.0488418787717819214
0.200000002980232239 0.986768782138824463 0.0140149220824241638
0.200000002980232239 0.349796533584594727 0.102175116539001465
0.200000002980232239 0.307971179485321045 0.0279516931623220444
0.200000002980232239 1.20531892776489258 0.0148118659853935242
0.200000002980232239 0.585540771484375 0.0294667445123195648
0.200000002980232239 1.07005429267883301 0.0460955724120140076
0.200000002980232239 1.41975653171539307 0.0398039147257804871
0.200000002980232239 1.30718898773193359 0.0410043671727180481
0.200000002980232239 0.797024428844451904 0.0541778989136219025
0.200000002980232239 0.956246078014373779 0.0402120277285575867
0.200000002980232239 0.746144592761993408 0.0084788985550403595
0.200000002980232239 0.915424585342407227 0.0541880130767822266
0.200000002980232239 0.110252521932125092 0.00817342009395360947
0.200000002980232239 0.81928706169128418 0.0722732916474342346
0.200000002980232239 1.85520076751708984 0.0100172609090805054
0.200000002980232239 0.286306500434875488 0.0281283874064683914
0.200000002980232239 0.83457183837890625 0.0338410139083862305
0.200000002980232239 0.752589225769042969 0.0767484307289123535
0.200000002980232239 0.410487920045852661 0.123810805380344391
0.200000002980232239 0.624170184135437012 0.106196686625480652
0.200000002980232239 0.400195896625518799 0.0982304587960243225
0.200000002980232239 0.456104665994644165 0.0701831281185150146
0.200000002980232239 0.642076730728149414 0.0142010152339935303
0.200000002980232239 0.0118733653798699379 0.104933880269527435
0.200000002980232239 0.626185953617095947 0.109262317419052124
0.200000002980232239 0.971652626991271973 0.0502674207091331482
0.200000002980232239 0.15202803909778595 0.0928329825401306152
0.200000002980232239 0.851060032844543457 0.046548791229724884
0.200000002980232239 1.09958851337432861 0.0186916738748550415
0.200000002980232239 1.38414657115936279 0.0168894454836845398
0.200000002980232239 0.487615913152694702 0.0216534100472927094
0.200000002980232239 0.637222409248352051 0.0487481728196144104
0.200000002980232239 1.16951406002044678 0.0635989531874656677
0.200000002980232239 0.325734764337539673 0.0241626165807247162
0.200000002980232239 1.69840514659881592 0.0194028615951538086
0.200000002980232239 0.558688104152679443 0.0184407494962215424
0.200000002980232239 0.133328676223754883 0.0329171940684318542
0.200000002980232239 0.164014339447021484 0.0153615344315767288
0.200000002980232239 0.62576746940612793 0.0882997810840606689
0.200000002980232239 0.778969526290893555 0.0288569517433643341
0.200000002980232239 0.0752635970711708069 0.113382682204246521
0.200000002980232239 1.93520760536193848 0.00900526344776153564
0.200000002980232239 0.330560505390167236 0.0863439291715621948
0.200000002980232239 1.07352602481842041 0.0446941927075386047
0.200000002980232239 0.776783764362335205 0.060667824000120163
0.200000002980232239 0.993333339691162109 0.0657422542572021484
0.200000002980232239 0.464112222194671631 0.0629631131887435913
0.200000002980232239 0.453919678926467896 0.112610265612602234
0.200000002980232239 1.10202276706695557 0.00175946205854415894
0.200000002980232239 0.553080499172210693 0.0304058752954006195
0.200000002980232239 0.589152336120605469 0.107143044471740723
0.200000002980232239 1.28181231021881104 0.0024347156286239624
0.200000002980232239 0.477618932723999023 0.0999285280704498291
0.200000002980232239 0.796383380889892578 0.0039397701621055603
0.200000002980232239 1.85545086860656738 0.0126684308052062988
0.200000002980232239 0.224264919757843018 0.0683403089642524719
0.200000002980232239 0.604051947593688965 0.0240720808506011963
0.200000002980232239 0.295799285173416138 0.0722741559147834778
0.200000002980232239 0.242964357137680054 0.110001489520072937
0.200000002980232239 0.61369168758392334 0.0191018469631671906
0.200000002980232239 1.55197310447692871 0.00749778002500534058
0.200000002980232239 1.13612329959869385 0.0516484156250953674
0.200000002980232239 0.918104290962219238 0.0133359804749488831
0.200000002980232239 0.0489348694682121277 0.124390006065368652
0.200000002980232239 0.370596021413803101 0.0209513586014509201
0.200000002980232239 0.367992818355560303 0.0791586562991142273
0.200000002980232239 1.8008418083190918 0.00926241278648376465
0.200000002980232239 1.52242851257324219 0.00662714242935180664
0.200000002980232239 0.107112102210521698 0.033543705940246582
0.200000002980232239 0.319353431463241577 0.0218041613698005676
0.200000002980232239 0.617822706699371338 0.111495837569236755
0.200000002980232239 0.17313113808631897 0.043985314667224884
0.200000002980232239 1.26091456413269043 0.0498568713665008545
0.200000002980232239 0.302824854850769043 0.114607729017734528
0.200000002980232239 1.32549750804901123 0.0248381048440933228
0.200000002980232239 0.723180890083312988 0.0269337520003318787
0.200000002980232239 1.45127129554748535 0.0228288620710372925
0.200000002980232239 1.88766360282897949 0.000793054699897766113
0.200000002980232239 0.0587127059698104858 0.0431573837995529175
0.200000002980232239 0.881272614002227783 0.0314655527472496033
0.200000002980232239 0.146214872598648071 0.0706072002649307251
0.200000002980232239 0.119070127606391907 0.0610305145382881165
0.200000002980232239 0.917294919490814209 0.0808351784944534302
0.200000002980232239 1.5434497594833374 0.0146288350224494934
0.200000002980232239 0.138403803110122681 0.10583476722240448
0.200000002980232239 1.21095466613769531 0.049340270459651947
0.200000002980232239 0.128483295440673828 0.138518065214157104
0.200000002980232239 0.147877901792526245 0.0446300730109214783
0.200000002980232239 0.523941099643707275 0.0687180683016777039
0.200000002980232239 1.06792294979095459 0.0334854796528816223
0.200000002980232239 0.734173476696014404 0.0721778124570846558
0.200000002980232239 0.501722812652587891 0.037709113210439682
0.200000002980232239 1.12362837791442871 0.00725969672203063965
0.200000002980232239 0.598820984363555908 0.0290098786354064941
0.200000002980232239 0.409042567014694214 0.00256957858800888062
0.200000002980232239 0.997010231018066406 0.0353924930095672607
0.200000002980232239 0.637768149375915527 0.0224153883755207062
0.200000002980232239 1.08231937885284424 0.0721676722168922424
0.200000002980232239 0.504589617252349854 0.0451690182089805603
0.200000002980232239 0.459788501262664795 0.0665832087397575378
0.200000002980232239 1.72279322147369385 0.0248809456825256348
0.200000002980232239 0.120039820671081543 0.0859775394201278687
0.200000002980232239 1.11899781227111816 0.0204485878348350525
0.200000002980232239 0.704960107803344727 0.092279478907585144
0.200000002980232239 0.79586869478225708 0.0916239023208618164
0.200000002980232239 0.306582361459732056 0.0291986148804426193
0.200000002980232239 0.573315978050231934 0.101122185587882996
0.200000002980232239 0.225556686520576477 0.00501790083944797516
0.200000002980232239 1.37278974056243896 0.0493953004479408264
0.200000002980232239 0.0457420647144317627 0.152339830994606018
0.200000002980232239 0.62025219202041626 0.0961911231279373169
0.200000002980232239 1.74702751636505127 0.0189910531044006348
0.200000002980232239 0.339966803789138794 0.0849114656448364258
0.200000002980232239 0.6346779465675354 0.0425864420831203461
0.200000002980232239 0.810191154479980469 0.00493871420621871948
0.200000002980232239 0.617851376533508301 0.0200357995927333832
0.200000002980232239 0.271935254335403442 0.0157753191888332367
0.200000002980232239 0.293179988861083984 0.122257553040981293
0.200000002980232239 1.08640408515930176 0.052598804235458374
0.200000002980232239 0.670616626739501953 0.0908603817224502563
0.200000002980232239 1.32292985916137695 0.0184728577733039856
0.200000002980232239 0.251649022102355957 0.120274156332015991
0.200000002980232239 0.43131217360496521 0.0411313287913799286
0.200000002980232239 1.28681302070617676 0.0124054774641990662
0.200000002980232239 0.196398794651031494 0.0212752334773540497
0.200000002980232239 0.794389843940734863 0.0719269812107086182
0.200000002980232239 0.450204730033874512 0.0726895928382873535
0.200000002980232239 0.0886474475264549255 0.0316334404051303864
0.200000002980232239 0.735442936420440674 0.029066719114780426
0.200000002980232239 1.01807951927185059 0.027310788631439209
0.200000002980232239 1.08931088447570801 0.0241642966866493225
0.200000002980232239 1.04884934425354004 0.0358738899230957031
0.200000002980232239 0.158223658800125122 0.0757189393043518066
0.200000002980232239 0.277366876602172852 0.0250499602407217026
0.200000002980232239 0.629735767841339111 0.104912817478179932
0.200000002980232239 1.02662980556488037 0.0201432034373283386
0.200000002980232239 1.04315710067749023 0.0423532202839851379
0.200000002980232239 0.397514313459396362 0.0869943723082542419
0.200000002980232239 1.04037487506866455 0.0504176169633865356
0.200000002980232239 0.512107133865356445 0.0188594534993171692
0.200000002980232239 0.939145922660827637 0.0569138750433921814
0.200000002980232239 0.686002492904663086 0.0787141770124435425
0.200000002980232239 0.755560874938964844 0.0109234042465686798
0.200000002980232239 1.15216982364654541 0.0598162412643432617
0.200000002980232239 0.214789390563964844 0.036367461085319519
0.200000002980232239 0.0279364679008722305 0.0835734009742736816
0.200000002980232239 0.898327171802520752 0.0515660718083381653
0.200000002980232239 1.4018625020980835 0.0371854603290557861
0.200000002980232239 0.908304154872894287 0.0418837517499923706
0.200000002980232239 0.800305008888244629 0.0718380212783813477
0.200000002980232239 0.39168819785118103 0.0589437820017337799
0.200000002980232239 0.585230886936187744 0.0515749119222164154
0.200000002980232239 0.309050291776657104 0.108735278248786926
0.200000002980232239 0.744291305541992188 0.0691356509923934937
0.200000002980232239 0.429225355386734009 0.0808167010545730591
0.200000002980232239 1.08347606658935547 0.0306403562426567078
0.200000002980232239 0.711783111095428467 0.0843688100576400757
0.200000002980232239 0.722717523574829102 0.0630506053566932678
0.200000002980232239 1.86340367794036865 0.00841371715068817139
0.200000002980232239 0.222555592656135559 0.117294646799564362
0.200000002980232239 0.983288824558258057 0.0347683951258659363
0.200000002980232239 0.668869435787200928 0.0856358557939529419
0.200000002980232239 0.439937025308609009 0.079297289252281189
0.200000002980232239 0.890753805637359619 0.0307655930519104004
0.200000002980232239 1.14123678207397461 0.0330695584416389465
0.200000002980232239 1.70961976051330566 0.0141166150569915771
0.200000002980232239 1.36919188499450684 0.033738061785697937
0.200000002980232239 0.579119861125946045 0.0608764663338661194
0.200000002980232239 0.825783252716064453 0.0938358679413795471
0.200000002980232239 0.972958624362945557 0.0581035688519477844
0.200000002980232239 0.613967716693878174 0.0985449701547622681
0.200000002980232239 1.73530149459838867 0.00733387470245361328
0.200000002980232239 0.638499259948730469 0.110777467489242554
0.200000002980232239 0.499573558568954468 0.0542656481266021729
0.200000002980232239 1.85791635513305664 0.009691581130027771
0.200000002980232239 0.655614316463470459 0.109131477773189545
0.200000002980232239 0.970917105674743652 0.0207467228174209595
0.200000002980232239 1.21489942073822021 0.0330268889665603638
0.200000002980232239 0.540606915950775146 0.0503741912543773651
0.200000002980232239 0.797671794891357422 0.0779490768909454346
0.200000002980232239 1.50516605377197266 0.00667992234230041504
0.200000002980232239 0.312075227499008179 0.132439196109771729
0.200000002980232239 0.138125091791152954 0.107360281050205231
0.200000002980232239 1.01331508159637451 0.0801816806197166443
0.200000002980232239 1.20962989330291748 0.0321965068578720093
0.200000002980232239 1.70558226108551025 0.000228986144065856934
0.200000002980232239 0.672433555126190186 0.0220095515251159668
0.200000002980232239 1.48369979858398438 0.0421340912580490112
0.200000002980232239 1.16516327857971191 0.0150063186883926392
0.200000002980232239 0.794286847114562988 0.00412967801094055176
0.200000002980232239 0.127300292253494263 0.136335283517837524
0.200000002980232239 0.465847223997116089 0.106973215937614441
0.200000002980232239 0.642095685005187988 0.0852409154176712036
0.200000002980232239 0.759189307689666748 0.0641676634550094604
0.200000002980232239 0.144795536994934082 0.0848265513777732849
0.200000002980232239 1.19523870944976807 0.00860459357500076294
0.200000002980232239 0.214125946164131165 0.10638890415430069
0.200000002980232239 1.50659036636352539 0.0336767956614494324
0.200000002980232239 0.63380897045135498 0.000641871243715286255
0.200000002980232239 0.461168080568313599 0.000874705612659454346
0.200000002980232239 1.36017990112304688 0.0105718225240707397
0.200000002980232239 0.295875996351242065 0.0192403290420770645
0.200000002980232239 0.714762449264526367 0.0353863313794136047
0.200000002980232239 0.00862154457718133926 0.00624435395002365112
0.200000002980232239 1.17744481563568115 0.00520662963390350342
0.200000002980232239 1.4836040735244751 0.0115840062499046326
0.200000002980232239 0.160606905817985535 0.0742338001728057861
0.200000002980232239 0.838220953941345215 0.0621237978339195251
0.200000002980232239 1.40835630893707275 0.0437544360756874084
0.200000002980232239 0.223218083381652832 0.0459065809845924377
0.200000002980232239 0.507057428359985352 0.0635278373956680298
0.200000002980232239 0.409147977828979492 0.0169178768992424011
0.200000002980232239 0.0332702621817588806 0.0241823345422744751
0.200000002980232239 0.237962022423744202 0.0580266714096069336
0.200000002980232239 1.0232384204864502 0.0398670658469200134
0.200000002980232239 0.463993966579437256 0.122969597578048706
0.200000002980232239 1.95413684844970703 0.00065968930721282959
0.200000002980232239 0.699699819087982178 0.0308362692594528198
0.200000002980232239 0.397647887468338013 0.0274110231548547745
0.200000002980232239 0.278682827949523926 0.00275432690978050232
0.200000002980232239 0.0376767553389072418 0.154762148857116699
0.200000002980232239 0.371879041194915771 0.0664849281311035156
0.200000002980232239 0.0940877273678779602 0.0103912334889173508
0.200000002980232239 1.30753874778747559 0.0121282413601875305
0.200000002980232239 0.606380164623260498 0.0649859756231307983
0.200000002980232239 0.567397832870483398 0.0613814517855644226
0.200000002980232239 1.22793436050415039 0.0307733118534088135
0.200000002980232239 0.21157972514629364 0.0784396827220916748
0.200000002980232239 1.23527765274047852 0.0376259535551071167
0.200000002980232239 1.43106627464294434 0.0387103036046028137
0.200000002980232239 1.95601379871368408 0.01015472412109375
0.200000002980232239 1.79817461967468262 0.00221645832061767578
0.200000002980232239 0.192398414015769958 0.00179230049252510071
0.200000002980232239 0.748065471649169922 0.0322718769311904907
0.200000002980232239 0.346746295690536499 0.115398846566677094
0.200000002980232239 0.462249696254730225 0.057634986937046051
0.200000002980232239 1.07279479503631592 0.0316741690039634705
0.200000002980232239 0.578674852848052979 0.0664934366941452026
0.200000002980232239 0.228147104382514954 0.0482572466135025024
0.200000002980232239 1.01222240924835205 0.0274989232420921326
0.200000002980232239 0.0782284513115882874 0.148365393280982971
0.200000002980232239 0.624289929866790771 0.0127529986202716827
0.200000002980232239 1.72124803066253662 0.0251856893301010132
0.200000002980232239 0.0656388327479362488 0.109532982110977173
0.200000002980232239 0.541212737560272217 0.0247737616300582886
0.200000002980232239 0.808933019638061523 0.00697587430477142334
0.200000002980232239 1.74664556980133057 0.0234053730964660645
0.200000002980232239 0.263763904571533203 0.0421808548271656036
0.200000002980232239 0.536702275276184082 0.0228714756667613983
0.200000002980232239 0.0465402528643608093 0.0191990714520215988
0.200000002980232239 1.16675150394439697 0.0190841704607009888
0.200000002980232239 0.916549801826477051 0.0366401225328445435
0.200000002980232239 0.296483993530273438 0.084807179868221283
0.200000002980232239 0.00421695457771420479 0.018530283123254776
0.200000002980232239 0.18136422336101532 0.113625653088092804
0.200000002980232239 0.892375648021697998 0.0829629376530647278
0.200000002980232239 1.23559117317199707 0.0565585047006607056
0.200000002980232239 0.439975738525390625 0.0439857989549636841
0.200000002980232239 0.120143868029117584 0.120443291962146759
0.200000002980232239 0.661082625389099121 0.058493979275226593
0.200000002980232239 0.743159472942352295 0.0399423055350780487
0.200000002980232239 1.00774943828582764 0.0475155934691429138
0.200000002980232239 0.566661417484283447 0.0777130350470542908
0.200000002980232239 1.5093311071395874 0.00485187768936157227
0.200000002980232239 0.0511050373315811157 0.0584515631198883057
0.200000002980232239 0.0179064050316810608 0.0424705520272254944
0.200000002980232239 0.20616072416305542 0.00449077226221561432
0.200000002980232239 0.695730090141296387 0.0323196724057197571
0.200000002980232239 0.959182262420654297 0.0454268753528594971
0.200000002980232239 1.60247159004211426 0.0166180729866027832
0.200000002980232239 0.481264442205429077 0.103460073471069336
0.200000002980232239 1.29103255271911621 0.00405108183622360229
0.200000002980232239 0.356350958347320557 0.0924988090991973877
0.200000002980232239 1.16296374797821045 0.00105283409357070923
0.200000002980232239 1.29194092750549316 0.00398045778274536133
0.200000002980232239 0.420373469591140747 0.0431937761604785919
0.200000002980232239 0.380391299724578857 0.0810980945825576782
0.200000002980232239 1.24932861328125 0.0189828947186470032
0.200000002980232239 0.0728178247809410095 0.0501089803874492645
0.200000002980232239 0.733072042465209961 0.014029286801815033
0.200000002980232239 0.105103835463523865 0.110849000513553619
0.200000002980232239 1.4787057638168335 0.0382734388113021851
0.200000002980232239 1.1679069995880127 0.0130981504917144775
0.200000002980232239 0.237755358219146729 0.015689801424741745
0.200000002980232239 1.05513966083526611 0.00569758564233779907
0.200000002980232239 0.469752967357635498 0.101926863193511963
0.200000002980232239 0.165304571390151978 0.00793573446571826935
0.200000002980232239 0.252819091081619263 0.08823414146900177
0.200000002980232239 0.891087234020233154 0.0791866332292556763
0.200000002980232239 0.0966820195317268372 0.0173265039920806885
0.200000002980232239 0.279326528310775757 0.0791365876793861389
0.200000002980232239 0.51202082633972168 0.118226617574691772
0.200000002980232239 1.35144662857055664 0.0192495808005332947
0.200000002980232239 0.6938018798828125 0.0698764994740486145
0.200000002980232239 1.63232219219207764 0.00583493709564208984
0.200000002980232239 1.05344855785369873 0.0725366026163101196
0.200000002980232239 0.165399640798568726 0.0196794532239437103
0.200000002980232239 0.161130517721176147 0.00715545564889907837
0.200000002980232239 1.27950084209442139 0.0582347065210342407
0.200000002980232239 1.51190400123596191 0.0332571864128112793
0.200000002980232239 0.477079957723617554 0.103341072797775269
0.200000002980232239 1.07593071460723877 0.069792427122592926
0.200000002980232239 0.924482583999633789 0.064270704984664917
0.200000002980232239 0.188852638006210327 0.0945959761738777161
0.200000002980232239 0.274214684963226318 0.00696049630641937256
0.200000002980232239 0.347418725490570068 0.119167618453502655
0.200000002980232239 0.742126107215881348 0.0380292423069477081
0.200000002980232239 0.354246318340301514 0.00833153538405895233
0.200000002980232239 0.0221844129264354706 0.105176188051700592
0.200000002980232239 0.277664661407470703 0.10855567455291748
0.200000002980232239 0.876622796058654785 0.0349868685007095337
0.200000002980232239 0.0174379590898752213 0.0838384479284286499
0.200000002980232239 0.257114142179489136 0.125169843435287476
0.200000002980232239 0.734170019626617432 0.0228561274707317352
0.200000002980232239 1.06187641620635986 0.0458709225058555603
0.200000002980232239 0.678308844566345215 0.00877298787236213684
0.200000002980232239 0.894304931163787842 0.0374752283096313477
0.200000002980232239 0.835192084312438965 0.0831084102392196655
0.200000002980232239 0.276104152202606201 0.0736241042613983154
0.200000002980232239 0.164322540163993835 0.0582923516631126404
0.200000002980232239 0.875572800636291504 0.0601578131318092346
0.200000002980232239 0.0564316213130950928 0.105702340602874756
0.200000002980232239 0.818500757217407227 0.0478532537817955017
0.200000002980232239 0.675050675868988037 0.0967956185340881348
0.200000002980232239 0.118915468454360962 0.0252979211509227753
0.200000002980232239 0.793592751026153564 0.0800530910491943359
0.200000002980232239 0.310004562139511108 0.0229744743555784225
0.200000002980232239 0.384108990430831909 0.0171374883502721786
0.200000002980232239 0.682050228118896484 0.00102441385388374329
0.200000002980232239 1.40511083602905273 0.020969390869140625
0.200000002980232239 0.907598376274108887 0.0795813575387001038
0.200000002980232239 0.0294387061148881912 0.0630384981632232666
0.200000002980232239 0.0017381318612024188 0.143483221530914307
0.200000002980232239 1.26753759384155273 0.00501330941915512085
0.200000002980232239 0.268740534782409668 0.0347359851002693176
0.200000002980232239 1.17720699310302734 0.0363832637667655945
0.200000002980232239 1.10410058498382568 0.0712034404277801514
0.200000002980232239 0.292614400386810303 0.0701025649905204773
0.200000002980232239 0.986213088035583496 0.0666420012712478638
0.200000002980232239 1.11989986896514893 0.136203154921531677
0.200000002980232239 0.659975767135620117 0.132532462477684021
0.200000002980232239 1.89532744884490967 0.125143706798553467
0.200000002980232239 2.0659937858581543 0.0138604789972305298
0.200000002980232239 2.04131507873535156 0.102885589003562927
0.200000002980232239 1.77733850479125977 0.0403428748250007629
0.200000002980232239 1.30024957656860352 0.141946852207183838
0.200000002980232239 1.19660627841949463 0.0919231027364730835
0.200000002980232239 1.36385035514831543 0.10962831974029541
0.200000002980232239 1.8785630464553833 0.102041229605674744
0.200000002980232239 1.95276486873626709 0.0362164974212646484
0.200000002980232239 0.451161503791809082 0.142707705497741699
0.200000002980232239 0.576148033142089844 0.154772743582725525
0.200000002980232239 1.76755356788635254 0.0387707427144050598
0.200000002980232239 1.19273018836975098 0.157827258110046387
0.200000002980232239 1.57189416885375977 0.0934889689087867737
0.200000002980232239 0.26993715763092041 0.141440168023109436
0.200000002980232239 1.26392507553100586 0.0940959528088569641
0.200000002980232239 1.97718453407287598 0.0476553216576576233
0.200000002980232239 0.685922145843505859 0.158285990357398987
0.200000002980232239 1.73321211338043213 0.104349829256534576
0.200000002980232239 1.84108710289001465 0.131813153624534607
0.200000002980232239 1.67934989929199219 0.142055690288543701
0.200000002980232239 0.412475228309631348 0.147448062896728516
0.200000002980232239 1.44769811630249023 0.0505656003952026367
0.200000002980232239 1.06615841388702393 0.147425234317779541
0.200000002980232239 1.11164569854736328 0.150029197335243225
0.200000002980232239 0.357821106910705566 0.147404685616493225
0.200000002980232239 1.9989016056060791 0.127348348498344421
0.200000002980232239 1.30503678321838379 0.137596920132637024
0.200000002980232239 1.96906828880310059 0.0510317683219909668
0.200000002980232239 1.82706451416015625 0.0357433781027793884
0.200000002980232239 2.02457833290100098 0.0926642566919326782
0.200000002980232239 1.14976620674133301 0.153686210513114929
0.200000002980232239 1.28614950180053711 0.065443381667137146
0.200000002980232239 0.472157955169677734 0.135142594575881958
0.200000002980232239 0.521661520004272461 0.128162488341331482
0.200000002980232239 1.51068150997161865 0.117431052029132843
0.200000002980232239 0.242261409759521484 0.15027579665184021
0.200000002980232239 1.43805885314941406 0.132958650588989258
0.200000002980232239 1.09069311618804932 0.136873200535774231
0.200000002980232239 1.91539466381072998 0.135214626789093018
0.200000002980232239 2.0112149715423584 0.110857516527175903
0.200000002980232239 0.81847846508026123 0.14872443675994873
0.200000002980232239 1.69881272315979004 0.145118504762649536
0.200000002980232239 2.07859659194946289 0.143110185861587524
0.200000002980232239 1.89573395252227783 0.100313127040863037
0.200000002980232239 1.75346755981445312 0.109313309192657471
0.200000002980232239 1.68397045135498047 0.0909114554524421692
0.200000002980232239 1.9502187967300415 0.0685516074299812317
0.200000002980232239 1.95829355716705322 0.0753296762704849243
0.200000002980232239 1.44191646575927734 0.0793147459626197815
0.200000002980232239 1.64751267433166504 0.0359464362263679504
0.200000002980232239 1.93976807594299316 0.0589032992720603943
0.200000002980232239 2.03287816047668457 0.0800344422459602356
0.200000002980232239 2.08567643165588379 0.0976573675870895386
0.200000002980232239 1.79329025745391846 0.110090076923370361
0.200000002980232239 1.06968176364898682 0.0951795801520347595
0.200000002980232239 1.30965995788574219 0.113098263740539551
0.200000002980232239 1.82227921485900879 0.0949260517954826355
0.200000002980232239 1.84642243385314941 0.0657762140035629272
0.200000002980232239 1.64541959762573242 0.143063336610794067
0.200000002980232239 1.41848993301391602 0.156965434551239014
0.200000002980232239 1.21277475357055664 0.139679804444313049
0.200000002980232239 0.902244687080383301 0.150106891989707947
0.200000002980232239 1.84135079383850098 0.0851138904690742493
0.200000002980232239 1.43633913993835449 0.0763743668794631958
0.200000002980232239 1.4990696907043457 0.0739201828837394714
0.200000002980232239 2.08235836029052734 0.142800971865653992
0.200000002980232239 0.813707590103149414 0.123798370361328125
0.200000002980232239 1.96036887168884277 0.075945831835269928
0.200000002980232239 1.68902111053466797 0.108747974038124084
0.200000002980232239 2.0832061767578125 0.0973941758275032043
0.200000002980232239 1.52427577972412109 0.0921438783407211304
0.200000002980232239 1.17355537414550781 0.121582135558128357
0.200000002980232239 1.38993191719055176 0.062971167266368866
0.200000002980232239 0.921132326126098633 0.109389796853065491
0.200000002980232239 1.78408575057983398 0.0967270433902740479
0.200000002980232239 1.57512199878692627 0.0918978899717330933
0.200000002980232239 1.00128471851348877 0.100165650248527527
0.200000002980232239 1.35485148429870605 0.125819951295852661
0.200000002980232239 1.39290261268615723 0.083258502185344696
0.200000002980232239 1.76848721504211426 0.123701512813568115
0.200000002980232239 1.47137188911437988 0.125507622957229614
0.200000002980232239 1.40976393222808838 0.107586033642292023
0.200000002980232239 0.343535423278808594 0.135368183255195618
0.200000002980232239 2.06408357620239258 0.0405124574899673462
0.200000002980232239 1.31599080562591553 0.0593200847506523132
0.200000002980232239 1.7528303861618042 0.0993118882179260254
0.200000002980232239 2.03481888771057129 0.126961946487426758
0.200000002980232239 0.522927403450012207 0.124592535197734833
0.200000002980232239 1.75348055362701416 0.125630289316177368
0.200000002980232239 0.128095865249633789 0.15878884494304657
0.200000002980232239 0.640121936798095703 0.120105698704719543
0.200000002980232239 0.498308062553405762 0.156789332628250122
0.200000002980232239 0.722196459770202637 0.132458314299583435
0.200000002980232239 1.9108051061630249 0.126837611198425293
0.200000002980232239 1.32186388969421387 0.143027916550636292
0.200000002980232239 0.322115302085876465 0.155359819531440735
0.200000002980232239 1.79831492900848389 0.118338584899902344
0.200000002980232239 1.13306307792663574 0.139865666627883911
0.200000002980232239 1.60688126087188721 0.125327914953231812
0.200000002980232239 1.44610452651977539 0.127248227596282959
0.200000002980232239 0.406304359436035156 0.158857405185699463
0.200000002980232239 2.08090353012084961 0.0264676958322525024
0.200000002980232239 1.02949690818786621 0.112779200077056885
0.200000002980232239 0.524797677993774414 0.156022548675537109
0.200000002980232239 1.90270495414733887 0.0590689182281494141
0.200000002980232239 0.883581757545471191 0.0940866395831108093
0.200000002980232239 0.679553389549255371 0.148010194301605225
0.200000002980232239 2.01499772071838379 0.0114040523767471313
0.200000002980232239 1.47198033332824707 0.0560240745544433594
0.200000002980232239 1.54303908348083496 0.0785102099180221558
0.200000002980232239 1.62817978858947754 0.0974099114537239075
0.200000002980232239 0.99505162239074707 0.10263708233833313
0.200000002980232239 1.62686741352081299 0.0651780515909194946
0.200000002980232239 0.384682416915893555 0.144818201661109924
0.200000002980232239 1.96497929096221924 0.0492255166172981262
0.200000002980232239 2.00959920883178711 0.139630138874053955
0.200000002980232239 1.83346223831176758 0.100441008806228638
0.200000002980232239 2.05001354217529297 0.122869476675987244
0.200000002980232239 1.41024363040924072 0.0601916834712028503
0.200000002980232239 1.25795912742614746 0.133707612752914429
0.200000002980232239 2.0355687141418457 0.0167255699634552002
0.200000002980232239 1.12352371215820312 0.130723848938941956
0.200000002980232239 1.62807869911193848 0.0511576384305953979
0.200000002980232239 0.605291366577148438 0.125339359045028687
0.200000002980232239 1.71923923492431641 0.0679280385375022888
0.200000002980232239 1.90744888782501221 0.0201414227485656738
0.200000002980232239 1.58875322341918945 0.106751024723052979
0.200000002980232239 0.289760947227478027 0.148021966218948364
0.200000002980232239 0.0471861362457275391 0.159363493323326111
0.200000002980232239 1.1910327672958374 0.0752389878034591675
0.200000002980232239 1.47959113121032715 0.132944405078887939
0.200000002980232239 1.81940901279449463 0.0708796009421348572
0.200000002980232239 2.04085922241210938 0.13376249372959137
0.200000002980232239 1.67272543907165527 0.0911741405725479126
0.200000002980232239 0.454669713973999023 0.156417295336723328
0.200000002980232239 1.15412735939025879 0.0784471482038497925
0.200000002980232239 1.17046356201171875 0.113536514341831207
0.200000002980232239 1.69144415855407715 0.116033397614955902
0.200000002980232239 1.70375549793243408 0.0486621186137199402
0.200000002980232239 1.68364286422729492 0.0960424840450286865
0.200000002980232239 1.69762444496154785 0.0746440961956977844
0.200000002980232239 1.09343886375427246 0.0846431553363800049
0.200000002980232239 1.7682797908782959 0.0948864147067070007
0.200000002980232239 0.542452573776245117 0.149344712495803833
0.200000002980232239 2.03325796127319336 0.0321404039859771729
0.200000002980232239 1.90602898597717285 0.0837767645716667175
0.200000002980232239 1.50841295719146729 0.0650112628936767578
0.200000002980232239 1.01241004467010498 0.0875695124268531799
0.200000002980232239 1.6435854434967041 0.0758381932973861694
0.200000002980232239 1.71026670932769775 0.0932117551565170288
0.200000002980232239 0.758906245231628418 0.152634903788566589
0.200000002980232239 2.0558159351348877 0.130156919360160828
0.200000002980232239 0.42363131046295166 0.157712504267692566
0.200000002980232239 1.81023621559143066 0.138889998197555542
0.200000002980232239 1.95898890495300293 0.0220560282468795776
0.200000002980232239 1.58577561378479004 0.0480569228529930115
0.200000002980232239 1.96424388885498047 0.0917181298136711121
0.200000002980232239 1.66845953464508057 0.120053298771381378
0.200000002980232239 1.01909530162811279 0.11985333263874054
0.200000002980232239 2.02748751640319824 0.0707299709320068359
0.200000002980232239 0.728842020034790039 0.138647496700286865
0.200000002980232239 1.67623817920684814 0.145291790366172791
0.200000002980232239 1.60763037204742432 0.105391234159469604
0.200000002980232239 1.92809128761291504 0.151398301124572754
0.200000002980232239 1.547019362449646 0.139674067497253418
0.200000002980232239 1.86891007423400879 0.0971980243921279907
0.200000002980232239 0.706637024879455566 0.154058560729026794
0.200000002980232239 2.03056645393371582 0.0572761967778205872
0.200000002980232239 1.99936282634735107 0.0891063138842582703
0.200000002980232239 2.01211214065551758 0.110822223126888275
0.200000002980232239 0.785296797752380371 0.132387012243270874
0.200000002980232239 1.38956284523010254 0.139530256390571594
0.200000002980232239 1.90128433704376221 0.0701477527618408203
0.200000002980232239 1.74182963371276855 0.140675589442253113
0.200000002980232239 1.20396184921264648 0.134000331163406372
0.200000002980232239 2.01201939582824707 0.0270715802907943726
0.200000002980232239 0.666012167930603027 0.157384172081947327
0.200000002980232239 1.92326200008392334 0.149459823966026306
0.200000002980232239 0.722514510154724121 0.157343968749046326
0.200000002980232239 1.60227704048156738 0.111110761761665344
0.200000002980232239 1.15245342254638672 0.0960651561617851257
0.200000002980232239 1.46230602264404297 0.140067771077156067
0.200000002980232239 1.61766517162322998 0.124058090150356293
0.200000002980232239 1.77435934543609619 0.0822607055306434631
0.200000002980232239 2.06408596038818359 0.0260609835386276245
0.200000002980232239 1.51024746894836426 0.0563932880759239197
0.200000002980232239 1.99996984004974365 0.0311343967914581299
0.200000002980232239 0.974581480026245117 0.147389695048332214
0.200000002980232239 0.710850000381469727 0.116553939878940582
0.200000002980232239 1.25086021423339844 0.135808184742927551
0.200000002980232239 2.01369810104370117 0.125015348196029663
0.200000002980232239 0.664194703102111816 0.159955188632011414
0.200000002980232239 1.96017539501190186 0.0810274630784988403
0.200000002980232239 0.442385554313659668 0.134253814816474915
0.200000002980232239 1.64191246032714844 0.0915536358952522278
0.200000002980232239 0.869649648666381836 0.117128148674964905
0.200000002980232239 1.09192776679992676 0.156031295657157898
0.200000002980232239 1.25721859931945801 0.0674944669008255005
0.200000002980232239 1.2187877893447876 0.0918432325124740601
0.200000002980232239 0.315959930419921875 0.138041958212852478
0.200000002980232239 1.34528565406799316 0.121584363281726837
0.200000002980232239 0.690109491348266602 0.133833378553390503
0.200000002980232239 1.88903975486755371 0.156695097684860229
0.200000002980232239 1.6447749137878418 0.114115960896015167
0.200000002980232239 0.867184638977050781 0.147046342492103577
0.200000002980232239 2.01961445808410645 0.129982516169548035
0.200000002980232239 1.6742624044418335 0.0766419395804405212
0.200000002980232239 0.624819517135620117 0.117503412067890167
0.200000002980232239 1.3321998119354248 0.130696743726730347
0.200000002980232239 2.02983570098876953 0.0436032563447952271
0.200000002980232239 1.61795723438262939 0.146997705101966858
0.200000002980232239 0.35569000244140625 0.135752618312835693
