ply
format ascii 1.0
element vertex 930
property float x
property float y
property float z
end_header
0.233282342553138733 0 0.0882372111082077026
0.213362231850624084 0 0.0614248737692832947
0.104060567915439606 0 0.126417309045791626
0.153170451521873474 0 0.0462584607303142548
0.0730941295623779297 0 0.145491763949394226
0.16167527437210083 0 0.0912386327981948853
0.0696829855442047119 0 0.113422796130180359
0.226603329181671143 0 0.0590457022190093994
0.128115996718406677 0 0.00620261766016483307
0.0923615321516990662 0 0.167136311531066895
0.178928911685943604 0 0.0589296892285346985
0.0590278953313827515 0 0.1772594153881073
0.0984406620264053345 0 0.0794799849390983582
0.070164702832698822 0 0.127504020929336548
0.100095920264720917 0 0.0876321420073509216
0.101309612393379211 0 0.093540482223033905
0.119544699788093567 0 0.100681960582733154
0.14850693941116333 0 0.0808442234992980957
0.110414795577526093 0 0.0390462204813957214
0.151860833168029785 0 0.0975240245461463928
0.0524683855473995209 0 0.17145286500453949
0.034036882221698761 0 0.193707525730133057
0.184173986315727234 0 0.0546109452843666077
0.0876673758029937744 0 0.0681892633438110352
0.0650199055671691895 0 0.166861146688461304
0.0835937559604644775 0 0.142401263117790222
0.188075199723243713 0 0.0906499847769737244
0.12485475093126297 0 0.105902045965194702
0.0640794932842254639 0 0.109515339136123657
0.246927008032798767 0 0.0802568569779396057
0.189902782440185547 0 0.100452221930027008
0.135731905698776245 0 0.051156066358089447
0.0668732896447181702 0 0.173491567373275757
0.104869745671749115 0 0.0491376891732215881
0.197886615991592407 0 0.0443965867161750793
0.127001449465751648 0 0.0694752782583236694
0.156206503510475159 0 0.0692704841494560242
0.12854468822479248 0 0.0555694214999675751
0.197648555040359497 0 0.0589274466037750244
0.101439192891120911 0 0.118796825408935547
0.0298118777573108673 0 0.176266089081764221
0.114451557397842407 0 0.0577794909477233887
0.112627163529396057 0 0.0910987257957458496
0.180659770965576172 0 0.0358650423586368561
0.0528079681098461151 0 0.128784269094467163
0.0417336225509643555 0 0.185172736644744873
0.0341813936829566956 0 0.178898885846138
0.168313562870025635 0 0.0626949071884155273
0.17362917959690094 0 0.0784698054194450378
0.191822454333305359 0 0.0526298061013221741
0.219914257526397705 0 0.0832995697855949402
0.194522395730018616 0 0.0650781542062759399
0.103007510304450989 0 0.134261921048164368
0.0976108536124229431 0 0.105546653270721436
0.0605976134538650513 0 0.149425745010375977
0.210054650902748108 0 0.0827506408095359802
0.0207498166710138321 0 0.182174548506736755
0.125300109386444092 0 0.0894426852464675903
0.096766933798789978 0 0.155606865882873535
0.124676838517189026 0 0.0796232447028160095
0.220864206552505493 0 0.0656024962663650513
0.122620433568954468 0 0.0321690738201141357
0.238466471433639526 0 0.0669924765825271606
0.176181897521018982 0 0.123460367321968079
0.123279556632041931 0 0.130971655249595642
0.110951051115989685 0 0.0255251452326774597
0.12794138491153717 0 0.0971524044871330261
0.185482591390609741 0 0.059083104133605957
0.132907643914222717 0 0.0792677253484725952
0.0777408033609390259 0 0.153553694486618042
0.179917231202125549 0 0.0847114399075508118
0.195065289735794067 0 0.092642955482006073
0.213693231344223022 0 0.079543769359588623
0.0858199745416641235 0 0.0992310643196105957
0.128780141472816467 0 0.135983482003211975
0.159116253256797791 0 0.108480431139469147
0.133766204118728638 0 0.0644403696060180664
0.0171046387404203415 0 0.191876277327537537
0.142612725496292114 0 0.0550398379564285278
0.180470377206802368 0 0.0985865294933319092
0.174351498484611511 0 0.0488161072134971619
0.0979332476854324341 0 0.0883242487907409668
0.0382535494863986969 0 0.16896308958530426
0.0853698477149009705 0 0.148689895868301392
0.0741421803832054138 0 0.134450227022171021
0.198044389486312866 0 0.0517712980508804321
0.0656423196196556091 0 0.153147280216217041
0.140597805380821228 0 0.124026976525783539
0.154473170638084412 0 0.187776058912277222
0.236460089683532715 0 0.0960050970315933228
0.213826626539230347 0 0.133228540420532227
0.0812819451093673706 0 0.190932229161262512
0.170373111963272095 0 0.1697273850440979
0.0735156163573265076 0 0.235979482531547546
0.129190921783447266 0 0.189787507057189941
0.0518946424126625061 0 0.209581479430198669
0.0347565822303295135 0 0.230386450886726379
0.11012585461139679 0 0.200891479849815369
0.134126275777816772 0 0.169682011008262634
0.23016655445098877 0 0.118198558688163757
0.115806728601455688 0 0.204248517751693726
0.047737710177898407 0 0.195400863885879517
0.107434675097465515 0 0.221309199929237366
0.0814175605773925781 0 0.220201015472412109
0.0476909875869750977 0 0.208484575152397156
0.120722383260726929 0 0.218157589435577393
0.0959883406758308411 0 0.242525205016136169
0.0961397513747215271 0 0.18981778621673584
0.0629749372601509094 0 0.197807937860488892
0.02769467793405056 0 0.225134685635566711
0.120191693305969238 0 0.194482654333114624
0.119224481284618378 0 0.26870959997177124
0.0800402164459228516 0 0.232218846678733826
0.156761229038238525 0 0.233171045780181885
0.18400651216506958 0 0.208092197775840759
0.191672027111053467 0 0.135291546583175659
0.18646666407585144 0 0.17130732536315918
0.187333673238754272 0 0.152334675192832947
0.131043463945388794 0 0.245417922735214233
0.132879152894020081 0 0.261819541454315186
0.159476995468139648 0 0.16100117564201355
0.137710511684417725 0 0.177115291357040405
0.183421701192855835 0 0.128370702266693115
0.0272621996700763702 0 0.214398622512817383
0.127882659435272217 0 0.229880422353744507
0.0911366641521453857 0 0.175480112433433533
0.168859675526618958 0 0.13076607882976532
0.0902532339096069336 0 0.209855958819389343
0.181271970272064209 0 0.155581057071685791
0.210045620799064636 0 0.159173890948295593
0.222745507955551147 0 0.115957885980606079
0.105163529515266418 0 0.17246595025062561
0.176211953163146973 0 0.157181099057197571
0.150641739368438721 0 0.22191976010799408
0.193741112947463989 0 0.18907502293586731
0.218726575374603271 0 0.115572959184646606
0.084170706570148468 0 0.238493636250495911
0.047558121383190155 0 0.229821205139160156
0.170486375689506531 0 0.228580474853515625
0.203291267156600952 0 0.115278303623199463
0.163706302642822266 0 0.173441946506500244
0.118334144353866577 0 0.256537944078445435
0.147642269730567932 0 0.278242409229278564
0.121151715517044067 0 0.237290218472480774
0.149506077170372009 0 0.166738271713256836
0.089556574821472168 0 0.174918949604034424
0.210459485650062561 0 0.157236918807029724
0.198967665433883667 0 0.155713841319084167
0.141328781843185425 0 0.189189612865447998
0.13127291202545166 0 0.230157256126403809
0.159054756164550781 0 0.163372159004211426
0.0804353654384613037 0 0.178199648857116699
0.206933379173278809 0 0.123736873269081116
0.104032427072525024 0 0.195510461926460266
0.114961259067058563 0 0.171829372644424438
0.228126227855682373 0 0.110765010118484497
0.0531180128455162048 0 0.218269407749176025
0.070048898458480835 0 0.225787416100502014
0.113301083445549011 0 0.212272703647613525
0.163994714617729187 0 0.234667927026748657
0.137165173888206482 0 0.294487893581390381
0.151383042335510254 0 0.257162898778915405
0.0497346818447113037 0 0.237726062536239624
0.178020894527435303 0 0.170632511377334595
0.218206137418746948 0 0.132389664649963379
0.0958124101161956787 0 0.176437169313430786
0.24134381115436554 0 0.104806467890739441
0.141256660223007202 0 0.152824640274047852
0.176985502243041992 0 0.173532888293266296
0.0873651653528213501 0 0.259661406278610229
0.144002154469490051 0 0.263384521007537842
0.134712308645248413 0 0.161449804902076721
0.0902548432350158691 0 0.206769227981567383
0.0773583948612213135 0 0.194723159074783325
0.0516963489353656769 0 0.191899120807647705
0.0848112255334854126 0 0.2199077308177948
0.111663050949573517 0 0.203294232487678528
0.0970927253365516663 0 0.189662367105484009
0.0624282881617546082 0 0.19652131199836731
0.128600835800170898 0 0.157068729400634766
0.0764015465974807739 0 0.212084084749221802
0.221169829368591309 0 0.113710418343544006
0.2110118567943573 0 0.146841526031494141
0.168429583311080933 0 0.239176541566848755
0.17178797721862793 0 0.216938138008117676
0.134396567940711975 0 0.235220104455947876
0.146544769406318665 0 0.195530861616134644
0.149020656943321228 0 0.191307052969932556
0.105363070964813232 0 0.202273756265640259
0.136166632175445557 0 0.279973000288009644
0.185098439455032349 0 0.166920438408851624
0.0625651180744171143 0 0.232448190450668335
0.147729799151420593 0 0.183728277683258057
0.0564509592950344086 0 0.230285361409187317
0.2149076908826828 0 0.157847598195075989
0.0585519075393676758 0 0.231315240263938904
0.176523715257644653 0 0.165866315364837646
0.180164217948913574 0 0.161853447556495667
0.188163250684738159 0 0.167806029319763184
0.217136561870574951 0 0.139673367142677307
0.0116293476894497871 0 0.21539326012134552
0.140330150723457336 0 0.180848181247711182
0.0931606218218803406 0 0.170568138360977173
0.090879291296005249 0 0.243941798806190491
0.15425407886505127 0 0.248331353068351746
0.151891559362411499 0 0.184301912784576416
0.129974499344825745 0 0.215492367744445801
0.0523156262934207916 0 0.195823490619659424
0.1227293461561203 0 0.268010109663009644
0.0613175258040428162 0 0.251657694578170776
0.14835183322429657 0 0.171209335327148438
0.237881720066070557 0 0.10727865993976593
0.140368923544883728 0 0.235223084688186646
0.244218975305557251 0 0.0984804332256317139
0.173841625452041626 0 0.224700197577476501
0.0392648279666900635 0 0.197778210043907166
0.0984857529401779175 0 0.167677819728851318
0.114846669137477875 0 0.198135107755661011
0.151712343096733093 0 0.253867447376251221
0.127559959888458252 0 0.273366481065750122
0.184885621070861816 0 0.13895823061466217
0.121051222085952759 0 0.264657735824584961
0.0628404244780540466 0 0.220258429646492004
0.096541181206703186 0 0.20408909022808075
0.0559172965586185455 0 0.24418957531452179
0.137125909328460693 0 0.199674740433692932
0.0410725250840187073 0 0.238412991166114807
0.152935773134231567 0 0.216839820146560669
0.165339767932891846 0 0.169834643602371216
0.1142992302775383 0 0.208148404955863953
0.17571866512298584 0 0.146716177463531494
0.144256651401519775 0 0.155435502529144287
0.0776887983083724976 0 0.251935839653015137
0.221671789884567261 0 0.107904434204101562
0.246973812580108643 0 0.0923950672149658203
0.0245050787925720215 0 0.213096976280212402
0.161582231521606445 0 0.162996232509613037
0.0445904918015003204 0 0.216501101851463318
0.139135599136352539 0 0.171266049146652222
0.107823021709918976 0 0.224918156862258911
0.247398585081100464 0 0.0953897386789321899
0.0863109827041625977 0 0.260329723358154297
0.222014576196670532 0 0.122019201517105103
0.0650527402758598328 0 0.195894807577133179
0.098173968493938446 0 0.191037446260452271
0.0933178514242172241 0 0.258338898420333862
0.171990230679512024 0 0.235597714781761169
0.0866088569164276123 0 0.198492243885993958
0.15543074905872345 0 0.18639180064201355
0.195136114954948425 0 0.161117538809776306
0.154575109481811523 0 0.140994057059288025
0.207009971141815186 0 0.156924545764923096
0.126564264297485352 0 0.234179526567459106
0.137812897562980652 0 0.222930192947387695
0.20763397216796875 0 0.131604135036468506
0.150827720761299133 0 0.199269562959671021
0.17461058497428894 0 0.14887334406375885
0.0541525967419147491 0 0.222327768802642822
0.123399719595909119 0 0.208272725343704224
0.0418549664318561554 0 0.238197594881057739
0.12752881646156311 0 0.229206085205078125
0.113246440887451172 0 0.222032874822616577
0.0303160101175308228 0 0.204454436898231506
0.19163377583026886 0 0.144616007804870605
0.188327088952064514 0 0.205564036965370178
0.107094384729862213 0 0.201081633567810059
0.125871121883392334 0 0.158329188823699951
0.173061028122901917 0 0.142962977290153503
0.0153498249128460884 0 0.213414192199707031
0.0586584284901618958 0 0.203469663858413696
0.18970094621181488 0 0.138201028108596802
0.12719176709651947 0 0.289779424667358398
0.130932822823524475 0 0.287885695695877075
0.183629885315895081 0 0.205590873956680298
0.136749818921089172 0 0.198426410555839539
0.0952564924955368042 0 0.186388134956359863
0.132720082998275757 0 0.257103562355041504
0.235251426696777344 0 0.104054033756256104
0.0813433080911636353 0 0.199851393699645996
0.210195615887641907 0 0.167021587491035461
0.244673371315002441 0 0.0966343879699707031
0.19380614161491394 0 0.151588395237922668
0.116117715835571289 0 0.251049041748046875
0.204223096370697021 0 0.182549208402633667
0.121419206261634827 0 0.168360248208045959
0.157563284039497375 0 0.175385594367980957
0.198361188173294067 0 0.136038735508918762
0.178310483694076538 0 0.147710755467414856
0.177783548831939697 0 0.19338400661945343
0.118651367723941803 0 0.228238940238952637
0.183068364858627319 0 0.212304949760437012
0.169201567769050598 0 0.218336015939712524
0.0748409628868103027 0 0.22412523627281189
0.0918289870023727417 0 0.196174904704093933
0.235395297408103943 0 0.109985604882240295
0.0445003807544708252 0 0.196816250681877136
0.147836759686470032 0 0.143019616603851318
0.0663002133369445801 0 0.205047264695167542
0.0633776932954788208 0 0.18478277325630188
0.148664146661758423 0 0.269550532102584839
0.122093282639980316 0 0.245788007974624634
0.0999211519956588745 0 0.272921621799468994
0.219549939036369324 0 0.113892778754234314
0.111624367535114288 0 0.217123106122016907
0.165443390607833862 0 0.188683390617370605
0.258620947599411011 0 0.0847474038600921631
0.1761474609375 0 0.13085523247718811
0.0749644488096237183 0 0.195486262440681458
0.0649873241782188416 0 0.230578213930130005
0.0829033851623535156 0 0.20439872145652771
0.169652551412582397 0 0.164436623454093933
0.237629488110542297 0 0.120935678482055664
0.142621040344238281 0 0.239554792642593384
0.139175713062286377 0 0.278182059526443481
0.117340505123138428 0 0.239144653081893921
0.168866664171218872 0 0.191819608211517334
0.192961603403091431 0 0.123432070016860962
0.141255021095275879 0 0.26308751106262207
0.16316378116607666 0 0.142008662223815918
0.242953330278396606 0 0.0930406451225280762
0.190090090036392212 0 0.205180689692497253
0.117338143289089203 0 0.280253440141677856
0.159961044788360596 0 0.181189537048339844
0.107427626848220825 0 0.21192111074924469
0.0990093201398849487 0 0.266880780458450317
0.134431272745132446 0 0.253825902938842773
0.1135067418217659 0 0.16749495267868042
0.120692089200019836 0 0.276523470878601074
0.107897080481052399 0 0.190741673111915588
0.236946821212768555 0 0.117000356316566467
0.221912726759910583 0 0.108487367630004883
0.0678283572196960449 0 0.197342664003372192
0.118325322866439819 0 0.195742517709732056
0.150320962071418762 0 0.170492589473724365
0.154277235269546509 0 0.184366211295127869
0.196554943919181824 0 0.144581392407417297
0.0893279463052749634 0 0.183849930763244629
0.186413586139678955 0 0.122792825102806091
0.0965878814458847046 0 0.232842698693275452
0.14035797119140625 0 0.290819227695465088
0.0961336269974708557 0 0.238517910242080688
0.160267233848571777 0 0.236875325441360474
0.0331338196992874146 0 0.234564900398254395
0.141046613454818726 0 0.221765652298927307
0.072737179696559906 0 0.234649032354354858
0.0738245919346809387 0 0.258407145738601685
0.0769641995429992676 0 0.226673826575279236
0.137184754014015198 0 0.252961456775665283
0.114751614630222321 0 0.279874861240386963
0.178001850843429565 0 0.226405680179595947
0.0947127044200897217 0 0.23880256712436676
0.0476151406764984131 0 0.224701032042503357
0.151873216032981873 0 0.156785264611244202
0.170450553297996521 0 0.220437347888946533
0.122580982744693756 0 0.190622195601463318
0.0871240049600601196 0 0.18802209198474884
0.187383532524108887 0 0.197992086410522461
0.148111268877983093 0 0.204518318176269531
0.148652106523513794 0 0.278618186712265015
0.141016513109207153 0 0.162659212946891785
0.189076781272888184 0 0.130593195557594299
0.209633857011795044 0 0.153585866093635559
0.0414160415530204773 0 0.23122859001159668
0.0599018111824989319 0 0.19843590259552002
0.105753868818283081 0 0.232785671949386597
0.059103354811668396 0 0.214256614446640015
0.0998954325914382935 0 0.236233815550804138
0.0241790171712636948 0 0.224351316690444946
0.111088812351226807 0 0.197507485747337341
0.195929169654846191 0 0.195717811584472656
0.111523993313312531 0 0.193487763404846191
0.0607192330062389374 0 0.215989619493484497
0.107322432100772858 0 0.21442723274230957
0.0426433347165584564 0 0.240098953247070312
0.206124812364578247 0 0.118562117218971252
0.149085164070129395 0 0.195982441306114197
0.0484145469963550568 0 0.220532476902008057
0.148543119430541992 0 0.234224811196327209
0.233551114797592163 0 0.116808623075485229
0.196430698037147522 0 0.146486192941665649
0.134545251727104187 0 0.201198309659957886
0.0870834439992904663 0 0.224656179547309875
0.130381375551223755 0 0.155972003936767578
0.151425778865814209 0 0.21709713339805603
0.220846399664878845 0 0.142661675810813904
0.187184661626815796 0 0.180564090609550476
0.113549917936325073 0 0.174920246005058289
0.0965966284275054932 0 0.199005633592605591
0.170415401458740234 0 0.153199672698974609
0.127985641360282898 0 0.284598886966705322
0.171162724494934082 0 0.172292351722717285
0.217936962842941284 0 0.134228572249412537
0.158994942903518677 0 0.246345147490501404
0.138061016798019409 0 0.172660380601882935
0.104433782398700714 0 0.262429147958755493
0.157573744654655457 0 0.139555037021636963
0.0713973119854927063 0 0.25293433666229248
0.109627813100814819 0 0.277927547693252563
0.110213816165924072 0 0.251503556966781616
0.173470139503479004 0 0.143115788698196411
0.0727735757827758789 0 0.255093574523925781
0.136131465435028076 0 0.229408174753189087
0.223285943269729614 0 0.110727041959762573
0.120087727904319763 0 0.280600458383560181
0.11278022825717926 0 0.167724058032035828
0.105716049671173096 0 0.21773122251033783
0.1741371750831604 0 0.176792815327644348
0.100905805826187134 0 0.258555352687835693
0.119267523288726807 0 0.257773637771606445
0.0809874013066291809 0 0.237978473305702209
0.19446873664855957 0 0.161158502101898193
0.132324472069740295 0 0.160229206085205078
0.245653018355369568 0 0.103055164217948914
0.103433407843112946 0 0.270762264728546143
0.178816407918930054 0 0.214094012975692749
0.102526195347309113 0 0.234815627336502075
0.146657764911651611 0 0.254112690687179565
0.14441189169883728 0 0.182434976100921631
0.022817414253950119 0 0.221645697951316833
0.130094856023788452 0 0.2891102135181427
0.148121833801269531 0 0.277601897716522217
0.154970347881317139 0 0.211063176393508911
0.167413875460624695 0 0.13438163697719574
0.0599969513714313507 0 0.231992483139038086
0.20851917564868927 0 0.116596505045890808
0.144985929131507874 0 0.237318336963653564
0.0942974686622619629 0 0.244976609945297241
0.114610157907009125 0 0.278324633836746216
0.0772376284003257751 0 0.256049752235412598
0.197091177105903625 0 0.168985277414321899
0.139277607202529907 0 0.187747344374656677
0.202625960111618042 0 0.119245663285255432
0.192558348178863525 0 0.184623658657073975
0.0819403529167175293 0 0.256290912628173828
0.16926102340221405 0 0.180409520864486694
0.166113823652267456 0 0.202096104621887207
0.193081557750701904 0 0.137676402926445007
0.17127537727355957 0 0.182272136211395264
0.04654683917760849 0 0.203937560319900513
0.210284888744354248 0 0.134949281811714172
0.127730637788772583 0 0.240618854761123657
0.173375606536865234 0 0.211072534322738647
0.143058508634567261 0 0.212353304028511047
0.139423772692680359 0 0.157867491245269775
0.164408266544342041 0 0.174261540174484253
0.19144083559513092 0 0.137418150901794434
0.161282598972320557 0 0.145117461681365967
0.149223998188972473 0 0.253572344779968262
0.166573166847229004 0 0.228186488151550293
0.091814771294593811 0 0.173109978437423706
0.177429437637329102 0 0.167372748255729675
0.205024987459182739 0 0.169188559055328369
0.200853690505027771 0 0.170986399054527283
0.133859127759933472 0 0.229835242033004761
0.121143698692321777 0 0.212399959564208984
0.0800579115748405457 0 0.230740204453468323
0.10284850001335144 0 0.182630375027656555
0.0803213268518447876 0 0.218758568167686462
0.14903847873210907 0 0.232362240552902222
0.164923667907714844 0 0.206819593906402588
0.167322859168052673 0 0.131342127919197083
0.139443561434745789 0 0.269926130771636963
0.160080194473266602 0 0.215119704604148865
0.143169164657592773 0 0.180852293968200684
0.0431973822414875031 0 0.223067313432693481
0.118883110582828522 0 0.187296211719512939
0.141495555639266968 0 0.181177973747253418
0.176788955926895142 0 0.13609488308429718
0.146287262439727783 0 0.235784426331520081
0.180906504392623901 0 0.157662004232406616
0.167233139276504517 0 0.24051356315612793
0.141999810934066772 0 0.149244487285614014
0.102712176740169525 0 0.275160163640975952
0.150080859661102295 0 0.157704949378967285
0.154477998614311218 0 0.255212336778640747
0.117428645491600037 0 0.213907688856124878
0.184114426374435425 0 0.210683703422546387
0.108427710831165314 0 0.253587603569030762
0.133790433406829834 0 0.217251241207122803
0.0484865307807922363 0 0.228324905037879944
0.128621026873588562 0 0.158790513873100281
0.185651212930679321 0 0.128328874707221985
0.113972611725330353 0 0.202422946691513062
0.182881444692611694 0 0.144399404525756836
0.178017973899841309 0 0.164385423064231873
0.116139456629753113 0 0.262749344110488892
0.214319393038749695 0 0.106875911355018616
0.11589224636554718 0 0.239228427410125732
0.140145599842071533 0 0.247793570160865784
0.119897916913032532 0 0.21909119188785553
0.0457320660352706909 0 0.19943392276763916
0.143654406070709229 0 0.252154380083084106
0.0465930700302124023 0 0.204011097550392151
0.153900086879730225 0 0.155850142240524292
0.0600341856479644775 0 0.249347344040870667
0.0566643700003623962 0 0.206774726510047913
0.128893151879310608 0 0.217334002256393433
0.0971631109714508057 0 0.24750809371471405
0.0867499634623527527 0 0.260131001472473145
0.235286593437194824 0 0.122502163052558899
0.20603024959564209 0 0.14873822033405304
0.192347332835197449 0 0.118911176919937134
0.152939498424530029 0 0.212874919176101685
0.213720262050628662 0 0.12810535728931427
0.184493154287338257 0 0.14059053361415863
0.192998021841049194 0 0.141749769449234009
0.108318999409675598 0 0.222713321447372437
0.141619712114334106 0 0.263557165861129761
0.17722773551940918 0 0.211047187447547913
0.150084942579269409 0 0.160711348056793213
0.183723926544189453 0 0.164542227983474731
0.225966334342956543 0 0.127937734127044678
0.216839462518692017 0 0.125494047999382019
0.130400404334068298 0 0.180944353342056274
0.163408592343330383 0 0.142816260457038879
0.134600192308425903 0 0.158346652984619141
0.15702444314956665 0 0.247900635004043579
0.11896466463804245 0 0.224985718727111816
0.124670431017875671 0 0.241513773798942566
0.150253176689147949 0 0.181543171405792236
0.124793082475662231 0 0.153591379523277283
0.11771778017282486 0 0.230093032121658325
0.163733094930648804 0 0.232251062989234924
0.181098401546478271 0 0.158538907766342163
0.0961073637008666992 0 0.254205793142318726
0.17107430100440979 0 0.170423731207847595
0.190347015857696533 0 0.123757690191268921
0.185526996850967407 0 0.201447144150733948
0.118229538202285767 0 0.207792982459068298
0.168944120407104492 0 0.161979228258132935
0.114636525511741638 0 0.21920447051525116
0.219857662916183472 0 0.153153285384178162
0.136407762765884399 0 0.208110451698303223
0.132173448801040649 0 0.191718876361846924
0.111134916543960571 0 0.215719670057296753
0.152735143899917603 0 0.176267921924591064
0.159990742802619934 0 0.158441603183746338
0.239373341202735901 0 0.0959309637546539307
0.183348372578620911 0 0.135492995381355286
0.14957013726234436 0 0.251466929912567139
0.141486778855323792 0 0.23080037534236908
0.213685497641563416 0 0.148068830370903015
0.151183620095252991 0 0.232808500528335571
0.183385223150253296 0 0.162002205848693848
0.121718436479568481 0 0.208556115627288818
0.108144335448741913 0 0.209526091814041138
0.0611357614398002625 0 0.229676127433776855
0.147865459322929382 0 0.170924797654151917
0.168108522891998291 0 0.176409989595413208
0.0809963718056678772 0 0.189160943031311035
0.0540890879929065704 0 0.205041289329528809
0.132301732897758484 0 0.165863275527954102
0.0760927647352218628 0 0.196602389216423035
0.146539464592933655 0 0.263474404811859131
0.0523213371634483337 0 0.194669932126998901
0.0952916368842124939 0 0.201153874397277832
0.203718870878219604 0 0.182498455047607422
0.0939266085624694824 0 0.188013270497322083
0.151181668043136597 0 0.272952377796173096
0.154619291424751282 0 0.141379892826080322
0.0125947929918766022 0 0.212593525648117065
0.164985015988349915 0 0.240288212895393372
0.0941356867551803589 0 0.210437342524528503
0.131892308592796326 0 0.235343709588050842
0.164037987589836121 0 0.15725351870059967
0.15798032283782959 0 0.183306425809860229
0.178853228688240051 0 0.181619882583618164
0.179366931319236755 0 0.213933855295181274
0.156076043844223022 0 0.176656126976013184
0.173549026250839233 0 0.172471344470977783
0.0498954877257347107 0 0.206591486930847168
0.2081470787525177 0 0.123675897717475891
0.18023914098739624 0 0.146038547158241272
0.170000463724136353 0 0.174516886472702026
0.13722798228263855 0 0.240973830223083496
0.119119226932525635 0 0.238469898700714111
0.0718709081411361694 0 0.203860044479370117
0.058390740305185318 0 0.203726232051849365
0.0552339404821395874 0.400000005960464478 0.179535701870918274
0.0588776320219039917 0.400000005960464478 0.132752716541290283
0.0280758589506149292 0.400000005960464478 0.198913425207138062
0.108426138758659363 0.400000005960464478 0.0648221224546432495
0.22277851402759552 0.400000005960464478 0.0955288708209991455
0.0857006609439849854 0.400000005960464478 0.170543372631072998
0.148153811693191528 0.400000005960464478 0.0300479698926210403
0.138850182294845581 0.400000005960464478 0.123240247368812561
0.0458143800497055054 0.400000005960464478 0.192362219095230103
0.175701633095741272 0.400000005960464478 0.0724443197250366211
0.102185845375061035 0.400000005960464478 0.0757806301116943359
0.107055112719535828 0.400000005960464478 0.154385492205619812
0.184413939714431763 0.400000005960464478 0.115614555776119232
0.187512040138244629 0.400000005960464478 0.116977810859680176
0.152124077081680298 0.400000005960464478 0.103789009153842926
0.144902020692825317 0.400000005960464478 0.0581146776676177979
0.130032718181610107 0.400000005960464478 0.00337915262207388878
0.115160495042800903 0.400000005960464478 0.116681963205337524
0.0691238641738891602 0.400000005960464478 0.10888303816318512
0.11212901771068573 0.400000005960464478 0.116226166486740112
0.0379962027072906494 0.400000005960464478 0.167996197938919067
0.176765561103820801 0.400000005960464478 0.10547955334186554
0.016217648983001709 0.400000005960464478 0.1959725022315979
0.175355583429336548 0.400000005960464478 0.0477987565100193024
0.104241549968719482 0.400000005960464478 0.0886135026812553406
0.135270431637763977 0.400000005960464478 0.0455284155905246735
0.164190605282783508 0.400000005960464478 0.0348241478204727173
0.150216206908226013 0.400000005960464478 0.0250655002892017365
0.0890864282846450806 0.400000005960464478 0.0915849059820175171
0.0759232640266418457 0.400000005960464478 0.08713550865650177
0.0280166715383529663 0.400000005960464478 0.197972789406776428
0.120843455195426941 0.400000005960464478 0.0854977071285247803
0.197403654456138611 0.400000005960464478 0.0495393760502338409
0.0560573339462280273 0.400000005960464478 0.187063843011856079
0.195988982915878296 0.400000005960464478 0.0839391350746154785
0.218617245554924011 0.400000005960464478 0.0910515934228897095
0.106544241309165955 0.400000005960464478 0.0625303387641906738
0.0659507513046264648 0.400000005960464478 0.174929410219192505
0.13315090537071228 0.400000005960464478 0.101474106311798096
0.169766455888748169 0.400000005960464478 0.0512395203113555908
0.195310160517692566 0.400000005960464478 0.0800454765558242798
0.108308948576450348 0.400000005960464478 0.113821268081665039
0.0497393757104873657 0.400000005960464478 0.138716161251068115
0.15357208251953125 0.400000005960464478 0.0383359678089618683
0.0447775870561599731 0.400000005960464478 0.18499419093132019
0.156364426016807556 0.400000005960464478 0.0460401624441146851
0.219871789216995239 0.400000005960464478 0.0778794959187507629
0.119825586676597595 0.400000005960464478 0.0296023637056350708
0.027484402060508728 0.400000005960464478 0.178999513387680054
0.171018481254577637 0.400000005960464478 0.0668597221374511719
0.161350339651107788 0.400000005960464478 0.105257123708724976
0.0481537133455276489 0.400000005960464478 0.189310759305953979
0.120475843548774719 0.400000005960464478 0.149914324283599854
0.1034836545586586 0.400000005960464478 0.069726116955280304
0.207639053463935852 0.400000005960464478 0.0496841743588447571
0.122299954295158386 0.400000005960464478 0.0477293021976947784
0.0899896994233131409 0.400000005960464478 0.069674760103225708
0.141641765832901001 0.400000005960464478 0.107758864760398865
0.0920977890491485596 0.400000005960464478 0.124016135931015015
0.229889363050460815 0.400000005960464478 0.0687634870409965515
0.0440905094146728516 0.400000005960464478 0.16794431209564209
0.177309885621070862 0.400000005960464478 0.0696415156126022339
0.0716395825147628784 0.400000005960464478 0.166238278150558472
0.0668936073780059814 0.400000005960464478 0.17439877986907959
0.0349304378032684326 0.400000005960464478 0.174931377172470093
0.165874093770980835 0.400000005960464478 0.0866612419486045837
0.100700080394744873 0.400000005960464478 0.130529433488845825
0.0451692193746566772 0.400000005960464478 0.156078428030014038
0.196583732962608337 0.400000005960464478 0.0449208952486515045
0.0610536038875579834 0.400000005960464478 0.114439815282821655
0.0825270041823387146 0.400000005960464478 0.108542770147323608
0.15991489589214325 0.400000005960464478 0.0499192029237747192
0.183891654014587402 0.400000005960464478 0.0807215571403503418
0.112240076065063477 0.400000005960464478 0.130981177091598511
0.197816029191017151 0.400000005960464478 0.0852551460266113281
0.0724013149738311768 0.400000005960464478 0.147560358047485352
0.173423603177070618 0.400000005960464478 0.110517777502536774
0.0841557830572128296 0.400000005960464478 0.136201277375221252
0.0204924643039703369 0.400000005960464478 0.18338523805141449
0.159622371196746826 0.400000005960464478 0.0514627546072006226
0.162517651915550232 0.400000005960464478 0.0248140357434749603
0.150619611144065857 0.400000005960464478 0.023058086633682251
0.175798982381820679 0.400000005960464478 0.109789721667766571
0.150091394782066345 0.400000005960464478 0.04543280228972435
0.190255612134933472 0.400000005960464478 0.0378880351781845093
0.136236011981964111 0.400000005960464478 0.0529428869485855103
0.158338993787765503 0.400000005960464478 0.131056547164916992
0.165855467319488525 0.400000005960464478 0.0773463994264602661
0.0579522401094436646 0.400000005960464478 0.171601831912994385
0.209818586707115173 0.400000005960464478 0.0967580005526542664
0.10172717273235321 0.400000005960464478 0.133283838629722595
0.225945159792900085 0.400000005960464478 0.0596923045814037323
0.124111294746398926 0.400000005960464478 0.14203093945980072
0.0911857485771179199 0.400000005960464478 0.129281759262084961
0.0972075015306472778 0.400000005960464478 0.146567314863204956
0.229760423302650452 0.400000005960464478 0.0851960480213165283
0.207030192017555237 0.400000005960464478 0.0673546940088272095
0.159971773624420166 0.400000005960464478 0.123327866196632385
0.100838139653205872 0.400000005960464478 0.151950210332870483
0.0629113167524337769 0.400000005960464478 0.182278841733932495
0.228791266679763794 0.400000005960464478 0.0908582359552383423
0.118737779557704926 0.400000005960464478 0.0548378601670265198
0.177626416087150574 0.400000005960464478 0.0782973393797874451
0.156839728355407715 0.400000005960464478 0.106708034873008728
0.160480588674545288 0.400000005960464478 0.13072533905506134
0.10990414023399353 0.400000005960464478 0.158155471086502075
0.135183423757553101 0.400000005960464478 0.0975327566266059875
0.198695123195648193 0.400000005960464478 0.112197041511535645
0.0961745083332061768 0.400000005960464478 0.124332740902900696
0.108258090913295746 0.400000005960464478 0.08925667405128479
0.184910118579864502 0.400000005960464478 0.0467127077281475067
0.0736543834209442139 0.400000005960464478 0.12627863883972168
0.112278953194618225 0.400000005960464478 0.130458727478981018
0.150281310081481934 0.400000005960464478 0.0243939179927110672
0.195237040519714355 0.400000005960464478 0.103192560374736786
0.196808874607086182 0.400000005960464478 0.0969956591725349426
0.127435892820358276 0.400000005960464478 0.12729133665561676
0.178287863731384277 0.400000005960464478 0.0618374012410640717
0.10351022332906723 0.400000005960464478 0.111567489802837372
0.146620869636535645 0.400000005960464478 0.0835101380944252014
0.132340982556343079 0.400000005960464478 0.146445021033287048
0.0280712246894836426 0.400000005960464478 0.18870118260383606
0.0449440032243728638 0.400000005960464478 0.152698442339897156
0.107966020703315735 0.400000005960464478 0.0433286428451538086
0.129170805215835571 0.400000005960464478 0.143013149499893188
0.0948958545923233032 0.400000005960464478 0.153674393892288208
0.145832434296607971 0.400000005960464478 0.047234509140253067
0.219292134046554565 0.400000005960464478 0.0781111344695091248
0.143650293350219727 0.400000005960464478 0.0917173326015472412
0.0125883966684341431 0.400000005960464478 0.205400675535202026
0.191068366169929504 0.400000005960464478 0.0463238097727298737
0.177131205797195435 0.400000005960464478 0.0384318791329860687
0.153767526149749756 0.400000005960464478 0.0399215035140514374
0.193879812955856323 0.400000005960464478 0.0586316362023353577
0.181807637214660645 0.400000005960464478 0.0349682383239269257
0.0915536284446716309 0.400000005960464478 0.102579958736896515
0.121000625193119049 0.400000005960464478 0.104933612048625946
0.0687079280614852905 0.400000005960464478 0.131702080368995667
0.175969317555427551 0.400000005960464478 0.0914206504821777344
0.132982358336448669 0.400000005960464478 0.0404991805553436279
0.166798532009124756 0.400000005960464478 0.0384942106902599335
0.126321285963058472 0.400000005960464478 0.104111999273300171
0.0610283017158508301 0.400000005960464478 0.1421356201171875
0.091995730996131897 0.400000005960464478 0.0875862538814544678
0.104360148310661316 0.400000005960464478 0.153328776359558105
0.114289596676826477 0.400000005960464478 0.1521492600440979
0.0822533369064331055 0.400000005960464478 0.157803907990455627
0.0782994180917739868 0.400000005960464478 0.153035998344421387
0.100681081414222717 0.400000005960464478 0.155698090791702271
0.0921964719891548157 0.400000005960464478 0.113701589405536652
0.126246809959411621 0.400000005960464478 0.0255246013402938843
0.127513974905014038 0.400000005960464478 0.0232373401522636414
0.0875325649976730347 0.400000005960464478 0.161774694919586182
0.215672791004180908 0.400000005960464478 0.0716336965560913086
0.234279051423072815 0.400000005960464478 0.0820899009704589844
0.138406068086624146 0.400000005960464478 0.110901340842247009
0.0262712687253952026 0.400000005960464478 0.196849048137664795
0.150495171546936035 0.400000005960464478 0.100320562720298767
0.0270950049161911011 0.400000005960464478 0.200442463159561157
0.0357255935668945312 0.400000005960464478 0.162126943469047546
0.0420185327529907227 0.400000005960464478 0.151100099086761475
0.0548723787069320679 0.400000005960464478 0.174926653504371643
0.133040428161621094 0.400000005960464478 0.0815477520227432251
0.146877020597457886 0.400000005960464478 0.0926119834184646606
0.211605280637741089 0.400000005960464478 0.0813589394092559814
0.136638045310974121 0.400000005960464478 0.0293156914412975311
0.0760032981634140015 0.400000005960464478 0.123817950487136841
0.093735039234161377 0.400000005960464478 0.165691852569580078
0.19598039984703064 0.400000005960464478 0.10812079906463623
0.17243465781211853 0.400000005960464478 0.0915902405977249146
0.232867881655693054 0.400000005960464478 0.0750270858407020569
0.147329941391944885 0.400000005960464478 0.0794946551322937012
0.114698320627212524 0.400000005960464478 0.0553976930677890778
0.069937974214553833 0.400000005960464478 0.112366296350955963
0.0822794139385223389 0.400000005960464478 0.121331125497817993
0.176383763551712036 0.400000005960464478 0.0954675599932670593
0.126539945602416992 0.400000005960464478 0.077635645866394043
0.0462950021028518677 0.400000005960464478 0.147629901766777039
0.148382395505905151 0.400000005960464478 0.091512531042098999
0.0857033506035804749 0.400000005960464478 0.113742582499980927
0.165555000305175781 0.400000005960464478 0.118790559470653534
0.130117699503898621 0.400000005960464478 0.0203354358673095703
0.142528936266899109 0.400000005960464478 0.137496262788772583
0.154294118285179138 0.400000005960464478 0.125398039817810059
0.156849324703216553 0.400000005960464478 0.0443319156765937805
0.150034472346305847 0.400000005960464478 0.0500635281205177307
0.176221385598182678 0.400000005960464478 0.0561769828200340271
0.174823462963104248 0.400000005960464478 0.110425233840942383
0.168988883495330811 0.400000005960464478 0.0950561016798019409
0.0956935286521911621 0.400000005960464478 0.0593841522932052612
0.0377036631107330322 0.400000005960464478 0.1679505854845047
0.195762783288955688 0.400000005960464478 0.0975107923150062561
0.223111838102340698 0.400000005960464478 0.0961779505014419556
0.173740953207015991 0.400000005960464478 0.088817402720451355
0.0202807039022445679 0.400000005960464478 0.195370614528656006
0.124958865344524384 0.400000005960464478 0.0428389161825180054
0.161621317267417908 0.400000005960464478 0.0757696032524108887
0.15688776969909668 0.400000005960464478 0.0798009037971496582
0.0810543745756149292 0.400000005960464478 0.135082066059112549
0.150070369243621826 0.400000005960464478 0.0389592871069908142
0.0830921530723571777 0.400000005960464478 0.130110949277877808
0.101574242115020752 0.400000005960464478 0.0669917836785316467
0.237588241696357727 0.400000005960464478 0.0864340439438819885
0.108645759522914886 0.400000005960464478 0.102585136890411377
0.149260878562927246 0.400000005960464478 0.0575174428522586823
0.195807754993438721 0.400000005960464478 0.099491119384765625
0.0956417322158813477 0.400000005960464478 0.10710848867893219
0.213605612516403198 0.400000005960464478 0.0799002349376678467
0.0523774623870849609 0.400000005960464478 0.157768517732620239
0.213637396693229675 0.400000005960464478 0.0581856817007064819
0.197988241910934448 0.400000005960464478 0.0567236095666885376
0.0895275026559829712 0.400000005960464478 0.161558032035827637
0.150720000267028809 0.400000005960464478 0.0306009445339441299
0.111931420862674713 0.400000005960464478 0.0540995001792907715
0.175254940986633301 0.400000005960464478 0.0421010218560695648
0.197836294770240784 0.400000005960464478 0.051797475665807724
0.165807515382766724 0.400000005960464478 0.0259881317615509033
0.14991430938243866 0.400000005960464478 0.0386695601046085358
0.219567164778709412 0.400000005960464478 0.0558578595519065857
0.142306089401245117 0.400000005960464478 0.090952947735786438
0.186183974146842957 0.400000005960464478 0.0840960368514060974
0.21144886314868927 0.400000005960464478 0.0740839168429374695
0.12253996729850769 0.400000005960464478 0.139727890491485596
0.162113919854164124 0.400000005960464478 0.0807305052876472473
0.231717422604560852 0.400000005960464478 0.0682364925742149353
0.0491248369216918945 0.400000005960464478 0.138456031680107117
0.0747165679931640625 0.400000005960464478 0.134605541825294495
0.117999576032161713 0.400000005960464478 0.0674872323870658875
0.021278873085975647 0.400000005960464478 0.203900426626205444
0.134365454316139221 0.400000005960464478 0.00798857863992452621
0.12361501157283783 0.400000005960464478 0.0320700481534004211
0.155476987361907959 0.400000005960464478 0.0951759293675422668
0.077424466609954834 0.400000005960464478 0.11959434300661087
0.0652390867471694946 0.400000005960464478 0.138088420033454895
0.206206321716308594 0.400000005960464478 0.0475968904793262482
0.206557303667068481 0.400000005960464478 0.0890355482697486877
0.106501072645187378 0.400000005960464478 0.0497975908219814301
0.115762524306774139 0.400000005960464478 0.125920042395591736
0.213569045066833496 0.400000005960464478 0.064244493842124939
0.160970538854598999 0.400000005960464478 0.0720602646470069885
0.178176760673522949 0.400000005960464478 0.105348922312259674
0.166623428463935852 0.400000005960464478 0.0582908391952514648
0.110283628106117249 0.400000005960464478 0.114784777164459229
0.115446001291275024 0.400000005960464478 0.140478193759918213
0.080135539174079895 0.400000005960464478 0.167767882347106934
0.133966803550720215 0.400000005960464478 0.0605786964297294617
0.0641608685255050659 0.400000005960464478 0.157262369990348816
0.0530338883399963379 0.400000005960464478 0.17488551139831543
0.0285787731409072876 0.400000005960464478 0.198332890868186951
0.160310983657836914 0.400000005960464478 0.075789332389831543
0.124593816697597504 0.400000005960464478 0.0705124512314796448
0.0869345963001251221 0.400000005960464478 0.163454324007034302
0.11640755832195282 0.400000005960464478 0.152037322521209717
0.0518807172775268555 0.400000005960464478 0.166425019502639771
0.0642532259225845337 0.400000005960464478 0.106106534600257874
0.13401515781879425 0.400000005960464478 0.00818748120218515396
0.144505903124809265 0.400000005960464478 0.0364932753145694733
0.0240033566951751709 0.400000005960464478 0.196133702993392944
0.223920077085494995 0.400000005960464478 0.0794407352805137634
0.167623013257980347 0.400000005960464478 0.0551357083022594452
0.254385292530059814 0.400000005960464478 0.0759724825620651245
0.10813286155462265 0.400000005960464478 0.101829193532466888
0.107879281044006348 0.400000005960464478 0.142783477902412415
0.00613451004028320312 0.400000005960464478 0.206692337989807129
0.0750969648361206055 0.400000005960464478 0.131231248378753662
0.17860017716884613 0.400000005960464478 0.0781729221343994141
0.140083461999893188 0.400000005960464478 0.110057249665260315
0.217208772897720337 0.400000005960464478 0.0970570221543312073
0.161240488290786743 0.400000005960464478 0.0331039577722549438
0.119451858103275299 0.400000005960464478 0.0472558736801147461
0.138140693306922913 0.400000005960464478 0.0617851614952087402
0.151995033025741577 0.400000005960464478 0.100889831781387329
0.137058719992637634 0.400000005960464478 0.0898686200380325317
0.121176153421401978 0.400000005960464478 0.108546540141105652
0.199231714010238647 0.400000005960464478 0.092459656298160553
0.0989604368805885315 0.400000005960464478 0.119016759097576141
0.131060793995857239 0.400000005960464478 0.144113406538963318
0.048757597804069519 0.400000005960464478 0.145212054252624512
0.143240869045257568 0.400000005960464478 0.102716952562332153
0.0482289791107177734 0.400000005960464478 0.134146645665168762
0.214237511157989502 0.400000005960464478 0.0802297517657279968
0.16146579384803772 0.400000005960464478 0.0933441519737243652
0.122991293668746948 0.400000005960464478 0.147095903754234314
0.162398219108581543 0.400000005960464478 0.115579195320606232
0.200752466917037964 0.400000005960464478 0.0482946112751960754
0.199796319007873535 0.400000005960464478 0.0998172089457511902
0.00398224592208862305 0.400000005960464478 0.211204767227172852
0.146766111254692078 0.400000005960464478 0.127227663993835449
0.109451077878475189 0.400000005960464478 0.125769615173339844
0.121387094259262085 0.400000005960464478 0.10933336615562439
0.203664660453796387 0.400000005960464478 0.0895116552710533142
0.183374136686325073 0.400000005960464478 0.0786515623331069946
0.22010079026222229 0.400000005960464478 0.0652511566877365112
0.176938712596893311 0.400000005960464478 0.107557117938995361
0.104830056428909302 0.400000005960464478 0.0970811471343040466
0.204620465636253357 0.400000005960464478 0.100211434066295624
0.134595170617103577 0.400000005960464478 0.0186982341110706329
0.1125611811876297 0.400000005960464478 0.13426557183265686
0.242997854948043823 0.400000005960464478 0.0873955786228179932
0.153381049633026123 0.400000005960464478 0.117427721619606018
0.147064432501792908 0.400000005960464478 0.0220026392489671707
0.107742093503475189 0.400000005960464478 0.110868334770202637
0.202488243579864502 0.400000005960464478 0.0796618163585662842
0.0792112201452255249 0.400000005960464478 0.0838844031095504761
0.055051848292350769 0.400000005960464478 0.139575034379959106
0.149901151657104492 0.400000005960464478 0.0339939706027507782
0.164194360375404358 0.400000005960464478 0.0365250073373317719
0.110441014170646667 0.400000005960464478 0.12077680230140686
0.122059985995292664 0.400000005960464478 0.134615406394004822
0.14740695059299469 0.400000005960464478 0.138058304786682129
0.103665262460708618 0.400000005960464478 0.0671574771404266357
0.0835010260343551636 0.400000005960464478 0.163243800401687622
0.164106741547584534 0.400000005960464478 0.0358553938567638397
0.0752018094062805176 0.400000005960464478 0.141611054539680481
0.0682502537965774536 0.400000005960464478 0.1593780517578125
0.184600308537483215 0.400000005960464478 0.100692771375179291
0.0282415002584457397 0.400000005960464478 0.191513657569885254
0.0491924434900283813 0.400000005960464478 0.141468048095703125
0.109187506139278412 0.400000005960464478 0.0369894281029701233
0.165708273649215698 0.400000005960464478 0.0494129285216331482
0.0437614768743515015 0.400000005960464478 0.162972360849380493
0.105258055031299591 0.400000005960464478 0.0669350698590278625
0.194416359066963196 0.400000005960464478 0.072442956268787384
0.132733553647994995 0.400000005960464478 0.13283403217792511
0.102565675973892212 0.400000005960464478 0.157061666250228882
0.215699329972267151 0.400000005960464478 0.0685086920857429504
0.208990186452865601 0.400000005960464478 0.0676180869340896606
0.157874226570129395 0.400000005960464478 0.0935432761907577515
0.11818404495716095 0.400000005960464478 0.0408067703247070312
0.129147499799728394 0.400000005960464478 0.0250671058893203735
0.162113025784492493 0.400000005960464478 0.0769650936126708984
0.209273263812065125 0.400000005960464478 0.0647938847541809082
0.144740790128707886 0.400000005960464478 0.0240419656038284302
0.12022833526134491 0.400000005960464478 0.147070765495300293
0.0792839080095291138 0.400000005960464478 0.10991629958152771
0.200370579957962036 0.400000005960464478 0.0683387070894241333
0.124835178256034851 0.400000005960464478 0.120518356561660767
0.12564365565776825 0.400000005960464478 0.000381162157282233238
0.119676820933818817 0.400000005960464478 0.0130137521773576736
0.0814924240112304688 0.400000005960464478 0.116787753999233246
0.0837149173021316528 0.400000005960464478 0.129335522651672363
0.167612567543983459 0.400000005960464478 0.0545395240187644958
0.231816083192825317 0.400000005960464478 0.0882773473858833313
0.198209494352340698 0.400000005960464478 0.0989709198474884033
0.128953322768211365 0.400000005960464478 0.0302247628569602966
0.18119049072265625 0.400000005960464478 0.0816885381937026978
0.138133928179740906 0.400000005960464478 0.0560537464916706085
0.101396702229976654 0.400000005960464478 0.103243216872215271
0.120557337999343872 0.400000005960464478 0.136163786053657532
0.220860123634338379 0.400000005960464478 0.0897608175873756409
0.133717507123947144 0.400000005960464478 0.115760982036590576
0.119338393211364746 0.400000005960464478 0.115362763404846191
