ply
format ascii 1.0
element vertex 718
property float x
property float y
property float z
end_header
-0.0210785660892724991 0.0250079147517681122 0.0323533676564693451
-0.0214201770722866058 0.0250080451369285583 0.0323204658925533295
-0.0215897765010595322 0.025008106604218483 0.0324305444955825806
-0.0197267346084117889 0.0250074081122875214 0.0323051176965236664
-0.0201627481728792191 0.0250075720250606537 0.0326620079576969147
-0.0146081699058413506 0.025005485862493515 0.030411798506975174
-0.0157463960349559784 0.0250059142708778381 0.0310017094016075134
-0.0178349819034337997 0.0250066984444856644 0.0310618504881858826
-0.0194204673171043396 0.025007292628288269 0.0324766039848327637
-0.017361098900437355 0.0250065214931964874 0.0318938083946704865
-0.0137198483571410179 0.0250051543116569519 0.0308166630566120148
-0.0219488088041543961 0.0250082425773143768 0.0320419222116470337
-0.0177032481878995895 0.0250066481530666351 0.0321328639984130859
-0.00793897546827793121 0.0250029824674129486 0.0289880894124507904
-0.015216335654258728 0.0250057131052017212 0.0307543985545635223
-0.0191201139241456985 0.0250071808695793152 0.0328335165977478027
-0.0104008316993713379 0.0250039082020521164 0.0296500846743583679
-0.0129900872707366943 0.025004880502820015 0.0309291761368513107
-0.0137254297733306885 0.0250051543116569519 0.0309804417192935944
-0.0164856426417827606 0.0250061918050050735 0.0320929624140262604
-0.0162041131407022476 0.0250060856342315674 0.0305663365870714188
-0.0145653765648603439 0.0250054709613323212 0.0303812641650438309
-0.0213584434241056442 0.0250080209225416183 0.0316516086459159851
-0.0126153873279690742 0.0250047389417886734 0.0301596000790596008
-0.0135387983173131943 0.0250050853937864304 0.0307433865964412689
-0.021497827023267746 0.0250080712139606476 0.0317534357309341431
-0.0221908483654260635 0.0250083319842815399 0.0319393463432788849
-0.0099383331835269928 0.0250037331134080887 0.0296162310987710953
-0.0238629840314388275 0.0250089596956968307 0.0316503718495368958
-0.0240993965417146683 0.0250090491026639938 0.0299864858388900757
-0.0156329814344644547 0.0250058714300394058 0.0299973562359809875
-0.0240867044776678085 0.0250090453773736954 0.0313685573637485504
-0.0126479603350162506 0.025004751980304718 0.0294171273708343506
-0.0246836151927709579 0.0250092688947916031 0.0306908246129751205
-0.00805693119764328003 0.0250030271708965302 0.0285454299300909042
-0.0116293737664818764 0.0250043682754039764 0.0289471372961997986
-0.0160790421068668365 0.0250060390681028366 0.0304198786616325378
-0.0200311131775379181 0.0250075217336416245 0.0302953235805034637
-0.0177808478474617004 0.0250066760927438736 0.0300411619246006012
-0.015460597351193428 0.0250058062374591827 0.0300555527210235596
-0.0137803619727492332 0.0250051748007535934 0.0293522551655769348
-0.0234721973538398743 0.0250088144093751907 0.0296884998679161072
-0.0090048033744096756 0.025003381073474884 0.0289233420044183731
-0.0208625365048646927 0.0250078346580266953 0.0296012330800294876
-0.0243791490793228149 0.0250091552734375 0.0306931678205728531
-0.0193678475916385651 0.0250072740018367767 0.0302625745534896851
-0.0165638253092765808 0.0250062216073274612 0.0297975465655326843
-0.0202999692410230637 0.0250076241791248322 0.02954888716340065
-0.0195314828306436539 0.0250073354691267014 0.0306846834719181061
-0.0210990384221076965 0.0250079240649938583 0.0294560790061950684
-0.0161961391568183899 0.0250060837715864182 0.0293957814574241638
-0.0177904441952705383 0.0250066798180341721 0.0304949581623077393
-0.0226839017122983932 0.025008518248796463 0.0310506746172904968
-0.00772076845169067383 0.0250029005110263824 0.0282866451889276505
-0.0231478642672300339 0.0250086933374404907 0.031345706433057785
-0.0161419957876205444 0.0250060614198446274 0.0296262223273515701
-0.0233036242425441742 0.0250087510794401169 0.0296582523733377457
-0.0179261397570371628 0.0250067319720983505 0.0305394083261489868
-0.0222077909857034683 0.0250083375722169876 0.0314955301582813263
-0.0129136210307478905 0.0250048507004976273 0.0295300111174583435
-0.0238032005727291107 0.02500893734395504 0.0305391736328601837
-0.0220318697392940521 0.0250082723796367645 0.0305720213800668716
-0.0247197952121496201 0.0250092819333076477 0.0309712830930948257
-0.00888304039835929871 0.0250033382326364517 0.0284661427140235901
-0.021196393296122551 0.0250079594552516937 0.0293851867318153381
-0.0236705485731363297 0.02500888891518116 0.0297007951885461807
-0.0222098212689161301 0.0250083412975072861 0.0301632136106491089
-0.0158187877386808395 0.0250059403479099274 0.0290931370109319687
-0.0171000771224498749 0.025006420910358429 0.0292386170476675034
-0.0157022811472415924 0.0250058975070714951 0.0296915452927350998
-0.00798647850751876831 0.0250029992312192917 0.0283157993108034134
-0.0207147803157567978 0.0250077787786722183 0.0311134755611419678
-0.00673163309693336487 0.0250025298446416855 0.0281940381973981857
-0.0166434645652770996 0.0250062495470046997 0.0296169668436050415
-0.0229061096906661987 0.0250086020678281784 0.0300536379218101501
-0.0142637556418776512 0.0250053573399782181 0.0294727552682161331
-0.00698104314506053925 0.025002622976899147 0.0283911116421222687
-0.0153010878711938858 0.0250057466328144073 0.0298739634454250336
-0.0224176514893770218 0.0250084176659584045 0.0314738936722278595
-0.013679121620953083 0.0250051375478506088 0.0295696351677179337
-0.0180139802396297455 0.0250067636370658875 0.0302030034363269806
-0.0231890827417373657 0.0250087082386016846 0.0310250185430049896
-0.0107113970443606377 0.0250040236860513687 0.0291699673980474472
-0.0141504285857081413 0.0250053144991397858 0.029743025079369545
-0.0134926773607730865 0.0250050686299800873 0.0298108197748661041
-0.00994921661913394928 0.0250037387013435364 0.0287916082888841629
-0.0231990385800600052 0.025008711963891983 0.0312217399477958679
-0.0230437964200973511 0.0250086523592472076 0.0317071154713630676
-0.0201060865074396133 0.0250075496733188629 0.0305658541619777679
-0.0185897089540958405 0.0250069797039031982 0.0304428860545158386
-0.0187170356512069702 0.0250070299953222275 0.0294142048805952072
-0.0207907389849424362 0.0250078067183494568 0.0297566354274749756
-0.0113695701584219933 0.0250042714178562164 0.0292100384831428528
-0.0211241878569126129 0.0250079333782196045 0.0307153500616550446
-0.0194205325096845627 0.025007292628288269 0.029394589364528656
-0.0220027565956115723 0.0250082630664110184 0.0311364661902189255
-0.0212078578770160675 0.0250079631805419922 0.0310513824224472046
-0.0245345551520586014 0.0250092130154371262 0.029912089928984642
-0.0186334177851676941 0.0250069964677095413 0.029689466580748558
-0.0151487644761800766 0.0250056888908147812 0.0295845195651054382
-0.0142194852232933044 0.025005340576171875 0.0288500860333442688
-0.0252334307879209518 0.0250094737857580185 0.0307657737284898758
-0.00804085470736026764 0.0250030215829610825 0.0281350109726190567
-0.0147399306297302246 0.0250055361539125443 0.0277293827384710312
-0.0249858517199754715 0.0250093825161457062 0.0282293315976858139
-0.0259804073721170425 0.0250097550451755524 0.02731340192258358
-0.0184042565524578094 0.0250069107860326767 0.0278395228087902069
-0.013942912220954895 0.0250052362680435181 0.0282933302223682404
-0.0237139202654361725 0.0250089038163423538 0.0295243505388498306
-0.0118526481091976166 0.0250044520944356918 0.0279170777648687363
-0.0258059371262788773 0.0250096898525953293 0.0278694480657577515
-0.0219923872500658035 0.0250082593411207199 0.0282110851258039474
-0.0129539407789707184 0.0250048656016588211 0.0285723041743040085
-0.0247635412961244583 0.0250092986971139908 0.0289068203419446945
-0.00715768709778785706 0.0250026881694793701 0.028054017573595047
-0.0166707858443260193 0.0250062607228755951 0.0287876874208450317
-0.0280919894576072693 0.0250105485320091248 0.0270873811095952988
-0.0202790312469005585 0.025007614865899086 0.0281295925378799438
-0.0291873794049024582 0.0250109601765871048 0.0275052040815353394
-0.0149370767176151276 0.0250056087970733643 0.0285323094576597214
-0.0174968242645263672 0.0250065717846155167 0.0280541796237230301
-0.0145204737782478333 0.0250054541975259781 0.0281639322638511658
-0.0077955927699804306 0.0250029303133487701 0.0281356219202280045
-0.0130200795829296112 0.0250048898160457611 0.0285751223564147949
-0.0117824524641036987 0.0250044260174036026 0.0280594732612371445
-0.021161053329706192 0.0250079464167356491 0.0283125471323728561
-0.02927391417324543 0.0250109918415546417 0.0273179151117801666
-0.0254002157598733902 0.0250095389783382416 0.0289275515824556351
-0.025893237441778183 0.0250097233802080154 0.0288558825850486755
-0.0265625659376382828 0.0250099748373031616 0.028173401951789856
-0.0219767950475215912 0.0250082537531852722 0.0291826818138360977
-0.0283890310674905777 0.0250106602907180786 0.0273733865469694138
-0.0151511160656809807 0.0250056888908147812 0.0280404537916183472
-0.0189329273998737335 0.0250071100890636444 0.0284982044249773026
-0.0211304835975170135 0.0250079352408647537 0.0277064759284257889
-0.015849042683839798 0.025005953386425972 0.0282241925597190857
-0.021764880046248436 0.0250081736594438553 0.0288494639098644257
-0.0150651726871728897 0.0250056572258472443 0.0287815667688846588
-0.0246892105787992477 0.0250092707574367523 0.0281734969466924667
-0.0218958817422389984 0.0250082220882177353 0.0274179410189390182
-0.0233941078186035156 0.0250087864696979523 0.0277871768921613693
-0.0211023073643445969 0.0250079240649938583 0.0288074798882007599
-0.0266148857772350311 0.0250099953263998032 0.0278332587331533432
-0.0249251164495944977 0.0250093583017587662 0.0280726496130228043
-0.0277384966611862183 0.0250104144215583801 0.0276831705123186111
-0.0230991542339324951 0.0250086747109889984 0.0272490773350000381
-0.0219468511641025543 0.0250082425773143768 0.0277804750949144363
-0.0222633015364408493 0.0250083599239587784 0.0281087271869182587
-0.0200017485767602921 0.0250075105577707291 0.0278434641659259796
-0.0238929539918899536 0.0250089727342128754 0.0274487268179655075
-0.0254567191004753113 0.0250095594674348831 0.0273209922015666962
-0.0232255607843399048 0.0250087212771177292 0.0287412907928228378
-0.0282137598842382431 0.0250105950981378555 0.0284219402819871902
-0.0261347629129886627 0.0250098146498203278 0.0281745977699756622
-0.0228294357657432556 0.0250085741281509399 0.0273372232913970947
-0.0267010796815156937 0.0250100269913673401 0.0294270385056734085
-0.0179656632244586945 0.0250067468732595444 0.0289516393095254898
-0.0267051365226507187 0.0250100269913673401 0.0284780971705913544
-0.0175418071448802948 0.0250065885484218597 0.0280451755970716476
-0.0233192257583141327 0.0250087566673755646 0.0276113338768482208
-0.0223801974207162857 0.0250084046274423599 0.0287744719535112381
-0.01557113416492939 0.0250058490782976151 0.0282928552478551865
-0.00863433443009853363 0.0250032451003789902 0.027904212474822998
-0.0246233530342578888 0.0250092465430498123 0.0282023157924413681
-0.0141123905777931213 0.0250052995979785919 0.028448076918721199
-0.0256219618022441864 0.0250096209347248077 0.0286298990249633789
-0.0265299361199140549 0.025009961798787117 0.0279389563947916031
-0.0218527093529701233 0.0250082071870565414 0.0272824373096227646
-0.0154502391815185547 0.0250058025121688843 0.0280493758618831635
-0.0275194477289915085 0.0250103343278169632 0.0274213496595621109
-0.0218479782342910767 0.025008203461766243 0.0293966718018054962
-0.012058015912771225 0.0250045303255319595 0.0285076163709163666
-0.0225703418254852295 0.0250084772706031799 0.0286957584321498871
-0.0191146433353424072 0.025007179006934166 0.0284485407173633575
-0.025979168713092804 0.0250097569078207016 0.0282959062606096268
-0.0143694905564188957 0.0250053983181715012 0.0279476586729288101
-0.0230709314346313477 0.025008663535118103 0.0276583209633827209
-0.0206394307315349579 0.0250077527016401291 0.0290589891374111176
-0.0265164170414209366 0.0250099580734968185 0.0274155475199222565
-0.0262710768729448318 0.025009864941239357 0.0286036860197782516
-0.019577857106924057 0.0250073522329330444 0.0277685727924108505
-0.02601667121052742 0.0250097699463367462 0.0275887306779623032
-0.0242103785276412964 0.0250090919435024261 0.028811061754822731
-0.025371309369802475 0.0250095278024673462 0.029008079320192337
-0.0172747932374477386 0.0250064879655838013 0.0282537415623664856
-0.017068818211555481 0.0250064115971326828 0.0286006554961204529
-0.0219533741474151611 0.0250082444399595261 0.0282124243676662445
-0.0157820787280797958 0.0250059273093938828 0.0286596808582544327
-0.0125750936567783356 0.0250047240406274796 0.0282458662986755371
-0.0258437804877758026 0.0250097047537565231 0.0285891834646463394
-0.0215650741010904312 0.0250080972909927368 0.0274816807359457016
-0.0242172647267580032 0.0250090938061475754 0.0279364008456468582
-0.0119412876665592194 0.025004485622048378 0.0276707839220762253
-0.0238477643579244614 0.0250089559704065323 0.0293050650507211685
-0.0174004696309566498 0.025006534531712532 0.0290114060044288635
-0.0219172388315200806 0.0250082295387983322 0.0274766627699136734
-0.0199072025716304779 0.0250074751675128937 0.0276768188923597336
-0.0251036826521158218 0.0250094272196292877 0.0287626385688781738
-0.00894427113234996796 0.0250033605843782425 0.0278236828744411469
-0.0132553558796644211 0.025004977360367775 0.0279857330024242401
-0.0288675688207149506 0.0250108391046524048 0.0252947788685560226
-0.0253781918436288834 0.0250095296651124954 0.0254677627235651016
-0.022329697385430336 0.0250083860009908676 0.0255768056958913803
-0.00964571349322795868 0.0250036232173442841 0.0274656116962432861
-0.0304683931171894073 0.0250114407390356064 0.0236469320952892303
-0.0222418755292892456 0.0250083524733781815 0.0262114759534597397
-0.0258896537125110626 0.0250097233802080154 0.0258524417877197266
-0.0286915749311447144 0.0250107757747173309 0.0249978713691234589
-0.015406094491481781 0.0250057857483625412 0.026190267875790596
-0.022153899073600769 0.0250083189457654953 0.0270405635237693787
-0.011745179072022438 0.025004412978887558 0.0273354128003120422
-0.0218644719570875168 0.0250082109123468399 0.0272316951304674149
-0.0294117126613855362 0.0250110439956188202 0.0257395952939987183
-0.0231203138828277588 0.0250086821615695953 0.0254734605550765991
-0.0309706851840019226 0.0250116288661956787 0.0238034687936306
-0.0176876597106456757 0.0250066425651311874 0.0270081870257854462
-0.0253358092159032822 0.0250095147639513016 0.0263197273015975952
-0.0277801398187875748 0.0250104311853647232 0.0267402622848749161
-0.0259925182908773422 0.0250097624957561493 0.0244316253811120987
-0.0142126567661762238 0.0250053368508815765 0.027346830815076828
-0.011893177404999733 0.0250044669955968857 0.027610044926404953
-0.0204702578485012054 0.025007687509059906 0.0253340639173984528
-0.0279193241149187088 0.0250104852020740509 0.0265303533524274826
-0.0201499350368976593 0.025007566437125206 0.0258407369256019592
-0.02652762271463871 0.025009961798787117 0.0259496439248323441
-0.0235557667911052704 0.0250088460743427277 0.0248830392956733704
-0.0264070592820644379 0.0250099170953035355 0.0267147980630397797
-0.0221568085253238678 0.0250083208084106445 0.0251250509172677994
-0.029435010626912117 0.0250110533088445663 0.026864493265748024
-0.027309877797961235 0.0250102560967206955 0.0245645679533481598
-0.0208612456917762756 0.0250078346580266953 0.026252303272485733
-0.0144337397068738937 0.0250054225325584412 0.0268319901078939438
-0.0305134039372205734 0.0250114575028419495 0.024524124339222908
-0.0284340344369411469 0.0250106789171695709 0.0241420194506645203
-0.0105195175856351852 0.0250039510428905487 0.0274162236601114273
-0.0279398784041404724 0.0250104926526546478 0.0242636688053607941
-0.0243880189955234528 0.0250091571360826492 0.026497943326830864
-0.0264960434287786484 0.0250099506229162216 0.0245094206184148788
-0.00863861292600631714 0.0250032469630241394 0.0276978183537721634
-0.0157026927918195724 0.0250058975070714951 0.0266179516911506653
-0.0250318627804517746 0.0250093992799520493 0.0265778973698616028
-0.0187334045767784119 0.0250070355832576752 0.0268088728189468384
-0.0138480644673109055 0.0250052008777856827 0.0275687389075756073
-0.00779248587787151337 0.0250029284507036209 0.0277230478823184967
-0.0247300304472446442 0.0250092856585979462 0.0253152381628751755
-0.0171247348189353943 0.0250064320862293243 0.0270437672734260559
-0.0103779807686805725 0.0250038988888263702 0.0270399600267410278
-0.0240796096622943878 0.0250090416520833969 0.0254481639713048935
-0.0248415209352970123 0.0250093284994363785 0.0260014794766902924
-0.028505152091383934 0.0250107049942016602 0.0269290618598461151
-0.0297773256897926331 0.0250111818313598633 0.0268455464392900467
-0.0272024348378181458 0.0250102151185274124 0.0260316673666238785
-0.0289320182055234909 0.0250108633190393448 0.0240244660526514053
-0.02577175572514534 0.0250096768140792847 0.0262652449309825897
-0.0222379975020885468 0.0250083524733781815 0.0267040040343999863
-0.0287407580763101578 0.025010792538523674 0.025912189856171608
-0.011537572368979454 0.0250043328851461411 0.0269597452133893967
-0.0233895257115364075 0.0250087827444076538 0.0269530508667230606
-0.0127624254673719406 0.0250047929584980011 0.0273932553827762604
-0.028891000896692276 0.0250108484178781509 0.0240397006273269653
-0.0256962571293115616 0.0250096507370471954 0.0255654230713844299
-0.0235794633626937866 0.0250088553875684738 0.0253903046250343323
-0.0216893572360277176 0.0250081457197666168 0.0259514935314655304
-0.00795813277363777161 0.0250029899179935455 0.0276887323707342148
-0.0156674068421125412 0.0250058844685554504 0.0269719269126653671
-0.0271305534988641739 0.025010187178850174 0.0242275744676589966
-0.0248399656265974045 0.0250093284994363785 0.0268084090203046799
-0.00893359072506427765 0.025003356859087944 0.0276487972587347031
-0.021882966160774231 0.0250082183629274368 0.025720600038766861
-0.0140680540353059769 0.0250052846968173981 0.0264001842588186264
-0.028134053573012352 0.0250105652958154678 0.0267782676964998245
-0.0300793126225471497 0.0250112954527139664 0.0258531123399734497
-0.0300748534500598907 0.0250112935900688171 0.0240377597510814667
-0.0274847652763128281 0.0250103212893009186 0.0270105116069316864
-0.0285906381905078888 0.0250107347965240479 0.0264818742871284485
-0.0206446833908557892 0.0250077527016401291 0.0267735254019498825
-0.0257463771849870682 0.0250096675008535385 0.0254196226596832275
-0.0179892182350158691 0.0250067561864852905 0.026592254638671875
-0.0256184209138154984 0.0250096209347248077 0.0258501488715410233
-0.0254747532308101654 0.02500956691801548 0.0252633001655340195
-0.022350609302520752 0.0250083953142166138 0.0252296458929777145
-0.0104235410690307617 0.0250039156526327133 0.0269930064678192139
-0.0297766998410224915 0.0250111818313598633 0.0256997086107730865
-0.0201635695993900299 0.0250075720250606537 0.0266261417418718338
-0.0196366608142852783 0.0250073745846748352 0.026255682110786438
-0.0217171050608158112 0.025008155032992363 0.0265485011041164398
-0.0221732780337333679 0.0250083263963460922 0.0256083458662033081
-0.0206585079431533813 0.0250077582895755768 0.0268364753574132919
-0.0183460917323827744 0.0250068902969360352 0.025907980278134346
-0.0250562336295843124 0.0250094085931777954 0.0245362147688865662
-0.0244254991412162781 0.0250091738998889923 0.024662436917424202
-0.0117491912096738815 0.025004412978887558 0.0276173315942287445
-0.0102664120495319366 0.0250038560479879379 0.027091052383184433
-0.0247943773865699768 0.0250093098729848862 0.0252743996679782867
-0.023715093731880188 0.0250089056789875031 0.0269017983227968216
-0.0233646482229232788 0.0250087734311819077 0.026149701327085495
-0.0146700534969568253 0.025005510076880455 0.0265056062489748001
-0.0142340157181024551 0.0250053461641073227 0.0263832379132509232
-0.0220721587538719177 0.0250082891434431076 0.0253841504454612732
-0.00848584435880184174 0.025003187358379364 0.0274770259857177734
-0.0227402467280626297 0.0250085387378931046 0.0251672528684139252
-0.0229759849607944489 0.0250086281448602676 0.0271223988384008408
-0.018775617703795433 0.0250070523470640182 0.0273350346833467484
-0.0207835324108600616 0.0250078048557043076 0.0265910439193248749
-0.0265032518655061722 0.0250099524855613708 0.0250797513872385025
-0.0167959518730640411 0.0250063072890043259 0.0269027389585971832
-0.0262486450374126434 0.0250098574906587601 0.0244525279849767685
-0.014208110049366951 0.0250053368508815765 0.0266874171793460846
-0.0295737031847238541 0.0250111054629087448 0.0238307956606149673
-0.0182612109929323196 0.025006856769323349 0.0257262270897626877
-0.021410524845123291 0.0250080414116382599 0.0271228663623332977
-0.0115183740854263306 0.0250043272972106934 0.0274913758039474487
-0.0239436179399490356 0.0250089913606643677 0.0259463377296924591
-0.0232411883771419525 0.0250087287276983261 0.0253205448389053345
-0.0211680196225643158 0.0250079501420259476 0.0264116972684860229
-0.0205876901745796204 0.0250077303498983383 0.0259260572493076324
-0.0156300626695156097 0.0250058714300394058 0.026942351832985878
-0.0297983232885599136 0.0250111911445856094 0.0238682292401790619
-0.0309603214263916016 0.0250116270035505295 0.024359729140996933
-0.00824663229286670685 0.0250030979514122009 0.0274217370897531509
-0.0204625800251960754 0.0250076856464147568 0.0257628839462995529
-0.0167114883661270142 0.0250062756240367889 0.0243638549000024796
-0.0230458136647939682 0.0250086542218923569 0.0234640855342149734
-0.0269930288195610046 0.0250101368874311447 0.0228541698306798935
-0.0147329811006784439 0.025005534291267395 0.025793273001909256
-0.023866657167673111 0.02500896155834198 0.023243192583322525
-0.0310914572328329086 0.0250116754323244095 0.0233009494841098785
-0.0265811365097761154 0.0250099822878837585 0.0240070875734090805
-0.0252026878297328949 0.0250094644725322723 0.0228945929557085037
-0.0261396970599889755 0.025009816512465477 0.0240496434271335602
-0.00897847488522529602 0.0250033736228942871 0.0268623828887939453
-0.0243873633444309235 0.0250091571360826492 0.0222695246338844299
-0.0271828658878803253 0.0250102076679468155 0.0217921361327171326
-0.0206454955041408539 0.0250077545642852783 0.0251255910843610764
-0.0273146610707044601 0.0250102579593658447 0.0236694421619176865
-0.0267168544232845306 0.0250100325793027878 0.0218208320438861847
-0.026779860258102417 0.0250100567936897278 0.0224702395498752594
-0.0290670115500688553 0.0250109154731035233 0.0218829326331615448
-0.019437834620475769 0.025007300078868866 0.024908158928155899
-0.0241127088665962219 0.0250090565532445908 0.0227820947766304016
-0.0263998489826917648 0.025009913370013237 0.0225059017539024353
-0.0260754488408565521 0.0250097904354333878 0.023553408682346344
-0.0274266041815280914 0.0250102989375591278 0.0237268600612878799
-0.0227620191872119904 0.0250085480511188507 0.0238242354243993759
-0.0286743473261594772 0.025010768324136734 0.0236207582056522369
-0.0248004142194986343 0.0250093135982751846 0.0244018901139497757
-0.0121237039566040039 0.0250045545399188995 0.0263825710862874985
-0.00554588809609413147 0.0250020846724510193 0.0277372114360332489
-0.0100139658898115158 0.0250037610530853271 0.0264073293656110764
-0.0327077433466911316 0.0250122826546430588 0.0209690164774656296
-0.0177848190069198608 0.0250066779553890228 0.0247176680713891983
-0.0285185258835554123 0.0250107087194919586 0.0216493178158998489
-0.0216826684772968292 0.0250081419944763184 0.023063264787197113
-0.0236450396478176117 0.0250088796019554138 0.0227570347487926483
-0.0149942375719547272 0.025005631148815155 0.0252463463693857193
-0.021847384050488472 0.025008203461766243 0.0248295366764068604
-0.0305896028876304626 0.0250114873051643372 0.0207969620823860168
-0.0130414832383394241 0.0250048991292715073 0.0264979097992181778
-0.0247923191636800766 0.0250093098729848862 0.0228232815861701965
-0.0244970731437206268 0.0250091999769210815 0.0224051624536514282
-0.018415205180644989 0.0250069145113229752 0.0247456002980470657
-0.017497040331363678 0.0250065717846155167 0.0251701213419437408
-0.0198606885969638824 0.0250074584037065506 0.0245524048805236816
-0.0297397933900356293 0.0250111669301986694 0.0216599442064762115
-0.0329389683902263641 0.0250123683363199234 0.0201078187674283981
-0.0219497997313737869 0.0250082425773143768 0.0242638438940048218
-0.0320397913455963135 0.0250120311975479126 0.020675046369433403
-0.0305723268538713455 0.0250114817172288895 0.0210392065346240997
-0.0139681082218885422 0.0250052474439144135 0.026239052414894104
-0.0310727562755346298 0.0250116679817438126 0.0220799185335636139
-0.026955433189868927 0.0250101238489151001 0.021625986322760582
-0.0281454287469387054 0.0250105690211057663 0.02240019291639328
-0.0124569982290267944 0.025004679337143898 0.026103561744093895
-0.0117050539702177048 0.0250043980777263641 0.026280796155333519
-0.0265542380511760712 0.0250099711120128632 0.0241860281676054001
-0.0233896858990192413 0.0250087827444076538 0.0229412000626325607
-0.0210970081388950348 0.0250079240649938583 0.0238958299160003662
-0.0189364608377218246 0.0250071119517087936 0.0248710531741380692
-0.0296046603471040726 0.0250111185014247894 0.0214202199131250381
-0.0201320964843034744 0.0250075608491897583 0.0251870285719633102
-0.0255018714815378189 0.0250095762312412262 0.0231714602559804916
-0.0175605751574039459 0.0250065941363573074 0.0254332907497882843
-0.0294245593249797821 0.0250110495835542679 0.0229841601103544235
-0.0233991760760545731 0.0250087883323431015 0.0231181476265192032
-0.0289709791541099548 0.0250108800828456879 0.0229165703058242798
-0.0267791375517845154 0.0250100549310445786 0.0217448603361845016
-0.018774859607219696 0.0250070523470640182 0.0243431851267814636
-0.0136478319764137268 0.0250051263719797134 0.0252400264143943787
-0.0268483459949493408 0.0250100810080766678 0.0224448107182979584
-0.0160195138305425644 0.0250060167163610458 0.025361623615026474
-0.0165334548801183701 0.0250062104314565659 0.0246375314891338348
-0.0180410724133253098 0.0250067748129367828 0.0250479429960250854
-0.0264124907553195953 0.0250099170953035355 0.0214961636811494827
-0.022929064929485321 0.0250086113810539246 0.0243916269391775131
-0.0137317590415477753 0.0250051580369472504 0.0254998132586479187
-0.0282875709235668182 0.025010623037815094 0.0220862738788127899
-0.0282578356564044952 0.0250106118619441986 0.0239019244909286499
-0.0293666385114192963 0.0250110272318124771 0.0218979176133871078
-0.0204368270933628082 0.0250076744705438614 0.0231956709176301956
-0.0117100737988948822 0.0250043980777263641 0.0265308097004890442
-0.0152322296053171158 0.0250057224184274673 0.025860300287604332
-0.0282541438937187195 0.0250106099992990494 0.0214981809258460999
-0.0277287214994430542 0.0250104125589132309 0.0214989930391311646
-0.0258891209959983826 0.0250097215175628662 0.0216253772377967834
-0.0276784449815750122 0.0250103939324617386 0.0211887676268815994
-0.0235214363783597946 0.0250088348984718323 0.0243131071329116821
-0.0303748920559883118 0.0250114072114229202 0.0228695236146450043
-0.0143803134560585022 0.0250054001808166504 0.0253971889615058899
-0.017821919173002243 0.0250066928565502167 0.0246523227542638779
-0.0258395299315452576 0.0250097028911113739 0.0226740147918462753
-0.0325161516666412354 0.0250122100114822388 0.0207290817052125931
-0.0263133514672517776 0.0250098817050457001 0.0216934569180011749
-0.0204718280583620071 0.025007687509059906 0.0249514561146497726
-0.011416751891374588 0.0250042881816625595 0.0266127251088619232
-0.0287099685519933701 0.0250107795000076294 0.0218131914734840393
-0.0228286534547805786 0.0250085741281509399 0.0243605040013790131
-0.0224984083324670792 0.0250084493309259415 0.0231525786221027374
-0.0271723829209804535 0.025010203942656517 0.0222376640886068344
-0.0263674184679985046 0.0250099021941423416 0.0234957505017518997
-0.0281372778117656708 0.0250105652958154678 0.0214933585375547409
-0.0251784790307283401 0.0250094551593065262 0.0230191312730312347
-0.0321606695652008057 0.0250120777636766434 0.022547578439116478
-0.0250286087393760681 0.0250093992799520493 0.0244834087789058685
-0.02271987684071064 0.0250085331499576569 0.0234844591468572617
-0.0229364968836307526 0.0250086132436990738 0.0244440007954835892
-0.031348496675491333 0.0250117722898721695 0.021204143762588501
-0.0279766768217086792 0.0250105056911706924 0.0228319540619850159
-0.0212340280413627625 0.0250079743564128876 0.0233906693756580353
-0.0187489744275808334 0.0250070411711931229 0.0239829830825328827
-0.0213611815124750137 0.0250080227851867676 0.0233724974095821381
-0.020105261355638504 0.0250075515359640121 0.0234061013907194138
-0.0320149920880794525 0.0250120218843221664 0.0224626567214727402
-0.00685600750148296356 0.0250025764107704163 0.0273812822997570038
-0.0311631597578525543 0.0250117033720016479 0.0211529675871133804
-0.0276349969208240509 0.0250103771686553955 0.0220163147896528244
-0.0234740749001502991 0.0250088144093751907 0.0224974006414413452
-0.0272479206323623657 0.0250102318823337555 0.0231754835695028305
-0.0207175444811582565 0.0250077806413173676 0.0243431888520717621
-0.0198362283408641815 0.0250074490904808044 0.0242752786725759506
-0.0319146104156970978 0.0250119846314191818 0.0222945809364318848
-0.0253752358257770538 0.0250095278024673462 0.0221960414201021194
-0.0325365625321865082 0.0250122174620628357 0.0204460546374320984
-0.0236969031393527985 0.0250088982284069061 0.0232185609638690948
-0.0207918323576450348 0.025007808580994606 0.0245780013501644135
-0.0110492464154958725 0.0250041522085666656 0.0260798092931509018
-0.0180087387561798096 0.0250067636370658875 0.0253504160791635513
-0.0286427568644285202 0.0250107552856206894 0.020975898951292038
-0.0230473950505256653 0.0250086542218923569 0.0233186855912208557
-0.027384171262383461 0.025010284036397934 0.0222045779228210449
-0.0184418018907308578 0.0250069256871938705 0.024265749379992485
-0.0101681742817163467 0.0250038187950849533 0.027006395161151886
-0.0238778833299875259 0.0250089671462774277 0.0232668649405241013
-0.0118790138512849808 0.025004461407661438 0.0264200679957866669
-0.0322583019733428955 0.0250121131539344788 0.0224386397749185562
-0.0228687562048435211 0.0250085871666669846 0.0230844691395759583
-0.0272852703928947449 0.0250102449208498001 0.0224411599338054657
-0.029204951599240303 0.0250109657645225525 0.0222232397645711899
-0.0153619870543479919 0.0250057689845561981 0.0256130155175924301
-0.0222792811691761017 0.0250083655118942261 0.0231466963887214661
-0.0318412594497203827 0.0250119566917419434 0.0219342969357967377
-0.0291153769940137863 0.0250109340995550156 0.0219168197363615036
-0.0181665308773517609 0.0250068232417106628 0.024471137672662735
-0.0169653762131929398 0.0250063706189393997 0.0252290591597557068
-0.0330929160118103027 0.0250124260783195496 0.0188254453241825104
-0.0174197033047676086 0.0250065438449382782 0.0225448198616504669
-0.00689439661800861359 0.0250025913119316101 0.0271523613482713699
-0.00808115489780902863 0.0250030364841222763 0.0264603663235902786
-0.0301589835435152054 0.0250113252550363541 0.0175331495702266693
-0.0153391901403665543 0.0250057615339756012 0.0237388983368873596
-0.0120364110916852951 0.0250045210123062134 0.0255162566900253296
-0.0129773467779159546 0.0250048749148845673 0.0252130553126335144
-0.0234298408031463623 0.0250087995082139969 0.0218324568122625351
-0.0238708704710006714 0.0250089634209871292 0.0220532584935426712
-0.025325629860162735 0.0250095091760158539 0.020260930061340332
-0.0156135335564613342 0.0250058639794588089 0.024162590503692627
-0.0329022035002708435 0.0250123552978038788 0.01825668103992939
-0.0206542797386646271 0.0250077564269304276 0.0227878503501415253
-0.0197988096624612808 0.0250074360519647598 0.0232651196420192719
-0.0276113953441381454 0.0250103678554296494 0.0186202451586723328
-0.0234788469970226288 0.0250088181346654892 0.0216461643576622009
-0.0296899452805519104 0.0250111483037471771 0.0181198790669441223
-0.0291238948702812195 0.0250109359622001648 0.0196134522557258606
-0.0215248353779315948 0.025008082389831543 0.0207726899534463882
-0.0107193700969219208 0.0250040274113416672 0.0257108528167009354
-0.0249854419380426407 0.0250093825161457062 0.0201427564024925232
-0.0191328935325145721 0.0250071845948696136 0.0221229176968336105
-0.0301443170756101608 0.0250113196671009064 0.0199213363230228424
-0.0290046632289886475 0.0250108912587165833 0.0195635296404361725
-0.0277906022965908051 0.0250104367733001709 0.0203793849796056747
-0.0139684006571769714 0.0250052455812692642 0.024222303181886673
-0.0277867093682289124 0.0250104349106550217 0.0184403061866760254
-0.0110516883432865143 0.0250041503459215164 0.0256640370935201645
-0.0286967568099498749 0.0250107757747173309 0.0202696975320577621
-0.0319176129996776581 0.0250119846314191818 0.0195279940962791443
-0.0123388729989528656 0.0250046346336603165 0.0249884538352489471
-0.0315760970115661621 0.0250118561089038849 0.0193139258772134781
-0.0151662714779376984 0.0250056963413953781 0.0236734002828598022
-0.0224109068512916565 0.0250084158033132553 0.0210915114730596542
-0.0306448321789503098 0.0250115077942609787 0.0166442003101110458
-0.0163680445402860641 0.025006147101521492 0.0232374593615531921
-0.020468100905418396 0.025007687509059906 0.0212149955332279205
-0.0316707082092761993 0.0250118933618068695 0.0170016735792160034
-0.0278985258191823959 0.0250104758888483047 0.0194476936012506485
-0.00752300955355167389 0.0250028278678655624 0.0266464930027723312
-0.0327684655785560608 0.0250123050063848495 0.0190425310283899307
-0.0282110758125782013 0.0250105932354927063 0.0194004196673631668
-0.0330182462930679321 0.0250123981386423111 0.0160460919141769409
-0.0311578195542097092 0.0250116996467113495 0.0169449187815189362
-0.0207996349781751633 0.0250078123062849045 0.021033313125371933
-0.0288305580615997314 0.0250108260661363602 0.0191310122609138489
-0.0187797173857688904 0.0250070523470640182 0.022646293044090271
-0.0100114252418279648 0.0250037610530853271 0.0256180539727210999
-0.0267844609916210175 0.025010058656334877 0.0210941173136234283
-0.0299995299428701401 0.0250112656503915787 0.0188197828829288483
-0.0229582376778125763 0.0250086206942796707 0.0215839482843875885
-0.0281953215599060059 0.0250105876475572586 0.0201958026736974716
-0.0263040158897638321 0.0250098779797554016 0.0184515994042158127
-0.0238336082547903061 0.0250089485198259354 0.0220513399690389633
-0.021095670759677887 0.0250079222023487091 0.0229131113737821579
-0.0243474747985601425 0.0250091422349214554 0.0205523073673248291
-0.0222299881279468536 0.025008348748087883 0.0206714626401662827
-0.021266251802444458 0.025007985532283783 0.0212927237153053284
-0.025324162095785141 0.0250095110386610031 0.0216271523386240005
-0.0254704374819993973 0.0250095650553703308 0.0213646497577428818
-0.0253993943333625793 0.0250095371156930923 0.0212409570813179016
-0.0295995716005563736 0.025011114776134491 0.0186741147190332413
-0.0285796616226434708 0.0250107329338788986 0.018738575279712677
-0.0276108346879482269 0.0250103678554296494 0.0195073802024126053
-0.014851253479719162 0.0250055789947509766 0.0240451879799365997
-0.0197126157581806183 0.0250074025243520737 0.0218739472329616547
-0.0207439251244068146 0.0250077899545431137 0.0219178088009357452
-0.0322596393525600433 0.025012115016579628 0.01959972083568573
-0.0202935189008712769 0.0250076204538345337 0.0219487342983484268
-0.0271472148597240448 0.0250101946294307709 0.018015226349234581
-0.00633018836379051208 0.0250023789703845978 0.0273102521896362305
-0.0242189206182956696 0.0250090938061475754 0.0208776667714118958
-0.0210232287645339966 0.0250078961253166199 0.0218510720878839493
-0.00962766818702220917 0.0250036176294088364 0.0256894715130329132
-0.0205049328505992889 0.0250077005475759506 0.0216392558068037033
-0.0280911494046449661 0.0250105485320091248 0.0185482203960418701
-0.0293216221034526825 0.025011010468006134 0.0204719360917806625
-0.0270120017230510712 0.0250101443380117416 0.018194025382399559
-0.0133870691061019897 0.0250050276517868042 0.0246554426848888397
-0.0229455586522817612 0.0250086169689893723 0.021809237077832222
-0.0306891929358243942 0.0250115245580673218 0.0175436660647392273
-0.0324259549379348755 0.0250121764838695526 0.0177881475538015366
-0.0212752651423215866 0.0250079892575740814 0.021947372704744339
-0.0238603036850690842 0.0250089596956968307 0.0203058905899524689
-0.0217974931001663208 0.0250081866979598999 0.0225048922002315521
-0.0145085528492927551 0.0250054504722356796 0.0248487219214439392
-0.0314890295267105103 0.025011824443936348 0.0173717997968196869
-0.0287683997303247452 0.0250108018517494202 0.0206864755600690842
-0.0215081274509429932 0.0250080786645412445 0.0225488245487213135
-0.0220402218401432037 0.025008276104927063 0.0218243151903152466
-0.0301820244640111923 0.0250113345682621002 0.0173256099224090576
-0.0280829127877950668 0.0250105448067188263 0.019694402813911438
-0.0297311730682849884 0.025011163204908371 0.0183247700333595276
-0.0239334274083375931 0.0250089876353740692 0.021951945498585701
-0.0178547613322734833 0.0250067058950662613 0.0232653729617595673
-0.0169584024697542191 0.0250063687562942505 0.0230989176779985428
-0.0208549760282039642 0.025007832795381546 0.0223293080925941467
-0.0205368064343929291 0.0250077135860919952 0.022419346496462822
-0.0220659524202346802 0.0250082872807979584 0.0217498205602169037
-0.0264341868460178375 0.0250099264085292816 0.0187430325895547867
-0.0321935936808586121 0.0250120889395475388 0.0196567997336387634
-0.0114109311252832413 0.0250042863190174103 0.0251509658992290497
-0.0228398293256759644 0.0250085759907960892 0.0208472888916730881
-0.00801774673163890839 0.0250030122697353363 0.0266042686998844147
-0.0238745603710412979 0.0250089652836322784 0.0202973783016204834
-0.0251587703824043274 0.0250094477087259293 0.0197633169591426849
-0.0317010022699832916 0.0250119045376777649 0.0180702414363622665
-0.0292385146021842957 0.0250109788030385971 0.0183013081550598145
-0.0203924998641014099 0.0250076577067375183 0.0229193065315485001
-0.0198462195694446564 0.0250074528157711029 0.0218159537762403488
-0.0177049674093723297 0.0250066500157117844 0.0239256583154201508
-0.0206176433712244034 0.0250077415257692337 0.0212985128164291382
-0.0199577994644641876 0.0250074956566095352 0.0226882882416248322
-0.0324290990829467773 0.0250121783465147018 0.0169838573783636093
-0.0295718684792518616 0.0250111054629087448 0.020398726686835289
-0.0289852935820817947 0.0250108856707811356 0.0175980553030967712
-0.0263423509895801544 0.0250098928809165955 0.0213872231543064117
-0.0196020007133483887 0.0250073615461587906 0.0226416662335395813
-0.0273416712880134583 0.0250102691352367401 0.0197324827313423157
-0.0236197132617235184 0.0250088702887296677 0.0212394446134567261
-0.02034715935587883 0.0250076409429311752 0.0211729370057582855
-0.0326242446899414062 0.0250122509896755219 0.0159644167870283127
-0.0282594300806522369 0.0250106118619441986 0.0183643121272325516
-0.0283378474414348602 0.0250106416642665863 0.0174573566764593124
-0.0215995144098997116 0.0250081121921539307 0.0217443406581878662
-0.032155986875295639 0.0250120759010314941 0.0170482397079467773
-0.0179540738463401794 0.0250067431479692459 0.0225361958146095276
-0.0203294754028320312 0.0250076334923505783 0.0218343101441860199
-0.00974501855671405792 0.0250036623328924179 0.0256694070994853973
-0.0223922878503799438 0.0250084083527326584 0.021417032927274704
-0.0121484417468309402 0.0250045619904994965 0.0255621261894702911
-0.020665392279624939 0.025007760152220726 0.0211907066404819489
-0.0184984691441059113 0.0250069461762905121 0.0226103775203227997
-0.0306161809712648392 0.0250114966183900833 0.0193350780755281448
-0.0291280541568994522 0.025010937824845314 0.0199471563100814819
-0.0219599083065986633 0.0250082481652498245 0.0214620344340801239
-0.0212114602327346802 0.0250079650431871414 0.0227614976465702057
-0.0235764309763908386 0.0250088535249233246 0.021358635276556015
-0.0202357359230518341 0.0250075999647378922 0.0214478671550750732
-0.0312426891177892685 0.0250117313116788864 0.0175312943756580353
-0.0299033988267183304 0.0250112283974885941 0.0196792501956224442
-0.0159782636910676956 0.0250059999525547028 0.0234938133507966995
-0.0220676176249980927 0.0250082872807979584 0.0224016085267066956
-0.0238914899528026581 0.0250089727342128754 0.0208138655871152878
-0.0303617306053638458 0.0250114016234874725 0.0187111571431159973
-0.0197285674512386322 0.0250074099749326706 0.0214756671339273453
-0.0295108184218406677 0.0250110812485218048 0.0189370010048151016
-0.024924691766500473 0.0250093601644039154 0.0212544016540050507
-0.0227293167263269424 0.0250085350126028061 0.019998675212264061
-0.0149129964411258698 0.0250056013464927673 0.0245869569480419159
-0.0227606166154146194 0.0250085480511188507 0.0201501064002513885
-0.032683108001947403 0.0250122733414173126 0.0180821120738983154
-0.0313293524086475372 0.0250117648392915726 0.0189027581363916397
-0.0332223773002624512 0.0250124745070934296 0.0170700140297412872
-0.0290699619799852371 0.0250109154731035233 0.0183625239878892899
-0.024177059531211853 0.0250090789049863815 0.0217345971614122391
-0.00806347653269767761 0.0250030290335416794 0.0265703517943620682
-0.0144896730780601501 0.0250054411590099335 0.0244158022105693817
-0.0224660821259021759 0.0250084381550550461 0.0208130404353141785
-0.0294046886265277863 0.0250110439956188202 0.0168884992599487305
-0.0293974801898002625 0.0250110384076833725 0.0131672844290733337
-0.0173651035875082016 0.0250065214931964874 0.0217205360531806946
-0.0266986638307571411 0.0250100251287221909 0.0155556006357073784
-0.0151359047740697861 0.0250056833028793335 0.022091597318649292
-0.0308089479804039001 0.0250115673989057541 0.0137492101639509201
-0.0280320271849632263 0.025010526180267334 0.0139952292665839195
-0.0226829666644334793 0.025008518248796463 0.0196227990090847015
-0.00725565291941165924 0.025002727285027504 0.0263904891908168793
-0.0304685048758983612 0.0250114407390356064 0.0157956331968307495
-0.0160126145929098129 0.0250060148537158966 0.0225759707391262054
-0.0205261297523975372 0.0250077079981565475 0.0199305713176727295
-0.025902673602104187 0.0250097252428531647 0.0164759960025548935
-0.0250693671405315399 0.0250094160437583923 0.0186693891882896423
-0.0265853665769100189 0.0250099841505289078 0.0155279003083705902
-0.0246137380599975586 0.0250092428177595139 0.0170223396271467209
-0.0238716937601566315 0.0250089652836322784 0.0191136617213487625
-0.0265996158123016357 0.0250099878758192062 0.015299210324883461
-0.0266122017055749893 0.0250099934637546539 0.0153840593993663788
-0.0276759415864944458 0.0250103939324617386 0.0155485235154628754
-0.0292473658919334412 0.0250109806656837463 0.0136642176657915115
-0.0226655807346105576 0.0250085107982158661 0.0177507009357213974
-0.0298253446817398071 0.0250111985951662064 0.0130743542686104774
-0.0227521508932113647 0.0250085443258285522 0.0190837103873491287
-0.024035479873418808 0.0250090248882770538 0.0178982913494110107
-0.0247060023248195648 0.0250092782080173492 0.0176904629915952682
-0.0268512442708015442 0.0250100847333669662 0.0176855456084012985
-0.0253280084580183029 0.0250095110386610031 0.017743285745382309
-0.0206762645393610001 0.0250077638775110245 0.0190480351448059082
-0.0236316025257110596 0.0250088740140199661 0.0181443542242050171
-0.0323198363184928894 0.0250121355056762695 0.0135266957804560661
-0.0197538174688816071 0.0250074174255132675 0.0199074558913707733
-0.0323065035045146942 0.0250121299177408218 0.0153357237577438354
-0.0194103643298149109 0.0250072907656431198 0.0204661563038825989
-0.00503629259765148163 0.0250018928200006485 0.0275976583361625671
-0.0097895842045545578 0.0250036772340536118 0.02496303990483284
-0.0200683549046516418 0.0250075366348028183 0.0195134058594703674
-0.0267199184745550156 0.0250100325793027878 0.0149160297587513924
-0.0298831090331077576 0.0250112209469079971 0.0151599766686558723
-0.0210072360932826996 0.0250078905373811722 0.0197388101369142532
-0.0283736269921064377 0.0250106547027826309 0.015638500452041626
-0.0330442599952220917 0.0250124093145132065 0.0147796971723437309
-0.0284466017037630081 0.0250106807798147202 0.0149269644170999527
-0.0249785333871841431 0.0250093806535005569 0.0167201310396194458
-0.028657030314207077 0.0250107608735561371 0.013725966215133667
-0.0285237692296504974 0.0250107124447822571 0.0173428244888782501
-0.0270026903599500656 0.0250101387500762939 0.0159954819828271866
-0.0106629803776741028 0.0250040050595998764 0.024395400658249855
-0.0287093110382556915 0.0250107813626527786 0.0152787622064352036
-0.0273165777325630188 0.0250102560967206955 0.0144572192803025246
-0.0238645300269126892 0.0250089596956968307 0.0166245438158512115
-0.023117629811167717 0.0250086802989244461 0.0185993481427431107
-0.0245703980326652527 0.02500922791659832 0.0170670151710510254
-0.0278700776398181915 0.0250104647129774094 0.0155343683436512947
-0.019718460738658905 0.0250074043869972229 0.0190368089824914932
-0.0148989502340555191 0.0250055957585573196 0.0219096727669239044
-0.0227045640349388123 0.0250085256993770599 0.0184758733958005905
-0.0165105387568473816 0.0250061992555856705 0.0219537410885095596
-0.0213769935071468353 0.025008026510477066 0.0188640616834163666
-0.0264155659824609756 0.0250099189579486847 0.0165678150951862335
-0.0297573041170835495 0.0250111743807792664 0.0154630178585648537
-0.0250045843422412872 0.0250093881040811539 0.0156714990735054016
-0.0328563489019870758 0.0250123366713523865 0.0134606705978512764
-0.00495202094316482544 0.0250018611550331116 0.0276705808937549591
-0.0288476422429084778 0.0250108335167169571 0.0147979967296123505
-0.0294657442718744278 0.0250110644847154617 0.0145417572930455208
-0.0211001262068748474 0.0250079240649938583 0.0203678607940673828
-0.0310414358973503113 0.0250116568058729172 0.0144255608320236206
-0.0195444244891405106 0.025007341057062149 0.0203306712210178375
-0.0308537669479846954 0.0250115860253572464 0.0156690683215856552
-0.0123810935765504837 0.0250046513974666595 0.0234893038868904114
-0.0131250172853469849 0.025004928931593895 0.0233703851699829102
-0.0322778038680553436 0.0250121206045150757 0.0114473225548863411
-0.0314059779047966003 0.025011792778968811 0.015185140073299408
-0.0307332146912813187 0.0250115413218736649 0.0153434211388230324
-0.023710271343588829 0.0250089038163423538 0.0171361956745386124
-0.0214345287531614304 0.0250080488622188568 0.0195202399045228958
-0.0181774049997329712 0.0250068269670009613 0.0208969824016094208
-0.0137829426676034927 0.0250051766633987427 0.0232162754982709885
-0.0101349577307701111 0.0250038076192140579 0.0252059958875179291
-0.0217759907245635986 0.0250081773847341537 0.0202798694372177124
-0.0244546309113502502 0.0250091832131147385 0.0168332494795322418
-0.0223426148295402527 0.0250083897262811661 0.0174539759755134583
-0.0181800257414579391 0.0250068269670009613 0.0210717432200908661
-0.0245198775082826614 0.0250092074275016785 0.0178667865693569183
-0.0315919108688831329 0.0250118616968393326 0.0137969525530934334
-0.0265085287392139435 0.0250099562108516693 0.0171576924622058868
-0.021412258967757225 0.0250080414116382599 0.019694838672876358
-0.0114625729620456696 0.0250043068081140518 0.024824904277920723
-0.0187673605978488922 0.0250070467591285706 0.0203443504869937897
-0.0257203076034784317 0.0250096581876277924 0.0155821964144706726
-0.0284420754760503769 0.0250106789171695709 0.0144063355401158333
-0.0183192212134599686 0.025006880983710289 0.0212718788534402847
-0.0293551404029130936 0.0250110235065221786 0.0135112209245562553
-0.0283515080809593201 0.025010647252202034 0.0143375014886260033
