ply
format ascii 1.0
element vertex 705
property float x
property float y
property float z
end_header
0.026245463639497757 0.0277112443000078201 -0.0633719861507415771
0.0353232212364673615 0.014495539478957653 -0.0619992800056934357
0.0354671776294708252 0.00611448800191283226 -0.0633968114852905273
0.0356607846915721893 0.0155660975724458694 -0.0616199038922786713
0.0370687916874885559 0.0195455756038427353 -0.0601232275366783142
0.0383672080934047699 0.017296934500336647 -0.0597872994840145111
0.0350200161337852478 0.0110913710668683052 -0.0627710074186325073
0.047231234610080719 0.0196876302361488342 -0.0540623106062412262
0.0443353839218616486 0.0196162126958370209 -0.0558035224676132202
0.0520455874502658844 0.0210168268531560898 -0.0507795214653015137
0.0475787520408630371 0.0188986305147409439 -0.0541090257465839386
0.0501071847975254059 0.0208651479333639145 -0.0519783385097980499
0.0489331744611263275 0.0197507813572883606 -0.0530321784317493439
0.0402474291622638702 0.0216154325753450394 -0.0573638454079627991
0.0454561524093151093 0.0212283097207546234 -0.0545776039361953735
0.0399041958153247833 0.0287704020738601685 -0.0547194182872772217
0.048760928213596344 0.0240130294114351273 -0.0516077801585197449
0.0424971505999565125 0.020382242277264595 -0.0565832704305648804
0.0432813018560409546 0.0211793333292007446 -0.0558245182037353516
0.0439523309469223022 0.0247358661144971848 -0.0540350228548049927
0.0441336743533611298 0.0256469957530498505 -0.0535712540149688721
0.0382970012724399567 0.0292307324707508087 -0.0554439127445220947
0.0408950150012969971 0.0282773077487945557 -0.0543557927012443542
0.048968341201543808 0.0247395634651184082 -0.0512025207281112671
0.0392428413033485413 0.029875805601477623 -0.0546542033553123474
0.0442753434181213379 0.0221447348594665527 -0.0548805370926856995
0.0410317853093147278 0.025258135050535202 -0.0554762110114097595
0.040971219539642334 0.0289439447224140167 -0.0540483482182025909
0.0380723439157009125 0.027527952566742897 -0.0562461540102958679
0.0430033467710018158 0.0107927229255437851 -0.0583854466676712036
0.037990868091583252 0.00828501768410205841 -0.0616070516407489777
0.0444818437099456787 0.0157528650015592575 -0.0566697083413600922
0.0427931807935237885 0.0111407535150647163 -0.0584383308887481689
0.0404499731957912445 0.0144330188632011414 -0.0591345988214015961
0.0449725128710269928 0.00853091292083263397 -0.0577087439596652985
0.0516676940023899078 0.0099467989057302475 -0.0537563487887382507
0.0428777262568473816 0.0171060729771852493 -0.057309713214635849
0.0444050543010234833 0.0147474389523267746 -0.0568944551050662994
0.0394997671246528625 0.0131082739681005478 -0.0598993636667728424
0.0406329222023487091 0.0106597300618886948 -0.0597179904580116272
0.0447136722505092621 0.00723097333684563637 -0.0580873899161815643
0.0421536751091480255 0.00985810719430446625 -0.0590239614248275757
0.0476991645991802216 0.0128311431035399437 -0.0554237440228462219
0.0419931299984455109 0.0109886517748236656 -0.0589075274765491486
0.0391138195991516113 0.00715805590152740479 -0.0611916109919548035
0.0494321808218955994 0.0131121603772044182 -0.0543860718607902527
0.0505701303482055664 0.0136207584291696548 -0.0536303818225860596
0.0493471398949623108 0.0122596314176917076 -0.0546103306114673615
0.0498605966567993164 0.0171929243952035904 -0.053300417959690094
0.0518961586058139801 0.0110196545720100403 -0.0534076765179634094
0.0512877926230430603 0.0141389444470405579 -0.0531131252646446228
0.0383694954216480255 0.0217029843479394913 -0.0584548227488994598
0.0360692143440246582 0.0230432413518428802 -0.0593047179281711578
0.0371378399431705475 0.0234639476984739304 -0.0584783926606178284
0.0370651967823505402 0.0251985117793083191 -0.057805381715297699
0.0392202995717525482 0.021676996722817421 -0.0579462088644504547
0.0354498103260993958 0.0316206291317939758 -0.0561354979872703552
0.036419205367565155 0.0247091874480247498 -0.058402087539434433
0.00357913598418235779 -0.0536904744803905487 -0.0622191540896892548
0.00334590114653110504 -0.0469474755227565765 -0.0672627538442611694
0.00177610432729125023 -0.0510917678475379944 -0.0652244389057159424
0.00393619248643517494 -0.0453143157064914703 -0.068083539605140686
0.00110849924385547638 -0.0437022186815738678 -0.0710069313645362854
0.00443854229524731636 -0.0474540293216705322 -0.0662176832556724548
0.00424146885052323341 -0.0506926700472831726 -0.0639867857098579407
0.00328911049291491508 -0.0515365749597549438 -0.063963763415813446
0.001744098961353302 -0.0472725145518779755 -0.0680191218852996826
0.00990323349833488464 -0.0513701774179935455 -0.0599863342940807343
0.00666342256590723991 -0.051169760525226593 -0.0621394366025924683
0.00101563427597284317 -0.0467596761882305145 -0.0688430964946746826
0.0034814649261534214 -0.0477313362061977386 -0.0666092410683631897
0.00100810779258608818 -0.0485943108797073364 -0.0675148293375968933
0.00199430715292692184 -0.0595685280859470367 -0.0573089160025119781
0.003667046083137393 -0.0599824003875255585 -0.0555032305419445038
0.00487575586885213852 -0.0540872775018215179 -0.0610777884721755981
0.000709001906216144562 -0.0613048598170280457 -0.0564148016273975372
0.00782487727701663971 -0.0545514412224292755 -0.0581891536712646484
0.00509313587099313736 -0.058709464967250824 -0.0557694025337696075
0.00632546236738562584 -0.0540839098393917084 -0.0599149614572525024
0.00344049930572509766 -0.0547360852360725403 -0.0615121535956859589
0.00206808187067508698 -0.0553856454789638519 -0.0618951171636581421
0.00582854822278022766 -0.0544254668056964874 -0.0599354878067970276
0.000330505892634391785 -0.0593754500150680542 -0.058862198144197464
0.00437175389379262924 -0.0598142445087432861 -0.0551229119300842285
0.0069270813837647438 -0.0537689626216888428 -0.0597806274890899658
0.0049818865954875946 -0.0539995841681957245 -0.061089780181646347
0.0118204783648252487 -0.0405432321131229401 -0.0661448836326599121
0.00770417135208845139 -0.0314005017280578613 -0.0725877583026885986
0.00661834981292486191 -0.0323612652719020844 -0.0728587061166763306
0.0152155123651027679 -0.0341033786535263062 -0.0667531713843345642
0.00460175983607769012 -0.038340393453836441 -0.0715849623084068298
0.0158574581146240234 -0.0375382602214813232 -0.0648973509669303894
0.00841400399804115295 -0.029807044193148613 -0.0728195756673812866
0.00717271771281957626 -0.0364528410136699677 -0.0707793831825256348
0.0165836289525032043 -0.0410664975643157959 -0.0629493966698646545
0.00842793472111225128 -0.0289392806589603424 -0.0731784701347351074
0.00395801477134227753 -0.0399428233504295349 -0.0713080763816833496
0.00519045395776629448 -0.03870348259806633 -0.071063607931137085
0.0122607899829745293 -0.0284933224320411682 -0.0709743723273277283
0.0100930389016866684 -0.033023245632648468 -0.0704088956117630005
0.0114455055445432663 -0.0215898137539625168 -0.0744077414274215698
0.00375775108113884926 -0.038197595626115799 -0.0721723958849906921
0.0130935050547122955 -0.0407872051000595093 -0.0652467310428619385
0.0059981178492307663 -0.040963832288980484 -0.0696018561720848083
0.00685906410217285156 -0.0377704016864299774 -0.0704170837998390198
0.00681142741814255714 -0.0342233963310718536 -0.0719493553042411804
0.00645653903484344482 -0.0376836620271205902 -0.0707051455974578857
0.00442980509251356125 -0.0395791828632354736 -0.0711675658822059631
0.0101729808375239372 -0.0253443103283643723 -0.073611818253993988
0.00975910201668739319 -0.0255132392048835754 -0.0737986564636230469
0.0096477847546339035 -0.0299405567348003387 -0.071992725133895874
0.0140154287219047546 -0.0389154292643070221 -0.0654640272259712219
0.0152283906936645508 -0.0411573499441146851 -0.0637570396065711975
0.00667176349088549614 -0.0409011021256446838 -0.0692078471183776855
0.0166190303862094879 -0.0277616679668426514 -0.0684756487607955933
0.013845883309841156 -0.020547330379486084 -0.0732853040099143982
0.0172904152423143387 -0.0327306613326072693 -0.0659735873341560364
0.0125816166400909424 -0.0224285759031772614 -0.0733318030834197998
0.013743693009018898 -0.0214824210852384567 -0.0729640200734138489
0.0161184351891279221 -0.0331112109124660492 -0.0665826424956321716
0.0159823056310415268 -0.0331046991050243378 -0.0666744336485862732
0.0140679571777582169 -0.0225652419030666351 -0.0723023116588592529
0.0129517801105976105 -0.0230872854590415955 -0.072816111147403717
0.0160738229751586914 -0.0247670263051986694 -0.0700755640864372253
0.0242442656308412552 -0.0309762991964817047 -0.0629274696111679077
0.0230084434151649475 -0.0285947658121585846 -0.0645825490355491638
0.0236800462007522583 -0.028737194836139679 -0.0641612187027931213
0.0187153313308954239 -0.0246780682355165482 -0.0685237422585487366
0.0195922963321208954 -0.0392198562622070312 -0.0620144158601760864
0.0273321997374296188 -0.02465025894343853 -0.063888058066368103
0.018992159515619278 -0.0388511903584003448 -0.0624911151826381683
0.0246308371424674988 -0.0233306847512722015 -0.0658927112817764282
0.0237395558506250381 -0.0290597490966320038 -0.0639952272176742554
0.0257870107889175415 -0.0244017038494348526 -0.0648245811462402344
0.0241922475397586823 -0.0320385992527008057 -0.0625145509839057922
0.0252545047551393509 -0.0325625762343406677 -0.0617241524159908295
0.0292850863188505173 -0.0271068476140499115 -0.0618150904774665833
0.0297616906464099884 -0.0279904231429100037 -0.061191268265247345
0.0186162553727626801 -0.0347515121102333069 -0.0643956363201141357
0.0178733225911855698 -0.020290028303861618 -0.0707993507385253906
0.0212242621928453445 -0.0204358678311109543 -0.0689315870404243469
0.023572942242026329 -0.021354038268327713 -0.0672837719321250916
0.0175927169620990753 -0.0331838652491569519 -0.0655983909964561462
0.0214393213391304016 -0.0279076565057039261 -0.065714031457901001
0.0194493383169174194 -0.0321221388876438141 -0.0650378093123435974
0.0237637162208557129 -0.0228811893612146378 -0.0665469467639923096
0.0232491195201873779 -0.0324426889419555664 -0.0628554597496986389
0.0249906741082668304 -0.0244378559291362762 -0.06523904949426651
0.0250554569065570831 -0.0334142521023750305 -0.0614779666066169739
0.0176806040108203888 -0.0231844373047351837 -0.0697017982602119446
0.0244033019989728928 -0.0274454951286315918 -0.0643073469400405884
0.0263200998306274414 -0.0244955550879240036 -0.064498119056224823
0.0264694876968860626 -0.0252141226083040237 -0.0641192719340324402
0.0119941607117652893 -0.0427906028926372528 -0.0647179782390594482
0.0105425324290990829 -0.0487090572714805603 -0.0614945404231548309
0.00382409989833831787 -0.0448822900652885437 -0.0684664919972419739
0.0152839897200465202 -0.042927570641040802 -0.0625219196081161499
0.0155069585889577866 -0.044032953679561615 -0.0616044923663139343
0.0150224249809980392 -0.0420459136366844177 -0.0633071139454841614
0.0113496771082282066 -0.047564428299665451 -0.0617819316685199738
0.0107857333496212959 -0.0435674749314785004 -0.0649446099996566772
0.00968131609261035919 -0.0478043369948863983 -0.0626786798238754272
0.00361522659659385681 -0.0443470366299152374 -0.0689751505851745605
0.0130768725648522377 -0.042514510452747345 -0.0642204433679580688
0.0115093961358070374 -0.0468112453818321228 -0.0622081160545349121
0.0108686070889234543 -0.0488157384097576141 -0.0612115859985351562
0.013558410108089447 -0.047965511679649353 -0.060095176100730896
0.0122326239943504333 -0.0502516254782676697 -0.0593400038778781891
0.015356753021478653 -0.048135664314031601 -0.058865819126367569
0.0634938180446624756 -0.044994547963142395 -0.028535282239317894
0.0620766766369342804 -0.0443643853068351746 -0.0302754864096641541
0.0697595402598381042 -0.0465632788836956024 -0.0222097970545291901
0.0607983916997909546 -0.044383704662322998 -0.0311844609677791595
0.0675916895270347595 -0.0437390841543674469 -0.0269630681723356247
0.0694854333996772766 -0.0417711623013019562 -0.0275308713316917419
0.0692219138145446777 -0.0428683608770370483 -0.026739681139588356
0.067705594003200531 -0.0414528027176856995 -0.0290527809411287308
0.0644095093011856079 -0.0425072014331817627 -0.0304108355194330215
0.0698671713471412659 -0.0420623831450939178 -0.027006419375538826
0.0651457011699676514 -0.042844083160161972 -0.0295990500599145889
0.00549485161900520325 -0.00418597552925348282 -0.0806713923811912537
0.00349043123424053192 -0.00273364642634987831 -0.0817721635103225708
0.00242041167803108692 -0.00493997987359762192 -0.0823597908020019531
0.00760718947276473045 -0.00215402478352189064 -0.0795113593339920044
0.00885853264480829239 -0.000244169088546186686 -0.0788241475820541382
0.00822015292942523956 -0.0029524404089897871 -0.0791747346520423889
0.0164919644594192505 0.0028252860065549612 -0.0746320709586143494
0.015027971938252449 0.0028329391498118639 -0.0754360631108283997
0.00743713090196251869 0.00171697081532329321 -0.0796047449111938477
0.00199421681463718414 -0.00498232664540410042 -0.0825938507914543152
0.00316638778895139694 -0.00237133679911494255 -0.0819501280784606934
0.00718345120549201965 -0.0017541833221912384 -0.0797440558671951294
0.000551977194845676422 0.00425162073224782944 -0.0833858847618103027
0.00596533715724945068 -0.00364331132732331753 -0.0804130211472511292
0.00528152938932180405 -0.00212581665255129337 -0.0807885453104972839
0.00555481994524598122 0.000653590774163603783 -0.0806384608149528503
0.00732846558094024658 0.00094507110770791769 -0.0796644166111946106
0.00552440062165260315 0.00490359822288155556 -0.0806551650166511536
0.000150864943861961365 0.00192282767966389656 -0.0836061686277389526
0.00361242238432168961 0.00682755652815103531 -0.0817051678895950317
0.0062862900085747242 0.00116266519762575626 -0.0802367553114891052
0.0207926090806722641 0.0119025930762290955 -0.0711046159267425537
0.0306395329535007477 0.00434928201138973236 -0.0664441436529159546
0.0187957026064395905 0.00444992631673812866 -0.0731432065367698669
0.0286684446036815643 0.00744323479011654854 -0.0671845078468322754
0.0207768827676773071 0.00355626898817718029 -0.0721293315291404724
0.0210792236030101776 0.00629906076937913895 -0.0716241970658302307
0.0255278889089822769 0.0100099695846438408 -0.0686517134308815002
0.023396022617816925 0.00663578789681196213 -0.0702703967690467834
0.0314145386219024658 0.00584629364311695099 -0.065822795033454895
0.030694248154759407 0.00632511870935559273 -0.0661726668477058411
0.0266013108193874359 0.00707986811175942421 -0.0684000700712203979
0.0212224964052438736 0.00879836548119783401 -0.0712388232350349426
0.0187337808310985565 0.00971283763647079468 -0.0725377574563026428
0.0203329231590032578 0.0109054744243621826 -0.0714864432811737061
0.0269698016345500946 0.00591932842507958412 -0.0683325156569480896
0.0166878588497638702 0.00742170494049787521 -0.0740050524473190308
0.0174455828964710236 0.00966683216392993927 -0.073275245726108551
0.0150472633540630341 0.00989721715450286865 -0.0746923089027404785
0.0158652793616056442 0.00794283393770456314 -0.0744372755289077759
0.0149852987378835678 0.0137496516108512878 -0.0742607712745666504
0.0226004943251609802 0.000782156828790903091 -0.071017339825630188
0.017792949452996254 0.000109582673758268356 -0.0737805142998695374
0.0177332460880279541 -0.00401910673826932907 -0.0736192241311073303
0.027716541662812233 0.000765342265367507935 -0.0680420622229576111
0.0255899019539356232 0.000134118832647800446 -0.0692485272884368896
0.0258479565382003784 -0.001448032446205616 -0.0690233781933784485
0.0257952678948640823 -0.00113280722871422768 -0.0690689757466316223
0.0261199884116649628 -0.00126257981173694134 -0.0688740164041519165
0.0241059195250272751 -0.00244525587186217308 -0.0699888616800308228
0.026312749832868576 -0.0012783450074493885 -0.0687611997127532959
0.0237782932817935944 0.000604119617491960526 -0.0703241080045700073
0.024953773245215416 0.00256242114119231701 -0.0697336569428443909
0.0184421464800834656 -0.00436285790055990219 -0.073190741240978241
0.0214383155107498169 -0.00432630442082881927 -0.0714505016803741455
0.0193377416580915451 -0.00708420854061841965 -0.0725408494472503662
0.00572373811155557632 -0.00812294334173202515 -0.0803976207971572876
0.0101984869688749313 -0.00698192231357097626 -0.0778536200523376465
0.0106919817626476288 -0.00242641009390354156 -0.0777833610773086548
0.0134499929845333099 -0.000635084230452775955 -0.0762670263648033142
0.0171483885496854782 0.00042258776375092566 -0.0741698592901229858
0.0129991676658391953 -0.00147740647662431002 -0.0764888003468513489
0.0140106566250324249 9.83495265245437622e-05 -0.0759763196110725403
0.0144461113959550858 -0.00863843970000743866 -0.0753086954355239868
0.0105605423450469971 -0.00820273160934448242 -0.0775854513049125671
0.0097132902592420578 -0.0089772641658782959 -0.0780406147241592407
0.0165790300816297531 -0.0039585004560649395 -0.0742924436926841736
0.0162259750068187714 0.00102211814373731613 -0.0747338980436325073
0.0117793865501880646 -0.0025824329350143671 -0.0771445855498313904
0.0154868187382817268 -0.00486566312611103058 -0.0748835504055023193
0.0134392306208610535 -0.00679842196404933929 -0.0759806707501411438
0.00242272578179836273 -0.00853217113763093948 -0.082294851541519165
0.00911818724125623703 0.0103568043559789658 -0.0781484991312026978
0.00929457880556583405 0.00909041799604892731 -0.0781888067722320557
0.0121177658438682556 0.00748165976256132126 -0.076711311936378479
0.00785084068775177002 0.0108761955052614212 -0.07883482426404953
0.0125021319836378098 0.00801455322653055191 -0.076424621045589447
0.013249601237475872 0.010470912791788578 -0.0757055729627609253
0.00345141999423503876 0.00905745662748813629 -0.0816292837262153625
0.0129901543259620667 0.0095919417217373848 -0.07595815509557724
0.00468399329110980034 0.00990368612110614777 -0.0808080732822418213
0.00411633169278502464 0.0103820338845252991 -0.0810875371098518372
0.0169745944440364838 0.00299391546286642551 -0.0743651837110519409
0.0530582070350646973 -0.0396652631461620331 -0.0404961109161376953
0.0679450109601020813 -0.0381984636187553406 -0.0317736119031906128
0.0604830682277679443 -0.0427595488727092743 -0.0329173952341079712
0.0590267255902290344 -0.0415383949875831604 -0.0349992662668228149
0.0598915703594684601 -0.0427544936537742615 -0.0333307869732379913
0.0572696775197982788 -0.0434999242424964905 -0.0344857797026634216
0.0554596446454524994 -0.043182913213968277 -0.0360136963427066803
0.0467467717826366425 -0.0277315732091665268 -0.0511115789413452148
0.049970719963312149 -0.0218657180666923523 -0.0516692698001861572
0.0505636744201183319 -0.0231033507734537125 -0.0507565885782241821
0.0454150885343551636 -0.0229066498577594757 -0.0540577620267868042
0.0453148409724235535 -0.0239770524203777313 -0.0536512322723865509
0.0493426322937011719 -0.024246852844953537 -0.0510178878903388977
0.0500134602189064026 -0.0227122753858566284 -0.0512715652585029602
0.050569828599691391 -0.0249574221670627594 -0.0499401576817035675
0.0435965284705162048 -0.0256736110895872116 -0.053980652242898941
0.0416888929903507233 -0.024977492168545723 -0.0554769337177276611
0.0474404767155647278 -0.0288007911294698715 -0.0502097941935062408
0.0387832745909690857 -0.0256334580481052399 -0.0570038147270679474
0.0481849201023578644 -0.0289753731340169907 -0.0496684238314628601
0.0456108152866363525 -0.0302238520234823227 -0.0507286116480827332
0.0488121509552001953 -0.0246190112084150314 -0.0511860325932502747
0.0492184683680534363 -0.0309295952320098877 -0.0481665581464767456
0.0500912480056285858 -0.0251866653561592102 -0.0501385293900966644
0.0441261045634746552 -0.0254333820194005966 -0.0537552498281002045
0.0525708310306072235 -0.0202883966267108917 -0.050742127001285553
0.0550875067710876465 -0.0281431116163730621 -0.0459040738642215729
0.0553213506937026978 -0.0233293604105710983 -0.0478841289877891541
0.0534357540309429169 -0.0288094580173492432 -0.0465279780328273773
0.0534598901867866516 -0.0310472007840871811 -0.0455338582396507263
0.0532718375325202942 -0.0258076321333646774 -0.0479344837367534637
0.0571283064782619476 -0.037452399730682373 -0.0394534245133399963
0.0543119683861732483 -0.039403863251209259 -0.0398618467152118683
0.0594748221337795258 -0.0403267070651054382 -0.0357406623661518097
0.0636604204773902893 -0.0388575531542301178 -0.0341081023216247559
0.0594646185636520386 -0.0401193238794803619 -0.0359033942222595215
0.0563732348382472992 -0.0350673943758010864 -0.0414010919630527496
0.0535847097635269165 -0.0321288071572780609 -0.0449008047580718994
0.0579403191804885864 -0.0279469937086105347 -0.043989378958940506
0.0567540936172008514 -0.0318975895643234253 -0.0427775382995605469
0.0546986311674118042 -0.0336858443915843964 -0.0433038175106048584
0.0548064075410366058 -0.0303556881844997406 -0.0449568144977092743
0.0566106438636779785 -0.0357098951935768127 -0.0408994182944297791
0.0670711323618888855 -0.0304694715887308121 -0.037261277437210083
0.0673451125621795654 -0.0320081338286399841 -0.0361326411366462708
0.069141775369644165 -0.0317349173128604889 -0.0351157523691654205
0.0667771771550178528 -0.0340955369174480438 -0.0352213457226753235
0.0640475079417228699 -0.0352360568940639496 -0.0363194048404693604
0.0694730356335639954 -0.0274171549826860428 -0.0375571958720684052
0.0655878856778144836 -0.030699949711561203 -0.0380977392196655273
0.0650528818368911743 -0.0352671518921852112 -0.0356370396912097931
0.0644082799553871155 -0.0370487123727798462 -0.034964732825756073
0.0632113218307495117 -0.0346946083009243011 -0.0372045710682868958
0.0686186477541923523 -0.0272897500544786453 -0.0381992943584918976
0.0533591918647289276 -0.0373583436012268066 -0.0419366993010044098
0.0543827302753925323 -0.0374756082892417908 -0.0411994196474552155
0.0644249841570854187 -0.0291041210293769836 -0.0396525338292121887
0.0603623911738395691 -0.0292988009750843048 -0.0418578311800956726
0.0602391548454761505 -0.0260850545018911362 -0.043596707284450531
0.061984475702047348 -0.026073802262544632 -0.0426117070019245148
0.063180871307849884 -0.0299488026648759842 -0.0399201884865760803
0.0649966150522232056 -0.0252187438309192657 -0.0413457006216049194
0.0640942975878715515 -0.0242068450897932053 -0.0423834472894668579
0.0621741414070129395 -0.0312416590750217438 -0.0398203358054161072
0.0643646270036697388 -0.02727489173412323 -0.0406367294490337372
0.0592482723295688629 -0.0345737561583518982 -0.0397510193288326263
0.0614026784896850586 -0.0325552038848400116 -0.0395761765539646149
0.0611279942095279694 -0.0265136025846004486 -0.0428695529699325562
0.0626363605260848999 -0.0325641259551048279 -0.0388711653649806976
0.064063243567943573 -0.0295552164316177368 -0.0396236442029476166
0.0532312653958797455 -0.0341807529330253601 -0.0440280362963676453
0.0551682747900485992 -0.035588480532169342 -0.0419135875999927521
0.0311692599207162857 -0.00865430943667888641 -0.0655519589781761169
0.0317040123045444489 -0.00698075955733656883 -0.0653249621391296387
0.0313930623233318329 -0.00366050982847809792 -0.0656762272119522095
0.0212656427174806595 -0.00938744749873876572 -0.0713014304637908936
0.034369591623544693 -0.00496263895183801651 -0.0638704672455787659
0.0345728471875190735 -0.00532953673973679543 -0.0637329667806625366
0.0320100970566272736 -0.010354689322412014 -0.0649737939238548279
0.0196979381144046783 -0.0097896084189414978 -0.0721969306468963623
0.0330401808023452759 0.000247399322688579559 -0.0649133622646331787
0.0314977802336215973 -0.00691244006156921387 -0.0654489621520042419
0.02917485311627388 -0.00531749194487929344 -0.0668877586722373962
0.0265392791479825974 -0.00430470006540417671 -0.0684795007109642029
0.0342452935874462128 -0.00312795210629701614 -0.0640368014574050903
0.0326739214360713959 0.000567875802516937256 -0.0651437491178512573
0.0310287307947874069 0.000969887711107730865 -0.0661256015300750732
0.0343695841729640961 -0.00510938325896859169 -0.0638629794120788574
0.0315341949462890625 -0.00291953142732381821 -0.0656316056847572327
0.0268206316977739334 -0.00289624882861971855 -0.0683870390057563782
0.0328506268560886383 -0.00853911507874727249 -0.0645753741264343262
0.0298383105546236038 -0.0161605160683393478 -0.0649814903736114502
0.0348318293690681458 -0.0185680221766233444 -0.0612803995609283447
0.0275896936655044556 -0.0224779825657606125 -0.0645913854241371155
0.0286573618650436401 -0.020308569073677063 -0.0645459219813346863
0.0300634130835533142 -0.0213834866881370544 -0.0633934661746025085
0.0294843446463346481 -0.0202798787504434586 -0.0640517473220825195
0.030350860208272934 -0.0155677217990159988 -0.064834989607334137
0.0321585088968276978 -0.022204207256436348 -0.0618932433426380157
0.0296053402125835419 -0.0221670921891927719 -0.0634538605809211731
0.0272960327565670013 -0.0153750758618116379 -0.0667434334754943848
0.0271327868103981018 -0.0196507833898067474 -0.0656544417142868042
0.0295374095439910889 -0.0172082372009754181 -0.0648730620741844177
0.0349177047610282898 -0.0173425879329442978 -0.06156877800822258
0.0219959132373332977 -0.0170141905546188354 -0.0695062354207038879
0.0294521041214466095 -0.0235803369432687759 -0.0631541907787322998
0.0290704015642404556 -0.020058630034327507 -0.0643645748496055603
0.0287322774529457092 -0.0176827218383550644 -0.0652300938963890076
0.0296288356184959412 -0.0135052353143692017 -0.0658465251326560974
0.0347114354372024536 -0.0219713542610406876 -0.0604077912867069244
0.0183778069913387299 -0.0125831998884677887 -0.0724732950329780579
0.0257888250052928925 -0.0114268036559224129 -0.06844291090965271
0.0192582122981548309 -0.0155055904760956764 -0.0714259743690490723
0.0258481688797473907 -0.0109022203832864761 -0.068506389856338501
0.019944366067647934 -0.0163644086569547653 -0.0708733499050140381
0.030269622802734375 -0.0111345201730728149 -0.065930493175983429
0.0249588284641504288 -0.0134836426004767418 -0.0685361921787261963
0.0201655738055706024 -0.014303901232779026 -0.0711294934153556824
0.0228583794087171555 -0.0138054825365543365 -0.0696795880794525146
0.0454872101545333862 -0.0169901400804519653 -0.0557008609175682068
0.0499678514897823334 -0.0183952450752258301 -0.0527994260191917419
0.0411860235035419464 -0.0133358826860785484 -0.0591197609901428223
0.0386920720338821411 -0.0205212794244289398 -0.0585447773337364197
0.0392872802913188934 -0.0234627313911914825 -0.0574021637439727783
0.0412213355302810669 -0.023901570588350296 -0.0561958551406860352
0.0480033308267593384 -0.0210697557777166367 -0.0531671009957790375
0.0433723628520965576 -0.0183366015553474426 -0.0565179511904716492
0.0383196361362934113 -0.0214132443070411682 -0.0585086792707443237
0.0480830781161785126 -0.0188841316848993301 -0.0537230744957923889
0.0488060526549816132 -0.0203428566455841064 -0.0529162846505641937
0.0364984050393104553 -0.0227902457118034363 -0.059152550995349884
0.0403070896863937378 -0.0148506732657551765 -0.0591967962682247162
0.0442943088710308075 -0.0164131484925746918 -0.0565290935337543488
0.0442269593477249146 -0.0200647730380296707 -0.055563218891620636
0.0498356670141220093 -0.0195039939135313034 -0.0525688789784908295
0.0353602766990661621 -0.00785956345498561859 -0.063142925500869751
0.0376006029546260834 -0.00883036386221647263 -0.0617798678576946259
0.0361076705157756805 -0.00118009466677904129 -0.0630458667874336243
0.0351832285523414612 -0.00180591829121112823 -0.0635559037327766418
0.0393644385039806366 -0.00862890109419822693 -0.0607560388743877411
0.0369338095188140869 -0.00229153130203485489 -0.0625047534704208374
0.0439533442258834839 -0.0124581130221486092 -0.0577804669737815857
0.0522093214094638824 -0.0145322410389780998 -0.0525116324424743652
0.044108707457780838 -0.0126953721046447754 -0.0576303862035274506
0.0494375154376029968 -0.0149127282202243805 -0.0540038831532001495
0.0490719228982925415 -0.0148259224370121956 -0.0542359016835689545
0.0523257628083229065 -0.0142428129911422729 -0.0525191985070705414
0.0417278669774532318 -0.0104094156995415688 -0.0593446046113967896
0.0407434478402137756 -0.00174982647877186537 -0.0604629367589950562
0.0421393662691116333 -0.00209797942079603672 -0.0596854127943515778
0.0400084815919399261 -0.00297747482545673847 -0.0607767254114151001
0.0422530323266983032 -0.00758420722559094429 -0.0592523552477359772
0.0388891659677028656 -0.00522248586639761925 -0.0612291768193244934
0.0451347753405570984 -0.00733749661594629288 -0.0577126368880271912
0.0404802262783050537 -0.00994994211941957474 -0.0600495785474777222
0.0474440716207027435 -0.00693922163918614388 -0.0564923696219921112
0.0404598899185657501 0.000451315892860293388 -0.0607652068138122559
0.0448051616549491882 -0.00606397632509469986 -0.0579769350588321686
0.0383192040026187897 -0.0032778480090200901 -0.0616687573492527008
0.0500460714101791382 -0.00447486806660890579 -0.0552539750933647156
0.050408191978931427 -0.00436534592881798744 -0.0550658106803894043
0.0411051847040653229 0.000368791166692972183 -0.0604110918939113617
0.0473317168653011322 -0.00263379979878664017 -0.0568447224795818329
0.0441555753350257874 -0.0114153353497385979 -0.0578586310148239136
0.0478149764239788055 -0.00874109379947185516 -0.0561065934598445892
0.0437149517238140106 -0.0103547293692827225 -0.0582634098827838898
0.0439823046326637268 -0.0106787243857979774 -0.0580626018345355988
0.0498648732900619507 -0.00775185227394104004 -0.0550538226962089539
0.0458341240882873535 -0.0105569018051028252 -0.057003360241651535
0.0358642339706420898 -0.0241715386509895325 -0.0591295361518859863
0.0362317971885204315 -0.0150182880461215973 -0.0614638738334178925
0.0360895171761512756 -0.0135900070890784264 -0.0619417130947113037
0.0390169955790042877 -0.0133711714297533035 -0.0603368394076824188
0.0401611775159835815 -0.0133072622120380402 -0.059703584760427475
0.0373156778514385223 -0.0200358740985393524 -0.0594528913497924805
0.00281495554372668266 -0.0738089904189109802 -0.0371053628623485565
0.00111487973481416702 -0.0736862942576408386 -0.0387865118682384491
0.00527036562561988831 -0.0724305734038352966 -0.0373716764152050018
0.00214644521474838257 -0.0720560699701309204 -0.040719006210565567
0.00460635032504796982 -0.0706441774964332581 -0.0410394333302974701
0.00583121133968234062 -0.0700927749276161194 -0.0409363731741905212
0.00489490525797009468 -0.0705144554376602173 -0.0410148501396179199
0.00960032735019922256 -0.070773102343082428 -0.0365019775927066803
0.00439323205500841141 -0.0721213668584823608 -0.0386649742722511292
0.00186839792877435684 -0.0716826990246772766 -0.0416059009730815887
0.00248126685619354248 -0.0689465999603271484 -0.0458155274391174316
0.00253750034607946873 -0.0753740891814231873 -0.0346342138946056366
0.00397053873166441917 -0.0702887699007987976 -0.0422042682766914368
0.0110175078734755516 -0.0711859762668609619 -0.0345626100897789001
0.00438987510278820992 -0.076735079288482666 -0.0280313920229673386
0.00476191146299242973 -0.0767648294568061829 -0.0273782964795827866
0.00169747683685272932 -0.080493435263633728 -0.0205279998481273651
0.00747867953032255173 -0.075174674391746521 -0.028171837329864502
0.00394935766234993935 -0.0756825432181358337 -0.0319356359541416168
0.00493978708982467651 -0.0746240690350532532 -0.0336984097957611084
0.00802557449787855148 -0.0746077224612236023 -0.0290912948548793793
9.88040119409561157e-06 -0.0798981189727783203 -0.0249073337763547897
0.00831656157970428467 -0.0738216787576675415 -0.0310713239014148712
0.00322255888022482395 -0.0776361674070358276 -0.0270199384540319443
0.00269831996411085129 -0.0765233412384986877 -0.0312361028045415878
0.000663626007735729218 -0.0791675299406051636 -0.0261691361665725708
0.00327412411570549011 -0.0761747285723686218 -0.0314399674534797668
0.0038838251493871212 -0.0752795413136482239 -0.0332748442888259888
0.0161757897585630417 -0.066211216151714325 -0.0383425503969192505
0.0152761824429035187 -0.0683497115969657898 -0.0356048978865146637
0.016795990988612175 -0.06594105064868927 -0.038265276700258255
0.00967427808791399002 -0.0630653649568557739 -0.0475859418511390686
0.0139387026429176331 -0.064590848982334137 -0.0427455604076385498
0.0110178533941507339 -0.0593473203480243683 -0.0505719967186450958
0.0108113568276166916 -0.0579448193311691284 -0.0522338747978210449
0.014441169798374176 -0.0631603151559829712 -0.0439053364098072052
0.0152258109301328659 -0.0612362511456012726 -0.0453835204243659973
0.00953160598874092102 -0.0556412488222122192 -0.0556695908308029175
0.0134625881910324097 -0.0612816214561462402 -0.0466584563255310059
0.00724515412002801895 -0.0584614649415016174 -0.0543559975922107697
0.012847529724240303 -0.0623401813209056854 -0.0459828637540340424
0.0102547584101557732 -0.0651931092143058777 -0.0448640920221805573
0.0100639760494232178 -0.053135354071855545 -0.0579622946679592133
0.0105612548068165779 -0.057568080723285675 -0.0528264082968235016
0.00646543363109230995 -0.0665746256709098816 -0.0462244860827922821
0.00569860124960541725 -0.0639798641204833984 -0.0495879985392093658
0.0111561259254813194 -0.0619805008172988892 -0.0476390756666660309
0.015433446504175663 -0.0622454099357128143 -0.0441433973610401154
0.00737671134993433952 -0.062048003077507019 -0.0504038259387016296
0.0150631200522184372 -0.0622819401323795319 -0.0443821549415588379
0.0127089843153953552 -0.0622854344546794891 -0.0461456924676895142
0.0123411025851964951 -0.0548263601958751678 -0.0544359758496284485
0.0118569890037178993 -0.0541990324854850769 -0.05547342449426651
0.014095730148255825 -0.0566014572978019714 -0.0512115620076656342
0.0112255755811929703 -0.0651252716779708862 -0.0442081615328788757
0.00228261365555226803 -0.0666506066918373108 -0.0492829717695713043
0.011404130607843399 -0.053945932537317276 -0.0560853183269500732
0.00964958872646093369 -0.0695905238389968872 -0.0384366512298583984
0.0107209235429763794 -0.0671158879995346069 -0.0416241437196731567
0.00897208135575056076 -0.0691735520958900452 -0.0397296920418739319
0.010304650291800499 -0.0678900554776191711 -0.0406984351575374603
0.0118645140901207924 -0.0660329088568687439 -0.0424246117472648621
0.0118436571210622787 -0.0673247724771499634 -0.0402862504124641418
0.0139528550207614899 -0.0661340504884719849 -0.0404158569872379303
0.0117329061031341553 -0.0677599906921386719 -0.0396572351455688477
0.0110966544598340988 -0.0663575679063796997 -0.0425591208040714264
0.0101032871752977371 -0.0698226019740104675 -0.0376494787633419037
0.0103064347058534622 -0.0669890791177749634 -0.0422010347247123718
0.0133490189909934998 -0.0667323023080825806 -0.0399490781128406525
0.00461700372397899628 -0.0682328492403030396 -0.045137159526348114
0.0158619899302721024 -0.0563147850334644318 -0.0501212738454341888
0.0130418650805950165 -0.0509834550321102142 -0.0579879023134708405
0.0137131121009588242 -0.0499941222369670868 -0.0585022419691085815
0.0172485504299402237 -0.0524192526936531067 -0.053140982985496521
0.0126085923984646797 -0.0519073456525802612 -0.0573543757200241089
0.0172841101884841919 -0.0596823990345001221 -0.0454365350306034088
0.0162114948034286499 -0.0490023344755172729 -0.0575730577111244202
0.0147028099745512009 -0.0533787533640861511 -0.0541417673230171204
0.0167112722992897034 -0.0535053983330726624 -0.0524182915687561035
0.0181457418948411942 -0.0583119876682758331 -0.0462925918400287628
0.0242482386529445648 -0.0537573806941509247 -0.0471218228340148926
0.0185671281069517136 -0.0591708458960056305 -0.0451097451150417328
0.020080244168639183 -0.0554109960794448853 -0.0480955131351947784
0.0246191062033176422 -0.0512208864092826843 -0.0495604462921619415
0.0223318096250295639 -0.0535432435572147369 -0.0485994108021259308
0.0294646769762039185 -0.0537613555788993835 -0.0437117032706737518
0.0233511608093976974 -0.0580344945192337036 -0.0431871451437473297
0.0205085966736078262 -0.0592221058905124664 -0.0437879525125026703
0.0247389711439609528 -0.0551171340048313141 -0.0453643128275871277
0.0246459897607564926 -0.0575656108558177948 -0.0428372770547866821
0.0277247019112110138 -0.0517340898513793945 -0.0469903424382209778
0.0206651743501424789 -0.0544211529195308685 -0.04875975102186203
0.0193323493003845215 -0.0605810247361660004 -0.0431197285652160645
0.0260841324925422668 -0.0575595684349536896 -0.0419046729803085327
0.0225885771214962006 -0.0532770454883575439 -0.0487131066620349884
0.0282158851623535156 -0.0518058985471725464 -0.0465937480330467224
0.0222146827727556229 -0.053417939692735672 -0.048808317631483078
0.0256181210279464722 -0.0532479137182235718 -0.046765841543674469
0.018795449286699295 -0.0515664145350456238 -0.0529976487159729004
0.0276108775287866592 -0.0551914162933826447 -0.0434106774628162384
0.0316325724124908447 -0.0515450499951839447 -0.0446386076509952545
0.0286476630717515945 -0.0502470396459102631 -0.0479593537747859955
0.0175241250544786453 -0.0492385067045688629 -0.0562880411744117737
0.0228357035666704178 -0.0550579912960529327 -0.0466695055365562439
0.018812498077750206 -0.0487782470881938934 -0.0559332743287086487
0.032115548849105835 -0.0524451583623886108 -0.0433719493448734283
0.0178596097975969315 -0.0506180301308631897 -0.0546110048890113831
0.0515851825475692749 -0.0601633787155151367 -0.0163760464638471603
0.0357240587472915649 -0.0669894292950630188 -0.0178451128304004669
0.0488931834697723389 -0.0622798353433609009 -0.0144777558743953705
0.0553227923810482025 -0.059317760169506073 -0.0143194375559687614
0.050273161381483078 -0.0617445670068264008 -0.0142185110598802567
0.0620811991393566132 -0.0610284693539142609 0.00143546983599662781
0.0673661530017852783 -0.0597523823380470276 0.00502358702942728996
0.0534156709909439087 -0.0619402490556240082 -0.00872712954878807068
0.0526283755898475647 -0.0616812296211719513 -0.0108895879238843918
0.0533989705145359039 -0.0622967444360256195 -0.0074608800932765007
0.0602182336151599884 -0.0601617395877838135 -0.00460154702886939049
0.0626881495118141174 -0.0606751218438148499 0.00109795085154473782
0.0574502386152744293 -0.0601155087351799011 -0.00907103158533573151
0.0503316745162010193 -0.06334666907787323 -0.00842219684273004532
0.0605543293058872223 -0.0599888302385807037 -0.00470597110688686371
0.0455670766532421112 -0.0640387237071990967 -0.0133185992017388344
0.0558682344853878021 -0.0620092898607254028 -0.00466521270573139191
0.050729852169752121 -0.0639379099011421204 -0.00566026894375681877
0.0614798441529273987 -0.0596129223704338074 -0.00463013770058751106
0.0548098050057888031 -0.0617648176848888397 -0.00719630392268300056
0.0524613521993160248 -0.0624152533710002899 -0.00848851073533296585
0.0414932295680046082 -0.0650171488523483276 -0.0161034278571605682
0.0557235553860664368 -0.0615425035357475281 -0.00658204406499862671
0.0588806793093681335 -0.0618459209799766541 -0.000575574231334030628
0.0413100346922874451 -0.0655675679445266724 -0.0143929962068796158
0.0623040534555912018 -0.060909029096364975 0.00134887010790407658
0.0569863766431808472 -0.0608445703983306885 -0.00714926142245531082
0.044038236141204834 -0.0651756003499031067 -0.0115737374871969223
0.0579430386424064636 -0.0594853833317756653 -0.0105891935527324677
0.0681785047054290771 -0.0599475540220737457 0.00699357828125357628
0.0429693572223186493 -0.0653425976634025574 -0.0126296337693929672
0.0604791827499866486 -0.0608048960566520691 -0.00186471058987081051
0.0381568260490894318 -0.0662882477045059204 -0.0166812930256128311
0.050806976854801178 -0.0622600466012954712 -0.0116222444921731949
0.0612030215561389923 -0.0593734234571456909 -0.00592849031090736389
0.0549009479582309723 -0.0615276284515857697 -0.00791442207992076874
0.06944236159324646 -0.0579359456896781921 1.22035853564739227e-05
0.0629019364714622498 -0.0582085661590099335 -0.00844707991927862167
0.0692227184772491455 -0.0586474277079105377 0.00285613629966974258
0.0688425004482269287 -0.0573072880506515503 -0.00367494625970721245
0.0648814737796783447 -0.0592256449162960052 -0.00098939891904592514
0.0688990503549575806 -0.0582489259541034698 0.000602567568421363831
0.0699359104037284851 -0.0594148822128772736 0.00732907094061374664
0.0668697133660316467 -0.0586862452328205109 -0.000451125204563140869
0.0681025609374046326 -0.0577392242848873138 -0.00284556951373815536
0.0680487304925918579 -0.0574380308389663696 -0.00426665134727954865
0.0526986978948116302 -0.0592578686773777008 -0.0170710273087024689
0.0547057092189788818 -0.0586667582392692566 -0.0161309987306594849
0.0533044524490833282 -0.0582425221800804138 -0.0183108355849981308
0.0384706184267997742 -0.0394768714904785156 -0.0500642210245132446
0.0429611429572105408 -0.0407563373446464539 -0.0461695827543735504
0.0430138036608695984 -0.0398870781064033508 -0.0468129441142082214
0.0396289452910423279 -0.0400092266499996185 -0.0489019528031349182
0.0419881269335746765 -0.036733727902173996 -0.0495590008795261383
0.0434653759002685547 -0.0337634235620498657 -0.0502077378332614899
0.0390797704458236694 -0.0296543054282665253 -0.0549369752407073975
0.0361234955489635468 -0.0378828272223472595 -0.0524626970291137695
0.0407338514924049377 -0.032021399587392807 -0.0527325347065925598
0.0435882583260536194 -0.0347849093377590179 -0.0496086254715919495
0.0369979813694953918 -0.0328495204448699951 -0.0545327514410018921
0.0371708087623119354 -0.0361106134951114655 -0.0527508780360221863
0.0451992414891719818 -0.0313399098813533783 -0.0504220426082611084
0.045995563268661499 -0.0309626273810863495 -0.0501416735351085663
0.0452166274189949036 -0.0317468792200088501 -0.0502021685242652893
0.0356921106576919556 -0.0311748050153255463 -0.0561732128262519836
0.0441243313252925873 -0.0329323597252368927 -0.0502428561449050903
0.0432642437517642975 -0.0330242030322551727 -0.0507081747055053711
0.0373149625957012177 -0.0371612049639225006 -0.0521241016685962677
0.0406720712780952454 -0.0338939540088176727 -0.0518053323030471802
0.0476335659623146057 -0.0338219664990901947 -0.0476933978497982025
0.0505991429090499878 -0.0384193286299705505 -0.0429791733622550964
0.0504720211029052734 -0.0372847020626068115 -0.0438461378216743469
0.045037493109703064 -0.0381526201963424683 -0.0467500165104866028
0.0505807772278785706 -0.0371107049286365509 -0.0438963845372200012
0.0443514809012413025 -0.0384857803583145142 -0.0469618812203407288
0.0282116681337356567 -0.0398899465799331665 -0.056325376033782959
0.0335274972021579742 -0.0281375087797641754 -0.0590660907328128815
0.0261851847171783447 -0.0393929556012153625 -0.0578429363667964935
0.0235031098127365112 -0.0402986854314804077 -0.059046521782875061
0.0312371999025344849 -0.037792205810546875 -0.0555216185748577118
0.0338388755917549133 -0.0308716390281915665 -0.05746464803814888
0.0266160164028406143 -0.0347129032015800476 -0.0599840804934501648
0.0267674978822469711 -0.036811143159866333 -0.0588095523416996002
0.03337845578789711 -0.036272294819355011 -0.0549709461629390717
0.0349010676145553589 -0.0341654866933822632 -0.0551075823605060577
0.0295802410691976547 -0.0385899171233177185 -0.0561425760388374329
0.0275609027594327927 -0.033286508172750473 -0.0601301267743110657
0.0223907865583896637 -0.0391317419707775116 -0.0603398270905017853
0.0334118381142616272 -0.0348995588719844818 -0.0556568726897239685
0.0239008422940969467 -0.0383530445396900177 -0.0598005466163158417
0.0325783565640449524 -0.0336533114314079285 -0.0568173974752426147
0.0344790033996105194 -0.0342288464307785034 -0.0553377419710159302
0.0188193842768669128 -0.0452273339033126831 -0.0586997531354427338
0.0308627225458621979 -0.0402603000402450562 -0.0544144250452518463
0.0212094727903604507 -0.0455032438039779663 -0.0569800548255443573
0.0231473110616207123 -0.0423504039645195007 -0.0579120926558971405
0.0210031978785991669 -0.0444456934928894043 -0.0578406862914562225
0.0176756083965301514 -0.0447973646223545074 -0.0597279742360115051
0.0239472426474094391 -0.0426533967256546021 -0.0571914017200469971
0.0208740606904029846 -0.04314461350440979 -0.0588197335600852966
0.0322200395166873932 -0.039873175323009491 -0.0538124889135360718
0.0178751349449157715 -0.0469743423163890839 -0.0581004172563552856
0.0336599461734294891 -0.0441533587872982025 -0.0494922734797000885
0.0244645755738019943 -0.0462471842765808105 -0.0541973449289798737
0.0341189876198768616 -0.0460646152496337891 -0.0476450659334659576
0.0339766405522823334 -0.0486937649548053741 -0.0456408970057964325
0.0316484346985816956 -0.0442521609365940094 -0.0508088506758213043
0.0340390466153621674 -0.0441830232739448547 -0.0492055155336856842
0.0335464701056480408 -0.0443456880748271942 -0.0494171641767024994
0.0325631648302078247 -0.0497973784804344177 -0.0457388535141944885
0.0217152517288923264 -0.048316366970539093 -0.054449811577796936
0.0291510410606861115 -0.0481016077101230621 -0.0494625754654407501
0.0335437245666980743 -0.0441062040627002716 -0.0496106259524822235
0.0265479497611522675 -0.0483831912279129028 -0.0510433986783027649
0.0288344696164131165 -0.0472698770463466644 -0.0503474771976470947
0.0299688875675201416 -0.0436851382255554199 -0.0524276606738567352
0.0345292612910270691 -0.0458728708326816559 -0.0475137755274772644
0.0289244744926691055 -0.0433210134506225586 -0.0534435324370861053
0.023636428639292717 -0.0469287261366844177 -0.0542267933487892151
0.0450891219079494476 -0.041596829891204834 -0.044133652001619339
0.040169738233089447 -0.0406026877462863922 -0.0480854213237762451
0.0435152947902679443 -0.044461473822593689 -0.0428522415459156036
0.0473353788256645203 -0.0444773659110069275 -0.0403883159160614014
0.0401165485382080078 -0.0421755127608776093 -0.0468615256249904633
0.0431381687521934509 -0.0453015826642513275 -0.042422272264957428
0.0419687144458293915 -0.0468967705965042114 -0.0418967641890048981
0.0423102490603923798 -0.0438629686832427979 -0.0441041961312294006
0.0492350570857524872 -0.043781675398349762 -0.0397258065640926361
0.0354001373052597046 -0.0408555082976818085 -0.0509436912834644318
0.0467536039650440216 -0.0448596440255641937 -0.0404558554291725159
0.0470958687365055084 -0.0442781634628772736 -0.0407013371586799622
0.0353509858250617981 -0.0439062230288982391 -0.0485351197421550751
0.0477233640849590302 -0.0430773384869098663 -0.0412591695785522461
0.0411679074168205261 -0.0464194454252719879 -0.0427924022078514099
0.0432422272861003876 -0.0461649782955646515 -0.0416649132966995239
0.0411683209240436554 -0.0444229356944561005 -0.0443890392780303955
0.0456853434443473816 -0.0357687920331954956 -0.0478317439556121826
0.0516482442617416382 -0.0343234501779079437 -0.0449514873325824738
0.0470601245760917664 -0.0361291766166687012 -0.0467431172728538513
0.042028035968542099 -0.0370881892740726471 -0.0493333451449871063
0.0505407452583312988 -0.036708194762468338 -0.0441910326480865479
0.0547033362090587616 -0.0481503605842590332 -0.0312098097056150436
0.0538982339203357697 -0.046236872673034668 -0.033769756555557251
0.0561547316610813141 -0.0448395311832427979 -0.0338552258908748627
0.0559708774089813232 -0.0440253801643848419 -0.0348449014127254486
0.0538887828588485718 -0.043085295706987381 -0.0371603406965732574
0.0625835806131362915 -0.0532665401697158813 -0.0186459720134735107
0.0595836490392684937 -0.0571954548358917236 -0.0140903331339359283
0.0614228881895542145 -0.0537361390888690948 -0.018876831978559494
0.0577695295214653015 -0.0561187341809272766 -0.0178871415555477142
0.0581751242280006409 -0.0557867512106895447 -0.0181250348687171936
0.0618134848773479462 -0.0548995994031429291 -0.0162914805114269257
0.0610272325575351715 -0.0534815378487110138 -0.019742429256439209
0.0553346425294876099 -0.0563166514039039612 -0.0198652483522891998
0.0554836690425872803 -0.05370301753282547 -0.0240594632923603058
0.0559005364775657654 -0.0542948655784130096 -0.0228462330996990204
0.0560599453747272491 -0.0524739250540733337 -0.0253794435411691666
0.0629037246108055115 -0.0524962134659290314 -0.0196536965668201447
0.0613531805574893951 -0.0517138205468654633 -0.0218757893890142441
0.058890514075756073 -0.0479547977447509766 -0.0283299479633569717
