ply
format ascii 1.0
element vertex 855
property float x
property float y
property float z
end_header
0.800000011920928955 1.47963166236877441 0.123428314924240112
0.800000011920928955 1.27952098846435547 0.180769383907318115
0.800000011920928955 1.92815148830413818 0.0927882790565490723
0.800000011920928955 0.198849916458129883 0.190298482775688171
0.800000011920928955 2.24383401870727539 0.101777084171772003
0.800000011920928955 1.75986695289611816 0.120225124061107635
0.800000011920928955 1.74533677101135254 0.136396825313568115
0.800000011920928955 2.42020702362060547 0.0978934764862060547
0.800000011920928955 2.70974993705749512 0.080190218985080719
0.800000011920928955 2.88783097267150879 0.165688365697860718
0.800000011920928955 2.04209756851196289 0.174258455634117126
0.800000011920928955 1.93335378170013428 0.106836602091789246
0.800000011920928955 1.00473523139953613 0.196120619773864746
0.800000011920928955 2.87230968475341797 0.0778477713465690613
0.800000011920928955 2.70325136184692383 0.0915600061416625977
0.800000011920928955 2.40625286102294922 0.179242625832557678
0.800000011920928955 2.38542270660400391 0.175765559077262878
0.800000011920928955 2.32526326179504395 0.127183005213737488
0.800000011920928955 1.26837837696075439 0.176426976919174194
0.800000011920928955 2.9141998291015625 0.0799778476357460022
0.800000011920928955 1.82638585567474365 0.125446349382400513
0.800000011920928955 2.50350475311279297 0.106413841247558594
0.800000011920928955 2.44444465637207031 0.0800398513674736023
0.800000011920928955 2.86504435539245605 0.120589137077331543
0.800000011920928955 1.83194947242736816 0.157752260565757751
0.800000011920928955 2.08584332466125488 0.162316888570785522
0.800000011920928955 2.78489923477172852 0.0424426943063735962
0.800000011920928955 1.72607684135437012 0.11185804009437561
0.800000011920928955 1.66580450534820557 0.139955759048461914
0.800000011920928955 2.41230893135070801 0.108412213623523712
0.800000011920928955 1.74224722385406494 0.125686198472976685
0.800000011920928955 1.50891780853271484 0.184989660978317261
0.800000011920928955 0.940557718276977539 0.170891568064689636
0.800000011920928955 0.815812110900878906 0.163049548864364624
0.800000011920928955 2.83967423439025879 0.0221005082130432129
0.800000011920928955 0.814847230911254883 0.161021947860717773
0.800000011920928955 1.02782320976257324 0.160957217216491699
0.800000011920928955 1.19342947006225586 0.182700306177139282
0.800000011920928955 1.67974472045898438 0.156846150755882263
0.800000011920928955 1.64512550830841064 0.188739359378814697
0.800000011920928955 2.56842923164367676 0.193296238780021667
0.800000011920928955 0.585245609283447266 0.183229997754096985
0.800000011920928955 2.42732715606689453 0.178830206394195557
0.800000011920928955 1.07327461242675781 0.130851596593856812
0.800000011920928955 1.14734244346618652 0.181365922093391418
0.800000011920928955 2.80699992179870605 0.172697469592094421
0.800000011920928955 2.44028997421264648 0.0896223336458206177
0.800000011920928955 2.04297709465026855 0.125366270542144775
0.800000011920928955 0.556465625762939453 0.198126420378684998
0.800000011920928955 3.01556658744812012 0.0696980804204940796
0.800000011920928955 1.10642695426940918 0.149395033717155457
0.800000011920928955 2.93486261367797852 0.0664875656366348267
0.800000011920928955 0.840794086456298828 0.193769663572311401
0.800000011920928955 1.41903483867645264 0.1971169114112854
0.800000011920928955 0.978191614151000977 0.139127492904663086
0.800000011920928955 0.274230480194091797 0.183825597167015076
0.800000011920928955 1.95412528514862061 0.126922592520713806
0.800000011920928955 1.67747759819030762 0.199070647358894348
0.800000011920928955 2.54808640480041504 0.0816201716661453247
0.800000011920928955 2.82306766510009766 0.0200081020593643188
0.800000011920928955 2.18998575210571289 0.186710074543952942
0.800000011920928955 2.49810290336608887 0.195258483290672302
0.800000011920928955 0.476248025894165039 0.178070709109306335
0.800000011920928955 2.02829623222351074 0.0972131118178367615
0.800000011920928955 1.83884930610656738 0.114773005247116089
0.800000011920928955 2.27538537979125977 0.180210739374160767
0.800000011920928955 2.19344902038574219 0.0897163525223731995
0.800000011920928955 2.9113011360168457 0.0784709975123405457
0.800000011920928955 2.35704374313354492 0.124372981488704681
0.800000011920928955 2.93514180183410645 0.183801114559173584
0.800000011920928955 2.02999782562255859 0.0891008153557777405
0.800000011920928955 1.2790522575378418 0.194334685802459717
0.800000011920928955 2.76467633247375488 0.0883159637451171875
0.800000011920928955 0.775614261627197266 0.191568821668624878
0.800000011920928955 2.82520818710327148 0.174902737140655518
0.800000011920928955 2.0222628116607666 0.086619451642036438
0.800000011920928955 0.746060371398925781 0.160022825002670288
0.800000011920928955 2.1452479362487793 0.150737106800079346
0.800000011920928955 1.76059448719024658 0.116918683052062988
0.800000011920928955 0.878581523895263672 0.142126172780990601
0.800000011920928955 2.69216179847717285 0.0250709354877471924
0.800000011920928955 3.02044892311096191 0.0693391412496566772
0.800000011920928955 0.544407844543457031 0.168279543519020081
0.800000011920928955 1.25145089626312256 0.130972474813461304
0.800000011920928955 2.5980074405670166 0.0770449638366699219
0.800000011920928955 2.86822795867919922 0.120020210742950439
0.800000011920928955 2.97527647018432617 0.128222793340682983
0.800000011920928955 2.99930310249328613 0.115646407008171082
0.800000011920928955 2.48565459251403809 0.0665017515420913696
0.800000011920928955 0.434701681137084961 0.196012750267982483
0.800000011920928955 1.76538372039794922 0.168790891766548157
0.800000011920928955 1.84281134605407715 0.191920489072799683
0.800000011920928955 2.6965336799621582 0.0264944136142730713
0.800000011920928955 2.59341311454772949 0.0568351447582244873
0.800000011920928955 2.5901792049407959 0.0473019778728485107
0.800000011920928955 2.87755608558654785 0.132820308208465576
0.800000011920928955 2.6002044677734375 0.166569888591766357
0.800000011920928955 0.855793476104736328 0.192117452621459961
0.800000011920928955 2.78631281852722168 0.130610361695289612
0.800000011920928955 1.32087194919586182 0.124194622039794922
0.800000011920928955 0.937721729278564453 0.15774950385093689
0.800000011920928955 2.68638968467712402 0.060219988226890564
0.800000011920928955 2.78740048408508301 0.0571156740188598633
0.800000011920928955 1.65066874027252197 0.141195535659790039
0.800000011920928955 1.94629788398742676 0.16518363356590271
0.800000011920928955 2.6915745735168457 0.152720227837562561
0.800000011920928955 2.40116024017333984 0.116257146000862122
0.800000011920928955 1.61077308654785156 0.172717347741127014
0.800000011920928955 1.978554368019104 0.145827919244766235
0.800000011920928955 2.07196664810180664 0.189908638596534729
0.800000011920928955 2.71404814720153809 0.158063352108001709
0.800000011920928955 2.57814168930053711 0.159959584474563599
0.800000011920928955 1.29535329341888428 0.175067171454429626
0.800000011920928955 2.4976503849029541 0.0910569578409194946
0.800000011920928955 2.53945732116699219 0.10361587256193161
0.800000011920928955 2.17864346504211426 0.0600049793720245361
0.800000011920928955 2.93734979629516602 0.0873026847839355469
0.800000011920928955 2.80298304557800293 0.144429400563240051
0.800000011920928955 1.38956308364868164 0.150124326348304749
0.800000011920928955 2.11287164688110352 0.151852071285247803
0.800000011920928955 1.69384169578552246 0.192574754357337952
0.800000011920928955 2.18801450729370117 0.0974081754684448242
0.800000011920928955 2.56426882743835449 0.173197105526924133
0.800000011920928955 2.59981060028076172 0.131799221038818359
0.800000011920928955 1.52205145359039307 0.133909672498703003
0.800000011920928955 1.17755568027496338 0.147661387920379639
0.800000011920928955 1.19267845153808594 0.173465415835380554
0.800000011920928955 0.234723806381225586 0.191950350999832153
0.800000011920928955 0.585943222045898438 0.165941745042800903
0.800000011920928955 2.84326267242431641 0.0957832559943199158
0.800000011920928955 2.94378924369812012 0.177326411008834839
0.800000011920928955 1.85415709018707275 0.099799029529094696
0.800000011920928955 2.63783717155456543 0.0512228906154632568
0.800000011920928955 2.12623023986816406 0.0645286440849304199
0.800000011920928955 2.94226288795471191 0.163877606391906738
0.800000011920928955 2.76161885261535645 0.143559500575065613
0.800000011920928955 1.9910508394241333 0.0812514945864677429
0.800000011920928955 1.65268850326538086 0.133830368518829346
0.800000011920928955 2.96920561790466309 0.105224192142486572
0.800000011920928955 2.72008681297302246 0.041658550500869751
0.800000011920928955 2.45341277122497559 0.0563360452651977539
0.800000011920928955 0.510433435440063477 0.190850928425788879
0.800000011920928955 2.42672610282897949 0.0395075827836990356
0.800000011920928955 2.61186456680297852 0.120471782982349396
0.800000011920928955 0.477537870407104492 0.198433592915534973
0.800000011920928955 2.18639731407165527 0.130930542945861816
0.800000011920928955 2.35325121879577637 0.0827969908714294434
0.800000011920928955 1.65061545372009277 0.118183225393295288
0.800000011920928955 1.02292919158935547 0.15104849636554718
0.800000011920928955 2.07208466529846191 0.184419184923171997
0.800000011920928955 2.73642444610595703 0.153101846575737
0.800000011920928955 1.61091184616088867 0.163487866520881653
0.800000011920928955 2.12444353103637695 0.118313685059547424
0.800000011920928955 1.83192431926727295 0.183910220861434937
0.800000011920928955 2.64233756065368652 0.130367442965507507
0.800000011920928955 2.35827875137329102 0.0926154032349586487
0.800000011920928955 2.90141463279724121 0.121772833168506622
0.800000011920928955 1.5822833776473999 0.152490466833114624
0.800000011920928955 1.25585377216339111 0.133596301078796387
0.800000011920928955 2.2638087272644043 0.0883541107177734375
0.800000011920928955 2.83061099052429199 0.0804326757788658142
0.800000011920928955 1.18116664886474609 0.176114752888679504
0.800000011920928955 2.70800304412841797 0.124768771231174469
0.800000011920928955 0.74020695686340332 0.197542577981948853
0.800000011920928955 2.53743577003479004 0.0421369373798370361
0.800000011920928955 2.32769656181335449 0.162289291620254517
0.800000011920928955 1.9135819673538208 0.146223127841949463
0.800000011920928955 1.64349234104156494 0.118353091180324554
0.800000011920928955 2.39052939414978027 0.139864370226860046
0.800000011920928955 2.53576302528381348 0.196612969040870667
0.800000011920928955 2.68664646148681641 0.187664464116096497
0.800000011920928955 1.93115675449371338 0.155581235885620117
0.800000011920928955 1.64595353603363037 0.166297391057014465
0.800000011920928955 1.82262670993804932 0.164735868573188782
0.800000011920928955 1.90400147438049316 0.114204637706279755
0.800000011920928955 2.51048994064331055 0.139071062207221985
0.800000011920928955 2.01556587219238281 0.0775155201554298401
0.800000011920928955 1.5320744514465332 0.181923896074295044
0.800000011920928955 0.818419694900512695 0.19038565456867218
0.800000011920928955 0.669481039047241211 0.1866130530834198
0.800000011920928955 2.72442150115966797 0.147726833820343018
0.800000011920928955 1.43869698047637939 0.179211243987083435
0.800000011920928955 2.21805000305175781 0.161970123648643494
0.800000011920928955 0.987508296966552734 0.192946553230285645
0.800000011920928955 2.72589516639709473 0.078662477433681488
0.800000011920928955 2.36589193344116211 0.149391353130340576
0.800000011920928955 1.53583395481109619 0.192300036549568176
0.800000011920928955 2.96364140510559082 0.151032313704490662
0.800000011920928955 1.26941454410552979 0.184469625353813171
0.800000011920928955 2.94899821281433105 0.092070162296295166
0.800000011920928955 2.39411330223083496 0.101311914622783661
0.800000011920928955 2.06413936614990234 0.0778829380869865417
0.800000011920928955 2.87004351615905762 0.0749437958002090454
0.800000011920928955 2.71822500228881836 0.153375163674354553
0.800000011920928955 2.31470179557800293 0.155822262167930603
0.800000011920928955 0.833000898361206055 0.159977048635482788
0.800000011920928955 2.89617538452148438 0.174742355942726135
0.800000011920928955 1.73823928833007812 0.128763988614082336
0.800000011920928955 2.29020023345947266 0.143765807151794434
0.800000011920928955 1.84451389312744141 0.169418454170227051
0.800000011920928955 2.52494215965270996 0.113121241331100464
0.800000011920928955 2.4411156177520752 0.0940500274300575256
0.800000011920928955 2.79764318466186523 0.127425879240036011
0.800000011920928955 2.18470191955566406 0.179130911827087402
0.800000011920928955 2.16625094413757324 0.0592824369668960571
0.800000011920928955 1.48363101482391357 0.106864474713802338
0.800000011920928955 1.43290019035339355 0.184214815497398376
0.800000011920928955 2.74078083038330078 0.0552278459072113037
0.800000011920928955 2.64639663696289062 0.190239354968070984
0.800000011920928955 2.53622746467590332 0.153776675462722778
0.800000011920928955 1.27307331562042236 0.116884537041187286
0.800000011920928955 2.97924399375915527 0.160469561815261841
0.800000011920928955 2.99021244049072266 0.199845090508460999
0.800000011920928955 0.434349298477172852 0.197790741920471191
0.800000011920928955 0.889122247695922852 0.19771970808506012
0.800000011920928955 1.71252977848052979 0.139394238591194153
0.800000011920928955 2.70151495933532715 0.0877524986863136292
0.800000011920928955 1.32091426849365234 0.120425797998905182
0.800000011920928955 2.55051779747009277 0.0831448361277580261
0.800000011920928955 1.05814504623413086 0.183127135038375854
0.800000011920928955 1.72149169445037842 0.0932618752121925354
0.800000011920928955 2.46207952499389648 0.0892484560608863831
0.800000011920928955 1.55807304382324219 0.122151300311088562
0.800000011920928955 1.99434995651245117 0.197536200284957886
0.800000011920928955 1.98198461532592773 0.114713177084922791
0.800000011920928955 1.83150386810302734 0.193324759602546692
0.800000011920928955 2.63627791404724121 0.0324144065380096436
0.800000011920928955 1.99555456638336182 0.0734878182411193848
0.800000011920928955 0.803570032119750977 0.191094338893890381
0.800000011920928955 2.87780094146728516 0.0509212315082550049
0.800000011920928955 1.8142240047454834 0.141783565282821655
0.800000011920928955 2.59935426712036133 0.141244396567344666
0.800000011920928955 0.457455635070800781 0.173295006155967712
0.800000011920928955 2.15842199325561523 0.114112086594104767
0.800000011920928955 2.84471893310546875 0.0633429884910583496
0.800000011920928955 2.04805660247802734 0.155799835920333862
0.800000011920928955 1.15391778945922852 0.184864208102226257
0.800000011920928955 0.509498834609985352 0.173376664519309998
0.800000011920928955 2.80942511558532715 0.0803855881094932556
0.800000011920928955 2.5741734504699707 0.184220269322395325
0.800000011920928955 1.68693053722381592 0.0914623066782951355
0.800000011920928955 2.37868428230285645 0.144873231649398804
0.800000011920928955 1.31573951244354248 0.144125759601593018
0.800000011920928955 1.81689608097076416 0.080967344343662262
0.800000011920928955 1.070892333984375 0.16480901837348938
0.800000011920928955 1.53327298164367676 0.137716382741928101
0.800000011920928955 1.3326103687286377 0.141480743885040283
0.800000011920928955 1.28033065795898438 0.174004942178726196
0.800000011920928955 2.81948471069335938 0.107415005564689636
0.800000011920928955 0.903901100158691406 0.142790570855140686
0.800000011920928955 0.68865656852722168 0.183703422546386719
0.800000011920928955 2.44307732582092285 0.0992293134331703186
0.800000011920928955 2.33688640594482422 0.0554044842720031738
0.800000011920928955 1.07981550693511963 0.156153976917266846
0.800000011920928955 2.60408949851989746 0.175120174884796143
0.800000011920928955 2.54683828353881836 0.17296050488948822
0.800000011920928955 0.575300216674804688 0.163706645369529724
0.800000011920928955 2.4687647819519043 0.173279955983161926
0.800000011920928955 2.49741721153259277 0.185867741703987122
0.800000011920928955 2.11691427230834961 0.0739421248435974121
0.800000011920928955 2.89568185806274414 0.183335244655609131
0.800000011920928955 2.99176335334777832 0.192367210984230042
0.800000011920928955 2.38426685333251953 0.142591893672943115
0.800000011920928955 2.10014867782592773 0.105674229562282562
0.800000011920928955 2.73335695266723633 0.0271644443273544312
0.800000011920928955 1.35537445545196533 0.149627074599266052
0.800000011920928955 1.71163463592529297 0.192710414528846741
0.800000011920928955 2.96516585350036621 0.164053261280059814
0.800000011920928955 1.80867505073547363 0.117942087352275848
0.800000011920928955 0.964087247848510742 0.17836444079875946
0.800000011920928955 1.82021224498748779 0.129718825221061707
0.800000011920928955 1.88062489032745361 0.17212986946105957
0.800000011920928955 1.21962940692901611 0.187518924474716187
0.800000011920928955 2.91539359092712402 0.117377102375030518
0.800000011920928955 2.9986875057220459 0.175336837768554688
0.800000011920928955 2.32843518257141113 0.186472728848457336
0.800000011920928955 2.32603597640991211 0.0747782737016677856
0.800000011920928955 2.78282618522644043 0.0812797695398330688
0.800000011920928955 2.24974203109741211 0.187768235802650452
0.800000011920928955 2.4303734302520752 0.0512671023607254028
0.800000011920928955 1.6104881763458252 0.103174291551113129
0.800000011920928955 2.12346696853637695 0.0710940062999725342
0.800000011920928955 2.76943874359130859 0.130470454692840576
0.800000011920928955 1.47812676429748535 0.143632456660270691
0.800000011920928955 2.92468595504760742 0.172257408499717712
0.800000011920928955 2.38231897354125977 0.0447978079319000244
0.800000011920928955 2.89890503883361816 0.0271157324314117432
0.800000011920928955 1.85846555233001709 0.142015367746353149
0.800000011920928955 2.26588606834411621 0.18638436496257782
0.800000011920928955 1.58172333240509033 0.189119607210159302
0.800000011920928955 0.474177360534667969 0.173058956861495972
0.800000011920928955 2.35094833374023438 0.151244014501571655
0.800000011920928955 1.53846025466918945 0.14848954975605011
0.800000011920928955 2.75191855430603027 0.0392944514751434326
0.800000011920928955 1.07296967506408691 0.14314444363117218
0.800000011920928955 2.42677211761474609 0.076108589768409729
0.800000011920928955 2.05731844902038574 0.148446664214134216
0.800000011920928955 2.22057533264160156 0.0629572570323944092
0.800000011920928955 2.76303935050964355 0.133521854877471924
0.800000011920928955 1.83723068237304688 0.15918414294719696
0.800000011920928955 1.50018584728240967 0.198026686906814575
0.800000011920928955 2.49436616897583008 0.130187004804611206
0.800000011920928955 2.60692739486694336 0.051552504301071167
0.800000011920928955 2.51045370101928711 0.135608643293380737
0.800000011920928955 2.17312932014465332 0.114556744694709778
0.800000011920928955 1.80803000926971436 0.195725247263908386
0.800000011920928955 1.79451525211334229 0.197885826230049133
0.800000011920928955 1.36068964004516602 0.125377565622329712
0.800000011920928955 2.17285776138305664 0.129709511995315552
0.800000011920928955 1.23853826522827148 0.150614529848098755
0.800000011920928955 1.76273846626281738 0.0999813452363014221
0.800000011920928955 1.72043251991271973 0.148214280605316162
0.800000011920928955 2.35989665985107422 0.0527524948120117188
0.800000011920928955 2.96666145324707031 0.0551716834306716919
0.160414218902587891 3.02289509773254395 0.000965967774391174316
0.765108823776245117 3.02289509773254395 0.151293903589248657
0.0794745087623596191 3.02289509773254395 0.0134471505880355835
0.334181159734725952 3.02289509773254395 0.00195938348770141602
0.618415951728820801 3.02289509773254395 0.0862459093332290649
0.360753357410430908 3.02289509773254395 0.0183311104774475098
0.760250508785247803 3.02289509773254395 0.175867408514022827
0.203696250915527344 3.02289509773254395 0.0436451733112335205
0.458294570446014404 3.02289509773254395 0.0432267040014266968
0.541488170623779297 3.02289509773254395 0.00154884159564971924
0.392745554447174072 3.02289509773254395 0.0400359481573104858
0.567369341850280762 3.02289509773254395 0.102995410561561584
0.412713438272476196 3.02289509773254395 0.00136194378137588501
0.791211128234863281 3.02289509773254395 0.144765362143516541
0.541482329368591309 3.02289509773254395 0.0837650671601295471
0.614165842533111572 3.02289509773254395 0.106856688857078552
0.465701848268508911 3.02289509773254395 0.0106000974774360657
0.781755387783050537 3.02289509773254395 0.145228788256645203
0.549823284149169922 3.02289509773254395 0.0888813361525535583
0.545773029327392578 3.02289509773254395 0.0451207980513572693
0.420561492443084717 3.02289509773254395 0.081278577446937561
0.791785717010498047 3.02289509773254395 0.00693377433344721794
0.641987979412078857 3.02289509773254395 0.129460960626602173
0.542557358741760254 3.02289509773254395 0.0846627429127693176
0.387609690427780151 3.02289509773254395 0.0767977610230445862
0.743187785148620605 3.02289509773254395 0.110666520893573761
0.73300015926361084 3.02289509773254395 0.147971674799919128
0.54869610071182251 3.02289509773254395 0.123301774263381958
0.615584135055541992 3.02289509773254395 0.0388381145894527435
0.520272970199584961 3.02289509773254395 0.0255152136087417603
0.551607310771942139 3.02289509773254395 0.0934438258409500122
0.635156869888305664 3.02289509773254395 0.0605232007801532745
0.312329024076461792 3.02289509773254395 0.0565067902207374573
0.685950636863708496 3.02289509773254395 0.110683560371398926
0.697174906730651855 3.02289509773254395 0.140806436538696289
0.351876735687255859 3.02289509773254395 0.0282015502452850342
0.741946280002593994 3.02289509773254395 0.0665862932801246643
0.0683990716934204102 3.02289509773254395 0.00706952810287475586
0.738474667072296143 3.02289509773254395 0.142781943082809448
0.688061654567718506 3.02289509773254395 0.0820987671613693237
0.656707763671875 3.02289509773254395 0.098469264805316925
0.707545578479766846 3.02289509773254395 0.109027057886123657
0.515364587306976318 3.02289509773254395 0.0938505828380584717
0.27941972017288208 3.02289509773254395 0.0527788400650024414
0.482345670461654663 3.02289509773254395 0.118554167449474335
0.464010685682296753 3.02289509773254395 0.037686958909034729
0.390375584363937378 3.02289509773254395 0.0943993404507637024
0.793000280857086182 3.02289509773254395 0.122473634779453278
0.496161669492721558 3.02289509773254395 0.0854095295071601868
0.433747172355651855 3.02289509773254395 0.0988617837429046631
0.758645892143249512 3.02289509773254395 0.181172773241996765
0.522304415702819824 3.02289509773254395 0.0355406850576400757
0.291752815246582031 3.02289509773254395 0.0340954512357711792
0.555920302867889404 3.02289509773254395 0.082117229700088501
0.261940896511077881 3.02289509773254395 0.0433828383684158325
0.468750268220901489 3.02289509773254395 0.0980644300580024719
0.490626513957977295 3.02289509773254395 0.032960742712020874
0.368841886520385742 3.02289509773254395 0.0562763512134552002
0.646764397621154785 3.02289509773254395 0.07433309406042099
0.598038077354431152 3.02289509773254395 0.0658472031354904175
0.507414579391479492 3.02289509773254395 0.0903756394982337952
0.617936015129089355 3.02289509773254395 0.0582078211009502411
0.729768216609954834 3.02289509773254395 0.00680072978138923645
0.719083309173583984 3.02289509773254395 0.141382426023483276
0.411816656589508057 3.02289509773254395 0.0148829743266105652
0.290207982063293457 3.02289509773254395 0.0415226370096206665
0.604940056800842285 3.02289509773254395 0.146206125617027283
0.713940680027008057 3.02289509773254395 0.170469477772712708
0.503185391426086426 3.02289509773254395 0.0778858140110969543
0.482871025800704956 3.02289509773254395 0.019506014883518219
0.615693926811218262 3.02289509773254395 0.0842107981443405151
0.656710624694824219 3.02289509773254395 0.0498631745576858521
0.566591143608093262 3.02289509773254395 0.0908060744404792786
0.66602790355682373 3.02289509773254395 0.0204848945140838623
0.701114058494567871 3.02289509773254395 0.0405492708086967468
0.576610386371612549 3.02289509773254395 0.0953408628702163696
0.475444495677947998 3.02289509773254395 0.0388686731457710266
0.572759091854095459 3.02289509773254395 0.0113824605941772461
0.650411844253540039 3.02289509773254395 0.0599436946213245392
0.701868593692779541 3.02289509773254395 0.0127311758697032928
0.436081618070602417 3.02289509773254395 0.0643799230456352234
0.720517158508300781 3.02289509773254395 0.154963046312332153
0.113860368728637695 3.02289509773254395 0.0132411718368530273
0.695032000541687012 3.02289509773254395 0.0602966994047164917
0.59045100212097168 3.02289509773254395 0.00727289170026779175
0.442693591117858887 3.02289509773254395 0.0814172923564910889
0.554582178592681885 3.02289509773254395 0.0822041928768157959
0.603327751159667969 3.02289509773254395 0.119747854769229889
0.376064687967300415 3.02289509773254395 0.0927852317690849304
0.622064650058746338 3.02289509773254395 0.00482170283794403076
0.30570647120475769 3.02289509773254395 0.0529414787888526917
0.448758304119110107 3.02289509773254395 0.0736321061849594116
0.723709940910339355 3.02289509773254395 0.0573210865259170532
0.527130007743835449 3.02289509773254395 0.0828876718878746033
0.634908020496368408 3.02289509773254395 0.0183052420616149902
0.265574455261230469 3.02289509773254395 0.00703752040863037109
0.558821797370910645 3.02289509773254395 0.0664108023047447205
0.606896817684173584 3.02289509773254395 0.0801855176687240601
0.286206901073455811 3.02289509773254395 0.0452659726142883301
0.593716919422149658 3.02289509773254395 0.112304240465164185
0.372866243124008179 3.02289509773254395 0.0830316618084907532
0.420406311750411987 3.02289509773254395 0.00896748155355453491
0.427417486906051636 3.02289509773254395 0.0159429609775543213
0.607076406478881836 3.02289509773254395 0.103111959993839264
0.726571202278137207 3.02289509773254395 0.178574264049530029
0.581728518009185791 3.02289509773254395 0.105239048600196838
0.587325811386108398 3.02289509773254395 0.143488407135009766
0.376853048801422119 3.02289509773254395 0.0257486104965209961
0.638071715831756592 3.02289509773254395 0.0446256436407566071
0.205342710018157959 3.02289509773254395 0.00983902812004089355
0.463435351848602295 3.02289509773254395 0.0361288189888000488
0.0580863356590270996 3.02289509773254395 0.00411172211170196533
0.777399659156799316 3.02289509773254395 0.0635191053152084351
0.349709510803222656 3.02289509773254395 0.0614414960145950317
0.661608636379241943 3.02289509773254395 0.0196288377046585083
0.0792158246040344238 3.02289509773254395 0.0128934383392333984
0.473082423210144043 3.02289509773254395 0.0358308479189872742
0.711177170276641846 3.02289509773254395 0.100372791290283203
0.703266143798828125 3.02289509773254395 0.148274883627891541
0.524673938751220703 3.02289509773254395 0.0426983460783958435
0.648205161094665527 3.02289509773254395 0.0264112092554569244
0.355480819940567017 3.02289509773254395 0.0761023983359336853
0.732295036315917969 3.02289509773254395 0.119133904576301575
0.435343682765960693 3.02289509773254395 0.0551964044570922852
0.413092553615570068 3.02289509773254395 0.00554080307483673096
0.363782376050949097 3.02289509773254395 0.0429264530539512634
0.314044445753097534 3.02289509773254395 0.0798313766717910767
0.241295173764228821 3.02289509773254395 0.0676102489233016968
0.0673872083425521851 3.02289509773254395 0.144107863306999207
0.430635422468185425 3.02289509773254395 0.183729663491249084
0.471674174070358276 3.02289509773254395 0.15531475841999054
0.127077266573905945 3.02289509773254395 0.118470795452594757
0.504384458065032959 3.02289509773254395 0.181038424372673035
0.387950271368026733 3.02289509773254395 0.193707928061485291
0.102396681904792786 3.02289509773254395 0.11785077303647995
0.237537547945976257 3.02289509773254395 0.0925097241997718811
0.211171746253967285 3.02289509773254395 0.100913040339946747
0.350927472114562988 3.02289509773254395 0.119523145258426666
0.0162682011723518372 3.02289509773254395 0.135052204132080078
0.260677456855773926 3.02289509773254395 0.194932505488395691
0.118479982018470764 3.02289509773254395 0.178172290325164795
0.281055331230163574 3.02289509773254395 0.113261863589286804
0.245830222964286804 3.02289509773254395 0.15905289351940155
0.359679281711578369 3.02289509773254395 0.126540616154670715
0.0429434254765510559 3.02289509773254395 0.180786177515983582
0.616014719009399414 3.02289509773254395 0.196741223335266113
0.180930435657501221 3.02289509773254395 0.0751649737358093262
0.195503577589988708 3.02289509773254395 0.0801554098725318909
0.0605607442557811737 3.02289509773254395 0.142885491251945496
0.614524900913238525 3.02289509773254395 0.197346925735473633
0.0780417919158935547 3.02289509773254395 0.0633395463228225708
0.187701627612113953 3.02289509773254395 0.0557433813810348511
0.374773204326629639 3.02289509773254395 0.12526315450668335
0.0345856994390487671 3.02289509773254395 0.180715158581733704
0.304405152797698975 3.02289509773254395 0.156101644039154053
0.117092028260231018 3.02289509773254395 0.193243131041526794
0.6098136305809021 3.02289509773254395 0.197594836354255676
0.544591963291168213 3.02289509773254395 0.159781485795974731
0.310946375131607056 3.02289509773254395 0.169406309723854065
0.217010721564292908 3.02289509773254395 0.173101142048835754
0.173200458288192749 3.02289509773254395 0.0692389905452728271
0.0328004881739616394 3.02289509773254395 0.106067530810832977
0.171261921525001526 3.02289509773254395 0.147092163562774658
0.208226591348648071 3.02289509773254395 0.108013451099395752
0.188581928610801697 3.02289509773254395 0.123339630663394928
0.381955087184906006 3.02289509773254395 0.195340529084205627
0.234118491411209106 3.02289509773254395 0.119971767067909241
0.270570188760757446 3.02289509773254395 0.156851902604103088
0.213516265153884888 3.02289509773254395 0.190004512667655945
0.396539062261581421 3.02289509773254395 0.174707129597663879
0.717189490795135498 3.02289509773254395 0.189577162265777588
0.31864553689956665 3.02289509773254395 0.0873942524194717407
0.304560065269470215 3.02289509773254395 0.096506945788860321
0.0548902824521064758 3.02289509773254395 0.10080140084028244
0.278335809707641602 3.02289509773254395 0.0824945196509361267
0.0503126084804534912 3.02289509773254395 0.126506179571151733
0.312408894300460815 3.02289509773254395 0.141580909490585327
0.530932128429412842 3.02289509773254395 0.189455017447471619
0.554578423500061035 3.02289509773254395 0.197138354182243347
0.481824308633804321 3.02289509773254395 0.134266793727874756
0.14740966260433197 3.02289509773254395 0.185094147920608521
0.215368509292602539 3.02289509773254395 0.132527291774749756
0.360644072294235229 3.02289509773254395 0.101905666291713715
0.170593515038490295 3.02289509773254395 0.183873966336250305
0.444054275751113892 3.02289509773254395 0.134987890720367432
0.286969751119613647 3.02289509773254395 0.0719129890203475952
0.150842368602752686 3.02289509773254395 0.121894054114818573
0.316225439310073853 3.02289509773254395 0.131738990545272827
0.00402093632146716118 3.02289509773254395 0.0754107236862182617
0.163449689745903015 3.02289509773254395 0.0853376761078834534
0.0527467615902423859 3.02289509773254395 0.147407054901123047
0.0277715325355529785 3.02289509773254395 0.0404739826917648315
0.471186220645904541 3.02289509773254395 0.127414077520370483
0.0712866261601448059 3.02289509773254395 0.0531946867704391479
0.496859997510910034 3.02289509773254395 0.164263665676116943
0.0515615940093994141 3.02289509773254395 0.171569555997848511
0.578710675239562988 3.02289509773254395 0.150092422962188721
0.0543376579880714417 3.02289509773254395 0.191054344177246094
0.547513365745544434 3.02289509773254395 0.156053617596626282
0.439706534147262573 3.02289509773254395 0.152905851602554321
0.304848283529281616 3.02289509773254395 0.11656700074672699
0.338120043277740479 3.02289509773254395 0.0846678540110588074
0.217852935194969177 3.02289509773254395 0.167152583599090576
0.0412497036159038544 3.02289509773254395 0.0755651220679283142
0.0405412465333938599 3.02289509773254395 0.183397963643074036
0.419303268194198608 3.02289509773254395 0.182391047477722168
0.0794478803873062134 3.02289509773254395 0.134758502244949341
0.490393936634063721 3.02289509773254395 0.156936630606651306
0.0690014511346817017 3.02289509773254395 0.0301412791013717651
0.289791911840438843 3.02289509773254395 0.19989931583404541
0.182904645800590515 3.02289509773254395 0.132151737809181213
0.49660763144493103 3.02289509773254395 0.143738895654678345
0.323057800531387329 3.02289509773254395 0.102046705782413483
0.220737367868423462 3.02289509773254395 0.176668658852577209
0.0429827235639095306 3.02289509773254395 0.0340175032615661621
0.734938323497772217 3.02289509773254395 0.194661274552345276
0.276860535144805908 3.02289509773254395 0.0956801921129226685
0.494206041097640991 3.02289509773254395 0.151240721344947815
0.196765586733818054 3.02289509773254395 0.0513587445020675659
0.353149920701980591 3.02289509773254395 0.178321942687034607
0.0645285174250602722 3.02289509773254395 0.0316766798496246338
0.194351479411125183 3.02289509773254395 0.156074658036231995
0.512322545051574707 3.02289509773254395 0.183773621916770935
0.435013383626937866 3.02289509773254395 0.124317340552806854
0.268125683069229126 3.02289509773254395 0.0792904868721961975
0.0975151658058166504 3.02289509773254395 0.109456978738307953
0.297212958335876465 3.02289509773254395 0.0758846327662467957
0.260293483734130859 3.02289509773254395 0.102436445653438568
0.471312761306762695 3.02289509773254395 0.138913586735725403
0.168867647647857666 3.02289509773254395 0.129762902855873108
0.533603668212890625 3.02289509773254395 0.170398682355880737
0.111123956739902496 3.02289509773254395 0.145517349243164062
0.171330749988555908 3.02289509773254395 0.0825802609324455261
0.200919538736343384 3.02289509773254395 0.169288873672485352
0.552187323570251465 3.02289509773254395 0.195828050374984741
0.184318974614143372 3.02289509773254395 0.164192855358123779
0.534035563468933105 3.02289509773254395 0.161415815353393555
0.620799422264099121 3.02289509773254395 0.192046806216239929
0.614041388034820557 3.02289509773254395 0.174281597137451172
0.225602507591247559 3.02289509773254395 0.0661574304103851318
0.34410443902015686 3.02289509773254395 0.113955050706863403
0.391552776098251343 3.02289509773254395 0.147318348288536072
0.512619614601135254 3.02289509773254395 0.132287204265594482
0.531470656394958496 3.02289509773254395 0.145767003297805786
0.18721887469291687 3.02289509773254395 0.125006914138793945
0.456292629241943359 3.02289509773254395 0.144091337919235229
0.459588021039962769 3.02289509773254395 0.116878829896450043
0.0852183997631072998 3.02289509773254395 0.0923969745635986328
0.0295521747320890427 3.02289509773254395 0.0124391466379165649
0.121956922113895416 3.02289509773254395 0.0472670197486877441
0.30003887414932251 3.02289509773254395 0.0988451391458511353
0.188870355486869812 3.02289509773254395 0.102166503667831421
0.550197601318359375 0.680467963218688965 0
0.228319600224494934 1.73722231388092041 0
0.125536397099494934 1.71612858772277832 0
0.0912182703614234924 0.0120033863931894302 0
0.506812155246734619 0.576359391212463379 0
0.511932253837585449 0.565564751625061035 0
0.0630623102188110352 0.670085132122039795 0
0.531632065773010254 0.0676572248339653015 0
0.282433211803436279 1.09706413745880127 0
0.48079487681388855 0.823878586292266846 0
0.0225406493991613388 0.662416398525238037 0
0.495493799448013306 0.114066854119300842 0
0.0557946935296058655 0.0712013021111488342 0
0.0816706642508506775 1.70475912094116211 0
0.406691223382949829 0.0696096867322921753 0
0.644336104393005371 0.175426855683326721 0
0.239848360419273376 1.24332213401794434 0
0.205169707536697388 1.35086739063262939 0
0.532992720603942871 0.718057096004486084 0
0.420808851718902588 1.0284801721572876 0
0.035656999796628952 2.47565984725952148 0
0.359371751546859741 1.37180018424987793 0
0.219774112105369568 0.644723892211914062 0
0.447461456060409546 0.423060983419418335 0
0.479389876127243042 0.602813601493835449 0
0.339901536703109741 1.47401154041290283 0
0.25327727198600769 1.35303211212158203 0
0.54544752836227417 0.212748542428016663 0
0.0209662877023220062 2.50811314582824707 0
0.457820802927017212 1.13733506202697754 0
0.549451589584350586 0.580101966857910156 0
0.228815793991088867 1.53337275981903076 0
0.415646880865097046 0.102434039115905762 0
0.514864087104797363 0.79260098934173584 0
0.081774882972240448 2.24994707107543945 0
0.385193139314651489 0.940947890281677246 0
0.124267987906932831 1.98507368564605713 0
0.479519575834274292 0.859980523586273193 0
0.216088443994522095 2.15065383911132812 0
0.126511231064796448 2.25942802429199219 0
0.186996519565582275 2.25686073303222656 0
0.397968113422393799 0.68838423490524292 0
0.705185592174530029 0.194209590554237366 0
0.283744513988494873 1.35800111293792725 0
0.483147114515304565 0.680841982364654541 0
0.59291684627532959 0.379852592945098877 0
0.213993653655052185 0.84003680944442749 0
0.188953027129173279 1.98468565940856934 0
0.259891360998153687 1.83217918872833252 0
0.165385693311691284 1.74604570865631104 0
0.13010774552822113 1.07264149188995361 0
0.279448121786117554 1.2213205099105835 0
0.59904247522354126 0.226982459425926208 0
0.339276582002639771 1.17411184310913086 0
0.0462803840637207031 2.17435169219970703 0
0.0523572079837322235 1.10018825531005859 0
0.0156942792236804962 1.70289397239685059 0
0.314970642328262329 1.65525603294372559 0
0.299509406089782715 1.7626345157623291 0
0.0455490313470363617 1.44700658321380615 0
0.271898806095123291 0.431569695472717285 0
0.0422084741294384003 0.275214135646820068 0
0.391835778951644897 0.17318078875541687 0
0.165553390979766846 1.71946859359741211 0
0.216271206736564636 2.04214048385620117 0
0.0533796548843383789 0.579200088977813721 0
0.143808826804161072 2.35927891731262207 0
0.192431062459945679 1.76076352596282959 0
0.21882377564907074 1.92344105243682861 0
0.313513517379760742 0.60687488317489624 0
0.166638672351837158 0.125642254948616028 0
0.289872139692306519 1.03317046165466309 0
0.491864174604415894 0.534506618976593018 0
0.619419991970062256 0.385892659425735474 0
0.386061787605285645 0.0152820022776722908 0
0.33326643705368042 0.443877667188644409 0
0.452689945697784424 1.29668319225311279 0
0.166004642844200134 1.53781807422637939 0
0.0636438578367233276 0.180695503950119019 0
0.193306595087051392 0.876855671405792236 0
0.350472420454025269 0.51147162914276123 0
0.175470292568206787 1.29396545886993408 0
0.587459027767181396 0.272148847579956055 0
0.169439509510993958 0.969416916370391846 0
0.0836744830012321472 0.18432733416557312 0
0.164500713348388672 2.18468499183654785 0
0.201019719243049622 2.08640742301940918 0
0.490257889032363892 1.08191525936126709 0
0.126366749405860901 2.05667352676391602 0
0.228897318243980408 1.96935129165649414 0
0.178879544138908386 0.893957793712615967 0
0.311225920915603638 1.74539542198181152 0
0.604120731353759766 0.733358204364776611 0
0.461108028888702393 0.291160285472869873 0
0.124316230416297913 2.03198504447937012 0
0.639330446720123291 0.585619032382965088 0
0.699954569339752197 0.164655730128288269 0
0.645629405975341797 0.0804398134350776672 0
0.590801656246185303 0.274612158536911011 0
0.749653935432434082 0.0299286264926195145 0
0.0878200456500053406 0.884542703628540039 0
0.258098810911178589 1.7371448278427124 0
0.0423325821757316589 2.83447599411010742 0
0.257972568273544312 1.3087620735168457 0
0.526841521263122559 0.56167447566986084 0
0.186046823859214783 0.326347947120666504 0
0.167967259883880615 1.63203048706054688 0
0.343981713056564331 0.765453875064849854 0
0.0273636486381292343 1.62222003936767578 0
0.0695007145404815674 2.48366713523864746 0
0.0642517358064651489 2.51166582107543945 0
0.0729823336005210876 0.0158830620348453522 0
0.22608502209186554 1.75555074214935303 0
0.426409691572189331 0.392697691917419434 0
0.161805018782615662 1.80564439296722412 0
0.00840570405125617981 1.49025750160217285 0
0.228729963302612305 1.68248891830444336 0
0.604051530361175537 0.0611486621201038361 0
0.0907880440354347229 1.42632138729095459 0
0.192548245191574097 2.07466006278991699 0
0.0515187643468379974 1.90031957626342773 0
0.380302488803863525 0.0334544926881790161 0
0.204824715852737427 2.22762465476989746 0
0.0602094046771526337 1.21364104747772217 0
0.190233141183853149 0.787928342819213867 0
0.135600686073303223 2.26178336143493652 0
0.166619643568992615 1.80074179172515869 0
0.013099093921482563 0.393203556537628174 0
0.385606050491333008 0.577608704566955566 0
0.277074217796325684 0.84890294075012207 0
0.0315284952521324158 2.73223447799682617 0
0.210506901144981384 0.0581959933042526245 0
0.304583519697189331 0.386174201965332031 0
0.747377336025238037 0.105056256055831909 0
0.245185956358909607 0.63592684268951416 0
0.442902475595474243 0.98827517032623291 0
0.0924208983778953552 2.17769598960876465 0
0.547867298126220703 0.889838635921478271 0
0.46186557412147522 1.26847326755523682 0
0.507464230060577393 0.0600249543786048889 0
0.177506193518638611 2.17547369003295898 0
0.162219390273094177 2.09908175468444824 0
0.229582294821739197 1.85324382781982422 0
0.0702599212527275085 2.61243009567260742 0
0.265558212995529175 1.61234521865844727 0
0.340092778205871582 1.0576164722442627 0
0.470379263162612915 1.05883634090423584 0
0.131285056471824646 1.67159152030944824 0
0.227109000086784363 1.42383790016174316 0
0.143029138445854187 0.29989662766456604 0
0.0186478272080421448 2.47629499435424805 0
0.106880262494087219 0.314511150121688843 0
0.123731590807437897 0.167648151516914368 0
0.0999494493007659912 0.528603017330169678 0
0.125083029270172119 0.264402180910110474 0
0.0826505199074745178 1.34379720687866211 0
0.480083316564559937 0.966946423053741455 0
0.205425888299942017 1.0857161283493042 0
0.393730461597442627 0.0497698746621608734 0
0.318411946296691895 1.53676080703735352 0
0.0349916219711303711 0.21365039050579071 0
0.36199420690536499 1.3376014232635498 0
0.475984901189804077 0.14723244309425354 0
0.122724130749702454 0.303184837102890015 0
0.277763426303863525 1.82219016551971436 0
0.67714613676071167 0.160822600126266479 0
0.799014270305633545 0.00322428043000400066 0
0.511691272258758545 0.573204278945922852 0
0.483503907918930054 0.871022999286651611 0
0.352497100830078125 0.800824999809265137 0
0.632525503635406494 0.573153078556060791 0
0.263493061065673828 0.266816198825836182 0
0.099401913583278656 1.71135008335113525 0
0.647731482982635498 0.333101093769073486 0
0.131686225533485413 0.349779427051544189 0
0.471327215433120728 0.916491091251373291 0
0.299073547124862671 0.9325714111328125 0
0.178719222545623779 1.26977956295013428 0
0.313245773315429688 0.852628529071807861 0
0.386247515678405762 1.48625481128692627 0
0.0295781679451465607 0.810202121734619141 0
0.0692313015460968018 0.896399021148681641 0
0.476222842931747437 0.634169459342956543 0
0.183941975235939026 2.03341555595397949 0
0.0309109743684530258 2.07439112663269043 0
0.0517909824848175049 2.64016008377075195 0
0.25423315167427063 0.360219746828079224 0
0.029124721884727478 0.0201121456921100616 0
0.180482611060142517 0.0688674300909042358 0
0.580747365951538086 0.728072166442871094 0
0.179612189531326294 0.47810325026512146 0
0.0908942371606826782 0.396840870380401611 0
0.566704928874969482 0.801970601081848145 0
0.0434398576617240906 2.04048728942871094 0
0.0313767492771148682 0.640503644943237305 0
0.258429855108261108 0.736607253551483154 0
0.147031679749488831 1.20901358127593994 0
0.165005490183830261 1.43228626251220703 0
0.0347298271954059601 0.831567049026489258 0
0.173561334609985352 0.815198004245758057 0
0.236076340079307556 0.569124042987823486 0
0.104102969169616699 1.75076436996459961 0
0.624815940856933594 0.227040201425552368 0
0.0752876326441764832 2.40399312973022461 0
0.164710462093353271 0.956374168395996094 0
0.171064242720603943 0.23731580376625061 0
0.0415726266801357269 0.725467085838317871 0
0.0376057848334312439 0.995748162269592285 0
0.528450965881347656 0.751581430435180664 0
0.412689924240112305 1.28313565254211426 0
0.191853821277618408 1.77390861511230469 0
0.44852563738822937 0.611679792404174805 0
0.123779177665710449 1.61870157718658447 0
0.134336978197097778 2.02600812911987305 0
0.449495375156402588 1.21636354923248291 0
0.233694583177566528 0.268712520599365234 0
0.187142938375473022 1.62934374809265137 0
0.394289702177047729 1.46734905242919922 0
0.25479617714881897 0.755368709564208984 0
0.154516354203224182 0.444342821836471558 0
0.327222317457199097 1.37519991397857666 0
0.40655064582824707 1.13890516757965088 0
0.325871169567108154 0.369789719581604004 0
0.304360270500183105 0.497180193662643433 0
0.152258053421974182 0.801373124122619629 0
0.20644696056842804 0.608043849468231201 0
0.0987361147999763489 1.82054519653320312 0
0.120083428919315338 1.57881629467010498 0
0.414858907461166382 1.30121493339538574 0
0.732329010963439941 0.0930028557777404785 0
0.161290004849433899 1.20041990280151367 0
0.301517128944396973 1.60602998733520508 0
0.28278803825378418 1.58397650718688965 0
0.328720629215240479 0.791174829006195068 0
0.0934577435255050659 0.371002942323684692 0
0.351983726024627686 0.714138805866241455 0
0.172523960471153259 0.846186399459838867 0
0.621327400207519531 0.535958588123321533 0
0.58710026741027832 0.322031170129776001 0
0.231892779469490051 1.8939892053604126 0
0.19712364673614502 0.631499528884887695 0
0.06169162318110466 1.52670466899871826 0
0.221192106604576111 0.226447209715843201 0
0.576166868209838867 0.729699969291687012 0
0.420305222272872925 0.120823249220848083 0
0.0267349723726511002 1.39132773876190186 0
0.39584040641784668 0.505962371826171875 0
0.173109769821166992 2.30424642562866211 0
0.505769968032836914 0.0305050425231456757 0
0.348025739192962646 1.55083763599395752 0
0.71404188871383667 0.089976966381072998 0
0.28786960244178772 0.0185845382511615753 0
0.0091228187084197998 2.08476448059082031 0
0.274898648262023926 0.434060394763946533 0
0.127852842211723328 0.234202802181243896 0
0.390283346176147461 0.106444969773292542 0
0.0454917959868907928 1.88639199733734131 0
0.0672069117426872253 0.657023310661315918 0
0.316197425127029419 1.75112366676330566 0
0.186832115054130554 2.2477264404296875 0
0.0971280038356781006 2.4161529541015625 0
0.540837228298187256 0.870522141456604004 0
0.383643984794616699 0.246279150247573853 0
0.197223231196403503 1.22923195362091064 0
0.176860615611076355 0.700502395629882812 0
0.131386339664459229 0.635248363018035889 0
0.150864109396934509 0.223952591419219971 0
0.308866828680038452 1.31820559501647949 0
0.232196435332298279 0.992095351219177246 0
0.448464304208755493 0.858466565608978271 0
0.331319272518157959 0.840209901332855225 0
0.0188327934592962265 1.23528444766998291 0
0.047067839652299881 1.59209930896759033 0
0.348946541547775269 1.15326130390167236 0
0.247229889035224915 1.07355606555938721 0
0.429420053958892822 0.319785207509994507 0
0.315593481063842773 0.102244853973388672 0
0.0302683766931295395 1.91081428527832031 0
0.513692140579223633 0.489541888236999512 0
0.182668507099151611 0.251875370740890503 0
0.292936056852340698 0.698626339435577393 0
0.418138265609741211 0.568012714385986328 0
0.352585285902023315 0.0659574493765830994 0
0.267327696084976196 0.206688582897186279 0
0.44054180383682251 0.288193941116333008 0
0.232742190361022949 0.629799008369445801 0
0.0447511486709117889 0.438396573066711426 0
0.0361044779419898987 0.422364503145217896 0
0.117911875247955322 2.39760684967041016 0
