ply
format ascii 1.0
element vertex 727
property float x
property float y
property float z
end_header
0.05136866495013237 0.122576400637626648 0.0823022946715354919
0.0598615445196628571 0.138079583644866943 0.0822031348943710327
0.048337787389755249 0.121760174632072449 0.0818122848868370056
0.0542254224419593811 0.143292322754859924 0.0802294835448265076
0.0419864952564239502 0.125570207834243774 0.0797008946537971497
0.0546960458159446716 0.143056899309158325 0.0803950726985931396
0.0435361377894878387 0.121672526001930237 0.0807408466935157776
0.0524138323962688446 0.136647254228591919 0.080788441002368927
0.0403102077543735504 0.14564831554889679 0.0748231559991836548
0.0337514393031597137 0.131575584411621094 0.0755523368716239929
0.0330594554543495178 0.13108372688293457 0.0753695517778396606
0.0477422885596752167 0.153092145919799805 0.0762210041284561157
0.0560727007687091827 0.167737796902656555 0.0761393457651138306
0.012789030559360981 0.145273149013519287 0.0568430088460445404
0.0143833868205547333 0.146098926663398743 0.0578944981098175049
0.0116677824407815933 0.144890964031219482 0.0559946522116661072
0.0145378382876515388 0.146823227405548096 0.0576430521905422211
0.0324131697416305542 0.175280928611755371 0.0589036792516708374
0.0540591701865196228 0.118311628699302673 0.0831218883395195007
0.0684761181473731995 0.133164793252944946 0.0837803035974502563
0.0591801926493644714 0.119212999939918518 0.083645157516002655
0.0566999092698097229 0.116449601948261261 0.0835456475615501404
0.0612805187702178955 0.126946479082107544 0.0833726301789283752
0.0179610829800367355 0.17384551465511322 0.0437231846153736115
0.00719363661482930183 0.157035544514656067 0.0423691682517528534
0.00950718019157648087 0.161263704299926758 0.0421739891171455383
0.0237072426825761795 0.179676324129104614 0.0469224303960800171
0.0118049932643771172 0.164538949728012085 0.0427090860903263092
0.0281941108405590057 0.184595063328742981 0.0489851124584674835
0.0308102872222661972 0.185558110475540161 0.0513022392988204956
0.0223559755831956863 0.173123598098754883 0.0499191097915172577
0.0233594570308923721 0.174095377326011658 0.0504134073853492737
0.0177870392799377441 0.165257573127746582 0.0499221384525299072
0.0233929269015789032 0.18644164502620697 0.0409549176692962646
0.0121116917580366135 0.169826820492744446 0.0382561683654785156
0.00862872973084449768 0.164703279733657837 0.0374170653522014618
0.0213104300200939178 0.185249477624893188 0.0386469475924968719
0.0244599021971225739 0.189206585288047791 0.0400580987334251404
-0.0035592962522059679 0.160533353686332703 0.00799280032515525818
0.0129877254366874695 0.188965395092964172 0.00814184173941612244
-0.00377141637727618217 0.160201728343963623 0.00786553975194692612
0.00607150746509432793 0.176856264472007751 0.00893940683454275131
0.00898297596722841263 0.181291773915290833 0.0111302975565195084
0.0139715000987052917 0.185240775346755981 0.0226718969643115997
0.0172254219651222229 0.190541237592697144 0.023147260770201683
0.0163621995598077774 0.186585649847984314 0.0270841792225837708
0.0106454631313681602 0.179974988102912903 0.0219435039907693863
0.00990281626582145691 0.176749035716056824 0.0250482391566038132
0.0030353195033967495 0.169062152504920959 0.0170686505734920502
0.00845936127007007599 0.179475352168083191 0.0146195990964770317
0.0102684665471315384 0.182251229882240295 0.0153831988573074341
0.0149659495800733566 0.189193472266197205 0.0179678481072187424
0.000774477492086589336 0.165862634778022766 0.0155035117641091347
0.00837878696620464325 0.170225962996482849 0.0306717175990343094
0.0102773187682032585 0.174278482794761658 0.0297183617949485779
0.012939944863319397 0.17911761999130249 0.0294056572020053864
0.0097955772653222084 0.171950727701187134 0.0315366610884666443
0.00777082191780209541 0.168593645095825195 0.0313828960061073303
0.00413528271019458771 0.174448862671852112 0.00153933395631611347
0.0121802929788827896 0.188274100422859192 0.00173675455152988434
0.00864760298281908035 0.182154044508934021 0.00221596239134669304
0.0128480866551399231 0.189121261239051819 0.00521072046831250191
0.00673193810507655144 0.178687214851379395 0.00418054871261119843
0.0486512705683708191 0.13715052604675293 0.0796830207109451294
0.0627186223864555359 0.155754059553146362 0.0805703997611999512
0.0541393011808395386 0.146199405193328857 0.0797454267740249634
0.0451369807124137878 0.133084982633590698 0.0793691277503967285
0.0448500774800777435 0.132695645093917847 0.0793526023626327515
0.0735375434160232544 0.153847306966781616 0.0829882025718688965
0.0521562248468399048 0.118787303566932678 0.0828738212585449219
0.0676703229546546936 0.142605900764465332 0.0830640196800231934
0.0792506560683250427 0.154299259185791016 0.0836085975170135498
0.0747523009777069092 0.150414690375328064 0.0833535492420196533
0.0487276278436183929 0.126630127429962158 0.0813445001840591431
0.0706237033009529114 0.154065549373626709 0.0824851468205451965
0.0580374933779239655 0.142403826117515564 0.081371799111366272
0.0643612518906593323 0.150980055332183838 0.0816285163164138794
0.0675532370805740356 0.150748252868652344 0.0822661593556404114
0.0551414601504802704 0.165410205721855164 0.0763161331415176392
0.056656908243894577 0.158142387866973877 0.0783715546131134033
0.0429072007536888123 0.14301764965057373 0.0765954703092575073
0.0547883249819278717 0.158838465809822083 0.077557489275932312
0.054957263171672821 0.161571606993675232 0.0770491212606430054
0.0347049795091152191 0.177138343453407288 0.0599602200090885162
0.0228279381990432739 0.155241146683692932 0.0606331005692481995
0.0309467781335115433 0.168686032295227051 0.0608746148645877838
0.0382335111498832703 0.178030893206596375 0.062344726175069809
0.0311633311212062836 0.169858396053314209 0.0605063699185848236
0.0381289049983024597 0.156199946999549866 0.070679686963558197
0.0348802879452705383 0.152018696069717407 0.0702288374304771423
0.0356850810348987579 0.153556764125823975 0.0701797604560852051
0.0473753735423088074 0.176842570304870605 0.069164566695690155
0.0458512604236602783 0.174299746751785278 0.0691390931606292725
0.0424447953701019287 0.175134912133216858 0.0665995702147483826
0.0361629277467727661 0.168506845831871033 0.0649876445531845093
0.0404049456119537354 0.172689005732536316 0.0661893635988235474
0.0286781992763280869 0.15279582142829895 0.0660798400640487671
0.0328706428408622742 0.163346022367477417 0.0647933408617973328
0.0476857461035251617 0.16264595091342926 0.0736965015530586243
0.0470471940934658051 0.161027714610099792 0.0738324001431465149
0.0530226156115531921 0.173409819602966309 0.0732829049229621887
0.0365516804158687592 0.145826667547225952 0.0730848908424377441
0.052389875054359436 0.16908031702041626 0.074130624532699585
0.0303823668509721756 0.174712195992469788 0.0572994351387023926
0.034043826162815094 0.182987615466117859 0.056216161698102951
0.0302240755409002304 0.175226807594299316 0.0568678826093673706
0.0238178949803113937 0.164832949638366699 0.0565231181681156158
0.0314852260053157806 0.176993504166603088 0.0570890195667743683
0.0826308876276016235 0.154438391327857971 0.0838809758424758911
0.0730233266949653625 0.137695655226707458 0.0838856250047683716
0.0787331163883209229 0.146068334579467773 0.083917468786239624
0.0766968280076980591 0.14193841814994812 0.0839312076568603516
0.0855142697691917419 0.154656171798706055 0.0839850455522537231
0.0701633542776107788 0.12880319356918335 0.0839727520942687988
0.078301161527633667 0.138822406530380249 0.0840601325035095215
0.0697239860892295837 0.120191603899002075 0.0841450989246368408
0.0777460336685180664 0.138165399432182312 0.0840535908937454224
0.082285664975643158 0.143943667411804199 0.0840981900691986084
0.0668321475386619568 0.109667509794235229 0.0840331763029098511
0.0710820183157920837 0.11868787556886673 0.084070645272731781
0.0777799263596534729 0.121374212205410004 0.0838767439126968384
0.0892903804779052734 0.141451463103294373 0.0838827192783355713
0.0667183920741081238 0.111413612961769104 0.0840757787227630615
0.0849547311663627625 0.118021249771118164 0.0829329043626785278
0.0882816091179847717 0.125608578324317932 0.0830561518669128418
0.0895342230796813965 0.129324823617935181 0.0831594169139862061
0.085269436240196228 0.120418637990951538 0.0830556824803352356
0.0848023444414138794 0.120732769370079041 0.0831296294927597046
0.0890378355979919434 0.11104273796081543 0.0814148411154747009
0.08744831383228302 0.116276338696479797 0.0823025256395339966
0.0915447324514389038 0.120545774698257446 0.0819929540157318115
0.0791898742318153381 0.101974800229072571 0.0822922810912132263
0.0795816853642463684 0.103691227734088898 0.0824083909392356873
0.094572700560092926 0.102854274213314056 0.0785356760025024414
0.115590959787368774 0.129509612917900085 0.0765565037727355957
0.0983123183250427246 0.0986477956175804138 0.0763209164142608643
0.103379011154174805 0.112929254770278931 0.0774789080023765564
0.109542049467563629 0.121911898255348206 0.077141396701335907
0.109300285577774048 0.100647605955600739 0.0716971829533576965
0.110554151237010956 0.099384799599647522 0.0706023052334785461
0.107758529484272003 0.0957102328538894653 0.0709658414125442505
0.113284364342689514 0.105559714138507843 0.0710752084851264954
0.117285870015621185 0.109359569847583771 0.0700875744223594666
0.0994668006896972656 0.0955397188663482666 0.0750024616718292236
0.109340161085128784 0.106832146644592285 0.0735125616192817688
0.106004305183887482 0.103884384036064148 0.0742428675293922424
0.101071342825889587 0.0972160324454307556 0.0747187808156013489
0.11824190616607666 0.120961904525756836 0.0732021331787109375
0.103898711502552032 0.12325594574213028 0.079354509711265564
0.0902179032564163208 0.10790686309337616 0.0806521326303482056
0.0886739641427993774 0.104361779987812042 0.0805113539099693298
0.0865459293127059937 0.101065538823604584 0.0805692300200462341
0.0938670635223388672 0.112719759345054626 0.080419883131980896
0.116481564939022064 0.0927785634994506836 0.0644643604755401611
0.109928563237190247 0.0894012674689292908 0.0675095617771148682
0.110214591026306152 0.0887216255068778992 0.0670577511191368103
0.114601299166679382 0.0928623825311660767 0.0657440796494483948
0.12080778181552887 0.100787416100502014 0.0646822378039360046
0.133722409605979919 0.0716374441981315613 0.0270603671669960022
0.135415837168693542 0.0746172517538070679 0.0271656699478626251
0.138161718845367432 0.0773160457611083984 0.0239371899515390396
0.133011177182197571 0.0711717531085014343 0.0282684769481420517
0.136095687747001648 0.0766953006386756897 0.0286131966859102249
0.14829738438129425 0.0931928753852844238 0.0213060937821865082
0.135999947786331177 0.0695774033665657043 0.0157386790961027145
0.141730397939682007 0.0811962336301803589 0.0197253990918397903
0.151829570531845093 0.0994734615087509155 0.0217662286013364792
0.150693878531455994 0.0973160788416862488 0.021305471658706665
0.142001718282699585 0.0792189165949821472 0.013893486000597477
0.142684459686279297 0.0800475329160690308 0.0125725436955690384
0.146112218499183655 0.0860369205474853516 0.0129219451919198036
0.139612779021263123 0.0738955885171890259 0.00926434062421321869
0.138502135872840881 0.0721928998827934265 0.010059405118227005
0.127466186881065369 0.102046459913253784 0.0600294992327690125
0.112698517739772797 0.0826360136270523071 0.0627917274832725525
0.136884808540344238 0.118341773748397827 0.0600707083940505981
0.128662720322608948 0.104289315640926361 0.0601142644882202148
0.126646071672439575 0.101080439984798431 0.0602344423532485962
0.140891417860984802 0.0973048284649848938 0.0419937111437320709
0.142389267683029175 0.0987322553992271423 0.0408838167786598206
0.138858944177627563 0.0903257504105567932 0.0386326834559440613
0.139472439885139465 0.0937054082751274109 0.0408760197460651398
0.12812119722366333 0.0726255849003791809 0.039381127804517746
0.131749600172042847 0.071287885308265686 0.0311650503426790237
0.136239007115364075 0.0806226134300231934 0.0331183671951293945
0.14070439338684082 0.0889055132865905762 0.0338458865880966187
0.13377748429775238 0.0735866427421569824 0.0297209229320287704
0.148731037974357605 0.103754609823226929 0.0351054742932319641
0.139223694801330566 0.0725703164935112 0.00560688786208629608
0.139372661709785461 0.0726786553859710693 0.00390370655804872513
0.142575472593307495 0.0782041400671005249 0.00407261308282613754
0.142324134707450867 0.0776195451617240906 0.00232141418382525444
0.147033572196960449 0.0860863253474235535 0.00650673825293779373
0.121065206825733185 0.0882644355297088623 0.058611944317817688
0.13019147515296936 0.102144956588745117 0.0576126612722873688
0.116804629564285278 0.0803113728761672974 0.0582707300782203674
0.121691301465034485 0.0885998234152793884 0.0582051128149032593
0.127427652478218079 0.0956756323575973511 0.0566728487610816956
0.123602606356143951 0.110152430832386017 0.0664389878511428833
0.134739071130752563 0.126107528805732727 0.0652026534080505371
0.128848955035209656 0.119586914777755737 0.0665961131453514099
0.126303672790527344 0.116175003349781036 0.0669691786170005798
0.127275347709655762 0.115599408745765686 0.0661026090383529663
0.125455781817436218 0.107749603688716888 0.064248211681842804
0.135813474655151367 0.124241754412651062 0.0636360868811607361
0.123812183737754822 0.10414499044418335 0.0638906285166740417
0.1162429079413414 0.0916830301284790039 0.0641493350267410278
0.127592906355857849 0.106409370899200439 0.0619379878044128418
0.127461686730384827 0.127414017915725708 0.0702622905373573303
0.10825183242559433 0.10210263729095459 0.0727404579520225525
0.116724476218223572 0.115214571356773376 0.0722710862755775452
0.120704501867294312 0.120587974786758423 0.0717990174889564514
0.115874573588371277 0.112751349806785583 0.0719506964087486267
0.102754652500152588 0.138091668486595154 0.0817988961935043335
0.0980352163314819336 0.137394651770591736 0.0826258361339569092
0.101456247270107269 0.139072239398956299 0.0821569934487342834
0.10007651150226593 0.133950695395469666 0.0818509235978126526
0.0820360630750656128 0.111369416117668152 0.0827932879328727722
0.112442351877689362 0.131768375635147095 0.0781542286276817322
0.109910115599632263 0.124125398695468903 0.0774702951312065125
0.107274323701858521 0.123726069927215576 0.0783311203122138977
0.0961892455816268921 0.107730843126773834 0.0789717510342597961
0.11155371367931366 0.134378001093864441 0.0790156275033950806
0.0901299342513084412 0.108451366424560547 0.0807623788714408875
0.113272316753864288 0.138682305812835693 0.0792432874441146851
0.1011795774102211 0.128186419606208801 0.0808769017457962036
0.0967960581183433533 0.119552038609981537 0.0807038918137550354
0.109926566481590271 0.137114405632019043 0.079906947910785675
0.104251787066459656 0.108542665839195251 0.0762501358985900879
0.122029542922973633 0.130695760250091553 0.074043571949005127
0.116081118583679199 0.127744048833847046 0.0759487003087997437
0.105121493339538574 0.109300196170806885 0.0760568529367446899
0.106068357825279236 0.107253357768058777 0.0750952884554862976
0.0944144204258918762 0.142893657088279724 0.0835015550255775452
0.0813195556402206421 0.120458684861660004 0.083507925271987915
0.0941417664289474487 0.138517856597900391 0.0832431167364120483
0.0758965611457824707 0.114831529557704926 0.0837529376149177551
0.0967252627015113831 0.139605402946472168 0.0830209925770759583
0.135028958320617676 0.0997032299637794495 0.0512469857931137085
0.139462664723396301 0.103881910443305969 0.0489877387881278992
0.140436381101608276 0.104897491633892059 0.0485556535422801971
0.138221517205238342 0.105962686240673065 0.0517488047480583191
0.12974490225315094 0.0861904099583625793 0.0483518876135349274
0.141212120652198792 0.122214525938034058 0.0582198500633239746
0.140820637345314026 0.11855800449848175 0.0565841123461723328
0.136948183178901672 0.115057781338691711 0.0583184845745563507
0.133110061287879944 0.106554113328456879 0.0572767220437526703
0.136771634221076965 0.110807135701179504 0.0561541393399238586
0.142595529556274414 0.106129705905914307 0.0466564372181892395
0.144329637289047241 0.105660170316696167 0.043932698667049408
0.138949960470199585 0.0991004109382629395 0.0460596270859241486
0.150728419423103333 0.116054952144622803 0.0434475615620613098
0.151299372315406799 0.116503477096557617 0.0430264845490455627
0.125534072518348694 0.0767666995525360107 0.0466510951519012451
0.132240921258926392 0.0842656493186950684 0.043463829904794693
0.14229428768157959 0.100514084100723267 0.0426359847187995911
0.128684237599372864 0.0799665078520774841 0.0448997728526592255
0.12923121452331543 0.0788781419396400452 0.0432990193367004395
0.153668195009231567 0.114648051559925079 0.0375141650438308716
0.149188965559005737 0.109147340059280396 0.0396438613533973694
0.140321522951126099 0.0917615294456481934 0.0375894308090209961
0.148282021284103394 0.106790341436862946 0.0388750508427619934
0.142935454845428467 0.0981082245707511902 0.0393743403255939484
0.142852887511253357 0.090527065098285675 0.0313284397125244141
0.139566928148269653 0.0844341292977333069 0.0307957995682954788
0.149094462394714355 0.101882897317409515 0.0320762954652309418
0.147482559084892273 0.099495619535446167 0.0325447693467140198
0.155669823288917542 0.113083355128765106 0.0319389551877975464
0.145182713866233826 0.0895306095480918884 0.0241509620100259781
0.150546088814735413 0.100221604108810425 0.0264820009469985962
0.14349249005317688 0.0852683410048484802 0.0219930149614810944
0.145030662417411804 0.0897019505500793457 0.0248409193009138107
0.141673579812049866 0.0828508660197257996 0.0231280028820037842
0.153341293334960938 0.0998700633645057678 0.0167696792632341385
0.153180480003356934 0.0993437692523002625 0.0162039157003164291
0.155278787016868591 0.104713156819343567 0.0201908238232135773
0.152430027723312378 0.0992509648203849792 0.0189202670007944107
0.1459827721118927 0.087027624249458313 0.0163588523864746094
0.160600990056991577 0.110784590244293213 0.0122273694723844528
0.156322464346885681 0.103350602090358734 0.0119514521211385727
0.143235281109809875 0.0797500312328338623 0.00781965348869562149
0.154670894145965576 0.0994062647223472595 0.00774305639788508415
0.154773607850074768 0.100401736795902252 0.0108680985867977142
0.152823343873023987 0.0955185294151306152 0.000409625732572749257
0.159003019332885742 0.10622742772102356 0.0012848186306655407
0.159517884254455566 0.107015885412693024 0.000163584554684348404
0.144408106803894043 0.0810275599360466003 0.000276365753961727023
0.160651281476020813 0.109204262495040894 0.00290534831583499908
0.126021295785903931 0.0868610218167304993 0.0529866218566894531
0.133679389953613281 0.0972890108823776245 0.0511866770684719086
0.129659444093704224 0.093334294855594635 0.0531263798475265503
0.138360738754272461 0.107531242072582245 0.0526190996170043945
0.136818662285804749 0.106720022857189178 0.0538254119455814362
0.0914750099182128906 0.149549975991249084 0.083977922797203064
0.0669760257005691528 0.114021345973014832 0.0841232612729072571
0.0650252774357795715 0.111375898122787476 0.0841388627886772156
0.0852793231606483459 0.141694679856300354 0.0840394645929336548
0.0927026122808456421 0.150129809975624084 0.0839443057775497437
-0.137745559215545654 -0.0813231766223907471 -0.0215182173997163773
-0.154048100113868713 -0.0812849774956703186 -0.0216764844954013824
-0.141130805015563965 -0.0819746702909469604 -0.0188190247863531113
-0.155790910124778748 -0.0821792855858802795 -0.017971329391002655
-0.148908674716949463 -0.0822045132517814636 -0.0178667902946472168
-0.161602288484573364 -0.0825225561857223511 -0.0163770467042922974
-0.148816153407096863 -0.0829025208950042725 -0.0141524467617273331
-0.162085860967636108 -0.083026587963104248 -0.0134260803461074829
-0.166921824216842651 -0.0832366570830345154 -0.0121961645781993866
-0.157433375716209412 -0.0839812159538269043 -0.00498659536242485046
-0.139058291912078857 -0.0841125547885894775 -0.00110641180071979761
-0.153362631797790527 -0.0840212851762771606 -0.00380285410210490227
-0.158924341201782227 -0.0837321579456329346 -0.00790151674300432205
-0.152649447321891785 -0.0836821720004081726 -0.00839231070131063461
-0.149829208850860596 -0.0838536247611045837 -0.00670895306393504143
-0.162053227424621582 -0.0840659439563751221 -0.00248347502201795578
-0.154241040349006653 -0.0840692892670631409 -0.00238451315090060234
-0.158946409821510315 -0.0841071233153343201 -0.001266813138499856
-0.13970695436000824 -0.0838724225759506226 -0.00652436912059783936
-0.163440033793449402 -0.0834152847528457642 -0.0110126528888940811
-0.137655258178710938 -0.0834250748157501221 -0.0109165534377098083
-0.148409515619277954 -0.0960372164845466614 0.0225000008940696716
-0.152241736650466919 -0.104940511286258698 0.0225000008940696716
-0.152093514800071716 -0.0958340540528297424 0.0225000008940696716
-0.137013271450996399 -0.101368404924869537 0.0225000008940696716
-0.149727433919906616 -0.101437307894229889 0.0225000008940696716
-0.142572134733200073 -0.0968528091907501221 0.0225000008940696716
-0.139883249998092651 -0.10048733651638031 0.0225000008940696716
-0.162960097193717957 -0.108384363353252411 0.0225000008940696716
-0.153660431504249573 -0.10877758264541626 0.0225000008940696716
-0.154521912336349487 -0.106576830148696899 0.0225000008940696716
-0.150852665305137634 -0.104054436087608337 0.0225000008940696716
-0.136662974953651428 -0.0939046815037727356 0.0225000008940696716
-0.147377923130989075 -0.110360562801361084 0.0225000008940696716
-0.16016484797000885 -0.116038642823696136 0.0225000008940696716
-0.162499025464057922 -0.120308183133602142 0.0225000008940696716
-0.159296885132789612 -0.116530671715736389 0.0225000008940696716
-0.141381919384002686 -0.118881814181804657 0.0225000008940696716
-0.159300133585929871 -0.109580792486667633 0.0225000008940696716
-0.148214682936668396 -0.0872202888131141663 0.0225000008940696716
-0.142161548137664795 -0.0850805789232254028 0.0225000008940696716
-0.141469895839691162 -0.0849461853504180908 0.0225000008940696716
-0.14755675196647644 -0.0859827622771263123 0.0225000008940696716
-0.163033485412597656 -0.0985092595219612122 0.0225000008940696716
-0.153271451592445374 -0.0873853787779808044 0.0225000008940696716
-0.154091864824295044 -0.086307525634765625 0.0225000008940696716
-0.155861526727676392 -0.0963995978236198425 0.0225000008940696716
-0.165067493915557861 -0.10100206732749939 0.0225000008940696716
-0.157631590962409973 -0.0855022668838500977 0.0225000008940696716
-0.161947324872016907 -0.0912709236145019531 0.0225000008940696716
-0.16337093710899353 -0.101577647030353546 0.0225000008940696716
-0.151611268520355225 -0.08828725665807724 0.0225000008940696716
-0.16384965181350708 -0.1125774085521698 0.0225000008940696716
-0.163833588361740112 -0.113583467900753021 0.0225000008940696716
-0.14986303448677063 -0.122485674917697906 0.0225000008940696716
-0.141680091619491577 -0.118618793785572052 0.0225000008940696716
-0.141696915030479431 -0.11332625150680542 0.0225000008940696716
-0.154813706874847412 -0.122780196368694305 0.0225000008940696716
-0.164551734924316406 -0.108054317533969879 -0.0225000008940696716
-0.14139324426651001 -0.0885335877537727356 -0.0225000008940696716
-0.153620019555091858 -0.104935511946678162 -0.0225000008940696716
-0.150696039199829102 -0.097310386598110199 -0.0225000008940696716
-0.138690680265426636 -0.0897322371602058411 -0.0225000008940696716
-0.141592532396316528 -0.107854880392551422 -0.0225000008940696716
-0.148098886013031006 -0.0977560281753540039 -0.0225000008940696716
-0.15647280216217041 -0.103947974741458893 -0.0225000008940696716
-0.155795633792877197 -0.107368901371955872 -0.0225000008940696716
-0.149566382169723511 -0.0984664633870124817 -0.0225000008940696716
-0.137748926877975464 -0.093852020800113678 -0.0225000008940696716
-0.150346651673316956 -0.103745371103286743 -0.0225000008940696716
-0.13930945098400116 -0.109948299825191498 -0.0225000008940696716
-0.164481565356254578 -0.114470690488815308 -0.0225000008940696716
-0.138867288827896118 -0.112263031303882599 -0.0225000008940696716
-0.144422829151153564 -0.11333291232585907 -0.0225000008940696716
-0.155541718006134033 -0.109806202352046967 -0.0225000008940696716
-0.153079003095626831 -0.0878234133124351501 -0.0225000008940696716
-0.157011762261390686 -0.0863398313522338867 -0.0225000008940696716
-0.162831783294677734 -0.0997212827205657959 -0.0225000008940696716
-0.165034756064414978 -0.0874834433197975159 -0.0225000008940696716
-0.143545925617218018 -0.0867471694946289062 -0.0225000008940696716
-0.16311606764793396 -0.084674440324306488 -0.0225000008940696716
-0.145996659994125366 -0.0837785154581069946 -0.0225000008940696716
-0.157068327069282532 -0.0885995328426361084 -0.0225000008940696716
-0.147274136543273926 -0.0872705578804016113 -0.0225000008940696716
-0.157412156462669373 -0.0934681296348571777 -0.0225000008940696716
-0.154233545064926147 -0.0931283161044120789 -0.0225000008940696716
-0.159905582666397095 -0.0911642313003540039 -0.0225000008940696716
-0.16159762442111969 -0.112021937966346741 -0.0225000008940696716
-0.149192109704017639 -0.110732920467853546 -0.0225000008940696716
-0.15243510901927948 -0.11715475469827652 -0.0225000008940696716
-0.154076263308525085 -0.11749875545501709 -0.0225000008940696716
-0.15618528425693512 -0.121226884424686432 -0.0225000008940696716
-0.15059758722782135 -0.124744869768619537 -0.0225000008940696716
-0.142121747136116028 -0.0840325653553009033 0.00346970371901988983
-0.142783373594284058 -0.084052450954914093 0.00288214441388845444
-0.136277928948402405 -0.0840783193707466125 0.00211785524152219296
-0.154867604374885559 -0.0840615406632423401 0.00261357543058693409
-0.163090527057647705 -0.0840712040662765503 0.00232796813361346722
-0.144395545125007629 -0.0839360877871513367 0.00589928869158029556
-0.144065752625465393 -0.0836860612034797668 0.0083541208878159523
-0.147693052887916565 -0.0836505517363548279 0.00870276521891355515
-0.144303411245346069 -0.0834775790572166443 0.0104009993374347687
-0.164525523781776428 -0.0838314592838287354 0.00692655518651008606
-0.140770122408866882 -0.0823904499411582947 0.0170964598655700684
-0.14401187002658844 -0.0823088362812995911 0.0174345765262842178
-0.155169159173965454 -0.0822611823678016663 0.0176320262253284454
-0.150215044617652893 -0.0826618000864982605 0.0155617864802479744
-0.156551182270050049 -0.082857184112071991 0.0144178895279765129
-0.144424289464950562 -0.0825745314359664917 0.0160727184265851974
-0.164713203907012939 -0.0822245627641677856 0.0177837293595075607
-0.147226601839065552 -0.0811956226825714111 0.022046675905585289
-0.158020898699760437 -0.0817274078726768494 0.0198434647172689438
-0.135879501700401306 -0.0828502476215362549 0.0144585287198424339
-0.154857024550437927 -0.0831269919872283936 0.0128382677212357521
-0.144455567002296448 -0.0830483883619308472 0.013298417441546917
-0.16687755286693573 -0.115777783095836639 -0.0210840553045272827
-0.166332975029945374 -0.116897933185100555 -0.0125759430229663849
-0.165374577045440674 -0.11849367618560791 -0.0152007564902305603
-0.168229252099990845 -0.109747715294361115 -0.0210003908723592758
-0.1677275151014328 -0.113337509334087372 0.00411104504019021988
-0.168102666735649109 -0.111338250339031219 -0.00188769050873816013
-0.167489305138587952 -0.114134803414344788 -0.00946745183318853378
-0.164839968085289001 -0.11920725554227829 -0.0152329038828611374
-0.157011017203330994 -0.124714910984039307 -0.0161726586520671844
-0.155070006847381592 -0.125220596790313721 -0.0213686972856521606
-0.162718996405601501 -0.121469922363758087 -0.00271530263125896454
-0.160309702157974243 -0.123227745294570923 0.00194320641458034515
-0.15985637903213501 -0.12348523736000061 -0.0194846224039793015
-0.164262428879737854 -0.119920544326305389 -0.0168003849685192108
-0.154249623417854309 -0.1253509521484375 -0.00858807936310768127
-0.168092817068099976 -0.111413031816482544 0.0127722900360822678
-0.167814180254936218 -0.112946584820747375 0.00786281656473875046
-0.167240515351295471 -0.114901527762413025 0.019020427018404007
-0.166577965021133423 -0.116427280008792877 0.00388100743293762207
-0.165516570210456848 -0.118270784616470337 0.0115434871986508369
-0.165291965007781982 -0.118618205189704895 -0.0211528167128562927
-0.163906976580619812 -0.120308466255664825 0.0135137578472495079
-0.162981972098350525 -0.12122894823551178 0.013284764252603054
-0.162432551383972168 -0.121730498969554901 0.0105663631111383438
-0.161290377378463745 -0.122602976858615875 -0.00901903677731752396
-0.159603536128997803 -0.123616874217987061 0.00702361948788166046
-0.158346846699714661 -0.124215684831142426 0.000715734437108039856
-0.157192423939704895 -0.124657712876796722 0.00198286399245262146
-0.15582941472530365 -0.12505224347114563 0.00578535068780183792
-0.154623538255691528 -0.125301733613014221 -0.00979644525796175003
-0.153198733925819397 -0.125470161437988281 0.0214889533817768097
-0.152277424931526184 -0.125510379672050476 0.0073496401309967041
-0.143300741910934448 -0.122979573905467987 -0.013802030123770237
-0.142295733094215393 -0.122289329767227173 -0.0158084835857152939
-0.147204503417015076 -0.124782875180244446 -0.0126000596210360527
-0.148969858884811401 -0.125229433178901672 -0.0162235964089632034
-0.140854164958000183 -0.121078796684741974 -0.0142268529161810875
-0.136327311396598816 -0.113553181290626526 -0.0111118406057357788
-0.136150166392326355 -0.112785704433917999 -0.0207967367023229599
-0.135823190212249756 -0.110775068402290344 -0.0205323174595832825
-0.137426629662513733 -0.116436131298542023 -0.00274929776787757874
-0.138389945030212402 -0.118124045431613922 -0.0121295806020498276
-0.136808425188064575 -0.115019664168357849 0.00615382939577102661
-0.139610767364501953 -0.119782179594039917 -0.0107938852161169052
-0.135761573910713196 -0.109537690877914429 -0.0122095635160803795
-0.151055887341499329 -0.125481277704238892 0.0164329744875431061
-0.151134610176086426 -0.12548471987247467 -0.00539065897464752197
-0.150108471512794495 -0.125398099422454834 -0.00467773620039224625
-0.148266628384590149 -0.125073537230491638 0.0181614980101585388
-0.146713763475418091 -0.124628134071826935 0.0194882787764072418
-0.146341010928153992 -0.12450060248374939 -0.0140843018889427185
-0.14498475193977356 -0.123923107981681824 -0.0103588718920946121
-0.142516031861305237 -0.122458383440971375 -0.00650999881327152252
-0.141359478235244751 -0.121541835367679596 0.00459989532828330994
-0.139806553721427917 -0.119995839893817902 0.0211632829159498215
-0.138933673501014709 -0.118912272155284882 0.0184582117944955826
-0.138471692800521851 -0.118252366781234741 0.00879561435431241989
-0.137893199920654297 -0.117332383990287781 0.0155397700145840645
-0.137057751417160034 -0.115621618926525116 0.0100474264472723007
-0.13665182888507843 -0.114582426846027374 -0.0053655821830034256
-0.136106804013252258 -0.112590126693248749 0.00891590490937232971
-0.135946929454803467 -0.111714877188205719 0.0203281659632921219
-0.135807663202285767 -0.110593326389789581 0.0223326291888952255
-0.135749995708465576 -0.0957351922988891602 0.0137480078265070915
-0.135749995708465576 -0.089613787829875946 0.011852397583425045
-0.135749995708465576 -0.102008342742919922 0.0166815444827079773
-0.135749995708465576 -0.0859374478459358215 0.00220832531340420246
-0.135749995708465576 -0.0884314030408859253 0.0187673252075910568
-0.135749995708465576 -0.0877189487218856812 0.0208916794508695602
-0.135749995708465576 -0.0904055461287498474 0.0173269733786582947
-0.135749995708465576 -0.0851070359349250793 0.014608314260840416
-0.135749995708465576 -0.0939334705471992493 -0.0121291698887944221
-0.135749995708465576 -0.0989987850189208984 -0.0156775563955307007
-0.135749995708465576 -0.104200191795825958 0.0128982868045568466
-0.135749995708465576 -0.107018947601318359 0.00103747076354920864
-0.135749995708465576 -0.0870410799980163574 0.00168294087052345276
-0.135749995708465576 -0.0972353294491767883 0.00407872069627046585
-0.135749995708465576 -0.106589391827583313 0.001590740866959095
-0.135749995708465576 -0.0913060083985328674 0.00258962996304035187
-0.135749995708465576 -0.108163446187973022 -0.00308270612731575966
-0.135749995708465576 -0.109027333557605743 0.0157566945999860764
-0.135749995708465576 -0.103088922798633575 -0.0162633378058671951
-0.135749995708465576 -0.101981408894062042 -0.00792723894119262695
-0.135749995708465576 -0.109144724905490875 0.0148477377369999886
-0.135749995708465576 -0.103851750493049622 -0.00269470037892460823
-0.135749995708465576 -0.0986099690198898315 0.0105459811165928841
-0.135749995708465576 -0.0878949984908103943 0.00311195105314254761
-0.135749995708465576 -0.104449532926082611 6.33280724287033081e-05
-0.135749995708465576 -0.0892658159136772156 -0.0126291774213314056
-0.135749995708465576 -0.0911279916763305664 -0.011395755223929882
-0.135749995708465576 -0.0929591581225395203 -0.0169211253523826599
-0.135749995708465576 -0.0961131826043128967 -0.0185164865106344223
-0.135749995708465576 -0.0889060273766517639 -0.0202124938368797302
-0.135749995708465576 -0.102596692740917206 -0.0216191913932561874
-0.168249994516372681 -0.0886022448539733887 0.0193373821675777435
-0.168249994516372681 -0.0834898054599761963 0.0208961926400661469
-0.168249994516372681 -0.0918554514646530151 0.0122189810499548912
-0.168249994516372681 -0.0843085050582885742 0.00663858745247125626
-0.168249994516372681 -0.0857512503862380981 0.00885778665542602539
-0.168249994516372681 -0.0928283482789993286 0.0168830174952745438
-0.168249994516372681 -0.0982598736882209778 0.0185295641422271729
-0.168249994516372681 -0.0948827117681503296 0.0121748978272080421
-0.168249994516372681 -0.0914909467101097107 0.00981907919049263
-0.168249994516372681 -0.0839209556579589844 -0.0212047584354877472
-0.168249994516372681 -0.0857774093747138977 -0.0189067572355270386
-0.168249994516372681 -0.0861839577555656433 -0.0149215459823608398
-0.168249994516372681 -0.0912811681628227234 -0.0163457207381725311
-0.168249994516372681 -0.0917568579316139221 -0.00964097492396831512
-0.168249994516372681 -0.0958568453788757324 -0.0121394861489534378
-0.168249994516372681 -0.0882124900817871094 -0.0123382424935698509
-0.168249994516372681 -0.106122151017189026 -0.0209068246185779572
-0.168249994516372681 -0.0979292765259742737 -0.0114441737532615662
-0.168249994516372681 -0.0973941832780838013 -0.00919281691312789917
-0.168249994516372681 -0.109070703387260437 -0.0198398102074861526
-0.168249994516372681 -0.101929336786270142 0.0117635056376457214
-0.168249994516372681 -0.0988340824842453003 -0.00384927541017532349
-0.168249994516372681 -0.105877675116062164 -0.000232722610235214233
-0.168249994516372681 -0.105501458048820496 0.0114779174327850342
-0.168249994516372681 -0.0948324650526046753 0.0088259279727935791
-0.168249994516372681 -0.0989075750112533569 -0.00937445275485515594
-0.168249994516372681 -0.0979653671383857727 -0.0104249706491827965
-0.168249994516372681 -0.104708306491374969 -0.0176148246973752975
-0.168249994516372681 -0.0997631102800369263 0.00606779754161834717
-0.168249994516372681 -0.107868805527687073 -0.00766793452203273773
-0.168249994516372681 -0.0919326320290565491 -0.00258032698184251785
-0.168249994516372681 -0.0951154977083206177 -0.00206484086811542511
-0.145782709121704102 0.0818017423152923584 0.019535508006811142
-0.155803680419921875 0.0811371579766273499 0.0222888924181461334
-0.157463550567626953 0.0811024010181427002 0.0224328972399234772
-0.154878944158554077 0.0817016065120697021 0.0199503786861896515
-0.154310733079910278 0.0821308493614196777 0.0181719977408647537
-0.157316893339157104 0.082510828971862793 0.0164457131177186966
-0.150656133890151978 0.0828794538974761963 0.014287521131336689
-0.137870535254478455 0.0832889154553413391 0.0118902316316962242
-0.164386704564094543 0.0827013701200485229 0.0153301367536187172
-0.141971543431282043 0.0832577496767044067 0.0120727019384503365
-0.16376081109046936 0.0830628126859664917 0.0132139893248677254
-0.148361831903457642 0.0840599015355110168 0.00266183284111320972
-0.14954647421836853 0.0839611068367958069 0.00558082573115825653
-0.165399566292762756 0.0836166292428970337 0.00903578475117683411
-0.150940150022506714 0.0837508067488670349 0.0077184019610285759
-0.152687400579452515 0.0839089006185531616 0.00616620341315865517
-0.161711469292640686 0.0840799957513809204 0.00206816801801323891
-0.140761449933052063 0.0841463133692741394 0.000109043699922040105
-0.137592688202857971 0.0836798027157783508 0.00841556675732135773
-0.154226288199424744 0.0836129263043403625 0.00907221343368291855
-0.135749995708465576 0.0952079445123672485 0.0200902409851551056
-0.135749995708465576 0.0934635847806930542 0.0213501732796430588
-0.135749995708465576 0.0834690257906913757 0.0210457965731620789
-0.135749995708465576 0.0840671882033348083 0.00927052926272153854
-0.135749995708465576 0.0951367542147636414 0.0135815190151333809
-0.135749995708465576 0.0884568989276885986 0.015153038315474987
-0.135749995708465576 0.0942563414573669434 0.0180045291781425476
-0.135749995708465576 0.0959926322102546692 0.0107068959623575211
-0.135749995708465576 0.0977257639169692993 0.0145462341606616974
-0.135749995708465576 0.0824463367462158203 -0.0200858805328607559
-0.135749995708465576 0.0836927518248558044 -0.0191890113055706024
-0.135749995708465576 0.0956804156303405762 -0.0174480844289064407
-0.135749995708465576 0.0942417159676551819 -0.0189738422632217407
-0.135749995708465576 0.0996921658515930176 -0.0144571941345930099
-0.135749995708465576 0.105356886982917786 -0.0192083511501550674
-0.135749995708465576 0.0985516831278800964 -0.0169048774987459183
-0.135749995708465576 0.0874571949243545532 -0.0129096787422895432
-0.135749995708465576 0.103675112128257751 0.000900417566299438477
-0.135749995708465576 0.0924116224050521851 0.00119037041440606117
-0.135749995708465576 0.0901070535182952881 0.00500640878453850746
-0.135749995708465576 0.108677573502063751 0.0157572776079177856
-0.135749995708465576 0.103792458772659302 -0.00880076922476291656
-0.135749995708465576 0.103424392640590668 -0.00284614786505699158
-0.135749995708465576 0.095276959240436554 -0.00463219266384840012
-0.135749995708465576 0.0979570075869560242 -0.00999933574348688126
-0.135749995708465576 0.107133612036705017 0.0131667302921414375
-0.135749995708465576 0.105547390878200531 -0.00465874746441841125
-0.135749995708465576 0.105102367699146271 -0.00232370197772979736
-0.135749995708465576 0.0932406634092330933 0.00190249690786004066
-0.135749995708465576 0.104673340916633606 -0.0101037994027137756
-0.135749995708465576 0.0973804593086242676 0.00845378357917070389
-0.135749995708465576 0.0988246574997901917 0.00756584666669368744
-0.168249994516372681 0.0969338640570640564 0.0143173523247241974
-0.168249994516372681 0.107063144445419312 0.021129220724105835
-0.168249994516372681 0.0871039032936096191 0.00443491293117403984
-0.168249994516372681 0.0866574868559837341 0.00322266458533704281
-0.168249994516372681 0.0888492539525032043 0.0184660982340574265
-0.168249994516372681 0.0962997972965240479 0.0206827148795127869
-0.168249994516372681 0.0934967920184135437 0.0187988132238388062
-0.168249994516372681 0.0979433804750442505 0.0177254676818847656
-0.168249994516372681 0.102055832743644714 0.0198926031589508057
-0.168249994516372681 0.095946095883846283 -0.0119860460981726646
-0.168249994516372681 0.0982723608613014221 -0.0127703864127397537
-0.168249994516372681 0.105358771979808807 0.000431488268077373505
-0.168249994516372681 0.104920528829097748 -0.000203821808099746704
-0.168249994516372681 0.107889004051685333 -0.00483967829495668411
-0.168249994516372681 0.105450630187988281 0.0138234412297606468
-0.168249994516372681 0.0932176634669303894 -0.00599117390811443329
-0.168249994516372681 0.108916759490966797 -0.00499701779335737228
-0.168249994516372681 0.108738899230957031 0.0149211008101701736
-0.168249994516372681 0.108887434005737305 -0.00207913108170032501
-0.168249994516372681 0.102903604507446289 0.0144251259043812752
-0.168249994516372681 0.0995732620358467102 0.00122304121032357216
-0.168249994516372681 0.106664419174194336 -0.0137495230883359909
-0.168249994516372681 0.0991650372743606567 -0.0128532899543642998
-0.168249994516372681 0.0947057753801345825 -0.00184768787585198879
-0.168249994516372681 0.0911721289157867432 -0.00445133540779352188
-0.168249994516372681 0.10080718994140625 0.00392679730430245399
-0.168249994516372681 0.0919852107763290405 -0.0139640793204307556
-0.168249994516372681 0.103597171604633331 -0.018988143652677536
-0.168249994516372681 0.101001113653182983 -0.0207210797816514969
-0.168249994516372681 0.0948529615998268127 -0.0187297817319631577
-0.168249994516372681 0.0883196070790290833 -0.0193369630724191666
-0.168249994516372681 0.0908855125308036804 -0.0213412530720233917
-0.142757639288902283 0.084004618227481842 -0.00429534818977117538
-0.138743802905082703 0.0841226726770401001 -0.000807367672678083181
-0.13600708544254303 0.0840652137994766235 -0.00250483490526676178
-0.150119766592979431 0.0840013399720191956 -0.00439209118485450745
-0.156720593571662903 0.0839951187372207642 -0.00457588303834199905
-0.167401760816574097 0.08409089595079422 -0.00174615625292062759
-0.155115365982055664 0.0839164555072784424 -0.00609200773760676384
-0.14383387565612793 0.0838486328721046448 -0.00675797741860151291
-0.160259798169136047 0.0834468752145767212 -0.0107024861499667168
-0.149824410676956177 0.0835330113768577576 -0.00985680893063545227
-0.153188571333885193 0.0836814418435096741 -0.0083994576707482338
-0.159353047609329224 0.0821023285388946533 -0.0182901807129383087
-0.137879177927970886 0.0816944465041160583 -0.0199800282716751099
-0.137088209390640259 0.0813309699296951294 -0.0214859284460544586
-0.156725615262985229 0.0827518180012702942 -0.0150347752496600151
-0.139658734202384949 0.0824462324380874634 -0.0168238729238510132
-0.164837181568145752 0.0830255970358848572 -0.0134318629279732704
-0.160102576017379761 0.0817505419254302979 -0.0197476223111152649
-0.154680550098419189 0.0817245170474052429 -0.0198554340749979019
-0.166963934898376465 0.0816928073763847351 -0.0199868325144052505
-0.155016273260116577 0.0832720473408699036 -0.0119890067726373672
-0.158514142036437988 0.0832433700561523438 -0.0121568469330668449
-0.160610750317573547 0.083261243999004364 -0.0120522603392601013
-0.145723104476928711 0.123848952353000641 0.0225000008940696716
-0.149549633264541626 0.121014848351478577 0.0225000008940696716
-0.163037300109863281 0.11914631724357605 0.0225000008940696716
-0.144599780440330505 0.119330182671546936 0.0225000008940696716
-0.158250987529754639 0.116578325629234314 0.0225000008940696716
-0.141952812671661377 0.110321506857872009 0.0225000008940696716
-0.143152028322219849 0.115681983530521393 0.0225000008940696716
-0.149102836847305298 0.112372010946273804 0.0225000008940696716
-0.143084466457366943 0.115544460713863373 0.0225000008940696716
-0.142027467489242554 0.0868604779243469238 0.0225000008940696716
-0.147251248359680176 0.0837510377168655396 0.0225000008940696716
-0.140917167067527771 0.103159166872501373 0.0225000008940696716
-0.149248093366622925 0.0850920379161834717 0.0225000008940696716
-0.155133157968521118 0.0908878445625305176 0.0225000008940696716
-0.162541970610618591 0.0860132724046707153 0.0225000008940696716
-0.142138853669166565 0.0993300676345825195 0.0225000008940696716
-0.13886454701423645 0.0955681204795837402 0.0225000008940696716
-0.13978421688079834 0.090201355516910553 0.0225000008940696716
-0.146588340401649475 0.0904144719243049622 0.0225000008940696716
-0.136048898100852966 0.0899519920349121094 0.0225000008940696716
-0.137433275580406189 0.0937721431255340576 0.0225000008940696716
-0.151923954486846924 0.0919724255800247192 0.0225000008940696716
-0.163901761174201965 0.110018812119960785 0.0225000008940696716
-0.154724985361099243 0.101550966501235962 0.0225000008940696716
-0.158051058650016785 0.103701375424861908 0.0225000008940696716
-0.155494153499603271 0.0947531312704086304 0.0225000008940696716
-0.162404820322990417 0.102994903922080994 0.0225000008940696716
-0.144137710332870483 0.109141595661640167 0.0225000008940696716
-0.151624426245689392 0.106002882122993469 0.0225000008940696716
-0.152104079723358154 0.0963235870003700256 0.0225000008940696716
-0.164653882384300232 0.106294088065624237 0.0225000008940696716
-0.149001628160476685 0.107206091284751892 0.0225000008940696716
-0.150223776698112488 0.101122520864009857 0.0225000008940696716
-0.158227875828742981 0.101809151470661163 0.0225000008940696716
-0.165896043181419373 0.10862240195274353 0.0225000008940696716
-0.150783702731132507 0.124899759888648987 -0.0225000008940696716
-0.150757491588592529 0.12073642760515213 -0.0225000008940696716
-0.154109671711921692 0.124363817274570465 -0.0225000008940696716
-0.141953110694885254 0.109629988670349121 -0.0225000008940696716
-0.141918987035751343 0.113984279334545135 -0.0225000008940696716
-0.148807689547538757 0.116448663175106049 -0.0225000008940696716
-0.148122742772102356 0.115774407982826233 -0.0225000008940696716
-0.15170229971408844 0.116888910531997681 -0.0225000008940696716
-0.138041555881500244 0.1146368607878685 -0.0225000008940696716
-0.13625885546207428 0.0937947481870651245 -0.0225000008940696716
-0.146473050117492676 0.091948583722114563 -0.0225000008940696716
-0.158027023077011108 0.0874882340431213379 -0.0225000008940696716
-0.146030440926551819 0.0837234482169151306 -0.0225000008940696716
-0.142007812857627869 0.0994183272123336792 -0.0225000008940696716
-0.135971277952194214 0.0944083184003829956 -0.0225000008940696716
-0.148967340588569641 0.0950822234153747559 -0.0225000008940696716
-0.144387334585189819 0.0922101810574531555 -0.0225000008940696716
-0.137473449110984802 0.0976783484220504761 -0.0225000008940696716
-0.151619985699653625 0.0831131339073181152 -0.0225000008940696716
-0.136409401893615723 0.107680104672908783 -0.0225000008940696716
-0.146606937050819397 0.0891265124082565308 -0.0225000008940696716
-0.159607917070388794 0.0851605385541915894 -0.0225000008940696716
-0.164165541529655457 0.119725033640861511 -0.0225000008940696716
-0.141236528754234314 0.111995905637741089 -0.0225000008940696716
-0.16714109480381012 0.0993010401725769043 -0.0225000008940696716
-0.148720905184745789 0.100346788763999939 -0.0225000008940696716
-0.16541743278503418 0.103097617626190186 -0.0225000008940696716
-0.150231361389160156 0.101069636642932892 -0.0225000008940696716
-0.164354413747787476 0.0962418466806411743 -0.0225000008940696716
-0.158565163612365723 0.0962273627519607544 -0.0225000008940696716
-0.167893558740615845 0.0989347845315933228 -0.0225000008940696716
-0.147088408470153809 0.10789286345243454 -0.0225000008940696716
-0.162559643387794495 0.10064157098531723 -0.0225000008940696716
-0.14804588258266449 0.102360829710960388 -0.0225000008940696716
-0.162073448300361633 0.0936023145914077759 -0.0225000008940696716
-0.157009497284889221 0.103125534951686859 -0.0225000008940696716
-0.164732694625854492 0.0950652509927749634 -0.0225000008940696716
-0.137902230024337769 0.11734975129365921 0.00932367797940969467
-0.138584166765213013 0.118428908288478851 -0.0197185613214969635
-0.13578382134437561 0.110047101974487305 -0.00753952935338020325
-0.13628058135509491 0.113374009728431702 0.00415155384689569473
-0.135948345065116882 0.111725591123104095 0.0024169357493519783
-0.136704146862030029 0.114748351275920868 -0.00547305680811405182
-0.139288157224655151 0.119374245405197144 -0.0184328667819499969
-0.14574374258518219 0.124253213405609131 -0.0209706500172615051
-0.146665230393409729 0.124612830579280853 -0.0208590365946292877
