ply
format ascii 1.0
element vertex 711
property float x
property float y
property float z
end_header
0.0432921871542930603 0.0393998026847839355 0.019620899111032486
0.0432921871542930603 0.0427598468959331512 0.0294526256620883942
0.0432921871542930603 0.0260466393083333969 -0.0201967209577560425
0.0432921871542930603 0.0201284252107143402 -0.0485385283827781677
0.0432921871542930603 0.0254766382277011871 -0.0390915200114250183
0.0432921871542930603 0.017200099304318428 -0.0536666139960289001
0.0432921871542930603 0.0116237904876470566 -0.0565550252795219421
0.0432921871542930603 0.0233051702380180359 -0.0277028903365135193
0.0432921871542930603 0.0167249385267496109 -0.0495992526412010193
0.0432921871542930603 0.026223454624414444 -0.0135357044637203217
0.0432921871542930603 0.025330694392323494 -0.043010566383600235
0.0432921871542930603 0.0198007654398679733 -0.0570366606116294861
0.0432921871542930603 0.024003736674785614 -0.0282873548567295074
0.0432921871542930603 0.0183260254561901093 -0.0357570908963680267
0.0432921871542930603 0.0244024638086557388 -0.0232997648417949677
0.0432921871542930603 0.0385782644152641296 0.0154826901853084564
0.0432921871542930603 0.0252925697714090347 -0.030870288610458374
0.0432921871542930603 0.0238437838852405548 -0.0377554260194301605
0.0432921871542930603 0.0269895736128091812 -0.0266763828694820404
0.0432921871542930603 0.0288082566112279892 -0.023413393646478653
0.0432921871542930603 0.044538404792547226 0.0341259241104125977
0.0432921871542930603 0.0219212770462036133 -0.0528341867029666901
0.0432921871542930603 0.0138601632788777351 -0.0587537884712219238
0.0432921871542930603 0.0348518677055835724 -0.00400387868285179138
0.0432921871542930603 0.0393408015370368958 0.0162357650697231293
0.0432921871542930603 0.0154789099469780922 -0.0449031367897987366
0.0432921871542930603 0.0186261050403118134 -0.0452428832650184631
0.0432921871542930603 0.0193715374916791916 -0.0509929545223712921
0.0432921871542930603 0.0171794723719358444 -0.0511054769158363342
0.0432921871542930603 0.0211098622530698776 -0.0578577965497970581
0.0432921871542930603 0.0381752476096153259 0.0121507570147514343
0.0432921871542930603 0.019101068377494812 -0.0200392566621303558
0.0432921871542930603 0.020812351256608963 -0.0272379368543624878
0.0432921871542930603 0.011745070107281208 -0.043818838894367218
0.0432921871542930603 0.0371514670550823212 0.0200420692563056946
0.0432921871542930603 0.024058045819401741 -0.00242178887128829956
0.0432921871542930603 0.00631224224343895912 -0.061621151864528656
0.0432921871542930603 0.0163298863917589188 -0.0332403779029846191
0.0432921871542930603 0.00609657447785139084 -0.0366840139031410217
0.0432921871542930603 0.0182573236525058746 -0.0213771499693393707
0.0432921871542930603 0.00490895938128232956 -0.0505336374044418335
0.0432921871542930603 0.0124100623652338982 -0.0304708406329154968
0.0432921871542930603 0.0260041393339633942 0.000491082668304443359
0.0432921871542930603 0.0284528918564319611 0.00346545130014419556
0.0432921871542930603 0.00361807574518024921 -0.055174563080072403
0.0432921871542930603 0.0156267024576663971 -0.0311574563384056091
0.0432921871542930603 0.0082883862778544426 -0.0336674675345420837
0.0432921871542930603 0.0233146809041500092 -0.00904459506273269653
0.0432921871542930603 0.00737545033916831017 -0.0496701262891292572
0.0432921871542930603 0.00688937259837985039 -0.049215313047170639
0.0432921871542930603 -0.00476747192442417145 -0.0609774887561798096
0.0432921871542930603 0.0303780250251293182 0.00836052000522613525
0.0432921871542930603 0.0256111286580562592 -0.00636444985866546631
0.0432921871542930603 -0.00646986858919262886 -0.0605927594006061554
0.0432921871542930603 0.0171990226954221725 -0.021863691508769989
0.0432921871542930603 0.0150592178106307983 -0.0276468135416507721
0.0432921871542930603 0.0174994654953479767 -0.0256632044911384583
0.0432921871542930603 0.00502207828685641289 -0.0496376194059848785
0.0432921871542930603 0.02208743616938591 -0.0140839666128158569
0.0432921871542930603 0.0187047086656093597 -0.0323976501822471619
0.0432921871542930603 -0.0030288544949144125 -0.0550752654671669006
0.0432921871542930603 0.0350052304565906525 0.0137990415096282959
0.0432921871542930603 0.0143001675605773926 -0.0424028784036636353
0.0432921871542930603 0.0157750435173511505 -0.0357066094875335693
0.0432921871542930603 0.00940183643251657486 -0.0563065372407436371
0.0432921871542930603 0.00873754266649484634 -0.0350522249937057495
0.0432921871542930603 0.00131226144731044769 -0.0474263802170753479
0.0432921871542930603 0.0117616932839155197 -0.0352932922542095184
0.0432921871542930603 0.0166477933526039124 -0.017531905323266983
0.0432921871542930603 0.0125157032161951065 -0.0373331531882286072
0.0432921871542930603 0.00190269947052001953 -0.0459146201610565186
0.0432921871542930603 0.00414111558347940445 -0.0469249188899993896
0.0432921871542930603 0.02865566685795784 -0.0049167238175868988
0.0432921871542930603 -0.00154354306869208813 -0.0620623864233493805
0.0432921871542930603 0.0348398648202419281 0.0169085636734962463
0.0432921871542930603 0.0198643021285533905 -0.0125265493988990784
0.0432921871542930603 0.0178543701767921448 -0.0187169872224330902
0.0432921871542930603 0.0044845975935459137 -0.0476401522755622864
0.0432921871542930603 0.0116197951138019562 -0.0467595383524894714
0.0432921871542930603 0.00755911972373723984 -0.0370513424277305603
0.0432921871542930603 0.00659345509484410286 -0.038193337619304657
0.0432921871542930603 0.0311884693801403046 0.000773616135120391846
0.0432921871542930603 0.0365981459617614746 0.0167732685804367065
0.0432921871542930603 0.0142846163362264633 -0.0377198085188865662
0.0432921871542930603 0.0295038614422082901 0.00669533759355545044
0.0432921871542930603 0.0275075361132621765 0.0100010596215724945
0.0432921871542930603 -0.0172746777534484863 -0.0567196458578109741
0.0432921871542930603 0.0057652108371257782 -0.0368566736578941345
0.0432921871542930603 0.0117360036820173264 -0.0216061845421791077
0.0432921871542930603 0.0383793413639068604 0.0253986865282058716
0.0432921871542930603 -0.00343011319637298584 -0.0334024876356124878
0.0432921871542930603 0.00391132012009620667 -0.0257730036973953247
0.0432921871542930603 -0.0140436813235282898 -0.0468667745590209961
0.0432921871542930603 -0.0122679714113473892 -0.0532057322561740875
0.0432921871542930603 0.00475842505693435669 -0.0324268527328968048
0.0432921871542930603 0.00242685712873935699 -0.0348603725433349609
0.0432921871542930603 0.00350637827068567276 -0.0375711172819137573
0.0432921871542930603 0.00528489984571933746 -0.0291302986443042755
0.0432921871542930603 0.0366943702101707458 0.0249755345284938812
0.0432921871542930603 -0.00871752016246318817 -0.0470983311533927917
0.0432921871542930603 0.0118280965834856033 -0.0128624886274337769
0.0432921871542930603 0.0261806938797235489 0.0035788118839263916
0.0432921871542930603 0.0121859591454267502 -0.0166920460760593414
0.0432921871542930603 0.00307713635265827179 -0.0234517976641654968
0.0432921871542930603 0.000406831502914428711 -0.0395305007696151733
0.0432921871542930603 -0.00202320143580436707 -0.0354680381715297699
0.0432921871542930603 -0.00733732152730226517 -0.0512441731989383698
0.0432921871542930603 0.0296322572976350784 0.0111139267683029175
0.0432921871542930603 0.0330456234514713287 0.0198478810489177704
0.0432921871542930603 0.0180040188133716583 -0.00233133137226104736
0.0432921871542930603 0.00272282026708126068 -0.0313577279448509216
0.0432921871542930603 0.0234024506062269211 0.00259866565465927124
0.0432921871542930603 0.0176927223801612854 -0.0104651004076004028
0.0432921871542930603 0.034137185662984848 0.0177957043051719666
0.0432921871542930603 0.0100271161645650864 -0.0180676579475402832
0.0432921871542930603 0.0216829068958759308 -0.00282045826315879822
0.0432921871542930603 0.010886581614613533 -0.0202113240957260132
0.0432921871542930603 0.00622718594968318939 -0.0288514867424964905
0.0432921871542930603 0.0136090163141489029 -0.0196507610380649567
0.0432921871542930603 -0.0152637530118227005 -0.0516765564680099487
0.0432921871542930603 0.0315063521265983582 0.0133039653301239014
0.0432921871542930603 0.00651400536298751831 -0.0202321186661720276
0.0432921871542930603 0.0276135560125112534 0.0128596723079681396
0.0432921871542930603 0.0127836167812347412 -0.0129520110785961151
0.0432921871542930603 0.035271916538476944 0.0205116197466850281
0.0432921871542930603 -0.0081281810998916626 -0.0559079870581626892
0.0432921871542930603 -0.00337380543351173401 -0.0362230762839317322
0.0432921871542930603 -0.00905042979866266251 -0.0450531654059886932
0.0432921871542930603 -0.00365952448919415474 -0.0529463812708854675
0.0432921871542930603 0.0282232128083705902 0.0143596716225147247
0.0432921871542930603 -0.00676835794001817703 -0.0417445562779903412
0.0432921871542930603 0.0245542414486408234 0.00467911362648010254
0.0432921871542930603 -0.00250484049320220947 -0.0386428982019424438
0.0432921871542930603 -0.00761140696704387665 -0.0530398115515708923
0.0432921871542930603 0.00267140567302703857 -0.0311866682022809982
0.0432921871542930603 -0.00226518046110868454 -0.0425122268497943878
0.0432921871542930603 0.0150014758110046387 -0.0142964795231819153
0.0432921871542930603 0.00281651131808757782 -0.0237525366246700287
0.0432921871542930603 0.0253155846148729324 0.00584668666124343872
0.0432921871542930603 -0.00366320833563804626 -0.0335375517606735229
0.0432921871542930603 0.0240401607006788254 -0.000702772289514541626
0.0432921871542930603 0.0232267454266548157 0.00511401519179344177
0.0432921871542930603 -0.00311806146055459976 -0.0433725491166114807
0.0432921871542930603 0.0394243635237216949 0.0288754105567932129
0.0432921871542930603 0.00992048159241676331 -0.0042534656822681427
0.0432921871542930603 0.0161767676472663879 0.0013592839241027832
0.0432921871542930603 0.00813295692205429077 -0.00878487899899482727
0.0432921871542930603 -0.0324147120118141174 -0.0524705685675144196
0.0432921871542930603 -0.0166768506169319153 -0.0472663715481758118
0.0432921871542930603 0.0167905502021312714 0.0025266110897064209
0.0432921871542930603 0.0180304944515228271 0.00888788327574729919
0.0432921871542930603 -0.0309020224958658218 -0.0503435805439949036
0.0432921871542930603 -0.0106536746025085449 -0.0328004956245422363
0.0432921871542930603 0.0385001227259635925 0.0318455137312412262
0.0432921871542930603 0.0320581495761871338 0.0208993107080459595
0.0432921871542930603 -0.00215801037847995758 -0.0221405625343322754
0.0432921871542930603 0.00420516915619373322 -0.0160119310021400452
0.0432921871542930603 -0.0277236215770244598 -0.0554302148520946503
0.0432921871542930603 -0.000644922256469726562 -0.0133056975901126862
0.0432921871542930603 -0.0171382874250411987 -0.0420962199568748474
0.0432921871542930603 -0.0228447653353214264 -0.0541657321155071259
0.0432921871542930603 0.0283530540764331818 0.0182078517973423004
0.0432921871542930603 -0.0066643059253692627 -0.0324087813496589661
0.0432921871542930603 -0.0242926888167858124 -0.0427096933126449585
0.0432921871542930603 -0.0163329094648361206 -0.0437439680099487305
0.0432921871542930603 -0.0112256649881601334 -0.0273158848285675049
0.0432921871542930603 0.0059960782527923584 -0.01686868816614151
0.0432921871542930603 -0.0187357440590858459 -0.044272352010011673
0.0432921871542930603 -0.0126247666776180267 -0.0256650727242231369
0.0432921871542930603 0.0218857098370790482 0.00564026832580566406
0.0432921871542930603 -0.0224975179880857468 -0.0396086983382701874
0.0432921871542930603 0.0189542621374130249 0.00110040605068206787
0.0432921871542930603 -0.0117546543478965759 -0.028356846421957016
0.0432921871542930603 -0.00147028453648090363 -0.0201822817325592041
0.0432921871542930603 0.00495439022779464722 -0.0163272768259048462
0.0432921871542930603 -0.027173193171620369 -0.0471779145300388336
0.0432921871542930603 0.024525962769985199 0.0091955624520778656
0.0432921871542930603 0.00995717942714691162 -0.00962507352232933044
0.0432921871542930603 0.0368026681244373322 0.0272704698145389557
0.0432921871542930603 -0.00358447805047035217 -0.0295911058783531189
0.0432921871542930603 -0.0149290058761835098 -0.0320661887526512146
0.0432921871542930603 -0.0202349349856376648 -0.0531111247837543488
0.0432921871542930603 0.00880845263600349426 -0.00336236506700515747
0.0432921871542930603 0.00999124348163604736 -0.00638744235038757324
0.0432921871542930603 -0.00366251356899738312 -0.0300907101482152939
0.0432921871542930603 -0.0133266597986221313 -0.0281319059431552887
0.0432921871542930603 0.0271015539765357971 0.0159119442105293274
0.0432921871542930603 0.0217576213181018829 0.0108440481126308441
0.0432921871542930603 -0.00939756911247968674 -0.0400252789258956909
0.0432921871542930603 0.0268435142934322357 0.0160539261996746063
0.0432921871542930603 -0.0229343287646770477 -0.0534830577671527863
0.0432921871542930603 0.0115588568150997162 -0.00409380719065666199
0.0432921871542930603 -0.0171753820031881332 -0.0368928350508213043
0.0432921871542930603 -0.0183206014335155487 -0.0332443490624427795
0.0432921871542930603 -0.0267328172922134399 -0.0507754310965538025
0.0432921871542930603 0.0340559259057044983 0.0248096920549869537
0.0432921871542930603 -0.0151166170835494995 -0.0325875952839851379
0.0432921871542930603 2.79098749160766602e-05 -0.015047416090965271
0.0432921871542930603 -0.0279804114252328873 -0.0524717420339584351
0.0432921871542930603 0.0226161554455757141 0.0140982121229171753
0.0432921871542930603 -0.00797973573207855225 -0.0261662527918815613
0.0432921871542930603 -0.0311796572059392929 -0.0476060472428798676
0.0432921871542930603 0.000755578279495239258 -0.0239642523229122162
0.0432921871542930603 -0.000227719545364379883 -0.0264264829456806183
0.0432921871542930603 -0.0150184677913784981 -0.0433464460074901581
0.0432921871542930603 0.0194433461874723434 0.00312527269124984741
0.0432921871542930603 -0.00539250858128070831 -0.0287215784192085266
0.0432921871542930603 -0.0414391160011291504 -0.0396053865551948547
0.0432921871542930603 -0.0248970873653888702 -0.0341652445495128632
0.0432921871542930603 -0.0116458870470523834 -0.0122646782547235489
0.0432921871542930603 -0.000137772411108016968 -0.00017434731125831604
0.0432921871542930603 0.00862753763794898987 0.00639523938298225403
0.0432921871542930603 0.0164955295622348785 0.0121865943074226379
0.0432921871542930603 -0.0191119052469730377 -0.0230265744030475616
0.0432921871542930603 -0.0154533199965953827 -0.0203517377376556396
0.0432921871542930603 -0.00044892728328704834 -0.00562445446848869324
0.0432921871542930603 -0.0258333366364240646 -0.0287859626114368439
0.0432921871542930603 0.00456577539443969727 -0.00425742194056510925
0.0432921871542930603 -0.0381932854652404785 -0.0385713763535022736
0.0432921871542930603 -0.0283210054039955139 -0.0307074040174484253
0.0432921871542930603 0.0383000373840332031 0.0336610116064548492
0.0432921871542930603 0.00437616929411888123 -9.87946987152099609e-05
0.0432921871542930603 -0.0244321878999471664 -0.0311206281185150146
0.0432921871542930603 0.00640025362372398376 0.00310672447085380554
0.0432921871542930603 -0.0103180631995201111 -0.0197478868067264557
0.0432921871542930603 -0.0221203751862049103 -0.0275697354227304459
0.0432921871542930603 -0.0382538437843322754 -0.0435293763875961304
0.0432921871542930603 -0.024471847340464592 -0.0242692865431308746
0.0432921871542930603 -0.0170342382043600082 -0.0248234644532203674
0.0432921871542930603 -0.00769566744565963745 -0.00696038082242012024
0.0432921871542930603 0.0159606896340847015 0.00702513009309768677
0.0432921871542930603 -0.0317091792821884155 -0.0402752608060836792
0.0432921871542930603 -0.0367782153189182281 -0.04410562664270401
0.0432921871542930603 -0.00210186094045639038 -0.00775532051920890808
0.0432921871542930603 -0.00101048871874809265 -0.0117008760571479797
0.0432921871542930603 0.0270472019910812378 0.0233207382261753082
0.0432921871542930603 -0.0246045589447021484 -0.024842502549290657
0.0432921871542930603 0.00750664249062538147 0.0052185356616973877
0.0432921871542930603 0.0240004174411296844 0.0169450566172599792
0.0432921871542930603 0.00306383520364761353 -0.00549384579062461853
0.0432921871542930603 -0.0421219281852245331 -0.0424944236874580383
0.0432921871542930603 -0.0173886381089687347 -0.0238828733563423157
0.0432921871542930603 -0.0104960650205612183 -0.017916165292263031
0.0432921871542930603 -0.026468208059668541 -0.0286089591681957245
0.0432921871542930603 0.0233064256608486176 0.0154589079320430756
0.0432921871542930603 -0.0332895815372467041 -0.0367756634950637817
0.0432921871542930603 -0.0163985751569271088 -0.0272009503096342087
0.0432921871542930603 -0.00234731659293174744 -0.00343396887183189392
0.0432921871542930603 -0.0314350612461566925 -0.0307288803160190582
0.0432921871542930603 0.00616046041250228882 0.00428773462772369385
0.0432921871542930603 -0.0114756487309932709 -0.0215416625142097473
0.0432921871542930603 0.0246715694665908813 0.0202164724469184875
0.0432921871542930603 0.00899269059300422668 0.00765815377235412598
0.0432921871542930603 -0.0230307839810848236 -0.0291684158146381378
0.0432921871542930603 0.0187271200120449066 0.0124312564730644226
0.0432921871542930603 -0.0265560448169708252 -0.0258530937135219574
0.0432921871542930603 -0.0316317752003669739 -0.0379807800054550171
0.0432921871542930603 -0.0251159407198429108 -0.0237615816295146942
0.0432921871542930603 -0.0193673297762870789 -0.0193108171224594116
0.0432921871542930603 -0.0304469205439090729 -0.0358448028564453125
0.0432921871542930603 -0.0325902253389358521 -0.0408041849732398987
0.0432921871542930603 -0.00535120442509651184 -0.0122008137404918671
0.0432921871542930603 -0.0215482152998447418 -0.0293144658207893372
0.0432921871542930603 -0.0153258740901947021 -0.0240944921970367432
0.0432921871542930603 -0.0260746683925390244 -0.0290423613041639328
0.0432921871542930603 0.0138666592538356781 0.00818603113293647766
0.0432921871542930603 -0.0397607386112213135 -0.0366308651864528656
0.0432921871542930603 0.029341820627450943 0.0253976695239543915
0.0432921871542930603 -0.0450263917446136475 -0.0410748571157455444
0.0432921871542930603 -0.0329853594303131104 -0.0426157489418983459
0.0432921871542930603 -0.0335501804947853088 -0.0377205498516559601
0.0432921871542930603 0.00100955739617347717 -0.00877522677183151245
0.0432921871542930603 -0.0377934128046035767 -0.0221320558339357376
0.0432921871542930603 -0.0509614385664463043 -0.0321378894150257111
0.0432921871542930603 -0.0357123315334320068 -0.0182993132621049881
0.0432921871542930603 -0.0284746699035167694 -0.013725554570555687
0.0432921871542930603 -0.0298970397561788559 -0.0131583679467439651
0.0432921871542930603 -0.02661919966340065 -0.00965599343180656433
0.0432921871542930603 -0.00835919380187988281 -0.000829640775918960571
0.0432921871542930603 -0.0492940656840801239 -0.0268618464469909668
0.0432921871542930603 -0.0296631939709186554 -0.0178733691573143005
0.0432921871542930603 -0.0308553092181682587 -0.0195087119936943054
0.0432921871542930603 -0.0345495343208312988 -0.0186285115778446198
0.0432921871542930603 -0.00435537099838256836 0.00136739760637283325
0.0432921871542930603 -0.0264747142791748047 -0.0119296740740537643
0.0432921871542930603 -0.0399160683155059814 -0.0283663086593151093
0.0432921871542930603 -0.0466911308467388153 -0.023420337587594986
0.0432921871542930603 -0.0408681519329547882 -0.023835938423871994
0.0432921871542930603 0.00373799353837966919 0.00949114933609962463
0.0432921871542930603 -0.0489481128752231598 -0.0330782420933246613
0.0432921871542930603 -0.0462337136268615723 -0.0387575514614582062
0.0432921871542930603 -0.0515749156475067139 -0.0320030376315116882
0.0432921871542930603 -0.0363693982362747192 -0.0183271802961826324
0.0432921871542930603 -0.0514164045453071594 -0.0280873328447341919
0.0432921871542930603 -0.0140816755592823029 -0.00387706607580184937
0.0432921871542930603 -0.046111617237329483 -0.0316412225365638733
0.0432921871542930603 -0.0473357886075973511 -0.035651080310344696
0.0432921871542930603 -0.0085463300347328186 -0.000961042940616607666
0.0432921871542930603 -0.0509420745074748993 -0.0301233343780040741
0.0432921871542930603 -0.0025692768394947052 0.00453633815050125122
0.0432921871542930603 -0.0407430306077003479 -0.0240789689123630524
0.0432921871542930603 -0.0180506892502307892 -0.0135170053690671921
0.0432921871542930603 -0.0248258244246244431 -0.0162407774478197098
0.0432921871542930603 -0.0149066820740699768 -0.0107131395488977432
0.0432921871542930603 -0.0449976921081542969 -0.0270914267748594284
0.0432921871542930603 0.00146752595901489258 0.00748250633478164673
0.0432921871542930603 0.0186427049338817596 0.0216225460171699524
0.0432921871542930603 -0.033990032970905304 -0.025921013206243515
0.0432921871542930603 -0.00264822691679000854 0.00252482667565345764
0.0432921871542930603 0.00891743600368499756 0.0130400583148002625
0.0432921871542930603 -0.0448830947279930115 -0.0334725454449653625
0.0432921871542930603 0.024866107851266861 0.0222540423274040222
0.0432921871542930603 -0.0420091040432453156 -0.0245297253131866455
0.0432921871542930603 0.0180439837276935577 0.0166752748191356659
0.0432921871542930603 -0.0389186739921569824 -0.0238079465925693512
0.0432921871542930603 -0.00951812043786048889 -0.0054843071848154068
0.0432921871542930603 -0.00451719388365745544 -0.00148768723011016846
0.0432921871542930603 0.000535413622856140137 0.00709713064134120941
0.0432921871542930603 0.0139035619795322418 0.0158438831567764282
0.0432921871542930603 -0.00659649446606636047 -0.000820502638816833496
0.0432921871542930603 0.0101127438247203827 0.0137514974921941757
0.0432921871542930603 0.0303114838898181915 0.0297220051288604736
0.0432921871542930603 -0.0270518139004707336 -0.015778563916683197
0.0432921871542930603 -0.0368019416928291321 -0.0286432243883609772
0.0432921871542930603 -0.0195492058992385864 -0.00612707249820232391
0.0432921871542930603 0.0205703489482402802 0.0191493518650531769
0.0432921871542930603 0.0152470991015434265 0.0182676706463098526
0.0432921871542930603 -0.0054217316210269928 0.00130254030227661133
0.0432921871542930603 -0.0342436507344245911 -0.0249656960368156433
0.0432921871542930603 -0.0331154614686965942 -0.0172721706330776215
0.0432921871542930603 -0.0366235151886940002 -0.0221769921481609344
0.0432921871542930603 -0.0170415639877319336 -0.00995991379022598267
0.0432921871542930603 -0.00354181602597236633 -0.00291452556848526001
0.0432921871542930603 -0.0182444825768470764 -0.0109241530299186707
0.0432921871542930603 -0.00746253505349159241 -0.00127066671848297119
0.0432921871542930603 0.000802900642156600952 0.00544248148798942566
0.0432921871542930603 -0.0487018004059791565 -0.0331315435469150543
0.0432921871542930603 -0.034033503383398056 -0.00877260323613882065
0.0432921871542930603 0.0011872313916683197 0.0109013840556144714
0.0432921871542930603 -0.0576589666306972504 -0.0143693126738071442
0.0432921871542930603 -0.0329982936382293701 -0.00923778582364320755
0.0432921871542930603 -0.0506664104759693146 -0.0150673016905784607
0.0432921871542930603 -0.0494434237480163574 -0.0157308746129274368
0.0432921871542930603 -0.00744691118597984314 0.00937469303607940674
0.0432921871542930603 -0.0277096889913082123 -0.00174786709249019623
0.0432921871542930603 -0.0433050766587257385 -0.0133052365854382515
0.0432921871542930603 -0.0450600571930408478 -0.0124920755624771118
0.0432921871542930603 -0.00382459536194801331 0.012574927881360054
0.0432921871542930603 0.0238611102104187012 0.0261025149375200272
0.0432921871542930603 0.0384898856282234192 0.0360798463225364685
0.0432921871542930603 -0.0467477515339851379 -0.016344904899597168
0.0432921871542930603 -0.0501600876450538635 -0.0239763259887695312
0.0432921871542930603 -0.0535402595996856689 -0.0263268314301967621
0.0432921871542930603 -0.0503320619463920593 -0.0181183759123086929
0.0432921871542930603 -0.032788451761007309 -0.00336558651179075241
0.0432921871542930603 -0.0499362759292125702 -0.0239772535860538483
0.0432921871542930603 -0.00986310467123985291 0.00885937735438346863
0.0432921871542930603 0.023026004433631897 0.0279506556689739227
0.0432921871542930603 0.020304560661315918 0.0266821850091218948
0.0432921871542930603 -0.0566605441272258759 -0.0253700297325849533
0.0432921871542930603 -0.0460881292819976807 -0.00802032183855772018
0.0432921871542930603 -0.0515417233109474182 -0.0170874129980802536
0.0432921871542930603 -0.0554663315415382385 -0.0225696247071027756
0.0432921871542930603 -0.0541657879948616028 -0.0242610611021518707
0.0432921871542930603 0.00421285256743431091 0.0172815360128879547
0.0432921871542930603 -0.019395735114812851 0.00569949857890605927
0.0432921871542930603 -0.0207933783531188965 -0.00479909777641296387
0.0432921871542930603 -0.0493058636784553528 -0.0113341789692640305
0.0432921871542930603 -0.00470742955803871155 0.0121935009956359863
0.0432921871542930603 -0.000870399177074432373 0.0108016449958086014
0.0432921871542930603 -0.042615257203578949 -0.0199148040264844894
0.0432921871542930603 -0.0421370081603527069 -0.0147669743746519089
0.0432921871542930603 -0.000173002481460571289 0.0152779221534729004
0.0432921871542930603 -0.0458801686763763428 -0.0120546314865350723
0.0432921871542930603 -0.0348234549164772034 -0.00967230275273323059
0.0432921871542930603 -0.0481487363576889038 -0.0181135013699531555
0.0432921871542930603 -0.00772243738174438477 0.00491764582693576813
0.0432921871542930603 0.0223049893975257874 0.0251477994024753571
0.0432921871542930603 0.0125368610024452209 0.0200349111109972
0.0432921871542930603 -0.0531115904450416565 -0.0142234675586223602
0.0432921871542930603 -0.0174706801772117615 -8.51042568683624268e-06
0.0432921871542930603 -0.0362668223679065704 -0.0130827687680721283
0.0432921871542930603 -0.0337605364620685577 -0.0104115903377532959
0.0432921871542930603 -0.016277313232421875 0.0079571995884180069
0.0432921871542930603 -0.0507196187973022461 -0.0193660277873277664
0.0432921871542930603 -0.00855359435081481934 0.00851764529943466187
0.0432921871542930603 -0.00495538488030433655 0.0099549759179353714
0.0432921871542930603 -0.028629940003156662 0.000535875558853149414
0.0432921871542930603 0.01743268221616745 0.0240083038806915283
0.0432921871542930603 -0.0472980663180351257 -0.0181253161281347275
0.0432921871542930603 -0.0439772084355354309 -0.0140846297144889832
0.0432921871542930603 -0.0172872692346572876 0.0011921413242816925
0.0432921871542930603 -0.029613204300403595 -0.00322151370346546173
0.0432921871542930603 -0.0216555707156658173 0.0048463083803653717
0.0432921871542930603 -0.0462740808725357056 -0.0179617330431938171
0.0432921871542930603 -0.0271205529570579529 -0.00178964249789714813
0.0432921871542930603 -0.0237440913915634155 0.000804875046014785767
0.0432921871542930603 0.0289217717945575714 0.0307735465466976166
0.0432921871542930603 -0.0156193077564239502 -0.000931413844227790833
0.0432921871542930603 -0.0426303371787071228 -0.00899944920092821121
0.0432921871542930603 0.0381599888205528259 0.0379819273948669434
0.0432921871542930603 -0.051756393164396286 -0.0032963855192065239
0.0432921871542930603 -0.0299137011170387268 0.00136051420122385025
0.0432921871542930603 -0.0524169690907001495 -0.00759880058467388153
0.0432921871542930603 -0.0604389049112796783 -0.00343906553462147713
0.0432921871542930603 0.0301454067230224609 0.0328652858734130859
0.0432921871542930603 0.00713629275560379028 0.0263658557087182999
0.0432921871542930603 0.0105985403060913086 0.0226772874593734741
0.0432921871542930603 -0.0534516125917434692 0.000464606098830699921
0.0432921871542930603 0.00584161281585693359 0.0258895512670278549
0.0432921871542930603 -0.0108097046613693237 0.0171750858426094055
0.0432921871542930603 -0.0223425589501857758 0.00582390092313289642
0.0432921871542930603 0.000607386231422424316 0.0239002630114555359
0.0432921871542930603 -0.050318453460931778 -0.00404389342293143272
0.0432921871542930603 -0.0383907631039619446 -0.00120956730097532272
0.0432921871542930603 -0.0609170757234096527 -0.0136386547237634659
0.0432921871542930603 0.00135983526706695557 0.018865097314119339
0.0432921871542930603 -0.0225141793489456177 0.00667548365890979767
0.0432921871542930603 -0.0454359129071235657 -0.00552352797240018845
0.0432921871542930603 -0.0587217062711715698 -0.00409649591892957687
0.0432921871542930603 -0.0431257262825965881 -0.00144941732287406921
0.0432921871542930603 -0.000346157699823379517 0.0185566507279872894
0.0432921871542930603 -0.0308995954692363739 0.0120634017512202263
0.0432921871542930603 -0.0319988951086997986 0.00712930457666516304
0.0432921871542930603 0.0177611410617828369 0.0301470551639795303
0.0432921871542930603 -0.0246670395135879517 0.00482599157840013504
0.0432921871542930603 -0.0396124832332134247 0.00413273368030786514
0.0432921871542930603 -0.0325719043612480164 0.0103852814063429832
0.0432921871542930603 -0.0463564954698085785 -0.00681249191984534264
0.0432921871542930603 0.0249396339058876038 0.0315978489816188812
0.0432921871542930603 0.00560865551233291626 0.0253531895577907562
0.0432921871542930603 -0.055569041520357132 -0.000321155879646539688
0.0432921871542930603 -0.0247788988053798676 0.00748959137126803398
0.0432921871542930603 -0.0377339236438274384 0.00534366117790341377
0.0432921871542930603 0.0257387310266494751 0.0318011008203029633
0.0432921871542930603 -0.0509898588061332703 -0.00943721551448106766
0.0432921871542930603 -0.0272457823157310486 0.0079043898731470108
0.0432921871542930603 -0.00990094244480133057 0.0174561776220798492
0.0432921871542930603 -0.0550437197089195251 -0.00982317235320806503
0.0432921871542930603 -0.0616080611944198608 -0.000290845637209713459
0.0432921871542930603 -0.0433297008275985718 -0.00338927935808897018
0.0432921871542930603 -0.0208550393581390381 0.0088013969361782074
0.0432921871542930603 -0.0484992116689682007 -0.00466082850471138954
0.0432921871542930603 -0.0258226320147514343 0.00717851473018527031
0.0432921871542930603 -0.0478664934635162354 0.003617115318775177
0.0432921871542930603 -0.0590870752930641174 0.000483143143355846405
0.0432921871542930603 0.00436505675315856934 0.0214775875210762024
0.0432921871542930603 -0.0345418453216552734 0.00146050937473773956
0.0432921871542930603 -0.000678941607475280762 0.0215205419808626175
0.0432921871542930603 -0.00173910334706306458 0.018083229660987854
0.0432921871542930603 0.0226281881332397461 0.0311483480036258698
0.0432921871542930603 -0.0506927557289600372 -0.0024183434434235096
0.0432921871542930603 0.0213049165904521942 0.0291052944958209991
0.0432921871542930603 -0.0245592854917049408 0.00522050727158784866
0.0432921871542930603 0.0301595181226730347 0.0347179099917411804
0.0432921871542930603 -0.0541381016373634338 -0.0113439988344907761
0.0432921871542930603 -0.059367205947637558 -0.0108667239546775818
0.0432921871542930603 -0.0346024930477142334 0.0100419074296951294
0.0432921871542930603 0.0028303191065788269 0.0203905776143074036
0.0432921871542930603 0.00228008627891540527 0.0266968347132205963
0.0432921871542930603 -0.0478135198354721069 0.0111129973083734512
0.0432921871542930603 -0.024301234632730484 0.0221628844738006592
0.0432921871542930603 -0.014500010758638382 0.0271743591874837875
0.0432921871542930603 -0.0508718490600585938 0.0147489523515105247
0.0432921871542930603 -0.0311853028833866119 0.0169646553695201874
0.0432921871542930603 -0.0573115907609462738 0.0103358123451471329
0.0432921871542930603 -0.0614359378814697266 0.0123616624623537064
0.0432921871542930603 -0.0461030155420303345 0.0126886162906885147
0.0432921871542930603 -0.0595391131937503815 0.0110268611460924149
0.0432921871542930603 -0.0427000075578689575 0.015611753799021244
0.0432921871542930603 -0.0438067018985748291 0.0192038156092166901
0.0432921871542930603 -0.0211471021175384521 0.024903956800699234
0.0432921871542930603 -0.040264669805765152 0.0186146572232246399
0.0432921871542930603 -0.0284483060240745544 0.0168511271476745605
0.0432921871542930603 -0.0623093247413635254 0.00681562162935733795
0.0432921871542930603 -0.0322983637452125549 0.015091325156390667
0.0432921871542930603 -0.00849835202097892761 0.0293461307883262634
0.0432921871542930603 -0.0349421948194503784 0.0141598517075181007
0.0432921871542930603 -0.044233471155166626 0.019529830664396286
0.0432921871542930603 -0.0468394011259078979 0.0136750675737857819
0.0432921871542930603 -0.0458204895257949829 0.0128872757777571678
0.0432921871542930603 -0.005123089998960495 0.0247201099991798401
0.0432921871542930603 -0.0445135347545146942 0.00940607301890850067
0.0432921871542930603 -0.0315298214554786682 0.0150797925889492035
0.0432921871542930603 0.0136124342679977417 0.0314193926751613617
0.0432921871542930603 -0.0280449725687503815 0.0224537346512079239
0.0432921871542930603 -0.0551763437688350677 0.00681403558701276779
0.0432921871542930603 -0.0132854767143726349 0.0265757851302623749
0.0432921871542930603 -0.0369020476937294006 0.0133239356800913811
0.0432921871542930603 -0.01202373206615448 0.027082616463303566
0.0432921871542930603 -0.0221807882189750671 0.0196210891008377075
0.0432921871542930603 -0.0531042888760566711 0.00776090892031788826
0.0432921871542930603 -0.0334339551627635956 0.0191151946783065796
0.0432921871542930603 -0.00414828956127166748 0.0305260308086872101
0.0432921871542930603 -0.0426083803176879883 0.0182345863431692123
0.0432921871542930603 -0.0551533177495002747 0.0129907112568616867
0.0432921871542930603 0.0236243382096290588 0.0377516373991966248
0.0432921871542930603 -0.0504259951412677765 0.00793424248695373535
0.0432921871542930603 -0.0471161603927612305 0.0119717987254261971
0.0432921871542930603 -0.0662277489900588989 0.0113355973735451698
0.0432921871542930603 -0.0136952139437198639 0.0233153626322746277
0.0432921871542930603 -0.03255428746342659 0.0217700693756341934
0.0432921871542930603 0.00103729218244552612 0.0318423733115196228
0.0432921871542930603 -0.0205583050847053528 0.0246699489653110504
0.0432921871542930603 -0.0399650931358337402 0.0180371403694152832
0.0432921871542930603 -0.0646492913365364075 0.00674024829640984535
0.0432921871542930603 -0.0632985755801200867 0.0102722067385911942
0.0432921871542930603 -0.0577120520174503326 0.00640364270657300949
0.0432921871542930603 0.00480202585458755493 0.0283587556332349777
0.0432921871542930603 -0.0242717824876308441 0.0191763900220394135
0.0432921871542930603 -0.0347081646323204041 0.0127621935680508614
0.0432921871542930603 0.0349791571497917175 0.039228636771440506
0.0432921871542930603 -0.0476940646767616272 0.0119053386151790619
0.0432921871542930603 -0.019016217440366745 0.0267026014626026154
0.0432921871542930603 -0.0384042002260684967 0.0130586288869380951
0.0432921871542930603 -0.0506618767976760864 0.00839901994913816452
0.0432921871542930603 0.0374179333448410034 0.040690980851650238
0.0432921871542930603 -0.0440082699060440063 0.0207450445741415024
0.0432921871542930603 0.0128015279769897461 0.0349306464195251465
0.0432921871542930603 -0.0477271303534507751 0.0201126746833324432
0.0432921871542930603 -0.0347046181559562683 0.0182597264647483826
0.0432921871542930603 -0.0158357992768287659 0.0281662791967391968
0.0432921871542930603 -0.0409569069743156433 0.0334821753203868866
0.0432921871542930603 0.0165606550872325897 0.039703715592622757
0.0432921871542930603 0.00510577112436294556 0.0370190516114234924
0.0432921871542930603 -0.0602311789989471436 0.030227959156036377
0.0432921871542930603 -0.0328872837126255035 0.0292790345847606659
0.0432921871542930603 -0.0558524727821350098 0.0303606521338224411
0.0432921871542930603 -0.0301862508058547974 0.0316859334707260132
0.0432921871542930603 -0.0468971319496631622 0.0327984504401683807
0.0432921871542930603 0.0221682526171207428 0.0389446988701820374
0.0432921871542930603 -0.0437606647610664368 0.0330433659255504608
0.0432921871542930603 -0.0468698218464851379 0.0224010515958070755
0.0432921871542930603 -0.0353296548128128052 0.0339890867471694946
0.0432921871542930603 -0.0168986208736896515 0.0343450233340263367
0.0432921871542930603 -0.0453836359083652496 0.0239512640982866287
0.0432921871542930603 0.0164893940091133118 0.0398930758237838745
0.0432921871542930603 -0.00264422595500946045 0.0337448902428150177
0.0432921871542930603 -0.014255087822675705 0.0293576810508966446
0.0432921871542930603 -0.0414548180997371674 0.0286593567579984665
0.0432921871542930603 -0.024920683354139328 0.0279335752129554749
0.0432921871542930603 -0.0419562086462974548 0.0295952130109071732
0.0432921871542930603 0.00610524788498878479 0.0354334712028503418
0.0432921871542930603 0.0276843123137950897 0.0400414839386940002
0.0432921871542930603 -0.0276242122054100037 0.026541542261838913
0.0432921871542930603 0.0147741921246051788 0.0372104793787002563
0.0432921871542930603 -0.050980694591999054 0.0321443676948547363
0.0432921871542930603 -0.0164002105593681335 0.0301785990595817566
0.0432921871542930603 0.0280958190560340881 0.0399216115474700928
0.0432921871542930603 -0.0597536303102970123 0.0276327952742576599
0.0432921871542930603 -0.034040059894323349 0.0266868285834789276
0.0432921871542930603 0.00370233133435249329 0.0349786132574081421
0.0432921871542930603 0.0364435054361820221 0.0427960902452468872
0.0432921871542930603 0.024836711585521698 0.0406966879963874817
0.0432921871542930603 -0.0621981658041477203 0.0206107012927532196
0.0432921871542930603 -0.0131844505667686462 0.0367558673024177551
0.0432921871542930603 0.0263705514371395111 0.0406989902257919312
0.0432921871542930603 0.00486161932349205017 0.0385828986763954163
0.0432921871542930603 -0.0631745979189872742 0.0177423376590013504
0.0432921871542930603 -0.0263314507901668549 0.0345988012850284576
0.0432921871542930603 -0.00766646489500999451 0.0323438011109828949
0.0432921871542930603 -0.0334375686943531036 0.0299691129475831985
0.0432921871542930603 -0.0485643297433853149 0.0212040320038795471
0.0432921871542930603 -0.0306957177817821503 0.0275799576193094254
0.0432921871542930603 -0.010703064501285553 0.0328350625932216644
0.0432921871542930603 -0.036712348461151123 0.031164955347776413
0.0432921871542930603 0.0188921466469764709 0.0370647460222244263
0.0432921871542930603 0.0106193460524082184 0.0357297509908676147
0.0432921871542930603 -0.0438520312309265137 0.0222178231924772263
0.0432921871542930603 -0.00719924643635749817 0.0358202718198299408
0.0432921871542930603 0.0282610468566417694 0.0394532717764377594
0.0432921871542930603 0.0266971588134765625 0.0398145653307437897
0.0432921871542930603 0.0228511430323123932 0.0399699471890926361
0.0432921871542930603 -0.0201050043106079102 0.0351618006825447083
0.0432921871542930603 -0.029391653835773468 0.0287965498864650726
0.0432921871542930603 -0.0481280721724033356 0.0256176739931106567
0.0432921871542930603 -0.0014514140784740448 0.0347740612924098969
0.0432921871542930603 0.0283820964395999908 0.0442813709378242493
0.0432921871542930603 -0.0182866938412189484 0.0417536161839962006
0.0432921871542930603 0.00369513779878616333 0.0420881398022174835
0.0432921871542930603 -0.0287016984075307846 0.0447904430329799652
0.0432921871542930603 -0.0086842663586139679 0.040291961282491684
0.0432921871542930603 0.021067403256893158 0.0441789329051971436
0.0432921871542930603 0.000642519444227218628 0.0397745408117771149
0.0432921871542930603 0.0156381428241729736 0.0428027249872684479
0.0432921871542930603 -0.0539473891258239746 0.0350086130201816559
0.0432921871542930603 -0.0182817354798316956 0.0401569865643978119
0.0432921871542930603 -0.0266247279942035675 0.0420080497860908508
0.0432921871542930603 0.00687598809599876404 0.0417676083743572235
0.0432921871542930603 -0.0520832054316997528 0.0385739803314208984
0.0432921871542930603 -0.0384324714541435242 0.0358827412128448486
0.0432921871542930603 -0.00935138016939163208 0.0425609126687049866
0.0432921871542930603 -0.0332746729254722595 0.0389687977731227875
0.0432921871542930603 -0.0259240530431270599 0.0397665649652481079
0.0432921871542930603 0.000799376517534255981 0.0407777763903141022
0.0432921871542930603 -0.0115001723170280457 0.0425433851778507233
0.0432921871542930603 -0.00334800034761428833 0.0413388870656490326
0.0432921871542930603 -0.0488899722695350647 0.0385304540395736694
0.0432921871542930603 -0.00582581758499145508 0.0442964732646942139
0.0432921871542930603 0.0325120687484741211 0.0438009463250637054
0.0432921871542930603 0.0318743102252483368 0.0447410978376865387
0.0432921871542930603 -0.00430972129106521606 0.0431931130588054657
0.0432921871542930603 0.00646949559450149536 0.039966873824596405
0.0432921871542930603 -0.0242118462920188904 0.0383835211396217346
0.0432921871542930603 -0.00215258076786994934 0.0386331453919410706
0.0432921871542930603 -0.00622446462512016296 0.0403797663748264313
0.0432921871542930603 -0.0080624409019947052 0.0421209633350372314
0.0432921871542930603 0.0229848548769950867 0.0439139828085899353
0.0432921871542930603 -0.0500132516026496887 0.0420256592333316803
0.0432921871542930603 0.0186868198215961456 0.0421644151210784912
0.0432921871542930603 -0.0101254358887672424 0.041219756007194519
0.0432921871542930603 -0.0488665811717510223 0.0401343889534473419
0.0432921871542930603 -0.0288385860621929169 0.0364328734576702118
0.0432921871542930603 0.019818626344203949 0.041495785117149353
0.0432921871542930603 -0.0545473843812942505 0.0339111126959323883
0.0432921871542930603 -0.0132136493921279907 0.0387576892971992493
0.0432921871542930603 0.015981581062078476 0.0421693921089172363
0.0432921871542930603 -0.0514490939676761627 0.0352810025215148926
0.0432921871542930603 -0.0543945692479610443 0.0344506986439228058
0.0432921871542930603 -0.0426398850977420807 0.0416545532643795013
0.0432921871542930603 -0.0471371077001094818 0.0385023914277553558
0.0432921871542930603 -0.00205123052000999451 0.0422201603651046753
0.0432921871542930603 -0.0549755580723285675 0.0329526849091053009
0.0432921871542930603 -0.0500470176339149475 0.0447322055697441101
0.0432921871542930603 0.00710983574390411377 0.0483259223401546478
0.0432921871542930603 -0.0188387148082256317 0.0458877980709075928
0.0432921871542930603 -0.0108857918530702591 0.0520505979657173157
0.0432921871542930603 0.0295484550297260284 0.0457549095153808594
0.0432921871542930603 -0.00391987338662147522 0.0470581613481044769
0.0432921871542930603 -0.0231167096644639969 0.0469059869647026062
0.0432921871542930603 -0.00650820508599281311 0.0470825172960758209
0.0432921871542930603 -0.0258028823882341385 0.0515215881168842316
0.0432921871542930603 0.0154074914753437042 0.0485271885991096497
0.0432921871542930603 -0.0217866953462362289 0.0495692752301692963
0.0432921871542930603 -0.00623917579650878906 0.0459276251494884491
0.0432921871542930603 0.00699457153677940369 0.0482637248933315277
0.0432921871542930603 -0.036913260817527771 0.0533769577741622925
0.0432921871542930603 -0.0081487707793712616 0.0472933538258075714
0.0432921871542930603 -0.0016771852970123291 0.0475963056087493896
0.0432921871542930603 -0.0181929003447294235 0.0514616519212722778
0.0432921871542930603 -0.0096905883401632309 0.0511973574757575989
0.0432921871542930603 0.0149764418601989746 0.047629237174987793
0.0432921871542930603 0.0342234186828136444 0.0451414138078689575
0.0432921871542930603 -0.0315861739218235016 0.0483505800366401672
0.0432921871542930603 -0.0235694162547588348 0.0453574210405349731
0.0432921871542930603 -0.0233893133699893951 0.0470903888344764709
0.0432921871542930603 -0.0357081368565559387 0.0454995259642601013
0.0432921871542930603 -0.000225894153118133545 0.0464728213846683502
0.0432921871542930603 -0.0293690860271453857 0.0523199662566184998
0.0432921871542930603 -0.0434145517647266388 0.04961361363530159
0.0432921871542930603 -0.0429734252393245697 0.0464095063507556915
0.0432921871542930603 0.00908526778221130371 0.0492027811706066132
0.0432921871542930603 0.0096408650279045105 0.0457169339060783386
0.0432921871542930603 0.00258847326040267944 0.0497122667729854584
0.0432921871542930603 0.0131069347262382507 0.0452864430844783783
0.0432921871542930603 -0.00970510020852088928 0.0518337301909923553
0.0432921871542930603 -0.0303296856582164764 0.0450260601937770844
0.0432921871542930603 -0.0244675073772668839 0.0489527061581611633
0.0432921871542930603 -0.0243697874248027802 0.0513257347047328949
0.0432921871542930603 0.0220786184072494507 0.0454000607132911682
0.0432921871542930603 0.0167543068528175354 0.0475751198828220367
0.0432921871542930603 0.0222812145948410034 0.0515946857631206512
0.0432921871542930603 -0.0178725868463516235 0.053627893328666687
0.0432921871542930603 -0.0060200858861207962 0.0558335520327091217
0.0432921871542930603 0.0285950209945440292 0.0495220720767974854
0.0432921871542930603 0.0233429595828056335 0.0491158813238143921
0.0432921871542930603 -0.0102964099496603012 0.0532596595585346222
0.0432921871542930603 0.0250434111803770065 0.0490437224507331848
0.0432921871542930603 -0.0301131885498762131 0.055275745689868927
0.0432921871542930603 -0.016065940260887146 0.0577978044748306274
0.0432921871542930603 -0.0283548198640346527 0.0547314099967479706
0.0432921871542930603 -0.00541829876601696014 0.0555071085691452026
0.0432921871542930603 -0.0101266913115978241 0.0523138977587223053
0.0432921871542930603 0.0310098621994256973 0.0484835468232631683
0.0432921871542930603 0.0323711633682250977 0.0484435036778450012
0.0432921871542930603 -0.00416748411953449249 0.057726539671421051
0.0432921871542930603 -0.0101668499410152435 0.0534230396151542664
0.0432921871542930603 -0.0117447338998317719 0.0601756945252418518
0.0432921871542930603 -0.0238592084497213364 0.0613386295735836029
0.0432921871542930603 -0.0208812765777111053 0.0581548288464546204
0.0432921871542930603 0.00741852074861526489 0.0505416132509708405
0.0432921871542930603 -0.0237937532365322113 0.0548653453588485718
0.0432921871542930603 -0.00517335161566734314 0.0570690855383872986
0.0432921871542930603 -0.0177238192409276962 0.0558324716985225677
0.0432921871542930603 0.0344934873282909393 0.0479492917656898499
0.0432921871542930603 0.0140129700303077698 0.0495727024972438812
0.0432921871542930603 0.00671847164630889893 0.0547054372727870941
0.0432921871542930603 0.00852957181632518768 0.0547185838222503662
0.0432921871542930603 0.0443563312292098999 0.0459394603967666626
0.0432921871542930603 -0.0135327009484171867 0.0588607713580131531
0.0432921871542930603 0.0144096966832876205 0.058352544903755188
0.0432921871542930603 -0.00453462079167366028 0.0596610195934772491
0.0432921871542930603 -0.013698844239115715 0.0631890967488288879
0.0432921871542930603 -0.0152580104768276215 0.0654450282454490662
0.0432921871542930603 -0.00818250328302383423 0.0656877905130386353
0.0432921871542930603 0.00874652527272701263 0.0604344680905342102
0.0432921871542930603 -0.0144667429849505424 0.0645052120089530945
0.0432921871542930603 -0.00613146554678678513 0.0623123906552791595
0.0432921871542930603 -0.00446962052956223488 0.0633098483085632324
0.0432921871542930603 0.013989652507007122 0.0587127730250358582
0.0432921871542930603 0.0245809517800807953 0.0520465970039367676
0.0432921871542930603 0.00189930759370326996 0.0627127587795257568
0.0432921871542930603 0.0135492328554391861 0.0575381144881248474
0.0432921871542930603 0.029565177857875824 0.052160412073135376
0.0432921871542930603 0.0239059142768383026 0.0535593330860137939
0.0432921871542930603 0.00314671173691749573 0.0585120841860771179
0.0432921871542930603 0.0402496680617332458 0.0487339720129966736
0.0432921871542930603 -0.0012742113322019577 0.0587693750858306885
0.0432921871542930603 0.0037299012765288353 0.0616056360304355621
0.0432921871542930603 0.0075229983776807785 0.0572498664259910583
0.0432921871542930603 0.0174113865941762924 0.0610212273895740509
