ply
format ascii 1.0
element vertex 772
property float x
property float y
property float z
end_header
0.836780667304992676 1.44693398475646973 0.222393572330474854
0.431824803352355957 2.04305219650268555 0.300446748733520508
0.334634661674499512 2.18612146377563477 0.272757351398468018
0.779917716979980469 1.5306394100189209 0.192671686410903931
1.22102522850036621 0.88130420446395874 0.226519227027893066
1.41489791870117188 0.595912456512451172 0.219172224402427673
1.80502200126647949 0.0216275174170732498 0.0670706033706665039
0.712598800659179688 1.62973690032958984 0.279513776302337646
0.935774922370910645 1.30120885372161865 0.164928063750267029
0.572672128677368164 1.83571672439575195 0.279491573572158813
0.599312543869018555 1.79650068283081055 0.302983403205871582
1.62030637264251709 0.293539553880691528 0.260312527418136597
1.09649157524108887 1.06462466716766357 0.228448942303657532
1.51350760459899902 0.45075342059135437 0.248329848051071167
0.556429386138916016 1.8596271276473999 0.238483041524887085
1.6343616247177124 0.272849321365356445 0.0845026373863220215
1.49752795696258545 0.474276304244995117 0.157146424055099487
1.67901051044464111 0.207123667001724243 0.288985162973403931
0.423283934593200684 2.05562472343444824 0.293830960988998413
1.19866466522216797 0.914220213890075684 0.305909603834152222
1.09166073799133301 1.07173609733581543 0.167856007814407349
0.960830032825469971 1.26432633399963379 0.275925606489181519
1.33607423305511475 0.711945474147796631 0.140152603387832642
1.66565585136413574 0.226782470941543579 0.277737826108932495
1.38966166973114014 0.633061707019805908 0.106096088886260986
1.40632736682891846 0.608528852462768555 0.183111429214477539
1.55889737606048584 0.383936971426010132 0.185320004820823669
1.79094171524047852 0.0423546284437179565 0.296821534633636475
1.38391745090484619 0.641517460346221924 0.134344518184661865
0.565798282623291016 1.84583544731140137 0.238037943840026855
1.80699753761291504 0.018719429150223732 0.237853288650512695
1.24145650863647461 0.851228058338165283 0.196750417351722717
1.75322055816650391 0.0978821665048599243 0.110880881547927856
1.33226799964904785 0.717548489570617676 0.23536333441734314
1.39660704135894775 0.622837722301483154 0.0975368320941925049
1.57020413875579834 0.367292851209640503 0.171677857637405396
0.341553688049316406 2.17593646049499512 0.280810564756393433
0.966085851192474365 1.25658941268920898 0.212973877787590027
1.04439568519592285 1.14131283760070801 0.219771817326545715
1.55201125144958496 0.394073814153671265 0.239575862884521484
1.48488974571228027 0.492880582809448242 0.288396865129470825
1.76917695999145508 0.0743934214115142822 0.0273278653621673584
0.833647727966308594 1.45154595375061035 0.210036933422088623
1.47379016876220703 0.509219765663146973 0.115778982639312744
0.222151994705200195 2.35170245170593262 0.283030271530151367
1.41364598274230957 0.597755312919616699 0.318034082651138306
0.933506369590759277 1.30454826354980469 0.309743285179138184
1.60042345523834229 0.322808325290679932 0.174051225185394287
1.4658203125 0.520951807498931885 0.0720359236001968384
0.179165840148925781 2.41498064994812012 0.3074474036693573
1.16907858848571777 0.957772374153137207 0.171553552150726318
1.07756781578063965 1.09248161315917969 0.20047372579574585
1.25141191482543945 0.836573183536529541 0.146765246987342834
0.515045523643493652 1.92054641246795654 0.233061105012893677
0.782556533813476562 1.52675497531890869 0.226827919483184814
0.780618429183959961 1.52960801124572754 0.226429164409637451
1.72984910011291504 0.132286399602890015 0.122961848974227905
1.24691295623779297 0.843195855617523193 0.184930533170700073
0.264339327812194824 2.28960037231445312 0.287852287292480469
0.352355599403381348 2.16003537178039551 0.31139335036277771
1.4121100902557373 0.600016355514526367 0.106026247143745422
0.99717479944229126 1.21082472801208496 0.307605206966400146
1.34526503086090088 0.698416054248809814 0.128286585211753845
1.74258077144622803 0.113544628024101257 0.121455550193786621
1.41482150554656982 0.596024990081787109 0.190978944301605225
0.194367170333862305 2.39260315895080566 0.296344935894012451
0.44407343864440918 2.02502155303955078 0.308263719081878662
1.33601605892181396 0.712031066417694092 0.149452745914459229
1.33835184574127197 0.708592653274536133 0.117695316672325134
1.43924617767333984 0.560070335865020752 0.0822445899248123169
0.473238229751586914 1.98208916187286377 0.289655953645706177
1.20764100551605225 0.901006460189819336 0.214958339929580688
1.74393510818481445 0.111550994217395782 0.274733453989028931
1.75218641757965088 0.0994044765830039978 0.181995213031768799
1.1763002872467041 0.947141885757446289 0.212941378355026245
0.705649733543395996 1.63996624946594238 0.266139745712280273
1.13712000846862793 1.00481736660003662 0.271053701639175415
1.69566178321838379 0.182612046599388123 0.0684118568897247314
1.53426837921142578 0.420192301273345947 0.109004244208335876
1.14707088470458984 0.990169227123260498 0.123198792338371277
1.31248044967651367 0.74667668342590332 0.143375620245933533
1.59958279132843018 0.324045777320861816 0.0808440446853637695
1.17603623867034912 0.947530508041381836 0.306206673383712769
1.45131158828735352 0.542309463024139404 0.100301891565322876
0.519674181938171387 1.91373288631439209 0.300616472959518433
1.80457448959350586 0.0222862660884857178 0.0995379835367202759
1.08286547660827637 1.08468317985534668 0.286838233470916748
0.639636516571044922 1.73714148998260498 0.237783581018447876
1.21981072425842285 0.883091866970062256 0.302276581525802612
1.80072057247161865 0.0279594827443361282 0.292108058929443359
1.68980181217193604 0.19123820960521698 0.249340802431106567
1.41288113594055176 0.598881304264068604 0.19492657482624054
1.0756995677947998 1.09523165225982666 0.255503237247467041
1.02101516723632812 1.17573034763336182 0.17687872052192688
0.802255630493164062 1.4977569580078125 0.285862773656845093
1.68995046615600586 0.191019400954246521 0.160704478621482849
0.570856451988220215 1.83838951587677002 0.23598557710647583
0.685694456100463867 1.66934144496917725 0.22607247531414032
1.52292394638061523 0.436892032623291016 0.257290482521057129
0.958931624889373779 1.2671208381652832 0.181305333971977234
1.73040497303009033 0.131468087434768677 0.301880091428756714
0.541110396385192871 1.88217747211456299 0.254865169525146484
0.254461526870727539 2.30414104461669922 0.295094311237335205
0.460600614547729492 2.00069260597229004 0.243027597665786743
1.41118407249450684 0.601379334926605225 0.247294306755065918
1.75173461437225342 0.100069664418697357 0.112680032849311829
1.37109625339508057 0.660390973091125488 0.208496451377868652
0.802060365676879883 1.49804425239562988 0.299485921859741211
1.68982148170471191 0.19120924174785614 0.244606256484985352
1.01170063018798828 1.18944191932678223 0.156992658972740173
1.3414076566696167 0.704094290733337402 0.306761443614959717
1.24225449562072754 0.850053369998931885 0.28062787652015686
0.941962957382202148 1.2920997142791748 0.155104249715805054
1.2597815990447998 0.824252486228942871 0.305600523948669434
1.44191265106201172 0.556145191192626953 0.305866032838821411
0.392395257949829102 2.10109472274780273 0.297995328903198242
1.46151435375213623 0.52729034423828125 0.220504254102706909
0.295844316482543945 2.24322319030761719 0.270778417587280273
1.25758171081542969 0.827490806579589844 0.131193578243255615
0.326446771621704102 2.19817447662353516 0.311132878065109253
1.7834700345993042 0.0533533468842506409 0.314930081367492676
1.64556372165679932 0.256359249353408813 0.0874442309141159058
1.22719275951385498 0.872225105762481689 0.138601884245872498
1.03246688842773438 1.15887284278869629 0.233143717050552368
1.18899011611938477 0.928461670875549316 0.155103906989097595
1.7476726770401001 0.106049016118049622 0.302135169506072998
1.44122648239135742 0.557155311107635498 0.288100659847259521
1.50898921489715576 0.457404732704162598 0.256829738616943359
0.549662470817565918 1.86958825588226318 0.265455812215805054
1.67959165573120117 0.206268161535263062 0.282219529151916504
0.788995265960693359 1.51727676391601562 0.240053176879882812
1.23527204990386963 0.860331952571868896 0.139656007289886475
1.18300855159759521 0.937266886234283447 0.156686022877693176
1.57315146923065186 0.362954199314117432 0.229211270809173584
1.78333401679992676 0.0535535737872123718 0.19276602566242218
1.51061046123504639 0.455018162727355957 0.140642032027244568
0.543940305709838867 1.87801170349121094 0.257248491048812866
1.57576596736907959 0.359105497598648071 0.156697675585746765
1.20527100563049316 0.904495298862457275 0.194098502397537231
0.853424489498138428 1.42243337631225586 0.274955958127975464
0.173201918601989746 2.42375969886779785 0.304207056760787964
1.66300642490386963 0.230682656168937683 0.123478963971138
1.16281747817993164 0.96698915958404541 0.201154634356498718
0.675282716751098633 1.68466830253601074 0.3186931312084198
1.09164619445800781 1.07175743579864502 0.250953704118728638
1.20276045799255371 0.90819084644317627 0.218277767300605774
1.46429276466369629 0.523200511932373047 0.261082589626312256
1.21108400821685791 0.89593815803527832 0.153274804353713989
1.55749845504760742 0.385996401309967041 0.231704443693161011
0.901976704597473145 1.35096168518066406 0.237689465284347534
1.20957636833190918 0.898157477378845215 0.202834084630012512
1.35888075828552246 0.678372979164123535 0.222204595804214478
1.69150352478027344 0.188733235001564026 0.242475956678390503
1.620841383934021 0.292751848697662354 0.0920432060956954956
0.71350705623626709 1.62839984893798828 0.253166645765304565
1.07349097728729248 1.09848296642303467 0.134791180491447449
1.66968774795532227 0.220847293734550476 0.319125145673751831
0.906903266906738281 1.34370958805084229 0.230128884315490723
1.1689298152923584 0.957991480827331543 0.297528445720672607
0.87372887134552002 1.39254415035247803 0.303077608346939087
0.633434891700744629 1.74627053737640381 0.296887695789337158
0.76169133186340332 1.55746972560882568 0.205580830574035645
1.20644259452819824 0.902770698070526123 0.228940069675445557
1.08677780628204346 1.07892405986785889 0.167632624506950378
1.02441620826721191 1.17072379589080811 0.194578498601913452
1.10230660438537598 1.05606472492218018 0.308407217264175415
1.20414853096008301 0.906147480010986328 0.243533730506896973
1.11014366149902344 1.04452812671661377 0.294615656137466431
1.61035990715026855 0.308181345462799072 0.191791906952857971
1.67574608325958252 0.211929142475128174 0.290613502264022827
0.839892923831939697 1.4423525333404541 0.238969400525093079
1.22299504280090332 0.878404438495635986 0.191983520984649658
0.56009221076965332 1.85423517227172852 0.292203426361083984
1.80731916427612305 0.0182459317147731781 0.2360495924949646
1.78353095054626465 0.0532636083662509918 0.137632116675376892
1.32079505920410156 0.734437286853790283 0.18866787850856781
1.49464941024780273 0.478513807058334351 0.26068684458732605
1.41110825538635254 0.601490974426269531 0.140100151300430298
1.79755270481109619 0.0326228030025959015 0.190124064683914185
1.64274239540100098 0.260512411594390869 0.150453522801399231
1.19474244117736816 0.919993817806243896 0.182723850011825562
0.772702932357788086 1.54126012325286865 0.306811422109603882
1.44201052188873291 0.556001186370849609 0.113373503088951111
1.27872765064239502 0.796362876892089844 0.211493939161300659
0.585228085517883301 1.81723368167877197 0.263738840818405151
1.60587561130523682 0.314782381057739258 0.0842965096235275269
1.66189849376678467 0.232313588261604309 0.233878910541534424
1.00898241996765137 1.19344329833984375 0.197794422507286072
0.977259635925292969 1.24014103412628174 0.296723365783691406
1.3745880126953125 0.655250847339630127 0.195129245519638062
1.33340227603912354 0.715878605842590332 0.301804274320602417
1.29163622856140137 0.777360737323760986 0.189682245254516602
1.69712996482849121 0.180450722575187683 0.27726370096206665
1.79999542236328125 0.0290269069373607635 0.0355179011821746826
0.694265604019165039 1.65672433376312256 0.315938115119934082
1.5224529504776001 0.437585353851318359 0.281903922557830811
1.75392091274261475 0.0968512296676635742 0.306653052568435669
1.02829635143280029 1.16501200199127197 0.257430613040924072
0.727357149124145508 1.60801172256469727 0.240411221981048584
0.182815074920654297 2.40960860252380371 0.305607795715332031
0.27831876277923584 2.26902174949645996 0.28708985447883606
1.20527505874633789 0.904489219188690186 0.226121306419372559
0.291197299957275391 2.25006365776062012 0.313466519117355347
0.814032316207885742 1.48042082786560059 0.22153027355670929
1.27648615837097168 0.799662590026855469 0.23615562915802002
0.313140273094177246 2.21776247024536133 0.314894407987594604
1.25877547264099121 0.825733661651611328 0.301243990659713745
1.71531176567077637 0.153686091303825378 0.228827789425849915
1.62555778026580811 0.285809189081192017 0.251610457897186279
0.612620711326599121 1.77691018581390381 0.285293430089950562
0.678220272064208984 1.6803438663482666 0.213346466422080994
1.50706839561462402 0.460232287645339966 0.130198225378990173
1.57159876823425293 0.365239799022674561 0.30349421501159668
1.68372476100921631 0.20018400251865387 0.0357685685157775879
0.531509637832641602 1.89631032943725586 0.282119512557983398
0.867716312408447266 1.40139496326446533 0.190722331404685974
1.31338167190551758 0.745350122451782227 0.268030345439910889
1.50895547866821289 0.457454413175582886 0.0588520467281341553
0.292093038558959961 2.24874520301818848 0.29476463794708252
1.64331436157226562 0.259670346975326538 0.0870093256235122681
0.786156654357910156 1.52145540714263916 0.209100186824798584
1.68275916576385498 0.201605364680290222 0.101132765412330627
1.72597396373748779 0.137990817427635193 0.0773278474807739258
0.587022185325622559 1.81459271907806396 0.296629607677459717
1.08659005165100098 1.0792003870010376 0.271525263786315918
1.31409525871276855 0.744299590587615967 0.185239106416702271
1.07742524147033691 1.09269142150878906 0.28641858696937561
0.665710568428039551 1.69875895977020264 0.306882023811340332
1.80781745910644531 0.0175125207751989365 0.124973222613334656
1.34931826591491699 0.692449510097503662 0.27839362621307373
0.789011955261230469 1.51725220680236816 0.257807135581970215
1.76161396503448486 0.0855266526341438293 0.282617002725601196
1.71451795101165771 0.154854744672775269 0.31431165337562561
1.45746731758117676 0.533247768878936768 0.123467028141021729
0.794887304306030273 1.50860333442687988 0.278560161590576172
1.74315762519836426 0.112695537507534027 0.0449060499668121338
1.65639960765838623 0.240408271551132202 0.155211135745048523
1.27204513549804688 0.806199967861175537 0.211212277412414551
1.78714990615844727 0.0479363948106765747 0.192675501108169556
1.77880918979644775 0.0602143071591854095 0.318864762783050537
1.05578994750976562 1.12453997135162354 0.142653360962867737
0.304894685745239258 2.22990059852600098 0.29970589280128479
0.864848971366882324 1.40561592578887939 0.307410985231399536
0.942999422550201416 1.29057395458221436 0.262349337339401245
1.46027815341949463 0.529110193252563477 0.274220377206802368
1.05150210857391357 1.13085174560546875 0.237469926476478577
0.729571104049682617 1.60475254058837891 0.201031088829040527
1.01017427444458008 1.19168877601623535 0.255666673183441162
0.894545555114746094 1.36190080642700195 0.231106400489807129
1.40092992782592773 0.61647409200668335 0.272419899702072144
0.283007502555847168 2.26211977005004883 0.283919394016265869
0.853733956813812256 1.42197775840759277 0.282057404518127441
1.10886073112487793 1.04641664028167725 0.251686424016952515
1.50445353984832764 0.464081525802612305 0.0635998845100402832
1.57044541835784912 0.36693766713142395 0.0990501344203948975
0.818338990211486816 1.47408127784729004 0.272195518016815186
0.960993170738220215 1.26408612728118896 0.1583833247423172
0.700210332870483398 1.64797341823577881 0.292900681495666504
1.37110400199890137 0.660379648208618164 0.262488663196563721
1.6449509859085083 0.257261186838150024 0.152746498584747314
1.34287714958190918 0.70193105936050415 0.242213904857635498
0.479851484298706055 1.97235417366027832 0.238447427749633789
1.11858177185058594 1.03210675716400146 0.267838358879089355
1.62498247623443604 0.286656022071838379 0.14692455530166626
1.47408199310302734 0.508790075778961182 0.183800831437110901
1.63525915145874023 0.271528124809265137 0.096218600869178772
1.59605193138122559 0.329243391752243042 0.0465658605098724365
1.7630002498626709 0.0834859907627105713 0.0720413774251937866
1.74572145938873291 0.108921289443969727 0.170846268534660339
1.12918007373809814 1.01650536060333252 0.17121066153049469
0.63009178638458252 1.75119173526763916 0.259095132350921631
1.80224382877349854 0.025717269629240036 0.283754527568817139
1.23853409290313721 0.855530083179473877 0.298566251993179321
1.06409156322479248 1.11231935024261475 0.234413832426071167
1.81869471073150635 0.00150059966836124659 0.0962483435869216919
1.37163877487182617 0.65959244966506958 0.313533991575241089
1.59266018867492676 0.334236294031143188 0.0466140210628509521
0.942573070526123047 1.29120159149169922 0.188791066408157349
1.583465576171875 0.347771167755126953 0.0887195616960525513
1.52913236618041992 0.427752792835235596 0.0719234645366668701
1.30039882659912109 0.764461636543273926 0.174372509121894836
1.6968609094619751 0.180846869945526123 0.258533656597137451
1.54648792743682861 0.402204424142837524 0.224237829446792603
1.50550448894500732 0.46253436803817749 0.163161635398864746
1.37894129753112793 0.648842692375183105 0.113036230206489563
0.990331172943115234 1.22089886665344238 0.273193120956420898
1.72302842140197754 0.142326831817626953 0.103945285081863403
0.183027863502502441 2.40929532051086426 0.296989768743515015
1.44415807723999023 0.552839815616607666 0.073252260684967041
1.30292236804962158 0.76074683666229248 0.313934832811355591
0.634470224380493164 1.74474644660949707 0.294304639101028442
0.743104815483093262 1.58483016490936279 0.246550127863883972
1.03792858123779297 1.15083277225494385 0.22983744740486145
1.58257472515106201 0.349082708358764648 0.167720019817352295
1.13862442970275879 1.00260269641876221 0.121262714266777039
1.57816982269287109 0.355566859245300293 0.265444517135620117
0.968858838081359863 1.25250744819641113 0.208565384149551392
1.58061885833740234 0.351961791515350342 0.281766831874847412
1.80066311359405518 0.0280440449714660645 0.114197462797164917
1.4740523099899292 0.508833885192871094 0.0803804993629455566
1.43245816230773926 0.570062816143035889 0.130211502313613892
1.59727156162261963 0.327448010444641113 0.24886929988861084
1.09273028373718262 1.07016158103942871 0.263962864875793457
1.07335901260375977 1.09867715835571289 0.215918779373168945
1.33892619609832764 0.707747161388397217 0.196883648633956909
1.30201816558837891 0.762077808380126953 0.152404859662055969
1.26928210258483887 0.810267150402069092 0.198825910687446594
0.335707783699035645 2.18454170227050781 0.308649122714996338
1.56351327896118164 0.377142250537872314 0.129752233624458313
1.4067680835723877 0.607879996299743652 0.0754188448190689087
0.874876618385314941 1.3908545970916748 0.313280671834945679
0.403792858123779297 2.08431673049926758 0.266820192337036133
1.19781959056854248 0.915464162826538086 0.184206396341323853
1.61664152145385742 0.298934310674667358 0.102174609899520874
1.5860140323638916 0.34401974081993103 0.212686389684677124
1.75813794136047363 0.0906435325741767883 0.18604394793510437
0.913520097732543945 1.3339691162109375 0.257053643465042114
1.4474416971206665 0.548006176948547363 0.277345657348632812
0.928482234477996826 1.31194400787353516 0.168996050953865051
1.67899513244628906 0.207146331667900085 0.196610525250434875
1.74325299263000488 0.112555094063282013 0.0565581917762756348
1.78804540634155273 0.0466181263327598572 0.170110896229743958
1.80272877216339111 0.025003308430314064 0.0268439352512359619
1.4061959981918335 0.608722209930419922 0.145801946520805359
1.75118517875671387 0.100878521800041199 0.0698669850826263428
0.680642008781433105 1.67677903175354004 0.275629580020904541
0.341439485549926758 2.17610454559326172 0.268410861492156982
1.03783679008483887 1.15096783638000488 0.151944443583488464
1.60678541660308838 0.313443154096603394 0.200284481048583984
0.854090869426727295 1.42145240306854248 0.285634398460388184
0.176860570907592773 2.41837406158447266 0.297321110963821411
1.13531291484832764 1.0074775218963623 0.13423021137714386
0.775643825531005859 1.53693091869354248 0.221644729375839233
0.691599607467651367 1.66064882278442383 0.247308969497680664
1.76013195514678955 0.0877081900835037231 0.0430732965469360352
1.7770150899887085 0.0628552883863449097 0.228085458278656006
0.777257442474365234 1.53455555438995361 0.201984554529190063
1.62842786312103271 0.28158414363861084 0.125744804739952087
1.41950678825378418 0.589128017425537109 0.221510410308837891
1.80004501342773438 0.0289540030062198639 0.157253891229629517
1.42171335220336914 0.585879802703857422 0.190587624907493591
1.55278921127319336 0.392928540706634521 0.209023669362068176
1.27529263496398926 0.801419436931610107 0.172890529036521912
0.54168999195098877 1.88132429122924805 0.31941714882850647
1.71953129768371582 0.147474661469459534 0.0646503865718841553
0.801147699356079102 1.49938774108886719 0.267252326011657715
0.699065923690795898 1.64965808391571045 0.264748603105545044
1.66012990474700928 0.234916940331459045 0.225745514035224915
0.506378054618835449 1.93330550193786621 0.297865182161331177
1.63024723529815674 0.278906047344207764 0.216219380497932434
0.816228270530700684 1.4771883487701416 0.201244667172431946
1.77000534534454346 0.073174111545085907 0.0792061090469360352
1.24050688743591309 0.85262608528137207 0.257844060659408569
1.06222569942474365 1.1150660514831543 0.231483101844787598
0.244396805763244629 2.31895685195922852 0.317639052867889404
0.828317046165466309 1.45939290523529053 0.312448590993881226
1.41660606861114502 0.593397974967956543 0.313912540674209595
0.712135791778564453 1.63041830062866211 0.250267684459686279
1.56759977340698242 0.371126562356948853 0.259856164455413818
0.806080818176269531 1.49212586879730225 0.276360392570495605
1.55566835403442383 0.388690263032913208 0.0557312369346618652
1.20095658302307129 0.910846352577209473 0.318048804998397827
1.39419651031494141 0.626386046409606934 0.170779019594192505
1.76479136943817139 0.0808493420481681824 0.192709892988204956
1.62345016002655029 0.288911700248718262 0.301796644926071167
1.67136943340301514 0.21837170422077179 0.222370535135269165
1.71067690849304199 0.160508975386619568 0.17774181067943573
1.29411768913269043 0.773707926273345947 0.273803412914276123
1.67549014091491699 0.212305799126625061 0.280644148588180542
1.28702878952026367 0.784143209457397461 0.274295806884765625
1.07159638404846191 1.1012718677520752 0.136815011501312256
1.08311271667480469 1.0843193531036377 0.134604558348655701
0.990422844886779785 1.2207639217376709 0.298700898885726929
1.29875528812408447 0.766880989074707031 0.16177251935005188
1.73790431022644043 0.12042853981256485 0.022479623556137085
0.155899524688720703 2.44922971725463867 0.300012737512588501
1.166817307472229 0.961101233959197998 0.144518524408340454
1.50300836563110352 0.466208845376968384 0.275762021541595459
1.20767951011657715 0.900949835777282715 0.157795637845993042
1.37588977813720703 0.653334558010101318 0.248434931039810181
1.53802573680877686 0.414661258459091187 0.0553865134716033936
0.9785194993019104 1.23828637599945068 0.172627180814743042
1.12492454051971436 1.02276980876922607 0.266029715538024902
1.34744489192962646 0.695207118988037109 0.199559405446052551
1.33869242668151855 0.708091259002685547 0.260494768619537354
1.3676602840423584 0.665448904037475586 0.319513440132141113
0.95292961597442627 1.27595615386962891 0.2878456711769104
1.33105266094207764 0.719337522983551025 0.130916118621826172
1.61756455898284912 0.297575592994689941 0.0489082634449005127
1.49856197834014893 0.472754210233688354 0.0658169984817504883
1.06540465354919434 1.11038637161254883 0.153524115681648254
1.79961550235748291 0.0295861754566431046 0.14980316162109375
1.70177090167999268 0.17361903190612793 0.231618583202362061
0.225670695304870605 2.34652280807495117 0.313405394554138184
0.304156780242919922 2.2309868335723877 0.278919368982315063
1.16017985343933105 0.970871984958648682 0.252245336771011353
1.68934798240661621 0.191906377673149109 0.191798001527786255
1.80847299098968506 0.0165474265813827515 0.223739773035049438
1.61041557788848877 0.308099269866943359 0.307276606559753418
1.17343497276306152 0.951359808444976807 0.278726279735565186
1.72470831871032715 0.13985385000705719 0.0668433606624603271
1.01482665538787842 1.18484008312225342 0.275384217500686646
0.724896550178527832 1.6116337776184082 0.287138283252716064
1.41819083690643311 0.591065108776092529 0.150564283132553101
0.33161771297454834 2.19056248664855957 0.318262219429016113
1.30560660362243652 0.75679546594619751 0.161784455180168152
0.978709638118743896 1.23800647258758545 0.213198602199554443
1.11366891860961914 1.03933870792388916 0.240260571241378784
1.47839939594268799 0.502434670925140381 0.300824075937271118
1.68286371231079102 0.201451525092124939 0.113287344574928284
0.280408263206481934 2.2659459114074707 0.290704607963562012
1.42253470420837402 0.584670722484588623 0.303927719593048096
1.6655881404876709 0.226882100105285645 0.162645086646080017
1.38054156303405762 0.646486878395080566 0.315580427646636963
1.4248969554901123 0.581193387508392334 0.251837044954299927
1.58145809173583984 0.350726425647735596 0.312387198209762573
0.819695472717285156 1.47208428382873535 0.223083943128585815
1.72759866714477539 0.135599121451377869 0.244452610611915588
0.439778327941894531 2.03134417533874512 0.246165543794631958
1.48024964332580566 0.499710977077484131 0.316336780786514282
1.64893698692321777 0.251393646001815796 0.0704671889543533325
1.60813426971435547 0.311457604169845581 0.204052060842514038
1.08051848411560059 1.08813810348510742 0.162181109189987183
1.24255192279815674 0.849615514278411865 0.221156045794487
0.806614518165588379 1.4913402795791626 0.259171545505523682
1.09993064403533936 1.05956220626831055 0.281478792428970337
1.14758157730102539 0.989417314529418945 0.241689801216125488
0.723329305648803711 1.61394095420837402 0.283712089061737061
0.417830467224121094 2.06365251541137695 0.30090978741645813
1.02387356758117676 1.17152249813079834 0.192018091678619385
1.17281842231750488 0.952267169952392578 0.292499721050262451
0.489790081977844238 1.95772397518157959 0.279103070497512817
1.71016502380371094 0.161262467503547668 0.16932891309261322
1.73055481910705566 0.131247520446777344 0.0345941483974456787
1.39237093925476074 0.629073500633239746 0.274628490209579468
0.407415509223937988 2.07898402214050293 0.277420401573181152
1.61111998558044434 0.307062387466430664 0.309276163578033447
1.29004669189453125 0.779700696468353271 0.179963067173957825
1.14893710613250732 0.987421929836273193 0.269684433937072754
0.556259512901306152 1.85987722873687744 0.296304434537887573
1.64147758483886719 0.262374252080917358 0.0705217868089675903
1.42514884471893311 0.580822587013244629 0.0943887531757354736
0.45633089542388916 2.00697779655456543 0.255812644958496094
1.39331567287445068 0.627682685852050781 0.290929645299911499
0.292456865310668945 2.24820971488952637 0.303586781024932861
1.60180497169494629 0.320774674415588379 0.135507166385650635
0.728539705276489258 1.60627079010009766 0.3183555006980896
1.29183030128479004 0.777074992656707764 0.139909476041793823
1.83439135551452637 0.00997063331305980682 0.11999819427728653
2.03998541831970215 0.149635076522827148 0.0195232927799224854
1.90385603904724121 0.0571594536304473877 0.0726979374885559082
1.9170539379119873 0.066125035285949707 0.0600979775190353394
1.92515110969543457 0.0716256573796272278 0.135414227843284607
1.96877610683441162 0.101261042058467865 0.100885733962059021
2.04620909690856934 0.153862908482551575 0.0415346026420593262
1.87110757827758789 0.0349127165973186493 0.162561669945716858
1.8323066234588623 0.0085543682798743248 0.189528912305831909
1.84403455257415771 0.0165214482694864273 0.155267491936683655
1.8863757848739624 0.0452847592532634735 0.0986177176237106323
1.99112510681152344 0.116443216800689697 0.0584395229816436768
1.85407495498657227 0.0233420617878437042 0.0711278319358825684
1.95429694652557373 0.0914250537753105164 0.107922330498695374
1.94678747653961182 0.0863236784934997559 0.040697246789932251
1.88143289089202881 0.0419269353151321411 0.0577834993600845337
1.88462305068969727 0.0440940596163272858 0.223390936851501465
1.92952346801757812 0.0745958760380744934 0.0909417569637298584
1.82188403606414795 0.0014740900369361043 0.0144542548805475235
1.93113589286804199 0.0756912678480148315 0.165031850337982178
1.92316865921020508 0.0702789649367332458 0.136033162474632263
1.82738924026489258 0.00521389534696936607 0.228902861475944519
1.89754009246826172 0.052868913859128952 0.207472085952758789
1.91515433788299561 0.0648346394300460815 0.203149348497390747
1.82184910774230957 0.00145036890171468258 0.086724109947681427
1.90674674510955811 0.0591231547296047211 0.138275980949401855
1.83255207538604736 0.00872110109776258469 0.211279734969139099
1.99670529365539551 0.120233990252017975 0.095377802848815918
1.92643904685974121 0.0725005567073822021 0.11432550847530365
1.92328512668609619 0.0703580453991889954 0.0148825943470001221
1.84654974937438965 0.0182300377637147903 0.0774575918912887573
1.87750756740570068 0.0392603985965251923 0.163121119141578674
1.85549080371856689 0.0243038907647132874 0.0398882031440734863
1.85544836521148682 0.0242751017212867737 0.233917564153671265
1.82527589797973633 0.00377825205214321613 0.0313339941203594208
1.93457043170928955 0.0780244097113609314 0.113025903701782227
1.83853781223297119 0.0127873960882425308 0.18039405345916748
1.82588088512420654 0.00418923329561948776 0.189184918999671936
1.94496583938598633 0.0850862562656402588 0.0255047082901000977
1.95260512828826904 0.0902757719159126282 0.0103694796562194824
1.84164023399353027 0.0148949231952428818 0.238985419273376465
1.86104512214660645 0.0280770417302846909 0.0121489763259887695
1.81992149353027344 0.00014089715841691941 0.301517069339752197
1.91570663452148438 0.0652097836136817932 0.139406591653823853
2.00346183776855469 0.124823883175849915 0.00723937153816223145
1.84829139709472656 0.0194132048636674881 0.0190364047884941101
1.8637082576751709 0.0298862401396036148 0.217428058385848999
1.83276987075805664 0.00886909477412700653 0.247894003987312317
1.99072277545928955 0.11616990715265274 0.0383732020854949951
1.90129673480987549 0.0554208829998970032 0.0867897048592567444
1.82205736637115479 0.00159183028154075146 0.110370703041553497
1.83382773399353027 0.00958768744021654129 0.223279237747192383
1.9249955415725708 0.0715199559926986694 0.0100082159042358398
1.9281543493270874 0.0736658349633216858 0.105159744620323181
1.83709812164306641 0.0118093760684132576 0.114686578512191772
1.91115081310272217 0.0621149837970733643 0.0809563323855400085
1.82460892200469971 0.00332519994117319584 0.227773085236549377
1.927787184715271 0.0734164342284202576 0.0332195758819580078
1.92124426364898682 0.0689716264605522156 0.144651681184768677
1.84843063354492188 0.019507749006152153 0.254453331232070923
2.01624822616577148 0.133509814739227295 0.0473112761974334717
1.91237390041351318 0.0629457980394363403 0.0950715616345405579
1.97220754623413086 0.103592105209827423 0.0381968319416046143
1.87280178070068359 0.0360635891556739807 0.20163370668888092
1.86818134784698486 0.0329248718917369843 0.126072406768798828
1.97468852996826172 0.10527753084897995 0.00312341749668121338
2.04079318046569824 0.150183871388435364 0.00885161757469177246
1.83048009872436523 0.00731356954202055931 0.138780474662780762
1.94280338287353516 0.083617188036441803 0.154552936553955078
1.87551200389862061 0.0379047766327857971 0.0982100516557693481
1.8887406587600708 0.0468912571668624878 0.13106071949005127
1.87369275093078613 0.0366688519716262817 0.196841776371002197
1.9914247989654541 0.11664678156375885 0.056180998682975769
1.83067727088928223 0.00744753377512097359 0.102119021117687225
1.87370157241821289 0.0366749167442321777 0.0406387746334075928
1.9374319314956665 0.0799683108925819397 0.143780902028083801
1.95817458629608154 0.0940591990947723389 0.0266790837049484253
2.0181574821472168 0.134806886315345764 0.0255249589681625366
1.83680081367492676 0.0116074066609144211 0.107850752770900726
1.91606450080871582 0.0654529333114624023 0.195840805768966675
2.0109100341796875 0.129883542656898499 0.0311267375946044922
1.91048884391784668 0.0616652965545654297 0.147859677672386169
1.91987872123718262 0.0680439844727516174 0.0886695906519889832
1.8684927225112915 0.0331364013254642487 0.0230515077710151672
1.88877534866333008 0.0469148457050323486 0.179951950907707214
1.90104758739471436 0.0552515871822834015 0.0732300803065299988
1.85137796401977539 0.0215099379420280457 0.173958644270896912
1.886383056640625 0.0452896952629089355 0.154278069734573364
1.88331115245819092 0.0432028733193874359 0.0377006605267524719
2.00139069557189941 0.123416796326637268 0.0611555725336074829
1.91399633884429932 0.0640479624271392822 0.00886892527341842651
1.90192973613739014 0.0558508746325969696 0.0192211568355560303
2.01038503646850586 0.129526928067207336 0.0781912505626678467
1.89578711986541748 0.051678098738193512 0.00745975971221923828
1.83932065963745117 0.0133191943168640137 0.0267741605639457703
1.85874617099761963 0.0265153646469116211 0.00779547542333602905
1.83387947082519531 0.00962290260940790176 0.142214477062225342
1.83646345138549805 0.0113782258704304695 0.239395990967750549
1.93026018142700195 0.07509632408618927 0.0753967911005020142
1.85879230499267578 0.0265466757118701935 0.0356026738882064819
2.00887894630432129 0.128503814339637756 0.0160157978534698486
1.93660485744476318 0.0794064104557037354 0.0987769812345504761
1.83816897869110107 0.0125368386507034302 0.0911200419068336487
2.00687551498413086 0.127142801880836487 0.00897276401519775391
1.8717496395111084 0.0353488996624946594 0.101918973028659821
1.94600653648376465 0.0857932195067405701 0.0731630176305770874
1.83646488189697266 0.0113791842013597488 0.243659853935241699
1.9636082649230957 0.097750447690486908 0.107445165514945984
1.88110876083374023 0.0417067147791385651 0.0512919723987579346
1.85908448696136475 0.0267451610416173935 0.13796938955783844
1.9596027135848999 0.0950293838977813721 0.0408014059066772461
1.88758933544158936 0.0461091473698616028 0.10502208024263382
1.83026587963104248 0.00716805364936590195 0.214925989508628845
1.82974123954772949 0.00681170355528593063 0.0903283655643463135
1.95018315315246582 0.0886304751038551331 0.0869280248880386353
1.92415332794189453 0.0709478035569190979 0.0424427539110183716
1.91460621356964111 0.0644622668623924255 0.0948910489678382874
1.83497154712677002 0.0103647718206048012 0.180093005299568176
2.01688742637634277 0.133944138884544373 0.13082537055015564
1.99644172191619873 0.120054900646209717 0.132637649774551392
1.98234999179840088 0.110482119023799896 0.186049908399581909
2.07690620422363281 0.174716159701347351 0.279593050479888916
1.99811601638793945 0.121192336082458496 0.111791059374809265
2.06640267372131348 0.167580917477607727 0.0781746208667755127
2.0713343620300293 0.170931026339530945 0.262877941131591797
2.06120896339416504 0.164052695035934448 0.272936016321182251
1.9903864860534668 0.11594148725271225 0.163732767105102539
2.06310653686523438 0.165341764688491821 0.257567763328552246
2.06421780586242676 0.166096687316894531 0.216675072908401489
2.02516293525695801 0.139565825462341309 0.190770179033279419
1.88355159759521484 0.0433662086725234985 0.252286761999130249
1.91767144203186035 0.0665445178747177124 0.26322627067565918
1.98001182079315186 0.108893737196922302 0.288901805877685547
2.05368876457214355 0.158944129943847656 0.178407490253448486
2.01555657386779785 0.133039996027946472 0.187331289052963257
2.05353856086730957 0.158842101693153381 0.104746773838996887
2.06164717674255371 0.164350345730781555 0.268852353096008301
1.94305574893951416 0.0837886780500411987 0.267984330654144287
1.85955584049224854 0.0270653516054153442 0.283288538455963135
1.93194067478179932 0.0762379691004753113 0.293200761079788208
2.04131555557250977 0.150538742542266846 0.190744727849960327
2.00133347511291504 0.12337791919708252 0.166171848773956299
2.05817508697509766 0.161991715431213379 0.274987608194351196
1.99358189105987549 0.118112191557884216 0.181072428822517395
1.95781624317169189 0.0938157662749290466 0.275564074516296387
1.98492217063903809 0.112229451537132263 0.139500021934509277
2.03342366218566895 0.145177483558654785 0.107144787907600403
1.97194540500640869 0.103414051234722137 0.185036137700080872
1.88832557201385498 0.0466092973947525024 0.315080255270004272
2.00827646255493164 0.128094568848609924 0.195920050144195557
1.97309815883636475 0.104197092354297638 0.282759189605712891
1.95234668254852295 0.0901001915335655212 0.20781940221786499
2.05544233322143555 0.160135284066200256 0.0775546431541442871
2.06175041198730469 0.164420515298843384 0.246443271636962891
1.86346054077148438 0.0297178924083709717 0.292320132255554199
2.08190298080444336 0.178110554814338684 0.100123167037963867
2.08324623107910156 0.179023012518882751 0.238231509923934937
1.9799344539642334 0.108841143548488617 0.224137574434280396
1.93088245391845703 0.0755190551280975342 0.245491862297058105
1.91299533843994141 0.0633679553866386414 0.281721681356430054
2.04966616630554199 0.156211361289024353 0.192429125308990479
2.01115083694458008 0.13004717230796814 0.194957315921783447
1.9428858757019043 0.0836732462048530579 0.295254975557327271
2.08102560043334961 0.177514553070068359 0.0246489644050598145
2.06945443153381348 0.169654041528701782 0.0518528223037719727
2.01182961463928223 0.130508244037628174 0.116240248084068298
2.07483315467834473 0.173307865858078003 0.272760182619094849
2.0107872486114502 0.129800081253051758 0.300589710474014282
1.97867929935455322 0.107988528907299042 0.207394003868103027
1.90878736972808838 0.0605093911290168762 0.269772559404373169
1.84562337398529053 0.0176007449626922607 0.30318102240562439
2.04857492446899414 0.155470043420791626 0.138778075575828552
2.01292538642883301 0.131252601742744446 0.168654635548591614
1.92244493961334229 0.0697872638702392578 0.262535184621810913
2.00835728645324707 0.128149345517158508 0.220579981803894043
1.85980939865112305 0.0272376090288162231 0.285607367753982544
1.88279926776885986 0.0428551286458969116 0.273792356252670288
2.08140969276428223 0.177775532007217407 0.151080161333084106
1.97812819480895996 0.10761415958404541 0.129417851567268372
2.07184410095214844 0.171277314424514771 0.154656916856765747
2.0018310546875 0.123715952038764954 0.190438911318778992
1.88472819328308105 0.0441655218601226807 0.286463320255279541
1.94948923587799072 0.0881590694189071655 0.289400339126586914
2.02692031860351562 0.140759676694869995 0.246514558792114258
1.98619818687438965 0.113096229732036591 0.317634165287017822
2.04496264457702637 0.153016179800033569 0.252245604991912842
2.03766751289367676 0.148060530424118042 0.25661894679069519
2.02750539779663086 0.141157090663909912 0.202413260936737061
2.04456114768981934 0.152743428945541382 0.287032753229141235
1.90754520893096924 0.0596656128764152527 0.255951464176177979
2.04608869552612305 0.153781205415725708 0.19585321843624115
2.02959275245666504 0.14257514476776123 0.259550541639328003
1.98373627662658691 0.111423783004283905 0.30192112922668457
1.91001451015472412 0.0613430589437484741 0.280213415622711182
2.07516193389892578 0.173531174659729004 0.137975379824638367
2.02680397033691406 0.140680670738220215 0.130677655339241028
1.89966309070587158 0.0543110817670822144 0.232232540845870972
1.89811944961547852 0.0532624721527099609 0.313728034496307373
1.945334792137146 0.0853368937969207764 0.208710208535194397
1.9357607364654541 0.0788330361247062683 0.212733462452888489
1.95248019695281982 0.0901908800005912781 0.268035441637039185
2.03644800186157227 0.147232100367546082 0.17843201756477356
2.00608682632446289 0.126606956124305725 0.153641626238822937
2.0282440185546875 0.14165884256362915 0.121322706341743469
2.03966593742370605 0.149417996406555176 0.141741305589675903
1.86201989650726318 0.028739243745803833 0.31672745943069458
2.03060221672058105 0.143260881304740906 0.185472920536994934
2.06480860710144043 0.166498035192489624 0.226232320070266724
2.00032734870910645 0.122694425284862518 0.291028648614883423
2.05041646957397461 0.1567210853099823 0.192474871873855591
2.05693435668945312 0.161148861050605774 0.117975085973739624
1.98828279972076416 0.1145123690366745 0.263014316558837891
2.02002215385437012 0.136073589324951172 0.133893415331840515
1.93018770217895508 0.0750471130013465881 0.228069320321083069
2.05695796012878418 0.161164849996566772 0.200322419404983521
1.95295572280883789 0.0905139520764350891 0.239948570728302002
1.96901726722717285 0.101424910128116608 0.294299393892288208
1.92114901542663574 0.068906933069229126 0.238795742392539978
2.00779914855957031 0.127770274877548218 0.248687475919723511
2.02559638023376465 0.139860361814498901 0.132400751113891602
2.01379919052124023 0.131846159696578979 0.315019428730010986
1.91884195804595947 0.0673397332429885864 0.204057812690734863
1.84705448150634766 0.0185729563236236572 0.298276185989379883
1.97172510623931885 0.103264354169368744 0.158918172121047974
1.92711031436920166 0.072956576943397522 0.303141385316848755
1.88273894786834717 0.0428141653537750244 0.284374594688415527
2.04848408699035645 0.155408412218093872 0.099324345588684082
2.07942366600036621 0.176426365971565247 0.2451210618019104
2.06915903091430664 0.169453367590904236 0.274201422929763794
2.01897621154785156 0.135363012552261353 0.259940057992935181
1.92366909980773926 0.0706188827753067017 0.259997725486755371
1.93330276012420654 0.0771632418036460876 0.20599520206451416
2.05599832534790039 0.160513043403625488 0.0560362935066223145
1.88786303997039795 0.0462950319051742554 0.286016911268234253
2.00665020942687988 0.126989781856536865 0.311008244752883911
2.05959510803222656 0.162956401705741882 0.0382845103740692139
1.48621034622192383 1.06040632724761963 0.00557157397270202637
1.86784791946411133 0.498613953590393066 0.0601562336087226868
1.90050721168518066 0.450537741184234619 0.208390682935714722
1.84182655811309814 0.536918997764587402 0.18408454954624176
1.04422354698181152 1.7110360860824585 0.0315155237913131714
1.41714096069335938 1.16208028793334961 0.00752682983875274658
1.15754914283752441 1.54421424865722656 0.0177983343601226807
1.20961499214172363 1.46757042407989502 0.0669743567705154419
0.725365400314331055 2.18041348457336426 0.032600104808807373
0.955346226692199707 1.84186851978302002 0.0432912856340408325
1.55797934532165527 0.954758286476135254 0.204863443970680237
1.24566078186035156 1.41450881958007812 0.0281182974576950073
1.46615445613861084 1.08992969989776611 0.169672548770904541
1.4752190113067627 1.07658612728118896 0.0455106198787689209
1.27138888835906982 1.37663567066192627 0.0461431890726089478
2.06527471542358398 0.207990363240242004 0.174241840839385986
1.74251794815063477 0.683106958866119385 0.00712023302912712097
2.03810262680053711 0.247989296913146973 0.292888820171356201
1.30037117004394531 1.33397209644317627 0.0972119420766830444
1.2857048511505127 1.35556173324584961 0.00420975685119628906
1.11225330829620361 1.61089229583740234 0.00789575278759002686
1.97896003723144531 0.335050672292709351 0.245690986514091492
2.08276939392089844 0.18223726749420166 0.139133438467979431
1.92149531841278076 0.419642001390457153 0.11200510710477829
1.54244542121887207 0.977625012397766113 0.212636455893516541
1.67143797874450684 0.787740588188171387 0.208478599786758423
0.52350771427154541 2.47755956649780273 0.0448957681655883789
1.73437809944152832 0.695089101791381836 0.0657186806201934814
1.41868925094604492 1.15980124473571777 0.199880674481391907
2.05615067481994629 0.221421554684638977 0.214997544884681702
0.984725594520568848 1.79862034320831299 0.118435248732566833
2.08209657669067383 0.183227762579917908 0.026253843680024147
1.13145911693572998 1.58262026309967041 0.139081522822380066
1.82771658897399902 0.557689547538757324 0.232385978102684021
0.676896095275878906 2.25176310539245605 0.0341337472200393677
0.725541234016418457 2.18015480041503906 0.0607401877641677856
1.56668305397033691 0.941945731639862061 0.0710364654660224915
1.68683910369873047 0.765069305896759033 0.141000673174858093
1.45788073539733887 1.10210895538330078 0.105630777776241302
0.772840738296508789 2.11052703857421875 0.0788515210151672363
1.86233186721801758 0.506733894348144531 0.0806461125612258911
1.63564634323120117 0.840428054332733154 0.16145557165145874
1.47028493881225586 1.08384931087493896 0.205783993005752563
0.942422866821289062 1.86089253425598145 0.0126152485609054565
0.440859436988830566 2.59922242164611816 0.0278241634368896484
1.89185488224029541 0.46327441930770874 0.119333133101463318
0.437017679214477539 2.60487771034240723 0.00427964329719543457
1.23899364471435547 1.4243234395980835 0.145585685968399048
1.25023126602172852 1.40778100490570068 0.0295183062553405762
2.02063918113708496 0.273696482181549072 0.306542545557022095
0.851543307304382324 1.99467241764068604 0.0502626895904541016
1.67444026470184326 0.783321082592010498 0.146924406290054321
1.85621750354766846 0.515734612941741943 0.0875079110264778137
1.42223775386810303 1.15457761287689209 0.00414934009313583374
1.73328804969787598 0.696693718433380127 0.239869743585586548
1.98863255977630615 0.3208121657371521 0.185971111059188843
1.11344099044799805 1.60914397239685059 0.0374883562326431274
1.35877692699432373 1.24799549579620361 0.0652804970741271973
1.49636983871459961 1.04545080661773682 0.104961268603801727
1.06543326377868652 1.67981410026550293 0.0453825145959854126
1.85112082958221436 0.523237168788909912 0.238092511892318726
1.83136165142059326 0.552323818206787109 0.152026891708374023
1.4691612720489502 1.08550345897674561 0.100855812430381775
0.925687551498413086 1.88552772998809814 0.0644025355577468872
1.99626421928405762 0.30957794189453125 0.145640596747398376
1.42278242111206055 1.15377581119537354 0.0390302985906600952
2.08293604850769043 0.181992083787918091 0.209106475114822388
1.10425686836242676 1.62266361713409424 0.0614149123430252075
0.507049202919006348 2.50178742408752441 0.0342893600463867188
2.02078914642333984 0.273475885391235352 0.0342892184853553772
1.63710057735443115 0.838287234306335449 0.150780737400054932
1.24241065979003906 1.41929340362548828 0.0536675602197647095
1.76347565650939941 0.65225595235824585 0.15704876184463501
1.56810784339904785 0.939848482608795166 0.153807088732719421
1.88892686367034912 0.467584609985351562 0.266335934400558472
1.56540441513061523 0.943828225135803223 0.093999035656452179
1.83165657520294189 0.551889777183532715 0.058050006628036499
1.55569672584533691 0.958118259906768799 0.152842357754707336
1.54191064834594727 0.978412151336669922 0.161052048206329346
1.21865808963775635 1.45425844192504883 0.16042773425579071
0.73984229564666748 2.1591026782989502 0.0161006897687911987
1.92876791954040527 0.40893632173538208 0.0571768544614315033
1.12133121490478516 1.59752905368804932 0.129331320524215698
0.714247822761535645 2.19677925109863281 0.0360109657049179077
0.780603528022766113 2.09909987449645996 0.0121313482522964478
1.76667129993438721 0.647551834583282471 0.116830155253410339
1.91921627521514893 0.422996819019317627 0.23443920910358429
1.25397515296936035 1.40226984024047852 0.104807734489440918
