ply
format ascii 1.0
element vertex 699
property float x
property float y
property float z
end_header
0.0138855986297130585 -0.0105359228327870369 -0.0256078168749809265
0.0211002938449382782 -0.0101040275767445564 -0.0244068503379821777
0.0406867712736129761 -0.00861880090087652206 -0.0212641581892967224
0.0639505386352539062 -0.00686160847544670105 -0.0175288468599319458
0.00975094176828861237 -0.0107875065878033638 -0.0262945462018251419
0.0532700344920158386 -0.0075160488486289978 -0.0193010643124580383
0.0241781324148178101 -0.00959213264286518097 -0.024017825722694397
0.0451880693435668945 -0.00830438639968633652 -0.0205317847430706024
0.0175661575049161911 -0.0103476820513606071 -0.0249830689281225204
0.0376896485686302185 -0.00891728326678276062 -0.021718248724937439
0.0668729096651077271 -0.00664056092500686646 -0.0170597396790981293
0.0685888379812240601 -0.00648264214396476746 -0.0167948771268129349
0.0705347508192062378 -0.00657732784748077393 -0.0163914766162633896
0.051588892936706543 -0.00765510741621255875 -0.0195664502680301666
0.0418204814195632935 -0.00830169674009084702 -0.0211692452430725098
0.0677926167845726013 -0.006104231346398592 -0.0170877818018198013
0.0677664726972579956 -0.00609414698556065559 -0.0170965176075696945
0.075510755181312561 -0.00603314675390720367 -0.0156558677554130554
0.0609500259160995483 -0.0069762873463332653 -0.018052760511636734
0.0407105535268783569 -0.0082662682980298996 -0.0213923472911119461
0.0295556783676147461 -0.0130468066781759262 -0.021226927638053894
0.0745028033852577209 -0.00913615338504314423 -0.0142859695479273796
0.0651457905769348145 -0.00979648623615503311 -0.0158265531063079834
0.0611106976866722107 -0.00981334317475557327 -0.0166575014591217041
0.0679807811975479126 -0.00987135060131549835 -0.0151888225227594376
0.0707655325531959534 -0.00912688858807086945 -0.0150710586458444595
0.06555967777967453 -0.00945098884403705597 -0.0159550905227661133
0.0751932337880134583 -0.00875032413750886917 -0.0143819209188222885
0.0655779615044593811 -0.00993331149220466614 -0.0156513489782810211
0.0548991337418556213 -0.0106326742097735405 -0.0174432974308729172
0.0738737881183624268 -0.00866197701543569565 -0.0147120002657175064
0.0602629967033863068 -0.0104429256170988083 -0.0164427720010280609
0.0643773004412651062 -0.009813711978495121 -0.0159760937094688416
0.0473117269575595856 -0.0117116682231426239 -0.0183545257896184921
0.0628460273146629333 -0.00968508142977952957 -0.0163753945380449295
0.0359537526965141296 -0.0124406134709715843 -0.0202696993947029114
0.0749622657895088196 -0.00909811630845069885 -0.0142138125374913216
0.0615090727806091309 -0.010287068784236908 -0.0162798482924699783
0.0396918319165706635 -0.0123114660382270813 -0.0195705126971006393
0.0383155159652233124 -0.0121331186965107918 -0.0199684184044599533
0.0641743838787078857 -0.00955464132130146027 -0.0161795075982809067
0.0330523326992988586 -0.0126200485974550247 -0.0207631513476371765
0.0622187331318855286 -0.0100152865052223206 -0.0163008682429790497
0.0674458742141723633 -0.00950348936021327972 -0.015529116615653038
0.0712186768651008606 -0.00960919447243213654 -0.0146766472607851028
0.0543229654431343079 -0.0109009426087141037 -0.0173966251313686371
0.0285566318780183792 -0.0129735032096505165 -0.0214808396995067596
0.0537621192634105682 -0.0111697372049093246 -0.0173464305698871613
0.0529127642512321472 -0.0166955515742301941 -0.0123755587264895439
0.0118957832455635071 -0.0226857364177703857 -0.0164861045777797699
0.0717941150069236755 -0.0140790576115250587 -0.0102866319939494133
0.0691035613417625427 -0.0146388476714491844 -0.0103234173730015755
0.0532366000115871429 -0.0168724860996007919 -0.0120301982387900352
0.0514454878866672516 -0.0168734639883041382 -0.0125733595341444016
0.0267506353557109833 -0.0205362141132354736 -0.0149696394801139832
0.0639512538909912109 -0.0151143595576286316 -0.0112262265756726265
0.0539032593369483948 -0.0166494548320770264 -0.0121387634426355362
0.0740757063031196594 -0.0135477613657712936 -0.010334414429962635
0.0536305010318756104 -0.0166664198040962219 -0.0121980104595422745
0.0548183098435401917 -0.0167115181684494019 -0.011773962527513504
0.0716310217976570129 -0.0143741369247436523 -0.00992443040013313293
0.0441623032093048096 -0.0181798320263624191 -0.0129645336419343948
0.0430197902023792267 -0.0182946119457483292 -0.0131517015397548676
0.055304110050201416 -0.0167342554777860641 -0.0115945413708686829
0.0493794903159141541 -0.017379244789481163 -0.0124956406652927399
0.058904401957988739 -0.01606706902384758 -0.0114310495555400848
0.0124080702662467957 -0.0226634591817855835 -0.0163614507764577866
0.045931108295917511 -0.0177291687577962875 -0.0130556896328926086
0.0513423904776573181 -0.0168738476932048798 -0.0126041658222675323
0.0520430430769920349 -0.0169624276459217072 -0.0122675439342856407
0.0365702323615550995 -0.0190625861287117004 -0.014040767215192318
0.0759842246770858765 -0.0136519623920321465 -0.00960878096520900726
0.0558180660009384155 -0.0162487421184778214 -0.0121158221736550331
0.0600452721118927002 -0.0156995300203561783 -0.0115971062332391739
0.0431926771998405457 -0.01811942458152771 -0.0133436145260930061
0.0209480971097946167 -0.0213371310383081436 -0.0156160295009613037
0.0691695436835289001 -0.0159560274332761765 -0.00812095403671264648
0.0294918306171894073 -0.0221392940729856491 -0.0114523116499185562
0.062591552734375 -0.0170525610446929932 -0.00853959284722805023
0.0508104376494884491 -0.0186308436095714569 -0.0100107770413160324
0.0301067270338535309 -0.0219809729605913162 -0.0115176066756248474
0.0708806812763214111 -0.0155071895569562912 -0.00831811688840389252
0.0687760412693023682 -0.0158143118023872375 -0.00853385031223297119
0.00911741703748703003 -0.0253766663372516632 -0.0130464378744363785
0.0543028376996517181 -0.0182893909513950348 -0.00933815352618694305
0.0456667765974998474 -0.0195470582693815231 -0.0102281654253602028
0.0566214658319950104 -0.0176305621862411499 -0.00970006454735994339
0.0594033747911453247 -0.0175610873848199844 -0.00878540705889463425
0.0535726100206375122 -0.0182883888483047485 -0.00961423758417367935
0.0684807896614074707 -0.0159974340349435806 -0.00830212049186229706
0.0525212138891220093 -0.0184375587850809097 -0.00972997397184371948
0.0525612235069274902 -0.0182977728545665741 -0.00997647177428007126
0.023627500981092453 -0.0230987090617418289 -0.0118594951927661896
0.0532543733716011047 -0.0184704866260290146 -0.00939305778592824936
0.0600125566124916077 -0.0174711141735315323 -0.00872497912496328354
0.0352157540619373322 -0.0211755838245153427 -0.0111058857291936874
0.0553488992154598236 -0.0181554500013589859 -0.00919593125581741333
0.0352989360690116882 -0.0211423244327306747 -0.0111368736252188683
0.00777060538530349731 -0.0256444066762924194 -0.013051273301243782
0.016057383269071579 -0.0242838002741336823 -0.0124850068241357803
0.071775972843170166 -0.0155825214460492134 -0.0078409900888800621
0.0739389434456825256 -0.0152954533696174622 -0.00756583362817764282
0.0622687786817550659 -0.016781708225607872 -0.00916752871125936508
0.0667642802000045776 -0.0161179807037115097 -0.00872116163372993469
0.00745798647403717041 -0.0246011223644018173 -0.0150309214368462563
0.0691034570336341858 -0.0152643956243991852 -0.00937333889305591583
0.0330742821097373962 -0.0206157155334949493 -0.012849779799580574
0.0616448521614074707 -0.0164377093315124512 -0.00998767651617527008
0.0586975514888763428 -0.0169072411954402924 -0.0102209588512778282
0.0618993155658245087 -0.0161330699920654297 -0.0103922439739108086
0.0685618668794631958 -0.0152086643502116203 -0.00964458100497722626
0.0595021359622478485 -0.016555173322558403 -0.0105173187330365181
0.0284481048583984375 -0.0214433670043945312 -0.0130701567977666855
0.0614717602729797363 -0.0164016149938106537 -0.0101037640124559402
0.0687271133065223694 -0.015399622730910778 -0.00928208138793706894
0.023398619145154953 -0.0221980400383472443 -0.0135498438030481339
0.0587146952748298645 -0.0170043483376502991 -0.0100590474903583527
0.0276929661631584167 -0.021448986604809761 -0.0133143486455082893
0.0509867966175079346 -0.01805877685546875 -0.010954870842397213
0.0514952912926673889 -0.0177490022033452988 -0.0112825091928243637
0.0505018308758735657 -0.0180431194603443146 -0.0111426785588264465
0.0565765202045440674 -0.0171023793518543243 -0.0106184212490916252
0.0661371275782585144 -0.0155043629929423332 -0.0099821723997592926
0.0672145485877990723 -0.0154225844889879227 -0.00975238066166639328
0.0100809857249259949 -0.0241972282528877258 -0.0148008381947875023
0.0187864229083061218 -0.0228470861911773682 -0.0140527524054050446
0.0539634600281715393 -0.0174334011971950531 -0.0109623577445745468
0.0447948835790157318 -0.0190568044781684875 -0.0114263147115707397
0.0288769304752349854 -0.0212538335472345352 -0.0132311470806598663
0.0581750795245170593 -0.0167604517191648483 -0.0106322197243571281
0.062637627124786377 -0.0161080788820981979 -0.010184846818447113
0.0454392209649085999 -0.0187224149703979492 -0.0117479823529720306
0.0347367338836193085 -0.0220691785216331482 -0.00941986404359340668
0.0636571496725082397 -0.0172753315418958664 -0.00760533148422837257
0.0474938564002513885 -0.0198320411145687103 -0.00888985674828290939
0.0667499154806137085 -0.0167559906840324402 -0.00742603419348597527
0.0206990726292133331 -0.0244361534714698792 -0.0102121308445930481
0.0593921691179275513 -0.0178426802158355713 -0.00818106252700090408
0.0531541779637336731 -0.0191001854836940765 -0.00807918049395084381
0.0509062707424163818 -0.0193978846073150635 -0.00838555488735437393
0.0507070086896419525 -0.0195166785269975662 -0.00820877775549888611
0.0736563205718994141 -0.0156801175326108932 -0.00684057734906673431
0.0543598569929599762 -0.0189336687326431274 -0.00792995654046535492
0.0187262073159217834 -0.0247702095657587051 -0.0103203915059566498
0.0744885578751564026 -0.0155155295506119728 -0.0068471468985080719
0.0229583941400051117 -0.0240181796252727509 -0.0101663153618574142
0.0279791504144668579 -0.0231222733855247498 -0.00999181345105171204
0.013568975031375885 -0.0256192944943904877 -0.0106567200273275375
0.0502879098057746887 -0.0194454211741685867 -0.00854566227644681931
0.0268582142889499664 -0.0233309343457221985 -0.0100117065012454987
0.0488606952130794525 -0.0197357423603534698 -0.00851658731698989868
0.04985857754945755 -0.0195351336151361465 -0.00853166729211807251
0.0741040408611297607 -0.0156323648989200592 -0.00675408216193318367
0.0588214509189128876 -0.0179199371486902237 -0.00825515110045671463
0.071631014347076416 -0.0160036291927099228 -0.00699458224698901176
0.0463350638747215271 -0.0201789699494838715 -0.00862080603837966919
0.0409967303276062012 -0.0209824591875076294 -0.00913538038730621338
0.0461879447102546692 -0.0202362742274999619 -0.00855738203972578049
0.0351568683981895447 -0.0219424683600664139 -0.0095194568857550621
0.0698784962296485901 -0.016225077211856842 -0.00725693302229046822
0.0404013805091381073 -0.0219604242593050003 -0.00681306095793843269
0.0712908282876014709 -0.016905706375837326 -0.00463992496952414513
0.0745860040187835693 -0.0163413733243942261 -0.0044908975251019001
0.0491735637187957764 -0.0204160008579492569 -0.00655508739873766899
0.0426931902766227722 -0.021516578271985054 -0.00687868380919098854
0.0145695321261882782 -0.0262556374073028564 -0.00840583816170692444
0.0293606668710708618 -0.0237623248249292374 -0.0076055917888879776
0.0604955181479454041 -0.018477441743016243 -0.00604155752807855606
0.059537053108215332 -0.0186072681099176407 -0.00619805511087179184
0.0415469147264957428 -0.0216670352965593338 -0.0070816967636346817
0.0648838728666305542 -0.0177553612738847733 -0.00574592873454093933
0.0481631681323051453 -0.0206210128962993622 -0.00649539008736610413
0.0551402196288108826 -0.0193571038544178009 -0.00640734890475869179
0.0483191274106502533 -0.0206327326595783234 -0.00636165402829647064
0.0374315157532691956 -0.0224961694329977036 -0.00685796653851866722
0.0371499694883823395 -0.0225047916173934937 -0.0070012267678976059
0.0714287906885147095 -0.0168046597391366959 -0.00488890567794442177
0.0749256908893585205 -0.0162741299718618393 -0.00450541917234659195
0.0328225903213024139 -0.0231842324137687683 -0.00740023143589496613
0.0540115088224411011 -0.0196566656231880188 -0.00610811449587345123
0.0435952320694923401 -0.0213701389729976654 -0.00681136781349778175
0.0713875666260719299 -0.0166285932064056396 -0.00549445068463683128
0.053938448429107666 -0.019691983237862587 -0.00603623827919363976
0.0470648780465126038 -0.0208004005253314972 -0.00657376646995544434
0.0337513275444507599 -0.0229893084615468979 -0.00747647415846586227
0.0285256020724773407 -0.0239114873111248016 -0.00762308854609727859
0.0170580931007862091 -0.0258361976593732834 -0.00827103015035390854
0.0585317239165306091 -0.0188278630375862122 -0.00608389265835285187
0.0647257044911384583 -0.0174403898417949677 -0.00670739216729998589
0.0595583170652389526 -0.0182929821312427521 -0.00703685963526368141
0.0243161879479885101 -0.0239181742072105408 -0.00978757813572883606
0.0559329241514205933 -0.0188787113875150681 -0.00730107305571436882
0.0657980218529701233 -0.0172581300139427185 -0.00665319385007023811
0.0678068771958351135 -0.016954571008682251 -0.00645100045949220657
0.0238360539078712463 -0.0240492969751358032 -0.00968028977513313293
0.0693844631314277649 -0.0167676601558923721 -0.00615544058382511139
0.0442818701267242432 -0.0206959545612335205 -0.00832323543727397919
0.0607658587396144867 -0.0180305875837802887 -0.00712767243385314941
0.0262270234525203705 -0.0236567109823226929 -0.00952275842428207397
0.0189753249287605286 -0.0247993990778923035 -0.0101280864328145981
0.0686064362525939941 -0.0169096644967794418 -0.00616882322356104851
0.0347468294203281403 -0.0223368555307388306 -0.00875139422714710236
0.0345589146018028259 -0.0222375094890594482 -0.0091097075492143631
0.0453239679336547852 -0.0205288007855415344 -0.00824407581239938736
0.0730796307325363159 -0.01625082828104496 -0.00567313889041543007
0.0671632140874862671 -0.0171288531273603439 -0.00631115259602665901
0.0395700745284557343 -0.0215722005814313889 -0.0083610881119966507
0.022807639092206955 -0.0242004357278347015 -0.00979513302445411682
0.0557000264525413513 -0.0189638026058673859 -0.00719193276017904282
0.0467730015516281128 -0.0203861407935619354 -0.00789549574255943298
0.0639334321022033691 -0.0175882112234830856 -0.00671247392892837524
0.0633205994963645935 -0.0176988746970891953 -0.00672616949304938316
0.0553992316126823425 -0.0190412495285272598 -0.00713720358908176422
0.0417571812868118286 -0.0210394132882356644 -0.00867843814194202423
0.067729264497756958 -0.0170462150126695633 -0.00624647829681634903
0.0437425412237644196 -0.0208119060844182968 -0.00828597880899906158
0.0669497027993202209 -0.018168184906244278 -0.00216690031811594963
0.0738373473286628723 -0.0169590413570404053 -0.00200476963073015213
0.0626072362065315247 -0.0189813710749149323 -0.00175281427800655365
0.0660596787929534912 -0.018327733501791954 -0.00215433095581829548
0.0533560663461685181 -0.0206237565726041794 -0.00178461172617971897
0.0617209337651729584 -0.0191104933619499207 -0.00204243487678468227
0.0752817094326019287 -0.0167032890021800995 -0.00199299165979027748
0.0224858187139034271 -0.0260813813656568527 -0.00212279357947409153
0.0566333197057247162 -0.0200155097991228104 -0.00204167235642671585
0.0512119680643081665 -0.0210090726613998413 -0.00174461433198302984
0.0453350767493247986 -0.0220589898526668549 -0.00169801863376051188
0.0722604095935821533 -0.0172636546194553375 -0.00175985496025532484
0.0542398393154144287 -0.0204598493874073029 -0.00185272214002907276
0.0325134657323360443 -0.0242855772376060486 -0.00224640569649636745
0.0649974867701530457 -0.0185286123305559158 -0.00203305995091795921
0.0575118735432624817 -0.0198986716568470001 -0.00164132181089371443
0.0558373183012008667 -0.0201665721833705902 -0.0019454567227512598
0.0520597808063030243 -0.0208728015422821045 -0.00159707339480519295
0.0666259750723838806 -0.018262125551700592 -0.00179777573794126511
0.0410349704325199127 -0.0227794181555509567 -0.00214921147562563419
0.0536352135241031647 -0.0205919332802295685 -0.00160359055735170841
0.0608557127416133881 -0.0192658565938472748 -0.00202756724320352077
0.0580272749066352844 -0.0198289398103952408 -0.0014185379259288311
0.0752532780170440674 -0.0167477373033761978 -0.00159305520355701447
0.0379055961966514587 -0.0233599264174699783 -0.0019067348912358284
0.0353694930672645569 -0.0237813219428062439 -0.00220831925980746746
0.0293034687638282776 -0.0248533021658658981 -0.00227930326946079731
0.0730581879615783691 -0.0171199198812246323 -0.00177846662700176239
0.0704282224178314209 -0.0174408070743083954 -0.00288448412902653217
0.0697479322552680969 -0.0174892116338014603 -0.00333082466386258602
0.0555441640317440033 -0.0200407169759273529 -0.00331743853166699409
0.0629080012440681458 -0.0188015922904014587 -0.00281750969588756561
0.0658718645572662354 -0.018251512199640274 -0.00292729632928967476
0.0655544474720954895 -0.0183371696621179581 -0.00275354087352752686
0.0687747076153755188 -0.0177241954952478409 -0.0029655450489372015
0.0136725576594471931 -0.027397453784942627 -0.0042767510749399662
0.0169211998581886292 -0.0268082991242408752 -0.00431362539529800415
0.0245626680552959442 -0.0254652239382266998 -0.0041415095329284668
0.0467261075973510742 -0.0215833950787782669 -0.00355964782647788525
0.0640769079327583313 -0.0186176933348178864 -0.00266065075993537903
0.0569191798567771912 -0.0198294706642627716 -0.00310216564685106277
0.0758971050381660461 -0.0164246726781129837 -0.0030939213465899229
0.0754726007580757141 -0.0165944881737232208 -0.00252683041617274284
0.0754895955324172974 -0.0165311507880687714 -0.00289198546670377254
0.0127891227602958679 -0.0275364276021718979 -0.00439537782222032547
0.0544447079300880432 -0.0201886165887117386 -0.00361683149822056293
0.075976349413394928 -0.016435256227850914 -0.00294366758316755295
0.0608108565211296082 -0.0190986301749944687 -0.00329817994497716427
0.0561786442995071411 -0.0199936274439096451 -0.00291291088797152042
0.0658843815326690674 -0.0181979350745677948 -0.00323821231722831726
0.0719968751072883606 -0.0172470398247241974 -0.00235283863730728626
0.071585923433303833 -0.0172031167894601822 -0.0030656114686280489
0.0608871802687644958 -0.0191424600780010223 -0.0029497386422008276
0.0292496643960475922 -0.0246349219232797623 -0.00407537352293729782
0.0470967143774032593 -0.0215283408761024475 -0.00349020934663712978
0.0691771656274795532 -0.0175900980830192566 -0.00334024871699512005
0.0598896145820617676 -0.0190619081258773804 -0.00431563472375273705
0.0387823842465877533 -0.0226663295179605484 -0.0053173447959125042
0.0550718605518341064 -0.0197897795587778091 -0.00495103513821959496
0.00244788080453872681 -0.0288993529975414276 -0.00692040985450148582
0.0548534542322158813 -0.0199590902775526047 -0.00439521763473749161
0.0532752200961112976 -0.0201453957706689835 -0.00482697086408734322
0.0445220880210399628 -0.0215995237231254578 -0.00541657954454421997
0.0747068896889686584 -0.0165333859622478485 -0.00360478833317756653
0.0415355190634727478 -0.0222012978047132492 -0.00516475457698106766
0.0455813705921173096 -0.0215164422988891602 -0.00494683068245649338
0.0277207642793655396 -0.0245580412447452545 -0.00583050865679979324
0.0553052909672260284 -0.0198668744415044785 -0.00443835090845823288
0.0357113927602767944 -0.0231211353093385696 -0.0057616611011326313
0.0485998913645744324 -0.0209599435329437256 -0.00497956806793808937
0.0639339908957481384 -0.0183915495872497559 -0.00403668591752648354
0.0749113261699676514 -0.0163826309144496918 -0.0040919124148786068
0.0720696374773979187 -0.0170173943042755127 -0.00358561938628554344
0.0499504059553146362 -0.0207182969897985458 -0.00496274465695023537
0.0455365404486656189 -0.0215491335839033127 -0.00484158284962177277
0.0680223554372787476 -0.0176361836493015289 -0.00408800970762968063
0.0396593213081359863 -0.0225631110370159149 -0.00507615460082888603
0.0489435568451881409 -0.0209393128752708435 -0.00480004167184233665
0.0754249095916748047 -0.0163792818784713745 -0.00370576721616089344
0.0383985899388790131 -0.0226605646312236786 -0.0056413654237985611
0.0499892756342887878 -0.020644649863243103 -0.00524829048663377762
0.0658960714936256409 -0.0179108753800392151 -0.00456807482987642288
0.017019227147102356 -0.0263689011335372925 -0.00640962366014719009
0.0476854480803012848 -0.021089751273393631 -0.00513597344979643822
0.0747562795877456665 -0.0127985244616866112 -0.0110622569918632507
0.0741288065910339355 -0.0129406973719596863 -0.0110641047358512878
0.0675356164574623108 -0.0138965193182229996 -0.0117391310632228851
0.0302909798920154572 -0.0188707206398248672 -0.0160704255104064941
0.0499663054943084717 -0.0161901693791151047 -0.0138466758653521538
0.0491774939000606537 -0.0162641685456037521 -0.0139766102656722069
0.0342173688113689423 -0.0182957295328378677 -0.0156754720956087112
0.0301157906651496887 -0.0190115496516227722 -0.0159477069973945618
0.0759568139910697937 -0.0129942968487739563 -0.0104887224733829498
0.0514348261058330536 -0.0162603128701448441 -0.0133514441549777985
0.0635826513171195984 -0.0143702765926718712 -0.0122648514807224274
0.0200498960912227631 -0.0202971287071704865 -0.0171899143606424332
0.0302009209990501404 -0.0189141035079956055 -0.0160426925867795944
0.0501014962792396545 -0.0161814764142036438 -0.0138195455074310303
0.0187765993177890778 -0.0204596351832151413 -0.017347186803817749
0.0622686371207237244 -0.0147741353139281273 -0.0121393976733088493
0.0361171253025531769 -0.0181703492999076843 -0.0152981597930192947
0.049491390585899353 -0.0165431052446365356 -0.0135491387918591499
0.0375422015786170959 -0.0180365182459354401 -0.0150635931640863419
0.073872096836566925 -0.0129800811409950256 -0.0110877444967627525
0.0258853882551193237 -0.0195752736181020737 -0.0164412185549736023
0.0520739629864692688 -0.0160183832049369812 -0.0134678985923528671
0.0629344955086708069 -0.0147510310634970665 -0.0119817554950714111
0.0486032441258430481 -0.0165898650884628296 -0.0137399807572364807
0.0704578831791877747 -0.0138343777507543564 -0.0109994485974311829
0.0727934092283248901 -0.0135054774582386017 -0.0107485326007008553
0.0749541148543357849 -0.013153894804418087 -0.0105740353465080261
0.0287640504539012909 -0.019224582239985466 -0.016065303236246109
0.06417817622423172 -0.0187706258147954941 -0.000657561235129833221
0.0751043111085891724 -0.0168423429131507874 -0.0004938701749779284
0.0654917433857917786 -0.0185480117797851562 -0.000356614502379670739
0.0719043537974357605 -0.0174163859337568283 -0.000257644889643415809
0.0638041198253631592 -0.0188535191118717194 -0.00014759070472791791
0.0288399104028940201 -0.0250426176935434341 -0.000106249121017754078
0.0351190268993377686 -0.0239343028515577316 -1.69157374330097809e-05
0.0288893617689609528 -0.0250273346900939941 -0.000305745255900546908
0.0604779347777366638 -0.0194399207830429077 -0.00021616721642203629
0.0523373112082481384 -0.0208742022514343262 -0.000411452958360314369
0.0401109457015991211 -0.0230506844818592072 -2.23643146455287933e-05
0.0756461024284362793 -0.0167550705373287201 -0.000230878562433645129
0.0606333911418914795 -0.0194059740751981735 -0.000412759254686534405
0.0654198974370956421 -0.018555227667093277 -0.000524562899954617023
0.0418786630034446716 -0.0227347947657108307 -0.000115578783152159303
0.0217009875923395157 -0.0263064410537481308 -9.3286340415943414e-05
0.0469006188213825226 -0.0218312777578830719 -0.000566540402360260487
0.0207744073122739792 -0.02646658755838871 -0.000210456739296205342
0.0752770379185676575 -0.0168216060847043991 -0.000193571933778002858
0.0666154772043228149 -0.0183387845754623413 -0.000672912574373185635
0.0126618510112166405 -0.0279086343944072723 -1.67956623045029119e-05
0.0619647316634654999 -0.0191809237003326416 -9.00618761079385877e-05
0.0585246235132217407 -0.0197707060724496841 -0.000671259069349616766
0.0691401213407516479 -0.0178962517529726028 -0.000542750523891299963
0.0629648715257644653 -0.0189776308834552765 -0.000893232936505228281
0.0738777518272399902 -0.0170626286417245865 -0.00039564305916428566
0.0384084172546863556 -0.0233449749648571014 -0.000236597566981799901
0.0353226400911808014 -0.0238823145627975464 -0.000504252908285707235
0.0083341505378484726 -0.000798275403212755919 -0.0286444947123527527
0.0413177311420440674 -0.000778663379605859518 -0.0228111445903778076
0.0042340732179582119 -0.00202657259069383144 -0.0293214563280344009
0.0420212410390377045 -0.00120629218872636557 -0.0226699076592922211
0.0161865800619125366 -0.000782473536673933268 -0.0272561833262443542
0.0188876017928123474 -0.00103696458972990513 -0.0267684273421764374
0.0411778651177883148 -0.00155487586744129658 -0.022805389016866684
0.0359669961035251617 -0.00124544813297688961 -0.0237392410635948181
0.0251213125884532928 -0.00149887125007808208 -0.0256476644426584244
0.0279032811522483826 -0.00114252977073192596 -0.0251695923507213593
0.024454386904835701 -0.000809261808171868324 -0.0257927235215902328
0.0232712849974632263 -0.00109737226739525795 -0.0259906705468893051
0.0114308418706059456 -0.000368413340765982866 -0.0281136427074670792
0.0659240707755088806 -0.00105455343145877123 -0.01844794861972332
0.0178250186145305634 -0.00151883508078753948 -0.0269374456256628036
0.0261591020971536636 -0.000422379467636346817 -0.0255063958466053009
0.0127976061776280403 -0.000990347471088171005 -0.0278474539518356323
0.0131780039519071579 -0.000343793770298361778 -0.0278055742383003235
0.00989387650042772293 -0.000311425246763974428 -0.0283877402544021606
0.00508167780935764313 -0.00119274097960442305 -0.0292042922228574753
0.0237992629408836365 -0.00129113660659641027 -0.0258896686136722565
0.00509916245937347412 -0.000443123688455671072 -0.0292306523770093918
0.0501726344227790833 -0.000742319447454065084 -0.021246323361992836
0.0517114214599132538 -0.00137880514375865459 -0.0209491364657878876
0.00278963614255189896 -4.11236287618521601e-05 -0.0296549536287784576
0.0468304269015789032 -0.00121729425154626369 -0.0218188297003507614
0.0270258598029613495 -0.00165691820438951254 -0.0253045782446861267
0.0259225927293300629 -0.00148735265247523785 -0.0255063865333795547
0.0188836529850959778 -0.00158036430366337299 -0.0267477761954069138
0.00181360426358878613 -0.00181937555316835642 -0.0297577269375324249
0.0366871058940887451 -0.00173631531652063131 -0.0235925819724798203
0.000443827942945063114 -0.0014531001215800643 -0.0300144031643867493
0.0169823244214057922 -0.00140379299409687519 -0.0270910207182168961
0.012499932199716568 -0.00176801683846861124 -0.0278695523738861084
0.0103462040424346924 -0.00120984506793320179 -0.0282724332064390182
0.0254495609551668167 -0.000526557734701782465 -0.0256278067827224731
0.0714038833975791931 -0.00110293063335120678 -0.0174767840653657913
0.024078909307718277 -0.00114990933798253536 -0.0258457548916339874
0.0145190060138702393 -0.00133318104781210423 -0.0275295041501522064
0.000569968309719115496 -0.00235176016576588154 -0.0299567822366952896
0.00358737912029027939 -0.000344810192473232746 -0.0295019187033176422
0.017749689519405365 -0.00141997262835502625 -0.0269546527415513992
0.0485827960073947906 -0.00137887522578239441 -0.0215025227516889572
0.0166966095566749573 -0.00167659018188714981 -0.0271308384835720062
0.0485215261578559875 -0.00127637572586536407 -0.0215173885226249695
0.00523970462381839752 -0.0012649464188143611 -0.0291735045611858368
0.0126877976581454277 -0.00080941332271322608 -0.0278739873319864273
0.00738008879125118256 -0.00160503305960446596 -0.028781551867723465
0.0180706009268760681 -0.0010240309638902545 -0.0269134454429149628
0.043065633624792099 -0.00160234351642429829 -0.0224696174263954163
0.0271834004670381546 -0.000560024171136319637 -0.0253198109567165375
0.0069057936780154705 -0.00219912617467343807 -0.0288421027362346649
0.0168296154588460922 -0.000249719945713877678 -0.0271633733063936234
0.00202213390730321407 -0.00101789459586143494 -0.0297523327171802521
0.0635606870055198669 -0.00121390307322144508 -0.0188597235828638077
0.0313617326319217682 -0.00146106258034706116 -0.0245453473180532455
0.0486170500516891479 -0.00100890174508094788 -0.0215110015124082565
0.0542627908289432526 -0.00103447516448795795 -0.0205113794654607773
0.028028734028339386 -0.00109952699858695269 -0.0251490920782089233
0.0484621748328208923 -0.00129667646251618862 -0.0215270873159170151
0.0472583882510662079 -0.00147096416912972927 -0.0217331647872924805
0.0294926054775714874 -0.0123374992981553078 -0.0216475967317819595
0.0206155236810445786 -0.0136159332469105721 -0.022729313001036644
0.0114454152062535286 -0.0137874390929937363 -0.0244902763515710831
0.0575494058430194855 -0.00967969559133052826 -0.0174543354660272598
0.0532189942896366119 -0.00996856391429901123 -0.018169499933719635
0.0168633908033370972 -0.0131810186430811882 -0.0237327087670564651
0.0210894737392663956 -0.01351956557482481 -0.022687302902340889
0.00495410105213522911 -0.0141817787662148476 -0.025583973154425621
0.0531995594501495361 -0.0101165957748889923 -0.0180905349552631378
0.0274543929845094681 -0.0120889581739902496 -0.022199537605047226
0.0282002072781324387 -0.0121518541127443314 -0.0220132824033498764
0.0395299904048442841 -0.0115966666489839554 -0.0200298391282558441
0.0516739450395107269 -0.0107118729501962662 -0.0180661119520664215
0.0453332625329494476 -0.0112243145704269409 -0.019063163548707962
0.00883560813963413239 -0.0144623098894953728 -0.0246408358216285706
0.00583479786291718483 -0.0150698181241750717 -0.0249083004891872406
0.0227223969995975494 -0.0123704373836517334 -0.0230001639574766159
0.0146607188507914543 -0.0129549400880932808 -0.0243053771555423737
0.047387491911649704 -0.0107079632580280304 -0.0189363379031419754
0.0392652042210102081 -0.0111095504835247993 -0.0203562602400779724
0.0152537105605006218 -0.013293905183672905 -0.0239954609423875809
0.0113355154171586037 -0.0129516832530498505 -0.0249805767089128494
0.0130981737747788429 -0.0134270675480365753 -0.0243573989719152451
0.0221884716302156448 -0.0135093769058585167 -0.022470453754067421
0.013180391862988472 -0.0140043459832668304 -0.0240174569189548492
0.0268493946641683578 -0.0123035237193107605 -0.0222018919885158539
0.00925837643444538116 -0.0137196881696581841 -0.0249711107462644577
0.0494779236614704132 -0.0102684125304222107 -0.0187591705471277237
0.0176811609417200089 -0.0129432165995240211 -0.0237002801150083542
0.00371763692237436771 -0.0144713092595338821 -0.0256722215563058853
0.00599753390997648239 -0.0143949706107378006 -0.0252532772719860077
0.0351838730275630951 -0.0119193904101848602 -0.0207292251288890839
0.0475791320204734802 -0.0109286438673734665 -0.0187739431858062744
0.0283744949847459793 -0.0127078788354992867 -0.0216665994375944138
0.0260382015258073807 -0.0132102053612470627 -0.0218583997339010239
0.0586260072886943817 -0.00987323001027107239 -0.0171279311180114746
0.0256529785692691803 -0.0122927501797676086 -0.0224502086639404297
0.0440160706639289856 -0.0110850706696510315 -0.0194078851491212845
0.0357923172414302826 -0.0116930119693279266 -0.0207327902317047119
0.0204240866005420685 -0.0131181925535202026 -0.0230468269437551498
0.0110040875151753426 -0.0141965858638286591 -0.0243505146354436874
0.0180138032883405685 -0.0132559798657894135 -0.0234577618539333344
0.056299600750207901 -0.0098140668123960495 -0.0176321789622306824
0.00287729012779891491 -0.0140908937901258469 -0.026055438444018364
0.00262562744319438934 -0.0138920359313488007 -0.0262177679687738419
0.00234936201013624668 -0.0140416417270898819 -0.0261899307370185852
0.039836496114730835 -0.0116208307445049286 -0.019954238086938858
0.0342478454113006592 -0.0123571502044796944 -0.0206736214458942413
0.00798780098557472229 -0.014555271714925766 -0.0247604604810476303
0.0120996460318565369 -0.0138402385637164116 -0.0243282206356525421
0.0102414749562740326 -0.0139130596071481705 -0.0246637314558029175
0.00389446527697145939 -0.0149610601365566254 -0.0253621377050876617
0.0290450602769851685 -0.0120750498026609421 -0.0218852050602436066
0.0535305067896842957 -0.0104151312261819839 -0.0178563296794891357
0.0258361846208572388 -0.0121969562023878098 -0.0224667564034461975
0.000965409970376640558 -0.0149518176913261414 -0.0259604696184396744
0.00426309509202837944 -0.0143477963283658028 -0.0256309323012828827
0.0201375838369131088 -0.0123792020604014397 -0.0235187001526355743
0.00839783437550067902 -0.0140458317473530769 -0.0249627251178026199
0.0314033403992652893 -0.0124468263238668442 -0.0211994312703609467
0.0342926867306232452 -0.0131248757243156433 -0.0201769843697547913
0.00169445248320698738 -0.0168657097965478897 -0.0246038027107715607
0.00797526165843009949 -0.0164693687111139297 -0.0235341042280197144
0.0289885122328996658 -0.0139627456665039062 -0.0207441523671150208
0.0043629789724946022 -0.0157789420336484909 -0.024762958288192749
0.0508001148700714111 -0.0120703857392072678 -0.017374131828546524
0.0410142764449119568 -0.0131247956305742264 -0.0187488589435815811
0.019994635134935379 -0.0145190879702568054 -0.0222834032028913498
0.0101770907640457153 -0.0159287545830011368 -0.0234274938702583313
0.0220639165490865707 -0.0147515172138810158 -0.0216884259134531021
0.00914898142218589783 -0.0166316051036119461 -0.0231763143092393875
0.0351888537406921387 -0.0136938542127609253 -0.019606390967965126
0.0188538152724504471 -0.0149806719273328781 -0.0222173817455768585
0.0268190838396549225 -0.0143869929015636444 -0.020921630784869194
0.0143486615270376205 -0.0156139563769102097 -0.0227514747530221939
0.0477955378592014313 -0.0120787983760237694 -0.018006911501288414
0.00725674908608198166 -0.0161618813872337341 -0.0238922294229269028
0.0437974631786346436 -0.0120343174785375595 -0.018886130303144455
0.0167131666094064713 -0.0149816367775201797 -0.0226715747267007828
0.00326237431727349758 -0.0169928111135959625 -0.0241857282817363739
0.00250718742609024048 -0.0170629080384969711 -0.0242993533611297607
0.0491187572479248047 -0.0121137853711843491 -0.0177023820579051971
0.0291568748652935028 -0.0140551319345831871 -0.0206466484814882278
0.0150512885302305222 -0.0157412253320217133 -0.0225171446800231934
0.0533692985773086548 -0.0112327691167593002 -0.0173879172652959824
0.00457488186657428741 -0.016663799062371254 -0.0241266898810863495
0.0255469046533107758 -0.0145803960040211678 -0.0210627112537622452
0.0249592028558254242 -0.0143088065087795258 -0.021369054913520813
0.0219184570014476776 -0.0149333439767360687 -0.021597839891910553
0.0148664200678467751 -0.0151797952130436897 -0.0229315608739852905
0.0104997986927628517 -0.0149150090292096138 -0.0240362882614135742
0.012922077439725399 -0.0148582933470606804 -0.0235595069825649261
0.0280740167945623398 -0.0140187498182058334 -0.020901041105389595
0.0411364398896694183 -0.0126755908131599426 -0.0190230496227741241
0.0517475083470344543 -0.0117271896451711655 -0.0174021497368812561
0.00698736496269702911 -0.0153483469039201736 -0.0244930535554885864
0.00965247023850679398 -0.0153325200080871582 -0.0239373538643121719
0.0120831793174147606 -0.0151908723637461662 -0.0235155299305915833
0.0536148324608802795 -0.0111995721235871315 -0.017357928678393364
0.00813722796738147736 -0.0167467296123504639 -0.0233143642544746399
0.00141611986327916384 -0.0159435290843248367 -0.0252791251987218857
0.0157359521836042404 -0.0157488472759723663 -0.0223665758967399597
0.0138680757954716682 -0.0148936798796057701 -0.0233348608016967773
0.0431968793272972107 -0.0126998424530029297 -0.0185690522193908691
0.000107226151158101857 -0.0173164382576942444 -0.0246398821473121643
0.00199636886827647686 -0.0157229229807853699 -0.0253032371401786804
0.00419536931440234184 -0.0171516463160514832 -0.0238813590258359909
0.0596111901104450226 -0.0107409600168466568 -0.0163902770727872849
0.0382223241031169891 -0.0126744508743286133 -0.0196429956704378128
0.01824178546667099 -0.0149974292144179344 -0.0223362259566783905
0.0120834149420261383 -0.0159822553396224976 -0.0229866970330476761
0.0137811955064535141 -0.0150133818387985229 -0.0232733376324176788
0.0207348782569169998 -0.014745982363820076 -0.0219745133072137833
0.0145791349932551384 -0.0145979765802621841 -0.0233813617378473282
0.0261517465114593506 -0.0144053986296057701 -0.0210511274635791779
0.0224424414336681366 -0.0142290461808443069 -0.0219571031630039215
0.0502694249153137207 -0.0120395384728908539 -0.017507500946521759
0.0435761399567127228 -0.0125348325818777084 -0.0185987222939729691
0.0306416656821966171 -0.0134482122957706451 -0.0207366943359375
0.000312176009174436331 -0.0176145248115062714 -0.0243971608579158783
0.0610361434519290924 -0.00146200018934905529 -0.0192894656211137772
0.0199423655867576599 -0.00224942201748490334 -0.0265213176608085632
0.0674444586038589478 -0.0018647459801286459 -0.0181099437177181244
0.0725195929408073425 -0.0014375690370798111 -0.0172492954879999161
0.0667112469673156738 -0.00215774960815906525 -0.0182115025818347931
0.0374071300029754639 -0.00200398871675133705 -0.0234390087425708771
0.0358135774731636047 -0.00176892976742237806 -0.0237456075847148895
0.0414310097694396973 -0.00201981747522950172 -0.0227217189967632294
0.0466937720775604248 -0.00192945438902825117 -0.0217945240437984467
0.0677399709820747375 -0.00202420772984623909 -0.0180416740477085114
0.024870188906788826 -0.00215704133734107018 -0.0256538987159729004
0.0306173413991928101 -0.00227570324204862118 -0.02461995929479599
0.0606050491333007812 -0.00145391339901834726 -0.0193669423460960388
0.0714938193559646606 -0.00168835895601660013 -0.017407052218914032
0.0334378965198993683 -0.00190786307211965322 -0.0241544917225837708
0.0679485946893692017 -0.00162303564138710499 -0.0180440805852413177
0.0207369662821292877 -0.00225635687820613384 -0.0263792984187602997
0.0737990587949752808 -0.00130398862529546022 -0.0170348715037107468
0.0743989646434783936 -0.0012044199975207448 -0.0169379729777574539
0.0622865259647369385 -0.00221170554868876934 -0.0189932193607091904
0.0695924535393714905 -0.00148841633927077055 -0.0177649427205324173
0.0476581007242202759 -0.00191082712262868881 -0.021624833345413208
0.0704527422785758972 -0.00199126219376921654 -0.0175623968243598938
0.0678040236234664917 -0.00162321818061172962 -0.0180697757750749588
0.0623625628650188446 -0.00209888489916920662 -0.0189908072352409363
0.0573133006691932678 -0.00153070630040019751 -0.0199448876082897186
0.0729592442512512207 -0.00131315924227237701 -0.0171833466738462448
0.0399704687297344208 -0.00216179084964096546 -0.0229675229638814926
0.0461021102964878082 -0.00919775757938623428 -0.019961383193731308
0.0129296267405152321 -0.0109628085047006607 -0.0256037227809429169
0.0479700975120067596 -0.00939694978296756744 -0.0195060037076473236
0.0436804294586181641 -0.00934307370334863663 -0.0203657001256942749
0.00711244158446788788 -0.0113655449822545052 -0.0265502016991376877
0.00799175538122653961 -0.0116621386259794235 -0.0262423381209373474
0.0122769959270954132 -0.0109892301261425018 -0.0257185585796833038
0.0264149010181427002 -0.0113128656521439552 -0.0228178352117538452
0.0202327258884906769 -0.0113863367587327957 -0.0239871405065059662
0.0171996187418699265 -0.0111689716577529907 -0.0246776528656482697
0.0346645712852478027 -0.00979023706167936325 -0.0219142250716686249
0.00274108303710818291 -0.011961374431848526 -0.0271262750029563904
0.0525273345410823822 -0.00923467613756656647 -0.0186938829720020294
0.00749677419662475586 -0.0122188078239560127 -0.0260820444673299789
0.0393705219030380249 -0.00960154645144939423 -0.0210853386670351028
0.0616962015628814697 -0.00845949724316596985 -0.0172667987644672394
0.00600639823824167252 -0.0115367267280817032 -0.0266865435987710953
0.0488189496099948883 -0.00899900868535041809 -0.0195242539048194885
0.00650063250213861465 -0.0113578047603368759 -0.0266728401184082031
0.0456530153751373291 -0.0098041994497179985 -0.0197692122310400009
0.0386494100093841553 -0.00985371042042970657 -0.0211094319820404053
0.0194561220705509186 -0.0109993014484643936 -0.0243167094886302948
0.00639282632619142532 -0.0127550531178712845 -0.0260496810078620911
0.0425445213913917542 -0.00926614366471767426 -0.0206222347915172577
0.0366763770580291748 -0.0100473668426275253 -0.0214041471481323242
0.0340427868068218231 -0.0105659579858183861 -0.0216776225715875626
0.0334095880389213562 -0.010856354609131813 -0.0216669812798500061
0.0261100158095359802 -0.0105660082772374153 -0.0232214778661727905
0.0525614582002162933 -0.00890812650322914124 -0.0188377834856510162
0.0489509813487529755 -0.00954074971377849579 -0.0192488115280866623
0.0366765037178993225 -0.0101286079734563828 -0.0213666688650846481
0.0124538475647568703 -0.0122896935790777206 -0.0250846166163682938
0.00683200405910611153 -0.0127345910295844078 -0.0259736422449350357
0.0463233627378940582 -0.00960201956331729889 -0.0197319537401199341
0.048230685293674469 -0.00924331042915582657 -0.0195261165499687195
0.056441865861415863 -0.00866792909801006317 -0.0181933082640171051
0.0392333455383777618 -0.0095356302335858345 -0.021142423152923584
0.00211315182968974113 -0.0116407359018921852 -0.027396300807595253
0.00785114243626594543 -0.0129307974129915237 -0.0256848428398370743
0.041233699768781662 -0.00941460020840167999 -0.020808907225728035
0.0300523750483989716 -0.0104983076453208923 -0.0224854238331317902
0.0112986648455262184 -0.0109460484236478806 -0.0259288661181926727
0.0293208863586187363 -0.0100706955417990685 -0.0228249207139015198
0.0320299752056598663 -0.010158550925552845 -0.0222571752965450287
0.0272228196263313293 -0.0108687654137611389 -0.0228653308004140854
0.0248006563633680344 -0.0108464071527123451 -0.0233470406383275986
0.0462960600852966309 -0.00907572172582149506 -0.0199798960238695145
0.0447119809687137604 -0.00947164185345172882 -0.0201056674122810364
0.021830262616276741 -0.0106374789029359818 -0.0240214560180902481
0.00419418094679713249 -0.0128555344417691231 -0.0264312606304883957
0.0183383487164974213 -0.0105904499068856239 -0.0247227344661951065
0.0202328953891992569 -0.0117905233055353165 -0.023800775408744812
0.00891860667616128922 -0.0124052325263619423 -0.0257193818688392639
0.0300142262130975723 -0.010843752883374691 -0.0223335959017276764
0.0138827161863446236 -0.0113288117572665215 -0.0252495016902685165
0.0558273755013942719 -0.00860345736145973206 -0.0183426216244697571
0.0227061007171869278 -0.0107710510492324829 -0.0237894225865602493
0.0186289865523576736 -0.0118725942447781563 -0.024075094610452652
0.0499672740697860718 -0.0089696710929274559 -0.0193142928183078766
0.0175758227705955505 -0.0116395521908998489 -0.0243874974548816681
0.00511417072266340256 -0.0116867013275623322 -0.0267910491675138474
0.0587114430963993073 -0.00322571117430925369 -0.0194873977452516556
0.0647875070571899414 -0.00308825727552175522 -0.0184195581823587418
0.0517114773392677307 -0.00305258319713175297 -0.0207723360508680344
0.0199277773499488831 -0.00425332039594650269 -0.0262786336243152618
0.0189833901822566986 -0.00431120535358786583 -0.0264385771006345749
0.0577153973281383514 -0.00354057666845619678 -0.0196141842752695084
0.0455047786235809326 -0.00346352579072117805 -0.0218184664845466614
0.052637588232755661 -0.00304405298084020615 -0.0206075254827737808
0.0336019881069660187 -0.00370452320203185081 -0.0239149928092956543
0.0503994040191173553 -0.00311931222677230835 -0.0209968090057373047
0.0611661858856678009 -0.00288703036494553089 -0.0191027354449033737
0.0160793773829936981 -0.00437884777784347534 -0.0269486214965581894
0.0744063407182693481 -0.00234425975941121578 -0.0168160051107406616
0.030074751004576683 -0.00382536370307207108 -0.0245281103998422623
0.0729970037937164307 -0.00298482691869139671 -0.0169631950557231903
0.0410080067813396454 -0.00352141726762056351 -0.0226159915328025818
0.0616660751402378082 -0.00291020306758582592 -0.0190091896802186966
0.0492524728178977966 -0.00333854882046580315 -0.0211664643138647079
0.0116941705346107483 -0.00438797567039728165 -0.027734171599149704
0.0401773378252983093 -0.00376056507229804993 -0.0227255970239639282
0.0436373353004455566 -0.00344540784135460854 -0.0221566278487443924
0.0673813521862030029 -0.0028065764345228672 -0.0180005207657814026
0.0667940080165863037 -0.00308160576969385147 -0.0180605314671993256
0.0428383462131023407 -0.00331118633039295673 -0.022322189062833786
0.0660934075713157654 -0.00257707992568612099 -0.0182695705443620682
0.010583607479929924 -0.00440674461424350739 -0.0279303975403308868
0.050576280802488327 -0.00320463185198605061 -0.020950978621840477
0.0269084274768829346 -0.00396770751103758812 -0.025072900578379631
0.019246736541390419 -0.0030398564413189888 -0.0265528690069913864
0.0460719391703605652 -0.00236459402367472649 -0.021860053762793541
0.0109076080843806267 -0.00288574537262320518 -0.0280548073351383209
0.0191193316131830215 -0.00347613380290567875 -0.0265238992869853973
0.0529036670923233032 -0.00229340279474854469 -0.0206529796123504639
0.0433009639382362366 -0.00283374683931469917 -0.0222975388169288635
0.00344542530365288258 -0.00371931912377476692 -0.029283817857503891
0.0397125296294689178 -0.00248131994158029556 -0.022977704182267189
0.0180864296853542328 -0.002488753292709589 -0.0268245376646518707
0.036677531898021698 -0.00323923886753618717 -0.023427983745932579
0.00828838441520929337 -0.00283033307641744614 -0.0285273753106594086
0.000336763536324724555 -0.00445042876526713371 -0.0297503788024187088
0.00602626381441950798 -0.00390467746183276176 -0.0288026966154575348
0.0278762653470039368 -0.00335120409727096558 -0.0249806549400091171
0.0207468513399362564 -0.00350104272365570068 -0.0262313839048147202
0.0268970411270856857 -0.00315929297357797623 -0.025177590548992157
0.00623997533693909645 -0.0037346305325627327 -0.0287847984582185745
0.0238634459674358368 -0.00347291817888617516 -0.0256802085787057877
0.00879881251603364944 -0.0031615840271115303 -0.0283973570913076401
0.0478775762021541595 -0.00290454737842082977 -0.0214748866856098175
0.0578689165413379669 -0.00241951504722237587 -0.0197546351701021194
0.0436487458646297455 -0.00281907431781291962 -0.0222373958677053452
0.0126887429505586624 -0.00404959917068481445 -0.0276001561433076859
0.0332392789423465729 -0.00309714116156101227 -0.024056537076830864
0.00422861520200967789 -0.00367229152470827103 -0.029150037094950676
0.0259768646210432053 -0.00370969763025641441 -0.0252761635929346085
0.028790302574634552 -0.00296356086619198322 -0.0248639080673456192
0.0276275258511304855 -0.00304444693028926849 -0.0250612162053585052
0.0419872105121612549 -0.00231101876124739647 -0.0225931499153375626
0.0142135284841060638 -0.0036191160324960947 -0.0273798182606697083
0.0355254374444484711 -0.00282123731449246407 -0.0236824378371238708
0.0149992695078253746 -0.00280225230380892754 -0.0273367017507553101
0.0207900144159793854 -0.00248773465864360332 -0.026343638077378273
0.0371779948472976685 -0.00276954448781907558 -0.0233945343643426895
0.0315983928740024567 -0.00251601426862180233 -0.024417264387011528
0.00438428530469536781 -0.00326601229608058929 -0.0291704274713993073
0.00206381944008171558 -0.00246193795464932919 -0.0296784527599811554
0.0133499326184391975 -0.0025350530631840229 -0.0276617743074893951
0.0592129305005073547 -0.00258298381231725216 -0.0194961614906787872
0.0563643723726272583 -0.00262085068970918655 -0.0199984945356845856
0.0204288158565759659 -0.00378361274488270283 -0.0262545254081487656
0.0541113205254077911 -0.00228010141290724277 -0.020439688116312027
0.0404260009527206421 -0.0025629859883338213 -0.0228410977870225906
0.0262487158179283142 -0.00297609833069145679 -0.0253146234899759293
0.0201547052711248398 -0.00304771168157458305 -0.0263903941959142685
