ply
format ascii 1.0
element vertex 718
property float x
property float y
property float z
end_header
-0.101999998092651367 -0.0131677370518445969 -0.00358900055289268494
-0.101999998092651367 -0.0367770567536354065 -0.0290891677141189575
-0.101999998092651367 -0.00819964148104190826 -0.00403913576155900955
-0.101999998092651367 0.0152579983696341515 0.0153770297765731812
-0.101999998092651367 -0.00120255572255700827 -0.000910253322217613459
-0.101999998092651367 -0.0100168287754058838 -0.00810164399445056915
-0.101999998092651367 0.0140872597694396973 0.0178783256560564041
-0.101999998092651367 -0.0353362411260604858 -0.0224826782941818237
-0.101999998092651367 -0.0258323587477207184 -0.0125027298927307129
-0.101999998092651367 -0.0358438491821289062 -0.0269850157201290131
-0.101999998092651367 -0.000522483140230178833 0.00603406131267547607
-0.101999998092651367 -0.0415284931659698486 -0.0225118584930896759
-0.101999998092651367 -0.00651730410754680634 -0.00197866000235080719
-0.101999998092651367 0.0292721986770629883 0.0277949068695306778
-0.101999998092651367 0.0211725719273090363 0.0208337437361478806
-0.101999998092651367 -0.0125987865030765533 -0.00178828835487365723
-0.101999998092651367 -0.0131536424160003662 -0.00292479619383811951
-0.101999998092651367 -0.0424150042235851288 -0.0314047932624816895
-0.101999998092651367 -0.00986371561884880066 -0.00147399120032787323
-0.101999998092651367 -0.0373326465487480164 -0.0197352282702922821
-0.101999998092651367 0.00613148743286728859 0.00588358845561742783
-0.101999998092651367 -0.0247856192290782928 -0.00597289577126502991
-0.101999998092651367 -0.0171480756253004074 0.00187496654689311981
-0.101999998092651367 0.015059392899274826 0.022383369505405426
-0.101999998092651367 -0.0141310263425111771 0.00476931966841220856
-0.101999998092651367 -0.0365670323371887207 -0.00885671190917491913
-0.101999998092651367 -0.030055902898311615 -0.00687249563634395599
-0.101999998092651367 -0.0146141927689313889 0.00404432043433189392
-0.101999998092651367 -0.033868744969367981 -0.00829063728451728821
-0.101999998092651367 -0.0494424477219581604 -0.0193214863538742065
-0.101999998092651367 -0.015187826007604599 0.00598436594009399414
-0.101999998092651367 -0.0448235608637332916 -0.0210694298148155212
-0.101999998092651367 -0.0473383627831935883 -0.0144806783646345139
-0.101999998092651367 0.00886207353323698044 0.0163344983011484146
-0.101999998092651367 -0.0427987948060035706 -0.0183483175933361053
-0.101999998092651367 -0.0212207026779651642 -0.00596272200345993042
-0.101999998092651367 -0.0168892331421375275 0.00282289832830429077
-0.101999998092651367 -0.0303010791540145874 -0.00133663415908813477
-0.101999998092651367 -0.0438351482152938843 -0.00985838472843170166
-0.101999998092651367 0.0255874916911125183 0.0268362443894147873
-0.101999998092651367 -0.0474712103605270386 -0.00957324355840682983
-0.101999998092651367 -0.0210543759167194366 0.00338712707161903381
-0.101999998092651367 0.0169497020542621613 0.0238068290054798126
-0.101999998092651367 -0.0420996248722076416 -0.00985325872898101807
-0.101999998092651367 -0.0405068546533584595 -0.0135565251111984253
-0.101999998092651367 -0.0216591637581586838 0.00071323104202747345
-0.101999998092651367 -0.0534696616232395172 -0.0131915397942066193
-0.101999998092651367 -0.0511122941970825195 -0.0146003067493438721
-0.101999998092651367 -0.0297538787126541138 -0.0103996386751532555
-0.101999998092651367 0.0216949880123138428 0.0250348970293998718
-0.101999998092651367 0.000326517969369888306 0.0149577781558036804
-0.101999998092651367 0.00965332798659801483 0.0180007480084896088
-0.101999998092651367 0.000454585999250411987 0.0131762670353055
-0.101999998092651367 -0.0398681610822677612 -0.012378910556435585
-0.101999998092651367 0.0201413054019212723 0.0241802781820297241
-0.101999998092651367 0.0279119051992893219 0.0293374210596084595
-0.101999998092651367 -0.023426571860909462 -0.00469158682972192764
-0.101999998092651367 -0.0375602021813392639 -0.0159374568611383438
-0.101999998092651367 -0.0444752946496009827 -0.00939064472913742065
-0.101999998092651367 -0.0344982296228408813 -0.0143425427377223969
-0.101999998092651367 -0.0294635947793722153 -0.00510249100625514984
-0.101999998092651367 -0.0348034985363483429 -0.00315231457352638245
-0.101999998092651367 -0.0401253402233123779 0.00412602722644805908
-0.101999998092651367 -0.0483972914516925812 -0.00965397898107767105
-0.101999998092651367 -0.00572966411709785461 0.0191199835389852524
-0.101999998092651367 -0.0275040287524461746 0.00487166829407215118
-0.101999998092651367 -0.0184707324951887131 0.0110788885504007339
-0.101999998092651367 0.0227306634187698364 0.0283601433038711548
-0.101999998092651367 -0.0541550666093826294 -0.0125057725235819817
-0.101999998092651367 0.00545577052980661392 0.0199878178536891937
-0.101999998092651367 -0.0547265410423278809 -0.00288734398782253265
-0.101999998092651367 0.0217693634331226349 0.0284978803247213364
-0.101999998092651367 -0.0385834053158760071 -0.00454916153103113174
-0.101999998092651367 0.00143894925713539124 0.0211580358445644379
-0.101999998092651367 0.00543874688446521759 0.0220732390880584717
-0.101999998092651367 -0.0367566570639610291 -0.00045186653733253479
-0.101999998092651367 -0.043549705296754837 0.000311464071273803711
-0.101999998092651367 -0.0499191731214523315 0.00221985206007957458
-0.101999998092651367 0.0193716250360012054 0.0266648419201374054
-0.101999998092651367 -0.0502434112131595612 -0.0108132734894752502
-0.101999998092651367 -0.0472824312746524811 0.00267253443598747253
-0.101999998092651367 -0.038528740406036377 -0.00055372435599565506
-0.101999998092651367 -0.0216183885931968689 0.006232457235455513
-0.101999998092651367 -0.0248001161962747574 0.00463657453656196594
-0.101999998092651367 -0.0489228963851928711 -0.00797019898891448975
-0.101999998092651367 -0.0437952801585197449 -0.00233743526041507721
-0.101999998092651367 -0.0515756085515022278 -0.0109973782673478127
-0.101999998092651367 -0.0339901968836784363 0.00785027630627155304
-0.101999998092651367 -0.0480915307998657227 -0.0011007264256477356
-0.101999998092651367 -0.0179664641618728638 0.0080462256446480751
-0.101999998092651367 -0.0516623817384243011 -0.00261470302939414978
-0.101999998092651367 -0.0330514684319496155 0.00316575076431035995
-0.101999998092651367 -0.00844018720090389252 0.0114538902416825294
-0.101999998092651367 -0.0345984511077404022 2.66265124082565308e-06
-0.101999998092651367 -0.0167338047176599503 0.0091337570920586586
-0.101999998092651367 -0.0108627481386065483 0.0107984524220228195
-0.101999998092651367 -0.0224299170076847076 0.00400247471407055855
-0.101999998092651367 -0.052394673228263855 -0.00793455168604850769
-0.101999998092651367 -0.0518729202449321747 0.000709380954504013062
-0.101999998092651367 -0.0529588721692562103 -0.00376090779900550842
-0.101999998092651367 -0.0422884002327919006 0.00124321505427360535
0.108103267848491669 -0.0380261801183223724 0.00147962197661399841
0.107407905161380768 -0.0329079516232013702 0.0211428515613079071
0.108177229762077332 -0.0385705865919589996 0.000883819535374641418
0.108626946806907654 -0.0418806746602058411 -0.00104509573429822922
0.108468599617481232 -0.0407152101397514343 -0.00560407526791095734
0.107366085052490234 -0.032600104808807373 0.0269317645579576492
0.10767006129026413 -0.034837573766708374 0.0130044128745794296
0.107480540871620178 -0.0334426090121269226 0.0150453345850110054
0.108058653771877289 -0.037697765976190567 -0.0035071326419711113
0.107946127653121948 -0.036869533360004425 -0.0131302587687969208
0.10794820636510849 -0.0368848219513893127 -0.0193678326904773712
0.107761241495609283 -0.0355086661875247955 -0.00291270017623901367
0.107953578233718872 -0.0369243696331977844 -0.0110407210886478424
0.107706569135189056 -0.0351062454283237457 -0.00688358023762702942
0.108156360685825348 -0.0384170003235340118 -0.00828650500625371933
0.107659205794334412 -0.0347576811909675598 0.00737273227423429489
0.108025990426540375 -0.0374573767185211182 -0.0218518655747175217
0.107744969427585602 -0.0353889316320419312 -0.00572908483445644379
0.107703641057014465 -0.0350846946239471436 -0.0232762414962053299
0.107391737401485443 -0.0327889211475849152 0.00131227914243936539
0.107405140995979309 -0.0328875891864299774 -0.0270121544599533081
0.107237093150615692 -0.0316506661474704742 -0.0232147984206676483
0.107582025229930878 -0.0341895632445812225 -0.0253655575215816498
0.106963440775871277 -0.029636431485414505 -0.00857631675899028778
0.106974273920059204 -0.0297161545604467392 0.0261783543974161148
0.107413537800312042 -0.0329493805766105652 -0.0247356612235307693
0.107394590973854065 -0.032809913158416748 -0.0277156420052051544
0.10683748871088028 -0.0287093836814165115 -0.0200959816575050354
0.107359342277050018 -0.0325505100190639496 0.000149932689964771271
0.106986314058303833 -0.0298048034310340881 -0.0170834995806217194
0.107218869030475616 -0.0315165482461452484 -0.0318765342235565186
0.107032626867294312 -0.0301456768065690994 -0.0172523185610771179
0.107227608561515808 -0.0315808504819869995 -0.0021643713116645813
0.106892727315425873 -0.0291159693151712418 0.0288835056126117706
0.106806278228759766 -0.0284796152263879776 0.00412573385983705521
0.106233701109886169 -0.0242651589214801788 -0.0025097280740737915
0.106572657823562622 -0.0267600454390048981 -0.0390285402536392212
0.106166958808898926 -0.023773927241563797 -0.0252606477588415146
0.106780834496021271 -0.0282923523336648941 0.00242114625871181488
0.10620088130235672 -0.0240236148238182068 -0.0406249240040779114
0.106629453599452972 -0.0271781105548143387 0.00337013881653547287
0.105924054980278015 -0.0219859853386878967 -0.0315399542450904846
0.106722094118595123 -0.0278600025922060013 -0.0362059734761714935
0.106365978717803955 -0.025238770991563797 -0.0323223881423473358
0.106785468757152557 -0.0283264853060245514 -0.0269694048911333084
0.106598809361457825 -0.0269525591284036636 -0.0246685035526752472
0.106721095740795135 -0.0278526414185762405 -0.00555203622207045555
0.10560271143913269 -0.0196207277476787567 -0.0374215096235275269
0.106073431670665741 -0.0230855066329240799 -0.019051823765039444
0.106665335595607758 -0.0274422280490398407 -0.030679900199174881
0.106365315616130829 -0.0252338908612728119 -0.0100523009896278381
0.105625011026859283 -0.0197849012911319733 -0.0407155528664588928
0.106016896665096283 -0.0226693637669086456 -0.023493664339184761
0.105903014540672302 -0.0218311436474323273 -0.0403924360871315002
0.1067085862159729 -0.0277605503797531128 0.0107029881328344345
0.106616824865341187 -0.0270851738750934601 -0.0124625805765390396
0.106259040534496307 -0.0244517009705305099 0.0153780337423086166
0.105385825037956238 -0.0180242881178855896 -0.0315030738711357117
0.105301044881343842 -0.0174002945423126221 -0.0297879688441753387
0.105476252734661102 -0.0186899490654468536 -0.0119564458727836609
0.104312777519226074 -0.010126158595085144 -0.0406697541475296021
0.105078458786010742 -0.0157619621604681015 -0.0153943374752998352
0.105651997029781342 -0.0199834797531366348 -0.00821850821375846863
0.106265313923358917 -0.0244978312402963638 0.0111015904694795609
0.106211140751838684 -0.0240990761667490005 0.00770579511299729347
0.104807905852794647 -0.0137705430388450623 -0.0393995121121406555
0.106577157974243164 -0.0267932098358869553 0.0271720327436923981
0.104856669902801514 -0.0141294365748763084 -0.0330229215323925018
0.105604030191898346 -0.0196304488927125931 -0.0213320143520832062
0.104498505592346191 -0.0114932013675570488 -0.0414350703358650208
0.105797946453094482 -0.0210577733814716339 -0.0217740535736083984
0.106023319065570831 -0.0227166283875703812 0.00564813055098056793
0.106145113706588745 -0.0236130952835083008 0.00700639653950929642
0.105783000588417053 -0.0209477469325065613 -0.00535393320024013519
0.104513131082057953 -0.011600804515182972 -0.0403416119515895844
0.105215862393379211 -0.0167733095586299896 -0.0279122665524482727
0.105786912143230438 -0.0209765564650297165 -0.0230518393218517303
0.105581827461719513 -0.0194670036435127258 -0.0215574707835912704
0.106202207505702972 -0.0240333303809165955 0.0154303060844540596
0.106450267136096954 -0.0258591733872890472 0.0211383365094661713
0.106331832706928253 -0.0249874293804168701 0.0224796216934919357
0.104974023997783661 -0.0149932540953159332 -0.0221319831907749176
0.105092130601406097 -0.0158625859767198563 -0.045005258172750473
0.102748587727546692 0.00138712488114833832 -0.0484250038862228394
0.105949826538562775 -0.0221757031977176666 0.0179593916982412338
0.103145182132720947 -0.00153195671737194061 -0.0493630357086658478
0.104650072753429413 -0.0126088317483663559 -0.026735084131360054
0.102596461772918701 0.00250689126551151276 -0.052338622510433197
0.103200748562812805 -0.00194098614156246185 -0.0512972548604011536
0.103978961706161499 -0.00766906794160604477 -0.0295069068670272827
0.106129445135593414 -0.0234978031367063522 0.0200564898550510406
0.10581621527671814 -0.0211922712624073029 0.0104318447411060333
0.1034102663397789 -0.0034831436350941658 -0.0457383617758750916
0.105814985930919647 -0.0211831890046596527 0.015401654876768589
0.103678144514560699 -0.00545490486547350883 -0.046719282865524292
0.104744821786880493 -0.0133061781525611877 -0.0233738720417022705
0.105725996196269989 -0.0205281302332878113 0.00674501433968544006
0.104489117860794067 -0.0114241046831011772 -0.020771026611328125
0.10450638085603714 -0.0115511110052466393 -0.0248940028250217438
0.105047933757305145 -0.0155372852459549904 -0.00634076260030269623
0.105409391224384308 -0.0181977860629558563 -0.00243200734257698059
0.103191070258617401 -0.00186975207179784775 -0.0531538836658000946
0.104964621365070343 -0.0149240577593445778 -0.00458297692239284515
0.10459456592798233 -0.0122002512216567993 -0.00606230646371841431
0.104372501373291016 -0.0105657055974006653 -0.018323482945561409
0.10329873114824295 -0.0026621893048286438 -0.0393476188182830811
0.104086033999919891 -0.00845713727176189423 -0.0278987698256969452
0.105588868260383606 -0.0195188485085964203 0.0105404611676931381
0.102755710482597351 0.00133472681045532227 -0.0532425940036773682
0.105972379446029663 -0.0223416835069656372 0.0138576887547969818
0.104469180107116699 -0.0112773291766643524 -0.0295822545886039734
0.104080021381378174 -0.00841286778450012207 -0.0383814051747322083
0.104907765984535217 -0.0145055428147315979 -0.0130833098664879799
0.104721881449222565 -0.0131373396143317223 -0.0139125250279903412
0.101603150367736816 0.00981818325817584991 -0.0376111641526222229
0.102147035300731659 0.00581488758325576782 -0.0320323631167411804
0.104087464511394501 -0.00846768729388713837 -0.0110761607065796852
0.102272205054759979 0.00489360420033335686 -0.0474571064114570618
0.104122541844844818 -0.00872591324150562286 -0.00976704806089401245
0.101219579577445984 0.0126414895057678223 -0.041800864040851593
0.106314681470394135 -0.0248612053692340851 0.0291654001921415329
0.104042097926139832 -0.00813379138708114624 -0.0159519743174314499
0.106031231582164764 -0.0227749049663543701 0.024317106232047081
0.101677633821964264 0.00926996767520904541 -0.0441242605447769165
0.1032819002866745 -0.00253831921145319939 -0.0312466491013765335
0.101201601326465607 0.0127738034352660179 -0.0521568357944488525
0.103104405105113983 -0.00123190879821777344 -0.0153077356517314911
0.101432926952838898 0.0110711008310317993 -0.0389974452555179596
0.101812772452831268 0.00827522575855255127 -0.0399855449795722961
0.102925561368465424 8.45706090331077576e-05 -0.0317945107817649841
0.102529972791671753 0.00299626961350440979 -0.0310547910630702972
0.100954286754131317 0.0145941693335771561 -0.0514679178595542908
0.101946018636226654 0.00729451980441808701 -0.0535629242658615112
0.104042805731296539 -0.00813899096101522446 -0.0160146225243806839
0.102017797529697418 0.00676617026329040527 -0.0321782715618610382
0.103290379047393799 -0.00260073132812976837 -0.0140139646828174591
0.101355597376823425 0.0116402842104434967 -0.0540207698941230774
0.101254217326641083 0.0123865343630313873 -0.0556608140468597412
0.104022137820720673 -0.00798687338829040527 -0.00872852280735969543
0.101354233920574188 0.0116503350436687469 -0.040166802704334259
0.101746730506420135 0.00876137986779212952 -0.0377773046493530273
0.101775184273719788 0.0085518956184387207 -0.0356307849287986755
0.103496089577674866 -0.00411484576761722565 -0.0199338383972644806
0.102319285273551941 0.00454707629978656769 -0.0322029329836368561
0.101817242801189423 0.00824235379695892334 -0.0414557456970214844
0.104501903057098389 -0.0115181859582662582 0.00321745872497558594
0.104884915053844452 -0.0143373571336269379 0.00621489249169826508
0.10527530312538147 -0.0172108560800552368 0.0126854144036769867
0.10338129848241806 -0.00326990894973278046 -0.0114063844084739685
0.100823543965816498 0.0155564844608306885 -0.0478233546018600464
0.104581370949745178 -0.0121031245216727257 0.00950843747705221176
0.103960134088993073 -0.00753046479076147079 0.00322951190173625946
0.105286061763763428 -0.0172900296747684479 0.0176865048706531525
0.103337116539478302 -0.00294475723057985306 -0.00786087196320295334
0.0997503101825714111 0.0234560947865247726 -0.0430594794452190399
0.101266913115978241 0.0122931161895394325 -0.0340751037001609802
0.102099813520908356 0.00616246834397315979 -0.0179316960275173187
0.10138896107673645 0.0113947205245494843 -0.0237551555037498474
0.0993971452116966248 0.0260555725544691086 -0.0456238947808742523
0.10388270765542984 -0.00696058385074138641 0.0029893629252910614
0.0995690152049064636 0.0247905179858207703 -0.0487697012722492218
0.1019134521484375 0.00753420870751142502 -0.0288145262748003006
0.101041458547115326 0.0139525439590215683 -0.0311786606907844543
0.0998746007680892944 0.0225412361323833466 -0.0449226759374141693
0.102604009211063385 0.002451322041451931 -0.0197664108127355576
0.105803601443767548 -0.0210993997752666473 0.0239456072449684143
0.0993229597806930542 0.0266015660017728806 -0.0435958467423915863
0.101260535418987274 0.0123400231823325157 -0.0284751076251268387
0.0998005270957946777 0.0230864826589822769 -0.0396417155861854553
0.102636292576789856 0.00221372116357088089 -0.0140730328857898712
0.104102537035942078 -0.00857863668352365494 0.0030557708814740181
0.105409972369670868 -0.0182020757347345352 0.0178751200437545776
0.104208528995513916 -0.00935878604650497437 0.00961219519376754761
0.101792261004447937 0.00842623785138130188 -0.0171068310737609863
0.100327149033546448 0.0192102305591106415 -0.0382942147552967072
0.103821337223052979 -0.00650889100506901741 -0.00302181625738739967
0.10147935152053833 0.0107294321060180664 -0.0221812203526496887
0.1047934889793396 -0.01366443932056427 0.0130521645769476891
0.103947989642620087 -0.00744107738137245178 -0.00175158330239355564
0.100648306310176849 0.0168463289737701416 -0.0340615808963775635
0.100942358374595642 0.0146819744259119034 -0.0400884449481964111
0.103045105934143066 -0.0007953989552333951 -0.0149240456521511078
0.0990750044584274292 0.0284267216920852661 -0.050112403929233551
0.103761583566665649 -0.00606903433799743652 0.00238537602126598358
0.0995416715741157532 0.0249918252229690552 -0.0451883077621459961
0.103555172681808472 -0.00454974593594670296 -0.00793997664004564285
0.103276669979095459 -0.00249984115362167358 -0.00194580107927322388
0.100760683417320251 0.0160191673785448074 -0.045674249529838562
0.101017624139785767 0.0141279539093375206 -0.0387120917439460754
0.102822832763195038 0.000840639695525169373 0.000179389491677284241
0.101719491183757782 0.00896183867007493973 -0.0135546475648880005
0.0990430340170860291 0.0286620091646909714 -0.0385464876890182495
0.103717118501663208 -0.00574174243956804276 0.00833527557551860809
0.10089053213596344 0.0150634292513132095 -0.0184617470949888229
0.103198528289794922 -0.00192465074360370636 0.00251049734652042389
0.0988356843590736389 0.0301882624626159668 -0.0450080744922161102
0.10047362744808197 0.0181320793926715851 -0.0287464763969182968
0.101767256855964661 0.00861024856567382812 -0.00535124167799949646
0.0970486104488372803 0.043342050164937973 -0.0454065166413784027
0.0982036590576171875 0.0348402410745620728 -0.0481714904308319092
0.0996890589594841003 0.0239069387316703796 -0.0227116681635379791
0.0982429832220077515 0.0345508307218551636 -0.0386745259165763855
0.10040988028049469 0.0186012852936983109 -0.0212080534547567368
0.0992017537355422974 0.0274937786161899567 -0.0413500629365444183
0.10278850793838501 0.00109330285340547562 -0.000451207160949707031
0.105203025043010712 -0.0166788380593061447 0.020723903551697731
0.0977641791105270386 0.0380750969052314758 -0.0383764356374740601
0.0989460796117782593 0.0293756835162639618 -0.0306656025350093842
0.0997546091675758362 0.0234244801104068756 -0.0292596779763698578
0.102459147572517395 0.0035175480879843235 -0.00689513050019741058
0.102203309535980225 0.00540068373084068298 -0.00241491943597793579
0.0976817384362220764 0.0386819019913673401 -0.0418653190135955811
0.0990864560008049011 0.0283423885703086853 -0.0436041578650474548
0.0968773886561393738 0.0446023643016815186 -0.047346699982881546
0.102012082934379578 0.00680821109563112259 -0.00689460895955562592
0.104924172163009644 -0.0146263595670461655 0.0175133422017097473
0.101970843970775604 0.00711179804056882858 -0.00708423368632793427
0.102063648402690887 0.00642868923023343086 -0.011605357751250267
0.100136630237102509 0.0206125862896442413 -0.0314252078533172607
0.0985861271619796753 0.0320250615477561951 -0.0403964780271053314
0.099794343113899231 0.0231319405138492584 -0.03267655149102211
0.0985207036137580872 0.032506648451089859 -0.0420328192412853241
0.0975379869341850281 0.0397399887442588806 -0.0492340326309204102
0.105107173323631287 -0.0159733332693576813 0.0232183672487735748
0.100031331181526184 0.0213875751942396164 -0.0277845188975334167
0.100353345274925232 0.019017435610294342 -0.0285716541111469269
0.100261859595775604 0.0196908134967088699 -0.0180605500936508179
0.102186873555183411 0.0055216718465089798 -0.00842332467436790466
0.0983128622174263 0.0340364836156368256 -0.0500054433941841125
0.102745860815048218 0.00140723492950201035 -0.00129599496722221375
0.0965337902307510376 0.0471314191818237305 -0.0448158830404281616
0.10244414210319519 0.00362805277109146118 0.00879299081861972809
0.102017968893051147 0.00676487665623426437 -0.000254071317613124847
0.0989270508289337158 0.0295157097280025482 -0.0208576209843158722
0.101310007274150848 0.011975899338722229 -0.00735931238159537315
0.0988979190587997437 0.0297301299870014191 -0.0200409237295389175
0.100821308791637421 0.0155729791149497032 -0.00921835191547870636
0.0985584184527397156 0.0322290882468223572 -0.0204358939081430435
0.102620027959346771 0.00233345851302146912 0.00986069627106189728
0.104176461696624756 -0.00912280101329088211 0.0168952308595180511
0.100703917443752289 0.0164370350539684296 -0.00559881888329982758
0.105095721781253815 -0.0158890318125486374 0.0234920531511306763
0.0963480919599533081 0.0484982430934906006 -0.0401762872934341431
0.0969691425561904907 0.0439269877970218658 -0.0337342061102390289
0.104486271739006042 -0.0114031611010432243 0.0193502232432365417
0.10114838182926178 0.013165532611310482 -0.00908001512289047241
0.0991574749350547791 0.0278196707367897034 -0.0162202827632427216
0.103648386895656586 -0.00523584522306919098 0.0166364144533872604
0.0982627198100090027 0.0344056002795696259 -0.0255178455263376236
0.103502050042152405 -0.00415871758013963699 0.0114328749477863312
0.0963428020477294922 0.0485372282564640045 -0.0364615209400653839
0.101591803133487701 0.00990169495344161987 0.000698169693350791931
0.099541589617729187 0.0249924305826425552 -0.0158799067139625549
0.10284973680973053 0.000642627477645874023 0.00997493043541908264
0.0978465825319290161 0.0374685339629650116 -0.0292878337204456329
0.0962822958827018738 0.048982519656419754 -0.0408397726714611053
0.0992865636944770813 0.0268695615231990814 -0.0248747151345014572
0.0986922085285186768 0.0312443152070045471 -0.018449343740940094
0.0987754166126251221 0.03063184954226017 -0.0281992722302675247
0.100972995162010193 0.0144564416259527206 -0.0102527840062975883
0.100877329707145691 0.0151605866849422455 -0.010104794055223465
0.101869046688079834 0.00786103960126638412 -0.00090169813483953476
0.103545784950256348 -0.0044806385412812233 0.0136149721220135689
0.0965194106101989746 0.0472372770309448242 -0.0347094163298606873
0.103125095367431641 -0.0013841576874256134 0.00967793352901935577
0.100538313388824463 0.0176559705287218094 -0.00814992561936378479
0.0960211679339408875 0.0509045869112014771 -0.04033680260181427
0.101040095090866089 0.0139626124873757362 -0.00684812664985656738
0.101693384349346161 0.0091539919376373291 -0.00425555557012557983
0.0998555272817611694 0.0226816348731517792 -0.0191846098750829697
0.0955864489078521729 0.0541043728590011597 -0.0379164591431617737
0.100553959608078003 0.0175407454371452332 -0.0101641975343227386
0.0970115363597869873 0.0436149723827838898 -0.0386478975415229797
0.094905167818069458 0.0591189675033092499 -0.0289905238896608353
0.0997013002634048462 0.0238168351352214813 -0.00732516078278422356
0.0972357392311096191 0.0419647097587585449 -0.0206505153328180313
0.101596593856811523 0.00986644439399242401 0.00350720970891416073
0.0951349958777427673 0.0574272796511650085 -0.035823628306388855
0.0997299626469612122 0.0236058328300714493 -0.00245283544063568115
0.10065731406211853 0.0167800784111022949 -0.00157182198017835617
0.098901011049747467 0.0297073982656002045 -0.0102631635963916779
0.0991635024547576904 0.0277753248810768127 -0.00266960635781288147
0.0947664827108383179 0.0601397417485713959 -0.02455863356590271
0.100672826170921326 0.0166659075766801834 -0.0018920388538390398
0.102057904005050659 0.00647097080945968628 0.00782828684896230698
0.0998414233326911926 0.022785477340221405 -0.00376950204372406006
0.0996334254741668701 0.0243164133280515671 -0.00237268954515457153
0.100670620799064636 0.0166821368038654327 0.00631340593099594116
0.0981878191232681274 0.0349568426609039307 -0.0111357495188713074
0.0996105372905731201 0.0244849175214767456 -0.00307411514222621918
0.096210874617099762 0.0495082437992095947 -0.0307374726980924606
0.0987586081027984619 0.030755557119846344 -0.014578833244740963
0.0957654714584350586 0.0527866333723068237 -0.0330868996679782867
0.101972080767154694 0.00710264313966035843 0.00999165978282690048
0.095296807587146759 0.0562362931668758392 -0.0333167165517807007
0.0967927277088165283 0.0452254638075828552 -0.0191290844231843948
0.100595735013484955 0.0172332730144262314 0.00204779952764511108
0.0993475839495658875 0.0264204107224941254 -0.0049944315105676651
0.0973453819751739502 0.0411576554179191589 -0.0175416618585586548
0.101702772080898285 0.00908491760492324829 0.0110410675406455994
0.0954140946269035339 0.0553730279207229614 -0.033526100218296051
0.101154915988445282 0.0131174568086862564 0.00655126944184303284
0.0964385867118835449 0.047832150012254715 -0.0301320645958185196
0.102303944528102875 0.00465994514524936676 0.0115247704088687897
0.102593936026096344 0.00252544693648815155 0.0122849782928824425
0.0986088216304779053 0.0318580679595470428 -0.0104981400072574615
0.0964075475931167603 0.0480606108903884888 -0.0247645359486341476
0.0985566228628158569 0.0322422459721565247 -0.0107410922646522522
0.0947687029838562012 0.0601234324276447296 -0.0267079249024391174
0.096674114465713501 0.0460985563695430756 -0.0154690220952033997
0.0959778130054473877 0.0512237176299095154 -0.0265724696218967438
0.103081442415714264 -0.00106282532215118408 0.0150853833183646202
0.0947035253047943115 0.0606031380593776703 -0.0273497216403484344
0.0986818820238113403 0.0313203334808349609 -0.0107195489108562469
0.0979062840342521667 0.0370291545987129211 -0.0119808372110128403
0.0974448323249816895 0.0404255986213684082 -0.017000759020447731
0.104977972805500031 -0.0150223392993211746 0.0288877282291650772
0.0974742025136947632 0.0402094796299934387 -0.00816255807876586914
0.0976567193865776062 0.0388660170137882233 0.00210200250148773193
0.100614912807941437 0.0170921646058559418 0.00989584252238273621
0.0950318202376365662 0.0581866912543773651 -0.0203252062201499939
0.100143745541572571 0.0205602142959833145 0.00399518944323062897
0.10112791508436203 0.0133161209523677826 0.0146331265568733215
0.0941736772656440735 0.0645030960440635681 -0.0232998896390199661
0.0970709919929504395 0.0431773103773593903 -0.00642775185406208038
0.102000422775745392 0.0068940725177526474 0.0176521278917789459
0.105771839618682861 -0.0208656303584575653 0.0332069844007492065
0.0946839898824691772 0.0607468858361244202 -0.0100835449993610382
0.10148146003484726 0.0107139386236667633 0.0113341603428125381
0.102919690310955048 0.000127760693430900574 0.0219688341021537781
0.097797878086566925 0.0378270596265792847 0.00194159522652626038
0.101470738649368286 0.0107928300276398659 0.0108319539576768875
0.0943583846092224121 0.0631435364484786987 -0.0250276215374469757
0.100701160728931427 0.0164572857320308685 0.011311061680316925
0.09902934730052948 0.0287627540528774261 0.00288413278758525848
0.106161139905452728 -0.023731062188744545 0.0345730781555175781
0.101670175790786743 0.00932481512427330017 0.015276297926902771
0.101154424250125885 0.0131210051476955414 0.0109809134155511856
0.0955739915370941162 0.0541960559785366058 -0.0120326168835163116
0.0972504094243049622 0.0418566614389419556 -0.000454869121313095093
0.0974545776844024658 0.040353868156671524 0.00068248063325881958
0.103655733168125153 -0.00528997555375099182 0.0249491892755031586
0.0959244370460510254 0.0516165681183338165 -0.0070318169891834259
0.09738902747631073 0.0408363752067089081 -0.000125136226415634155
0.0976040959358215332 0.0392533503472805023 -0.0037729945033788681
0.0944531336426734924 0.0624461807310581207 -0.0201346874237060547
0.100947916507720947 0.0146410539746284485 0.0115320468321442604
0.101484537124633789 0.0106912441551685333 0.0116636920720338821
0.0953188613057136536 0.0560739114880561829 -0.00981251709163188934
0.0986157208681106567 0.0318072736263275146 0.00293895602226257324
0.0977801084518432617 0.0379577837884426117 0.00228608772158622742
0.0945225358009338379 0.0619352869689464569 -0.0100875981152057648
0.0947563797235488892 0.0602140538394451141 -0.0135655049234628677
0.0985656231641769409 0.0321760065853595734 0.00158478319644927979
0.10034295916557312 0.0190938469022512436 0.00987550988793373108
0.0980775579810142517 0.0357684493064880371 0.000879114493727684021
0.0970284938812255859 0.0434900969266891479 -0.00510424375534057617
0.10113292932510376 0.0132792228832840919 0.01063553337007761
0.0970318913459777832 0.0434650778770446777 0.00677424483001232147
0.0939000397920608521 0.0665172040462493896 -0.00124849379062652588
0.0938658043742179871 0.0667691826820373535 -0.00042827799916267395
0.0955121368169784546 0.0546513274312019348 0.00311795808374881744
0.0939219295978546143 0.0663560777902603149 0.000514086335897445679
0.0950173139572143555 0.0582934319972991943 -0.00582687556743621826
0.0974898934364318848 0.0400939881801605225 0.00742370542138814926
0.0970033258199691772 0.0436753928661346436 0.0100879520177841187
0.0987314134836196899 0.0309556536376476288 0.0139638390392065048
0.101906836032867432 0.00758285634219646454 0.0224383175373077393
0.0953488126397132874 0.055853474885225296 0.000483047217130661011
0.101758569478988647 0.00867422111332416534 0.0191650427877902985
0.0970252007246017456 0.0435143187642097473 0.00957014970481395721
0.0983743965625762939 0.0335835292935371399 0.0127244442701339722
0.100325107574462891 0.0192252621054649353 0.0163233056664466858
0.100606724619865417 0.0171524323523044586 0.0194216780364513397
0.0963037386536598206 0.0488246679306030273 0.00500974804162979126
0.0986148864030838013 0.0318133905529975891 0.0122635737061500549
0.101717710494995117 0.0089749479666352272 0.0193734690546989441
0.098886735737323761 0.0298124551773071289 0.0135750193148851395
0.0983265489339828491 0.03393574059009552 0.01102403923869133
0.0986018180847167969 0.0319096222519874573 0.0082345893606543541
0.101926133036613464 0.00744087807834148407 0.0226698648184537888
0.0998113453388214111 0.0230067893862724304 0.0107288304716348648
0.0963253453373908997 0.048665657639503479 0.00482367910444736481
0.103510558605194092 -0.00422136299312114716 0.0280141420662403107
0.0971838757395744324 0.0423464290797710419 0.00399515312165021896
0.0987041071057319641 0.0311567168682813644 0.0102722290903329849
0.096109926700592041 0.0502512529492378235 0.00645272992551326752
0.101960480213165283 0.00718803331255912781 0.0223443768918514252
0.102513767778873444 0.00311553711071610451 0.0221830010414123535
0.100634954869747162 0.0169446449726819992 0.0155229400843381882
0.0943814292550086975 0.0629738867282867432 -0.00849004834890365601
0.0935620293021202087 0.0690051615238189697 -0.00701502710580825806
0.101584844291210175 0.00995291955769062042 0.0206101834774017334
0.0952185094356536865 0.0568125322461128235 0.00190293602645397186
0.0946319997310638428 0.0611295700073242188 -0.00274068489670753479
0.0948250517249107361 0.0597086213529109955 -0.0052108224481344223
0.0955945178866386414 0.0540449135005474091 0.0061497911810874939
0.100166529417037964 0.0203924775123596191 0.0251426845788955688
0.0972548499703407288 0.0418240129947662354 0.0129707595333456993
0.0943792760372161865 0.0629897415637969971 0.0133642610162496567
0.0952097922563552856 0.0568767189979553223 0.00886500254273414612
0.0938296467065811157 0.0670353025197982788 0.0097862686961889267
0.0962774977087974548 0.0490178503096103668 0.0110862478613853455
0.100547641515731812 0.0175872799009084702 0.0225899964570999146
0.0947556644678115845 0.0602193176746368408 0.0152777396142482758
0.0989363491535186768 0.0294472537934780121 0.0198324508965015411
0.100566282868385315 0.017450086772441864 0.0204192250967025757
0.100321471691131592 0.0192519873380661011 0.0246652793139219284
0.0952490344643592834 0.0565879195928573608 0.0102627277374267578
0.0979590937495231628 0.0366403833031654358 0.0151077769696712494
0.0959583818912506104 0.0513667203485965729 0.0144958356395363808
0.0989217609167098999 0.0295546259731054306 0.0181642621755599976
0.0976318418979644775 0.0390491150319576263 0.0122442543506622314
0.102918587625026703 0.000135847716592252254 0.027085673063993454
0.0934295877814292908 0.0699799880385398865 0.00139796244911849499
0.0944623872637748718 0.0623780190944671631 0.00450232718139886856
0.0958909615874290466 0.0518628954887390137 0.010915042832493782
0.0942887067794799805 0.0636564195156097412 0.0139899458736181259
0.096789136528968811 0.0452518463134765625 0.0161820817738771439
0.0940601900219917297 0.0653383880853652954 0.0137193687260150909
0.0970209240913391113 0.0435458160936832428 0.0184920765459537506
0.098315015435218811 0.0340206176042556763 0.0189212393015623093
0.0951405391097068787 0.0573864653706550598 0.00898974575102329254
0.0939375832676887512 0.066240847110748291 0.0129794348031282425
0.093617662787437439 0.068595588207244873 0.0104744061827659607
0.100478984415531158 0.0180926360189914703 0.0243630576878786087
0.104841798543930054 -0.0140200182795524597 0.0334218218922615051
0.0994471907615661621 0.0256871618330478668 0.0178230497986078262
0.100220158696174622 0.0199977420270442963 0.0228495001792907715
0.0947028845548629761 0.06060781329870224 0.00586061598733067513
0.098024420440196991 0.0361595228314399719 0.0159450750797986984
0.0955757200717926025 0.0541832596063613892 0.0135568166151642799
0.0995907634496688843 0.0246304124593734741 0.0204913951456546783
0.0968050286173820496 0.0451349429786205292 0.0201133731752634048
0.0950195267796516418 0.0582772120833396912 0.0187094993889331818
0.100895777344703674 0.0150248445570468903 0.032403603196144104
0.0958184003829956055 0.0523970983922481537 0.0229163356125354767
0.0955170318484306335 0.0546153001487255096 0.022475801408290863
0.0980960726737976074 0.0356321483850479126 0.0251781102269887924
0.100447796285152435 0.0183221716433763504 0.0315845012664794922
0.0980079621076583862 0.0362807288765907288 0.0291127525269985199
0.0968276113271713257 0.0449687130749225616 0.0236206203699111938
0.0969656333327293396 0.0439528115093708038 0.0274660997092723846
0.100556932389736176 0.0175189599394798279 0.0307875741273164749
0.0978155583143234253 0.0376968942582607269 0.0218002460896968842
0.0947700291872024536 0.0601136572659015656 0.0223601832985877991
0.0955365821719169617 0.0544713661074638367 0.0223239809274673462
0.102726645767688751 0.00154865719377994537 0.0321282297372817993
0.0947319790720939636 0.0603937059640884399 0.0175235718488693237
0.0999543890357017517 0.0219539403915405273 0.0303730498999357224
0.0994175076484680176 0.0259056929498910904 0.0302560925483703613
0.101022206246852875 0.0140942409634590149 0.0277093444019556046
0.101027749478816986 0.0140534080564975739 0.0274541079998016357
0.101728163659572601 0.00889803096652030945 0.0318771973252296448
0.0988421142101287842 0.030140874907374382 0.0281840488314628601
0.0954723060131072998 0.0549444779753684998 0.0245599709451198578
0.0989118814468383789 0.0296273510903120041 0.0264732558280229568
0.102326676249504089 0.00449266005307435989 0.0320287831127643585
0.0980131775140762329 0.0362423062324523926 0.028757292777299881
0.0961088687181472778 0.0502590127289295197 0.0217767525464296341
0.0975332334637641907 0.0397749356925487518 0.024426095187664032
0.0941686853766441345 0.0645398125052452087 0.0150037268176674843
0.1012410968542099 0.0124830733984708786 0.0324942171573638916
0.10563582181930542 -0.0198644846677780151 0.0361692421138286591
0.10254698246717453 0.00287107750773429871 0.0362075231969356537
0.0958242565393447876 0.0523539483547210693 0.0332103036344051361
0.10267176479101181 0.00195259787142276764 0.0363809727132320404
0.0947046726942062378 0.0605946630239486694 0.0271422117948532104
0.0968040376901626587 0.045142199844121933 0.0346703007817268372
0.101219892501831055 0.0126391313970088959 0.0355780534446239471
0.0974059328436851501 0.0407119691371917725 0.0308355018496513367
0.0983642116189002991 0.0336585193872451782 0.0309991482645273209
0.0995788797736167908 0.0247179027646780014 0.0348201245069503784
0.0997142866253852844 0.0237212479114532471 0.0346582978963851929
0.103960856795310974 -0.00753579102456569672 0.0364234261214733124
0.0953475907444953918 0.0558624602854251862 0.029404468834400177
0.104779995977878571 -0.0135651333257555962 0.0375722534954547882
0.0987061336636543274 0.0311417877674102783 0.0319178663194179535
0.0952832549810409546 0.056336037814617157 0.0290086567401885986
0.096060924232006073 0.0506119616329669952 0.0316745936870574951
0.0974344536662101746 0.0405019968748092651 0.0302327387034893036
0.0949457734823226929 0.0588200949132442474 0.0290361419320106506
0.103952221572399139 -0.00747224502265453339 0.0378820449113845825
0.100156225264072418 0.0204683318734169006 0.0378872118890285492
0.100547872483730316 0.0175856165587902069 0.0328252241015434265
0.0957549586892127991 0.0528640709817409515 0.0335238128900527954
0.100853621959686279 0.0153351351618766785 0.0366443991661071777
0.0958205312490463257 0.0523813590407371521 0.0317976176738739014
0.100866541266441345 0.015240013599395752 0.0335092805325984955
0.0962229892611503601 0.0494190417230129242 0.0336739160120487213
0.097395382821559906 0.0407896228134632111 0.0335704050958156586
0.101755514740943909 0.00869670417159795761 0.0386353470385074615
0.0970505848526954651 0.0433274805545806885 0.041460920125246048
0.0999883189797401428 0.0217042006552219391 0.0387783646583557129
0.0969218835234642029 0.0442748554050922394 0.0404541417956352234
0.103734947741031647 -0.0058729611337184906 0.0394082777202129364
0.0958295539021492004 0.0523149669170379639 0.0409528911113739014
0.0975576266646385193 0.0395954623818397522 0.0399020910263061523
0.0998753905296325684 0.0225354377180337906 0.0436793826520442963
0.10343073308467865 -0.00363382184877991676 0.0383352525532245636
0.101732529699802399 0.0088659040629863739 0.0409718304872512817
0.0967452377080917358 0.0455750338733196259 0.0424881130456924438
0.100170157849788666 0.0203658342361450195 0.0385079942643642426
0.104026839137077332 -0.00802151486277580261 0.0401040017604827881
0.100993193686008453 0.0143078267574310303 0.0399972088634967804
0.10538133978843689 -0.0179913491010665894 0.0386228971183300018
0.102402687072753906 0.00393319036811590195 0.039356619119644165
0.0996533110737800598 0.0241701081395149231 0.0393731668591499329
0.104170985519886017 -0.00908247940242290497 0.0381647832691669464
0.0988691896200180054 0.0299415960907936096 0.0391532815992832184
0.105649903416633606 -0.0199681222438812256 0.0388811156153678894
0.103457123041152954 -0.00382805056869983673 0.0407094992697238922
0.0993749871850013733 0.0262186750769615173 0.0413846485316753387
0.10062398761510849 0.0170253627002239227 0.043942667543888092
0.0979306772351264954 0.0368495509028434753 0.0506862550973892212
0.0992350801825523376 0.0272484533488750458 0.0464854799211025238
0.104082025587558746 -0.00842764880508184433 0.042212560772895813
0.102448791265487671 0.00359383784234523773 0.0420385487377643585
0.103525847196578979 -0.00433387421071529388 0.0428729578852653503
0.105112507939338684 -0.0160125792026519775 0.0402925014495849609
0.0989340394735336304 0.0294642746448516846 0.0459813512861728668
0.0991921648383140564 0.0275643430650234222 0.0509268343448638916
0.102694384753704071 0.00178610160946846008 0.0442600883543491364
0.10170513391494751 0.009067511186003685 0.0431057512760162354
0.0991624444723129272 0.0277830827981233597 0.047684546560049057
0.100060753524303436 0.0211710501462221146 0.0493559055030345917
0.0977847129106521606 0.037923961877822876 0.0478637814521789551
0.0985626652836799622 0.0321978218853473663 0.0519000142812728882
0.0988388732075691223 0.030164739117026329 0.0521176159381866455
0.0972152277827262878 0.0421156920492649078 0.0465790890157222748
0.100906893610954285 0.0149430055171251297 0.0522592365741729736
0.100862167775630951 0.0152722075581550598 0.0519052520394325256
0.100581303238868713 0.0173395033925771713 0.0493553988635540009
0.101076044142246246 0.013697928749024868 0.0503790080547332764
0.102798447012901306 0.00102015025913715363 0.0463048480451107025
0.100139357149600983 0.0205924864858388901 0.0505303479731082916
0.0992343276739120483 0.0272539816796779633 0.0533644482493400574
0.0995103046298027039 0.0252226591110229492 0.053066495805978775
0.09992237389087677 0.0221896283328533173 0.0557176060974597931
0.101524382829666138 0.0103979669511318207 0.0514506809413433075
0.100330635905265808 0.019184555858373642 0.053317338228225708
0.100955046713352203 0.0145885907113552094 0.0513450950384140015
0.101369298994541168 0.0115394704043865204 0.0540044158697128296
0.106585033237934113 -0.0268511604517698288 0.0388246737420558929
0.101753778755664825 0.00870946608483791351 0.0561863593757152557
0.101732656359672546 0.00886495597660541534 0.0539212264120578766
0.103573448956012726 -0.00468427501618862152 0.0477751754224300385
0.102458670735359192 0.00352106057107448578 0.0514626838266849518
0.102573893964290619 0.00267302338033914566 0.0510831736028194427
0.103170536458492279 -0.00171861611306667328 0.0513359755277633667
0.103254564106464386 -0.00233710464090108871 0.0537531822919845581
0.10296979546546936 -0.000241066329181194305 0.054598592221736908
0.103414669632911682 -0.00351553410291671753 0.0527381710708141327
0.106122717261314392 -0.0234482567757368088 0.04201459139585495
0.108044296503067017 -0.0375920981168746948 0.0224546622484922409
0.107607729732990265 -0.0343787781894207001 0.0229373499751091003
0.107919201254844666 -0.0366713143885135651 0.021137334406375885
0.10699097067117691 -0.029839077964425087 0.0349269099533557892
0.108124464750289917 -0.0381821915507316589 0.013991083949804306
-0.0981944054365158081 -0.0568505711853504181 0.00176051724702119827
-0.0893784314393997192 -0.0552209317684173584 0.0135475164279341698
-0.088849484920501709 -0.0564064271748065948 0.0036860024556517601
-0.0812397301197052002 -0.0560516603291034698 0.00519708730280399323
-0.0946989730000495911 -0.055325336754322052 0.0136739835143089294
-0.0667051151394844055 -0.0550354830920696259 0.0108716301620006561
-0.1005583256483078 -0.0565824955701828003 0.00440655369311571121
-0.0431293658912181854 -0.0542449764907360077 0.0130115421488881111
-0.0670797824859619141 -0.0551818050444126129 0.00973601918667554855
-0.0687361955642700195 -0.0553036294877529144 0.00903975218534469604
-0.0917997360229492188 -0.0554664880037307739 0.0119740478694438934
-0.0402374826371669769 -0.054251648485660553 0.0124204745516180992
-0.0366266593337059021 -0.0540519990026950836 0.013395373709499836
-0.0869155973196029663 -0.0552570521831512451 0.0127934450283646584
-0.0864520519971847534 -0.0554281063377857208 0.0112987793982028961
-0.0751040130853652954 -0.0552680790424346924 0.0105130262672901154
-0.0595043450593948364 -0.0550873801112174988 0.00910933315753936768
-0.0795494318008422852 -0.0557862669229507446 0.00706945499405264854
-0.0522947497665882111 -0.0545105263590812683 0.0125236352905631065
-0.0938993319869041443 -0.0556122772395610809 0.0111625930294394493
-0.0454820320010185242 -0.0542864426970481873 0.0131061645224690437
-0.0938231945037841797 -0.055724170058965683 0.0102269351482391357
-0.10051148384809494 -0.0556883849203586578 0.0117615396156907082
-0.050133388489484787 -0.0544444918632507324 0.0126667926087975502
-0.0908446162939071655 -0.0561923794448375702 0.0058187069371342659
-0.0437262877821922302 -0.0541813336312770844 0.013646337203681469
-0.0709244310855865479 -0.0557191446423530579 0.00602334411814808846
-0.0565786734223365784 -0.0556053966283798218 0.00430071167647838593
-0.0356318317353725433 -0.0547751672565937042 0.00725515512749552727
-0.0519854575395584106 -0.0554661788046360016 0.00459577934816479683
-0.080786973237991333 -0.0566055290400981903 0.000551617471501231194
-0.0867951363325119019 -0.0565556026995182037 0.00207659602165222168
-0.0545233264565467834 -0.0560370534658432007 0.000364677049219608307
-0.0522286295890808105 -0.0555485226213932037 0.00396269233897328377
-0.0567797310650348663 -0.0550978928804397583 0.00851764809340238571
-0.0530849955976009369 -0.0558300651609897614 0.00180274713784456253
-0.0800751000642776489 -0.0561884678900241852 0.0038544870913028717
-0.0711866691708564758 -0.0562024414539337158 0.00209162896499037743
-0.058256492018699646 -0.0559917539358139038 0.00142981298267841339
-0.0588458441197872162 -0.0561076365411281586 0.000584706198424100876
-0.0746648311614990234 -0.0561736784875392914 0.00297332042828202248
-0.0740059390664100647 -0.056001514196395874 0.0042690616101026535
-0.0666670799255371094 -0.0558885708451271057 0.00383874471299350262
-0.0685524716973304749 -0.0557472221553325653 0.00535238487645983696
-0.0534142069518566132 -0.0557967275381088257 0.00213834643363952637
-0.0354329273104667664 -0.0551523976027965546 0.00411151349544525146
-0.0375610180199146271 -0.0552272535860538483 0.003889487124979496
-0.0973716527223587036 -0.0570214167237281799 0.000200987618882209063
-0.0761814862489700317 -0.0564807206392288208 0.000725783873349428177
-0.0730923563241958618 -0.0560667179524898529 0.00356269581243395805
-0.07784319669008255 -0.0563637353479862213 0.00199724966660141945
-0.0616349130868911743 -0.0556884594261646271 0.00455393083393573761
-0.0417350046336650848 -0.0554666481912136078 0.00269167311489582062
-0.100516512989997864 -0.051835864782333374 0.0232222266495227814
-0.0597063265740871429 -0.0510642640292644501 0.0228346008807420731
-0.0878160074353218079 -0.0522671006619930267 0.0213313549757003784
-0.0988556370139122009 -0.0543369278311729431 0.0165288820862770081
-0.0939750298857688904 -0.0540850386023521423 0.0169033855199813843
