ply
format ascii 1.0
element vertex 709
property float x
property float y
property float z
end_header
0.0511632822453975677 -0.00535556674003601074 0.00630525453016161919
0.0511632822453975677 -0.0218312870711088181 0.00487732328474521637
0.0511632822453975677 -0.0219613276422023773 0.0124291554093360901
0.0511632822453975677 0.00920829363167285919 0.00469360314309597015
0.0511632822453975677 -0.00882500037550926208 0.00192051182966679335
0.0511632822453975677 0.00213776901364326477 0.00202829553745687008
0.0511632822453975677 -0.013180907815694809 0.00301255984231829643
0.0511632822453975677 -0.0182407647371292114 0.00386543711647391319
0.0511632822453975677 -0.00700940750539302826 0.00225557480007410049
0.0511632822453975677 -0.0246550999581813812 0.00385468732565641403
0.0511632822453975677 -0.00299985520541667938 0.00156161212362349033
0.0511632822453975677 0.0100725162774324417 0.00115420622751116753
0.0511632822453975677 0.0257115326821804047 9.23913903534412384e-05
0.0511632822453975677 0.0116780493408441544 0.00124515662901103497
0.0511632822453975677 0.00572036951780319214 0.00173491076566278934
0.0511632822453975677 -0.0171322524547576904 0.0150292078033089638
0.0511632822453975677 0.00671129673719406128 0.0169378016144037247
0.0511632822453975677 -0.00771529879420995712 0.0163422003388404846
0.0511632822453975677 -0.0175743438303470612 0.0167680904269218445
0.0511632822453975677 -0.0148996151983737946 0.0153623474761843681
0.0511632822453975677 -0.0181878581643104553 0.0165769383311271667
0.0511632822453975677 -0.0222519524395465851 0.0147658176720142365
0.0511632822453975677 -0.00947924330830574036 0.015552230179309845
0.0511632822453975677 -0.00390908494591712952 0.0161116942763328552
0.0511632822453975677 -0.0215871892869472504 0.0161145087331533432
0.0511632822453975677 -0.0114603890106081963 0.0173013415187597275
0.0511632822453975677 -0.00240427441895008087 0.0167049188166856766
0.0511632822453975677 -0.00871294084936380386 0.0159759558737277985
0.0511632822453975677 -0.00867311004549264908 0.0154445022344589233
0.0511632822453975677 -9.363517165184021e-06 0.015751425176858902
0.0511632822453975677 -0.0134627046063542366 0.0219520758837461472
0.0511632822453975677 -0.00918862875550985336 0.0247555673122406006
0.0511632822453975677 -0.0100315259769558907 0.0247309673577547073
0.0511632822453975677 -0.0117460303008556366 0.0245653744786977768
0.0511632822453975677 0.00256780814379453659 0.0245623253285884857
0.0511632822453975677 0.0078161284327507019 0.0209063924849033356
0.0511632822453975677 0.0157565176486968994 0.0190645921975374222
0.0511632822453975677 -0.0102891148999333382 0.0216972138732671738
0.0511632822453975677 0.00428102444857358932 0.0208481494337320328
0.0511632822453975677 0.0144535191357135773 0.0200275573879480362
0.0511632822453975677 0.00327077973634004593 0.0243070460855960846
0.0511632822453975677 0.00637030182406306267 0.0212550908327102661
0.0511632822453975677 0.00916880369186401367 0.0208977684378623962
0.0511632822453975677 -0.00340769067406654358 0.024440128356218338
0.0511632822453975677 -0.0169847309589385986 0.0181070640683174133
0.0511632822453975677 0.00272196950390934944 0.0185482054948806763
0.0511632822453975677 0.00848001148551702499 0.0213231611996889114
0.0511632822453975677 0.00782724190503358841 0.0208798367530107498
0.0511632822453975677 0.0105137564241886139 0.0196907594799995422
0.0511632822453975677 0.00715456996113061905 0.0180883966386318207
0.0511632822453975677 0.0182075686752796173 0.0178306736052036285
0.0511632822453975677 0.0110978428274393082 0.0191638804972171783
0.0511632822453975677 -0.0140433404594659805 0.0192109923809766769
0.0511632822453975677 -0.00756599893793463707 0.0188212357461452484
0.0511632822453975677 -0.0108517250046133995 0.0220117866992950439
0.0511632822453975677 -0.0120578855276107788 0.0183392949402332306
0.0511632822453975677 -0.00267625879496335983 0.0185132492333650589
0.0511632822453975677 0.00855972245335578918 0.0201469510793685913
0.0511632822453975677 0.0130092361941933632 0.017648603767156601
0.0511632822453975677 -0.00328098982572555542 0.0227954722940921783
0.0511632822453975677 -0.0108926892280578613 0.0197639334946870804
0.0511632822453975677 -0.015333833172917366 0.0193756073713302612
0.0511632822453975677 -0.0156657006591558456 0.0187534820288419724
0.0511632822453975677 0.00732116308063268661 0.0227041058242321014
0.0511632822453975677 0.00234976573847234249 0.0189911797642707825
0.0511632822453975677 -0.0120495213195681572 0.0218733474612236023
0.0511632822453975677 0.00333419721573591232 0.0236060451716184616
0.0511632822453975677 -0.00480172410607337952 0.0230518858879804611
0.0511632822453975677 0.00481767486780881882 0.0192693416029214859
0.0511632822453975677 0.0164762847125530243 -0.00110463076271116734
0.0511632822453975677 0.0220293514430522919 -0.00175986043177545071
0.0511632822453975677 -0.0109851695597171783 0.000985213671810925007
0.0511632822453975677 -0.0103251803666353226 0.00128758023492991924
0.0511632822453975677 -0.0189020950347185135 0.00192463560961186886
0.0511632822453975677 -0.00112182367593050003 0.000641318969428539276
0.0511632822453975677 0.0258156768977642059 -0.00222354242578148842
0.0511632822453975677 0.0270365383476018906 -0.00170169980265200138
0.0511632822453975677 0.0255050640553236008 -0.00125614088028669357
0.0511632822453975677 0.00512607954442501068 -5.27115771546959877e-05
0.0511632822453975677 -0.00284695811569690704 0.00116700551006942987
0.0506843104958534241 -0.0272687990218400955 0.00185979681555181742
0.0447160489857196808 -0.0273337364196777344 0.000372480251826345921
0.0496540740132331848 -0.0271714702248573303 0.00294925295747816563
0.0465358607470989227 -0.0271157566457986832 0.00337243592366576195
0.0480429269373416901 -0.0266673676669597626 0.00595419295132160187
0.0482021830976009369 -0.026648232713341713 0.00604050839319825172
0.0509434863924980164 -0.0254748072475194931 0.00989934708923101425
0.0506003312766551971 -0.0248866192996501923 0.0113193560391664505
0.0492950379848480225 -0.022891288623213768 0.0149221243336796761
0.0504506267607212067 -0.0230051595717668533 0.014743381179869175
0.0474849119782447815 -0.0247716046869754791 0.0115891750901937485
0.0489769056439399719 -0.0246982108801603317 0.0117301642894744873
0.0487597845494747162 -0.0259665530174970627 0.00851073488593101501
0.0507266782224178314 -0.0260685309767723083 0.0081873033195734024
0.0506853275001049042 -0.0219351295381784439 0.0162981096655130386
0.0464050397276878357 -0.0217984020709991455 0.0164762958884239197
0.0490251928567886353 -0.0185893718153238297 0.0200266167521476746
0.0452963709831237793 -0.0171287208795547485 0.0212977789342403412
0.0475141070783138275 -0.0171768032014369965 0.0212608836591243744
0.0498232096433639526 -0.015130738727748394 0.02275838702917099
0.0492847561836242676 -0.0143641456961631775 0.0232467595487833023
0.0504857487976551056 -0.011304331012070179 0.0248928423970937729
0.0450279340147972107 -0.0110842231661081314 0.0249840151518583298
0.0487507842481136322 -0.00696325814351439476 0.0264436639845371246
0.0489874817430973053 -0.00626294082030653954 0.0265989210456609726
0.0483714789152145386 -0.00866990257054567337 0.025916367769241333
0.0485790781676769257 -0.0079970015212893486 0.0261285323649644852
0.0463001318275928497 -0.0128406975418329239 0.0241201035678386688
0.0503500774502754211 -0.0126759447157382965 0.0242058690637350082
0.0439645275473594666 -0.0208595357835292816 0.0176804009824991226
0.0501741208136081696 -0.00386137375608086586 0.0270513873547315598
0.0488811992108821869 -0.00410546734929084778 0.0270192511379718781
0.0487485826015472412 -0.0225511584430932999 0.0154560226947069168
0.0450137332081794739 -0.0212300866842269897 0.0172169394791126251
0.0455279313027858734 -0.0241963714361190796 0.012694191187620163
0.0453745387494564056 -0.0237315390259027481 0.0135871255770325661
0.0489845983684062958 -0.0269888322800397873 0.00433652056381106377
0.047530781477689743 -0.0270616337656974792 0.00378354289568960667
0.0442400276660919189 -0.0262021645903587341 0.00776347005739808083
0.0465910285711288452 -0.025705946609377861 0.00933727249503135681
0.0444683916866779327 -0.0264548137784004211 0.00691296393051743507
0.0440592654049396515 -0.0265861432999372482 0.00632057199254631996
0.0454512946307659149 -0.0248147081583738327 0.0114929629489779472
0.0470476970076560974 -0.027257818728685379 0.00211130850948393345
0.0499242208898067474 -0.0272565931081771851 0.00213937112130224705
0.0450742393732070923 -0.00830836407840251923 0.0260303597897291183
0.0479949414730072021 -0.00747515121474862099 0.026293070986866951
0.0441053248941898346 -0.00411725882440805435 0.0270176995545625687
0.0497207455337047577 -0.00274988403543829918 0.027197718620300293
0.0433165878057479858 -0.00654618814587593079 0.0265361256897449493
0.0465864464640617371 -0.000144359160913154483 0.0273436959832906723
0.0432831309735774994 -1.72302643477451056e-05 0.0273492466658353806
0.0494442880153656006 -0.00977431703358888626 0.0255265962332487106
0.0453131198883056641 -0.00971157196909189224 0.0255525857210159302
0.0431203544139862061 -0.0185074694454669952 0.0201016664505004883
0.0466338656842708588 -0.0182880684733390808 0.0203027110546827316
0.0439586043357849121 -0.0144081907346844673 0.0232187006622552872
0.0460725501179695129 -0.0141152981668710709 0.0234052930027246475
0.0494397580623626709 -0.0157090555876493454 0.0223871264606714249
0.046877056360244751 -0.0162047166377305984 0.0220067929476499557
0.0474553108215332031 -0.0116745047271251678 0.0247271861881017685
0.0430677607655525208 -0.0131791085004806519 0.0239439383149147034
0.0452336929738521576 -0.0195778291672468185 0.0190791375935077667
0.0484369285404682159 -0.0196877662092447281 0.0189591608941555023
0.050994478166103363 -0.00116694741882383823 0.0272990502417087555
0.0466027334332466125 -0.00191790005192160606 0.0272662639617919922
0.0510316081345081329 0.00448123831301927567 0.0269697792828083038
0.0485218316316604614 0.00327632785774767399 0.0271284095942974091
0.0485397353768348694 0.00574176106601953506 0.0267144627869129181
0.0499978363513946533 0.00532167870551347733 0.0268075931817293167
0.0482772737741470337 0.00779932457953691483 0.0261908601969480515
0.0501336567103862762 0.00901280622929334641 0.0258082505315542221
0.0507162958383560181 0.0117766307666897774 0.0246740225702524185
0.0483820624649524689 0.0116675030440092087 0.0247308313846588135
0.0508940592408180237 0.0174954216927289963 0.0210164003074169159
0.0500346794724464417 0.0166766252368688583 0.0216446854174137115
0.0443576127290725708 0.0137574579566717148 0.0236332621425390244
0.0508080422878265381 0.0137871261686086655 0.0236143618822097778
0.04973582923412323 0.0107400976121425629 0.025126555934548378
0.0507755056023597717 0.0182399842888116837 0.0203467719256877899
0.0475941672921180725 0.0179312415421009064 0.0206296835094690323
0.0486083477735519409 0.0219344627112150192 0.0162989776581525803
0.0495171882212162018 0.0229429751634597778 0.014840991236269474
0.0483887866139411926 0.0229119397699832916 0.0148897068575024605
0.0488052032887935638 0.0244743283838033676 0.0121602397412061691
0.0504062250256538391 0.0262999888509511948 0.00745320925489068031
0.0500089414417743683 0.0257347859442234039 0.0092458035796880722
0.048044934868812561 0.0269762277603149414 0.00443226657807826996
0.0443062037229537964 0.026955408975481987 0.00459039676934480667
0.0507799051702022552 0.0264332443475723267 0.00701025966554880142
0.0487302541732788086 0.0267787817865610123 0.00545164057984948158
0.0454025790095329285 0.0248686783015727997 0.0113626709207892418
0.0474469400942325592 0.024977169930934906 0.0111007476225495338
0.0476381555199623108 0.0200028233230113983 0.0186153370887041092
0.0498933903872966766 0.0203055627644062042 0.0182849541306495667
0.0492531880736351013 0.0272909253835678101 0.00135304615832865238
0.0475266091525554657 0.0273043587803840637 0.00104533787816762924
0.0474721565842628479 0.0156264230608940125 0.0224426016211509705
0.0455066412687301636 0.0154471220448613167 0.0225568283349275589
0.0463677532970905304 0.0174961816519498825 0.0210158172994852066
0.0427913963794708252 0.0131940627470612526 0.0239361543208360672
0.0446182526648044586 0.0130992457270622253 0.0239855125546455383
0.0448015667498111725 0.00338008720427751541 0.0271147489547729492
0.0444353781640529633 0.00466480199247598648 0.0269456133246421814
0.0437116734683513641 0.00884047150611877441 0.0258625876158475876
0.0461166687309741974 0.00875846017152070999 0.0258884448558092117
0.0449188500642776489 0.00626289751380681992 0.0265989303588867188
0.0432361923158168793 0.0061244484968483448 0.0266296230256557465
0.0452564768493175507 0.010242808610200882 0.0253325402736663818
0.046877201646566391 0.0107174664735794067 0.0251359306275844574
0.0469123050570487976 0.00221629394218325615 0.0272532347589731216
0.0448027476668357849 0.00166638579685240984 0.0272772442549467087
0.0442277565598487854 0.0259566586464643478 0.00854211393743753433
0.0441474281251430511 0.0271526407450437546 0.00309228338301181793
0.0457027740776538849 0.0271583478897809982 0.00304892356507480145
0.0464242659509181976 0.0266935192048549652 0.00583623163402080536
0.0507898256182670593 0.0269185397773981094 0.00482123019173741341
0.0468911789357662201 0.0253833625465631485 0.0101201115176081657
0.0461262911558151245 0.0252087786793708801 0.0105415945872664452
0.0440512821078300476 0.0196487642824649811 0.0190017241984605789
0.0427796840667724609 0.0206795595586299896 0.0178768094629049301
0.0433296859264373779 0.022554425522685051 0.0154508929699659348
0.0473097413778305054 0.0235601421445608139 0.0138722332194447517
0.0435261726379394531 0.0217568986117839813 0.0165303833782672882
0.0469984486699104309 0.0220573749393224716 0.0161387957632541656
0.0441614352166652679 0.0243168864399194717 0.0124626820906996727
0.0432926304638385773 0.0243961680680513382 0.0123103829100728035
0.0470461361110210419 0.0192879680544137955 0.0193864703178405762
0.0428675264120101929 0.0186937674880027771 0.0199309550225734711
0.0464132465422153473 0.0273450389504432678 0.00011359599739080295
0.0507063716650009155 0.000842168403323739767 0.0273132305592298508
0.0472289323806762695 0.000270773511147126555 0.027338176965713501
0.0481474883854389191 0.0273251645267009735 -0.000568808987736701965
0.0478585138916969299 0.0272308196872472763 -0.00249844416975975037
0.0492439046502113342 0.0270121786743402481 -0.00415918789803981781
0.0484853126108646393 0.0265871100127696991 -0.00631621107459068298
0.0498600974678993225 0.0269049946218729019 -0.00488232821226119995
0.0500071756541728973 0.0252893455326557159 -0.0103470906615257263
0.0505176261067390442 0.0252979472279548645 -0.010326324962079525
0.0481096245348453522 0.023121153935790062 -0.0145613076165318489
0.0485771186649799347 0.0231408383697271347 -0.0145304091274738312
0.049900103360414505 0.024465685710310936 -0.01217684056609869
0.0443260893225669861 0.0247022323310375214 -0.0117224408313632011
0.0484589077532291412 0.0261576157063245773 -0.00790475960820913315
0.0502573400735855103 0.0263176746666431427 -0.00739711755886673927
0.0432675071060657501 0.0223894864320755005 -0.0157059803605079651
0.0461554750800132751 0.0219122376292943954 -0.0163279436528682709
0.0480408258736133575 0.0190489683300256729 -0.0196054726839065552
0.0499855950474739075 0.0189982615411281586 -0.0196519382297992706
0.0509705059230327606 0.0167829617857933044 -0.021563088521361351
0.0485063120722770691 0.0172119494527578354 -0.0212339162826538086
0.049734160304069519 0.0146800195798277855 -0.0230455268174409866
0.0497725307941436768 0.0146133322268724442 -0.0230880100280046463
0.0443219095468521118 0.0114043718203902245 -0.0248514041304588318
0.0509085804224014282 0.0105652147904038429 -0.0251989960670471191
0.0487024970352649689 0.00636505149304866791 -0.0265762824565172195
0.0493338815867900848 0.00703103793784976006 -0.0264286380261182785
0.0510061793029308319 0.00787819456309080124 -0.0261659920215606689
0.0500831454992294312 0.00916647538542747498 -0.0257597994059324265
0.0507142394781112671 0.0133400177583098412 -0.0238601751625537872
0.0487904176115989685 0.0134103447198867798 -0.0238235648721456528
0.0430783182382583618 0.0209122356027364731 -0.0176228880882263184
0.048788115382194519 0.0200502946972846985 -0.0185635313391685486
0.0506364069879055023 0.00438077980652451515 -0.0269830059260129929
0.0485280528664588928 0.00409715389832854271 -0.0270203463733196259
0.0438068099319934845 0.0230552777647972107 -0.0146647123619914055
0.0496288351714611053 0.0225258953869342804 -0.01549567561596632
0.0446825325489044189 0.0211361851543188095 -0.0173393134027719498
0.0444749817252159119 0.021173674613237381 -0.0172904562205076218
0.0428161658346652985 0.0237374324351549149 -0.0135758034884929657
0.0441497452557086945 0.0241941045969724655 -0.0126985451206564903
0.0469277352094650269 0.0270372405648231506 -0.00396882416680455208
0.0457714535295963287 0.0270985234528779984 -0.00350334029644727707
0.0458312779664993286 0.0261314138770103455 -0.00798786245286464691
0.0436250157654285431 0.0262987464666366577 -0.00745715154334902763
0.0439410731196403503 0.0264366623014211655 -0.00699484162032604218
0.046107213944196701 0.0265501923859119415 -0.00648273620754480362
0.0427559502422809601 0.0250811614096164703 -0.0108496909961104393
0.0501106344163417816 0.0248401854187250137 -0.0114314546808600426
0.0456659644842147827 0.0272527448832988739 -0.00222750380635261536
0.0428992994129657745 0.00863853283226490021 -0.0259262584149837494
0.0424726046621799469 0.0081572970375418663 -0.0260779913514852524
0.0472424589097499847 0.00326136616058647633 -0.0271303802728652954
0.0470134392380714417 0.00334121007472276688 -0.0271198675036430359
0.0438471287488937378 0.00526498490944504738 -0.0268201623111963272
0.0484019368886947632 0.00538837211206555367 -0.0267928075045347214
0.0491682738065719604 0.000358468154445290565 -0.0273343492299318314
0.0424672253429889679 0.000802719034254550934 -0.0273149516433477402
0.0446064546704292297 0.0106766745448112488 -0.0251528266817331314
0.0473822876811027527 0.00990548543632030487 -0.0254722647368907928
0.0424805842339992523 0.0190994888544082642 -0.019559178501367569
0.0501700453460216522 0.0175867695361375809 -0.020945332944393158
0.0460432879626750946 0.0146149322390556335 -0.023086991161108017
0.0457200109958648682 0.0142964990809559822 -0.023289855569601059
0.04558597132563591 0.0166968628764152527 -0.0216291546821594238
0.0457798317074775696 0.012142459861934185 -0.0244835838675498962
0.0472651869058609009 0.0119257578626275063 -0.0245963912457227707
0.0489390082657337189 0.0196906737983226776 -0.018955988809466362
0.0483623184263706207 0.00229744031094014645 -0.0272496920078992844
0.0489324554800987244 0.000730415806174278259 -0.0273181088268756866
0.0503095760941505432 -0.00346662802621722221 -0.0271033570170402527
0.0445735268294811249 -0.00481237797066569328 -0.0269205030053853989
0.0506514199078083038 -0.00576051324605941772 -0.0267103053629398346
0.0494917482137680054 -0.00881768297404050827 -0.0258697718381881714
0.0481338687241077423 -0.00720309978350996971 -0.0263788476586341858
0.0454601719975471497 -0.0122551387175917625 -0.0244249273091554642
0.0453059375286102295 -0.0120588047429919243 -0.024527132511138916
0.0475613772869110107 -0.0167673472315073013 -0.0215750709176063538
0.0485197603702545166 -0.0148548958823084831 -0.0229341182857751846
0.0470374561846256256 -0.0144184594973921776 -0.0232121571898460388
0.0488300956785678864 -0.0106666972860693932 -0.0251569598913192749
0.0482046417891979218 -0.009698440320789814 -0.0255580246448516846
0.0488083995878696442 -0.0187629926949739456 -0.0198675226420164108
0.0475429780781269073 -0.0181506704539060593 -0.0204286128282546997
0.0505425743758678436 -0.0212145578116178513 -0.0172371771186590195
0.0479929186403751373 -0.0215634182095527649 -0.0167825333774089813
0.0510838553309440613 -0.0230823177844285965 -0.0146222682669758797
0.0479742437601089478 -0.0227713622152805328 -0.0151103688403964043
0.049720272421836853 -0.0237004850059747696 -0.0136467786505818367
0.0499254800379276276 -0.0243571233004331589 -0.0123853888362646103
0.0478567406535148621 -0.0260586794465780258 -0.00821854826062917709
0.049450557678937912 -0.026987152174115181 -0.00434928014874458313
0.0485224612057209015 -0.0265243593603372574 -0.00659926934167742729
0.0510363765060901642 -0.0250746831297874451 -0.0108653288334608078
0.0480304881930351257 -0.0198647771030664444 -0.0187659896910190582
0.0456395484507083893 -0.0272532645612955093 -0.0022156143095344305
0.0476639494299888611 -0.0272824745625257492 -0.00154660758562386036
0.0429175570607185364 -0.0147829996421933174 -0.0229799207299947739
0.0436798445880413055 -0.0151464836671948433 -0.0227483548223972321
0.0445735529065132141 -0.0164053626358509064 -0.0218528304249048233
0.0446362048387527466 -0.0163159146904945374 -0.0219214670360088348
0.0440441519021987915 -0.0132796727120876312 -0.0238915886729955673
0.0425845719873905182 -0.0120311183854937553 -0.0245415437966585159
0.042824573814868927 -0.0042440551333129406 -0.0270010046660900116
0.0452876091003417969 -0.00457475613802671432 -0.0269574671983718872
0.0434439405798912048 -0.00790188554674386978 -0.0261585228145122528
0.0428473949432373047 -0.00490084709599614143 -0.0269008893519639969
0.0451368875801563263 -0.00619240850210189819 -0.0266145579516887665
0.043696720153093338 -0.0112950690090656281 -0.0248966794461011887
0.0437267087399959564 -0.0109184812754392624 -0.0250526666641235352
0.0482764169573783875 -0.00177237577736377716 -0.027272617444396019
0.0474453158676624298 -0.00192658510059118271 -0.0272658839821815491
0.0444286167621612549 -0.0261967796832323074 -0.00778054678812623024
0.0454905107617378235 -0.0270797815173864365 -0.00364569574594497681
0.0501074083149433136 -0.0272260177880525589 -0.00253491848707199097
0.0427244268357753754 -0.0268353316932916641 -0.00519655691459774971
0.0437650643289089203 -0.0269312039017677307 -0.00476410798728466034
0.0441335663199424744 -0.0251332558691501617 -0.0107239251956343651
0.0466450005769729614 -0.0256811045110225677 -0.00940130092203617096
0.0471919216215610504 -0.0207243077456951141 -0.0178279764950275421
0.0472040623426437378 -0.0208836067467927933 -0.0176541320979595184
0.04528021439909935 -0.0236514676362276077 -0.0137288831174373627
0.0451911836862564087 -0.0231505800038576126 -0.0145151177421212196
0.0472961142659187317 -0.0221298262476921082 -0.01604437455534935
0.0437936782836914062 -0.0216020755469799042 -0.0167321544140577316
0.0466863065958023071 -0.0244029052555561066 -0.012297443114221096
0.0458502285182476044 -0.0183221306651830673 -0.0202714987099170685
0.0465936660766601562 -0.0185362640768289566 -0.0200752802193164825
0.0452968738973140717 -0.0273362472653388977 -0.000314962060656398535
0.0437591522932052612 -0.000311186391627416015 -0.0273364130407571793
-0.034532397985458374 -0.0234013907611370087 0.000328847469063475728
-0.034535728394985199 -0.0210095979273319244 0.000184795208042487502
-0.034468483179807663 -0.0302013158798217773 0.00174085202161222696
-0.0344691015779972076 -0.0255063120275735855 0.00203861435875296593
-0.0344479717314243317 -0.0314401648938655853 0.00212826952338218689
-0.0337743088603019714 -0.0240180250257253647 0.00717461295425891876
-0.0337898656725883484 -0.0299903415143489838 0.00703494763001799583
-0.0336261726915836334 -0.0281092189252376556 0.0077952076680958271
-0.0337767228484153748 -0.0297831073403358459 0.00709664355963468552
-0.0343173705041408539 -0.0301145054399967194 0.00373726570978760719
-0.0342760644853115082 -0.0262085311114788055 0.00413281004875898361
-0.0341785028576850891 -0.0297968089580535889 0.00479872105643153191
-0.0332940481603145599 -0.0202192291617393494 0.00918728765100240707
-0.0344022214412689209 -0.0255451612174510956 0.00307557242922484875
-0.0343161821365356445 -0.0257588569074869156 0.00383106549270451069
-0.0339024364948272705 -0.0246499422937631607 0.0065622362308204174
-0.0333265252411365509 -0.0196601860225200653 0.00907056126743555069
-0.0340157411992549896 -0.0288883112370967865 0.00598790263757109642
-0.0328592732548713684 -0.0205480847507715225 0.010624174028635025
-0.0325543768703937531 -0.029009675607085228 0.0115256812423467636
-0.0326807573437690735 -0.0270107127726078033 0.0111403269693255424
-0.0308987237513065338 -0.0264958925545215607 0.0153911150991916656
-0.0305677764117717743 -0.02468126080930233 0.0160322487354278564
-0.0302815921604633331 -0.0289132297039031982 0.016569431871175766
-0.0307809319347143173 -0.0241519324481487274 0.0156243499368429184
-0.0302346106618642807 -0.0266127791255712509 0.0166665185242891312
-0.0298551172018051147 -0.0163752865046262741 0.0173532161861658096
-0.0297355186194181442 -0.0314662568271160126 0.0175477098673582077
-0.028442084789276123 -0.0310863517224788666 0.0195778217166662216
-0.0296967513859272003 -0.0206638611853122711 0.0176037214696407318
-0.0293443948030471802 -0.023434765636920929 0.0181580502539873123
-0.0294626094400882721 -0.0192796662449836731 0.0179706327617168427
-0.0264131464064121246 -0.0264501534402370453 0.0221764016896486282
-0.0265915300697088242 -0.0182677228003740311 0.0218647923320531845
-0.0269123390316963196 -0.0175238065421581268 0.0215040594339370728
-0.0264273975044488907 -0.0280426051467657089 0.0221836064010858536
-0.0264527536928653717 -0.0252783391624689102 0.0221164319664239883
-0.0279966313391923904 -0.00903103873133659363 0.0201993882656097412
-0.0273379106074571609 -0.027643594890832901 0.0210327710956335068
-0.0285551473498344421 -0.0225904844701290131 0.0194169897586107254
-0.0286280941218137741 -0.018388405442237854 0.0192974358797073364
-0.0268903318792581558 -0.0286222808063030243 0.0216217730194330215
-0.027672547847032547 -0.0230153314769268036 0.0205696932971477509
-0.0270951781421899796 -0.0272228196263313293 0.0213466566056013107
-0.0234823506325483322 -0.0107162334024906158 0.0253122001886367798
-0.0238391384482383728 -0.0225077904760837555 0.0249704886227846146
-0.0232282523065805435 -0.0217184945940971375 0.0255312509834766388
-0.0236913803964853287 -0.00673597212880849838 0.0251256488263607025
-0.0237085316330194473 -0.020522627979516983 0.0250926557928323746
-0.0237866975367069244 -0.0108887990936636925 0.0250331033021211624
-0.0239750947803258896 -0.0196722671389579773 0.0248494595289230347
-0.0239549782127141953 -0.012204386293888092 0.0248772501945495605
-0.0176522303372621536 -0.029935445636510849 0.0296705625951290131
-0.0183923766016960144 -0.0317156240344047546 0.0291975140571594238
-0.0193022936582565308 -0.00707725249230861664 0.0286389309912919998
-0.0176334511488676071 -0.0290948096662759781 0.0296832472085952759
-0.0184033680707216263 -0.0257189124822616577 0.0291956476867198944
-0.0191670749336481094 -0.00408636312931776047 0.0287276357412338257
-0.0183056816458702087 -0.0153523320332169533 0.0292667578905820847
-0.0179794058203697205 -0.0297716967761516571 0.0294622704386711121
-0.0192619021981954575 -0.0229246262460947037 0.0286510922014713287
-0.0167809166014194489 -0.0220382697880268097 0.0301735009998083115
-0.0169730391353368759 -0.0283880587667226791 0.0300693158060312271
-0.0161185823380947113 -0.020687151700258255 0.0305191799998283386
-0.0158879309892654419 -0.0173260867595672607 0.0306414570659399033
-0.0163125693798065186 -0.0278561003506183624 0.030413484200835228
-0.0155523521825671196 -0.0282322075217962265 0.0308089796453714371
-0.0168265383690595627 -0.0260828491300344467 0.0301470942795276642
-0.015195862390100956 -0.0279534608125686646 0.0309947393834590912
-0.0166955199092626572 -0.0250189974904060364 0.0302159972488880157
-0.0105191655457019806 -0.0148478094488382339 0.0328691005706787109
-0.0111109344288706779 -0.0297157727181911469 0.032678946852684021
-0.0113783637061715126 -0.0125744473189115524 0.032598741352558136
-0.0116512198001146317 -0.0165888313204050064 0.0325117446482181549
-0.0115729868412017822 -0.0138805843889713287 0.0325370654463768005
-0.0101781263947486877 -0.0205035731196403503 0.032975275069475174
-0.0106997732073068619 -0.0266911573708057404 0.0328093133866786957
-0.0110363150015473366 -0.0230852141976356506 0.0327040664851665497
-0.0101668629795312881 -0.0198548082262277603 0.0329789780080318451
-0.00696769729256629944 -0.0171598941087722778 0.0338033027946949005
-0.00696747144684195518 -0.0298618506640195847 0.0338006876409053802
-0.00775530841201543808 -0.0313084200024604797 0.0336257219314575195
-0.00792777445167303085 -0.0213436875492334366 0.033589579164981842
-0.00693655572831630707 -0.0109671438112854958 0.0338115058839321136
-0.00658229412510991096 -0.0123969493433833122 0.0338897407054901123
-0.00641570985317230225 -0.0120458416640758514 0.033926747739315033
-0.00732813077047467232 -0.019687531515955925 0.0337228663265705109
-0.014155752956867218 -0.018953295424580574 0.0314925350248813629
-0.0126776276156306267 -0.0317116864025592804 0.032099016010761261
-0.0139469411224126816 -0.00449597882106900215 0.0315855778753757477
-0.0140952924266457558 -0.0216872934252023697 0.031516343355178833
-0.0139954211190342903 -0.0277506690472364426 0.0315549634397029877
-0.0140498587861657143 -0.0217121802270412445 0.0315351486206054688
-0.0126616554334759712 -0.0260219518095254898 0.032108210027217865
-0.0138173755258321762 -0.0138972848653793335 0.031634986400604248
-0.0141776902601122856 -0.0122000202536582947 0.0314865075051784515
-0.0215472280979156494 -0.0122521352022886276 0.0269820503890514374
-0.0215920805931091309 -0.0171541981399059296 0.0269424673169851303
-0.0219484847038984299 -0.0277123190462589264 0.0266578663140535355
-0.0210147108882665634 -0.0145730394870042801 0.0273882169276475906
-0.0207658242434263229 -0.0145849157124757767 0.0275791827589273453
-0.0208078734576702118 -0.0256491228938102722 0.0275352615863084793
-0.0214215554296970367 -0.0125235021114349365 0.0270781945437192917
-0.0200054962188005447 -0.0304815024137496948 0.0281458552926778793
-0.0321669168770313263 -0.0315660871565341949 0.0125146331265568733
-0.0322292521595954895 -0.0296329278498888016 0.0123745147138834
-0.0321275815367698669 -0.028677741065621376 0.0126250917091965675
-0.0322584472596645355 -0.0261909626424312592 0.0123224891722202301
-0.00452587800100445747 -0.0308668464422225952 0.0342093966901302338
-0.00367176998406648636 -0.0259565003216266632 0.034323815256357193
-0.0045570950023829937 -0.0204869136214256287 0.0342094525694847107
-0.00511557050049304962 -0.0294321458786725998 0.0341323390603065491
-0.00394168077036738396 -0.0273871757090091705 0.0342877060174942017
-0.00378495058976113796 -0.0159891732037067413 0.034312911331653595
-0.00434753485023975372 -0.0273175239562988281 0.0342343002557754517
-0.00333701190538704395 -0.0243758969008922577 0.034368518739938736
-0.0326537452638149261 -0.0193146839737892151 0.011237412691116333
-0.0326147563755512238 -0.0227485541254281998 0.0113515062257647514
-0.0323859266936779022 -0.026724962517619133 0.0119975768029689789
-0.0312818549573421478 -0.022943839430809021 0.0146381165832281113
-0.0312977135181427002 -0.0203388966619968414 0.0146027207374572754
-0.0307259038090705872 -0.0138020114973187447 0.0157659854739904404
-0.0304439309984445572 -0.0153362331911921501 0.0163067448884248734
-0.0315003655850887299 -0.0195771176367998123 0.0141598321497440338
-0.0317164510488510132 -0.0198511593043804169 0.0136560956016182899
-0.0294890105724334717 -0.0170428752899169922 0.0179310664534568787
-0.0296192187815904617 -0.0149112483486533165 0.0177304297685623169
-0.029650367796421051 -0.0120764588937163353 0.0177006646990776062
-0.0289681516587734222 -0.0143329808488488197 0.0187967550009489059
-0.0282657500356435776 -0.0073015410453081131 0.0198424383997917175
-0.0275148525834083557 -0.0185619238764047623 0.0208143256604671478
-0.0276750903576612473 -0.00822286773473024368 0.02059209905564785
-0.0270321499556303024 -0.0123357158154249191 0.0213592574000358582
-0.0280765406787395477 -0.0145619930699467659 0.0200466979295015335
-0.0273839831352233887 -0.023502672091126442 0.0209492556750774384
-0.0299691427499055862 -0.014347822405397892 0.017170855775475502
-0.0300610344856977463 -0.0139466319233179092 0.0170048829168081284
-0.0148743176832795143 -0.0234026368707418442 0.0311602912843227386
-0.0146411573514342308 -0.0265365056693553925 0.0312793999910354614
-0.0145063083618879318 -0.0195476468652486801 0.0313444174826145172
-0.0148306889459490776 -0.0187932830303907394 0.0311802960932254791
-0.016118636354804039 -0.0006675689946860075 0.0305219944566488266
-0.0158260613679885864 -0.0106418188661336899 0.0306741110980510712
-0.0161479469388723373 -0.00915933959186077118 0.0305109284818172455
-0.0172654595226049423 -0.00818247254937887192 0.029900258406996727
-0.0170376468449831009 -0.00258330558426678181 0.030036361888051033
-0.0181452017277479172 -0.00438421685248613358 0.0293584391474723816
-0.0173781551420688629 -0.00443690363317728043 0.0298287700861692429
-0.0179090052843093872 -0.0214333850890398026 0.029514143243432045
-0.017207954078912735 -0.00465125031769275665 0.0299332607537508011
-0.0172330178320407867 -0.00937226414680480957 0.0299209076911211014
-0.0182592235505580902 -0.00492403795942664146 0.029288874939084053
-0.011919219046831131 -0.00891520921140909195 0.0324087701737880707
-0.0117719965055584908 -0.0140394838526844978 0.0324696451425552368
-0.0128812175244092941 -0.00675265956670045853 0.0320182628929615021
-0.0119382413104176521 -0.00589187024161219597 0.0324003547430038452
-0.0117505276575684547 -0.0141764301806688309 0.03247838094830513
-0.0132173625752329826 -0.00262860534712672234 0.0318810306489467621
-0.013834523968398571 -0.00347125157713890076 0.0316310226917266846
-0.0122947143390774727 -0.0155462762340903282 0.0322580784559249878
-0.0103504909202456474 -0.0137316463515162468 0.0329221785068511963
-0.0092741847038269043 -0.0115692978724837303 0.0332583151757717133
-0.0106919566169381142 -0.011072094552218914 0.0328154899179935455
-0.00917667988687753677 -0.00458022765815258026 0.0332886762917041779
-0.00910879485309123993 -0.0176978260278701782 0.0333100520074367523
-0.01071208156645298 -0.00343655375763773918 0.0328091084957122803
-0.010688059963285923 -0.00121183681767433882 0.0328165777027606964
-0.011006530374288559 -0.000502062030136585236 0.0327171012759208679
-0.00859412271529436111 -0.0123169524595141411 0.0334406979382038116
-0.00770976673811674118 -0.00447108782827854156 0.0336388386785984039
-0.00892894715070724487 -0.0206667855381965637 0.0333656072616577148
-0.00860645435750484467 -0.0120881544426083565 0.0334379374980926514
-0.00840342510491609573 -0.0220309905707836151 0.0334832780063152313
-0.00766893895342946053 -0.00752486521378159523 0.0336479432880878448
-0.00696026347577571869 -2.40228964685229585e-05 0.0338067412376403809
-0.0271540358662605286 -0.00111959781497716904 0.0213134139776229858
-0.0228272620588541031 -0.0114791998639702797 0.0258956216275691986
-0.0225958321243524551 -0.00499721989035606384 0.0260898880660533905
-0.0219214316457509995 -0.0130957122892141342 0.0266835633665323257
-0.0224400050938129425 -0.0160247571766376495 0.0262364167720079422
-0.0215953662991523743 -0.00222846446558833122 0.0269554983824491501
-0.0225453414022922516 -0.00294958497397601604 0.0261316243559122086
-0.0224929749965667725 -0.00584379537031054497 0.0261800382286310196
-0.021978156641125679 -0.0110930819064378738 0.026632281020283699
-0.0244641900062561035 -0.0271418057382106781 0.0243761837482452393
-0.0244395826011896133 -0.0217796619981527328 0.0243948847055435181
-0.0241691041737794876 -0.0130144255235791206 0.0246612541377544403
-0.0247542206197977066 -0.00494505651295185089 0.0240522623062133789
-0.0253809858113527298 -0.000344166532158851624 0.0234048236161470413
-0.0249505732208490372 -0.0142046036198735237 0.0238624028861522675
-0.0244294460862874985 -0.00661648344248533249 0.0243868865072727203
-0.0246340911835432053 -0.00667601451277732849 0.0241773836314678192
-0.0252362452447414398 -0.0127209005877375603 0.0235569961369037628
-0.0257208012044429779 -0.0163063742220401764 0.0229420550167560577
-0.0249112732708454132 -0.0252232104539871216 0.0238711833953857422
-0.0267806742340326309 -0.00329963676631450653 0.0217343736439943314
-0.0261486954987049103 -0.0119218388572335243 0.0224487762898206711
-0.0256446711719036102 -0.0055162208154797554 0.0231060553342103958
-0.0256850197911262512 -0.00824137311428785324 0.0230388641357421875
-0.0258986316621303558 -0.00563200563192367554 0.022795381024479866
-0.0256766416132450104 -0.0189900286495685577 0.0229782592505216599
-0.0250379648059606552 -0.020813625305891037 0.023745635524392128
-0.019901694729924202 -0.000136143571580760181 0.0282010063529014587
-0.0197181478142738342 -0.0125386035069823265 0.0283458326011896133
-0.020315932109951973 -0.00754999369382858276 0.0279035903513431549
-0.0207319613546133041 -0.0120269563049077988 0.0276024192571640015
-0.0207640398293733597 -0.0107180094346404076 0.0275778211653232574
-0.0195045638829469681 -0.00301236682571470737 0.028494441881775856
-0.0198495723307132721 -0.0170713644474744797 0.0282532833516597748
-0.0202391762286424637 -0.00619802344590425491 0.0279587171971797943
-0.00604372937232255936 -0.00414566369727253914 0.0340035110712051392
-0.00577240949496626854 -0.00209616427309811115 0.0340407602488994598
-0.00467523699626326561 -0.00217432784847915173 0.0341930128633975983
-0.00524563062936067581 -0.0201990474015474319 0.034117378294467926
-0.00593853229656815529 -0.00951847061514854431 0.0340191572904586792
-0.00486330548301339149 -0.0125233614817261696 0.0341689325869083405
-0.00585053907707333565 -0.0022871759720146656 0.0340299569070339203
-0.00540887843817472458 -0.0238581933081150055 0.0340954400599002838
-0.00216389074921607971 -0.000844009919092059135 0.0344439968466758728
-0.0019883567001670599 -0.0029051625169813633 0.0344545058906078339
-0.00111534120514988899 -0.00757187278941273689 0.0345047041773796082
-0.00160810630768537521 -0.0112875150516629219 0.0344787426292896271
-0.00238382862880825996 -0.0101686259731650352 0.034435272216796875
-0.00309743080288171768 -0.00713917193934321404 0.0343945398926734924
-0.00305440230295062065 -0.00641317106783390045 0.0343966558575630188
-0.000781841285061091185 -0.00280233519151806831 0.0345214307308197021
0.00248977681621909142 -0.0202512294054031372 0.0344394296407699585
0.00171385426074266434 -0.0130903339013457298 0.0344783738255500793
0.00226926500909030437 -0.0249005146324634552 0.0344457663595676422
0.00259779579937458038 -0.0218755230307579041 0.0344335660338401794
0.00067322875838726759 -0.0239015109837055206 0.0345161594450473785
0.00141614396125078201 -0.0260888636112213135 0.034482177346944809
0.0016187118599191308 -0.0128458244726061821 0.0344827026128768921
0.00212864391505718231 -0.0051648835651576519 0.0344658717513084412
0.00515473494306206703 -0.00883433222770690918 0.0341452844440937042
0.00485804164782166481 -0.0181486383080482483 0.0341766104102134705
0.00550250150263309479 -0.015366286039352417 0.0340940766036510468
0.00499393511563539505 -0.0122061446309089661 0.0341636538505554199
0.00398526573553681374 -0.027761237695813179 0.0342835299670696259
0.00537977414205670357 -0.0113084549084305763 0.0341136045753955841
0.00558815756812691689 -0.0238738339394330978 0.0340757332742214203
0.00521139195188879967 -0.0274376869201660156 0.0341223739087581635
0.00510480301454663277 -0.00134397146757692099 0.0341580808162689209
0.0268409140408039093 -0.0157639849931001663 0.0217214841395616531
0.0267303120344877243 -0.0139978472143411636 0.0218351352959871292
0.0263815447688102722 -0.0172514282166957855 0.0222287345677614212
0.0250343047082424164 -0.0316003598272800446 0.0237562693655490875
0.0258125532418489456 -0.0261191576719284058 0.022885078564286232
0.0261441841721534729 -0.0235495269298553467 0.0225129108875989914
0.00776084372773766518 -0.010843849740922451 0.0336439870297908783
0.00655352044850587845 -0.0258893556892871857 0.0338975526392459869
0.00799773074686527252 -0.011332416906952858 0.0335910096764564514
0.00783512555062770844 -0.0161528680473566055 0.0336225442588329315
0.00647371029481291771 -0.0299148112535476685 0.0339114740490913391
0.00638767192140221596 -0.0290706008672714233 0.033931337296962738
0.00729333842173218727 -0.0261180959641933441 0.033733319491147995
0.00872071553021669388 -0.0262229945510625839 0.0334167815744876862
0.0130558852106332779 -0.00920507963746786118 0.0319672189652919769
0.0132048539817333221 -0.00398555770516395569 0.0319112762808799744
0.0123523809015750885 -0.0272826030850410461 0.0322386547923088074
0.0141357965767383575 -0.0252088066190481186 0.0315022282302379608
0.0139340776950120926 -0.0145363975316286087 0.0315975695848464966
0.0139713287353515625 -0.0155278192833065987 0.0315810441970825195
0.0125794326886534691 -0.0299195311963558197 0.0321416892111301422
0.0137285180389881134 -0.0251919664442539215 0.0316709466278553009
0.0102741466835141182 -0.0262101516127586365 0.0329479910433292389
0.0111274421215057373 -0.0126371784135699272 0.0326928980648517609
0.0102612478658556938 -0.0225311014801263809 0.0329558402299880981
0.0104573117569088936 -0.0111010754480957985 0.0329057686030864716
0.0105853695422410965 -0.0120236948132514954 0.0328644439578056335
0.0110057080164551735 -0.0287676230072975159 0.0327147021889686584
0.0114514166489243507 -0.02466617152094841 0.0325783900916576385
0.0114319799467921257 -0.0209521930664777756 0.0325883328914642334
0.0101723503321409225 -0.0308507569134235382 0.0329753197729587555
0.024171784520149231 -0.0213703308254480362 0.0245511382818222046
0.0247543696314096451 -0.0258957818150520325 0.0240621939301490784
0.0236891023814678192 -0.0290620066225528717 0.0250697452574968338
0.0236207414418458939 -0.0253884904086589813 0.0250959396362304688
0.0245490185916423798 -0.0236429497599601746 0.0242280121892690659
0.0242666788399219513 -0.0218257661908864975 0.0244686994701623917
0.0215733703225851059 -0.0182081181555986404 0.0269583296030759811
0.02031717449426651 -0.0266854017972946167 0.0279116742312908173
0.0220633968710899353 -0.0299108680337667465 0.0265677310526371002
0.0209701638668775558 -0.0301025509834289551 0.0274063572287559509
0.0217658132314682007 -0.0254674516618251801 0.0268016122281551361
0.0215753018856048584 -0.0302293840795755386 0.026941860094666481
0.0212987400591373444 -0.012467583641409874 0.0271762162446975708
0.0219238251447677612 -0.0298944897949695587 0.0266748480498790741
0.0187756083905696869 -0.0230169426649808884 0.028963947668671608
0.0191780254244804382 -0.0283852331340312958 0.0287010557949542999
0.0179613679647445679 -0.0262742917984724045 0.0294787194579839706
0.0196074601262807846 -0.0272360239177942276 0.0284288730472326279
0.018323829397559166 -0.0244408473372459412 0.0292500331997871399
0.0187925752252340317 -0.0178623087704181671 0.0289594046771526337
0.0185187608003616333 -0.0296062305569648743 0.0291195735335350037
0.0187844634056091309 -0.0304166693240404129 0.0289493147283792496
0.0183340385556221008 -0.0305734723806381226 0.0292360782623291016
0.0272282734513282776 -0.0305632483214139938 0.0211990121752023697
0.0280305016785860062 -0.0208028741180896759 0.0201488751918077469
0.0277968887239694595 -0.0251727905124425888 0.0204554088413715363
0.027223808690905571 -0.0265387799590826035 0.0212029125541448593
0.0273698829114437103 -0.0245105773210525513 0.0210115760564804077
0.0159954540431499481 -0.0281936340034008026 0.030580153688788414
0.0155671350657939911 -0.0292660277336835861 0.0308018717914819717
0.0165789443999528885 -0.0156957842409610748 0.030290994793176651
0.0152097130194306374 -0.0300284717231988907 0.0309870429337024689
0.0152522372081875801 -0.0254486389458179474 0.0309702511876821518
0.0163256693631410599 -0.00991404987871646881 0.0304295904934406281
0.0163849014788866043 -0.0308133289217948914 0.0303743612021207809
0.0164779238402843475 -0.0306932851672172546 0.0303260777145624161
0.0318353548645973206 -0.0295045766979455948 0.0133228646591305733
0.0320704132318496704 -0.0259838998317718506 0.0127691077068448067
0.0319661907851696014 -0.0272773783653974533 0.0130156911909580231
0.0326019376516342163 -0.0310381650924682617 0.0113611379638314247
0.0329384170472621918 -0.0250822436064481735 0.0103568937629461288
0.0328623615205287933 -0.0226667039096355438 0.0106236357241868973
0.0341009385883808136 -0.031205691397190094 0.00535990577191114426
0.034252408891916275 -0.0304380953311920166 0.00422763917595148087
0.0336401164531707764 -0.0307014994323253632 0.00770825985819101334
0.033852793276309967 -0.031327463686466217 0.00673800474032759666
0.0338288843631744385 -0.0266167484223842621 0.00692821061238646507
0.0345346331596374512 -0.0309808682650327682 0.000195538028492592275
0.0344960391521453857 -0.0286685265600681305 0.00129835121333599091
0.031037086620926857 -0.0215063951909542084 0.015143117867410183
0.0303770545870065689 -0.0295968241989612579 0.0163846481591463089
0.0310508329421281815 -0.0264335386455059052 0.0151006430387496948
0.0303185023367404938 -0.027893364429473877 0.0165026802569627762
0.0334822386503219604 -0.0271627940237522125 0.00844549946486949921
0.0296170171350240707 -0.0176170952618122101 0.0177583135664463043
0.0284059271216392517 -0.0310361422598361969 0.0196361057460308075
0.0293031781911849976 -0.0226576924324035645 0.0182422120124101639
0.0298042763024568558 -0.0314040891826152802 0.017440497875213623
0.0339557603001594543 -0.0259288791567087173 0.00627829553559422493
0.0342679321765899658 -0.0248771607875823975 0.00423374027013778687
0.0345170013606548309 -0.0247766468673944473 0.000846059178002178669
0.0333177074790000916 -0.022523948922753334 0.00909982714802026749
0.0196645297110080719 -0.00886636693030595779 0.0283698327839374542
0.0199292618781328201 -0.0193503778427839279 0.0281985942274332047
0.0195520613342523575 -0.0140444356948137283 0.0284530986100435257
0.0196978747844696045 -0.0168946292251348495 0.0283555872738361359
0.0203933436423540115 -0.0104030147194862366 0.0278685707598924637
0.0187511816620826721 -0.00207417341880500317 0.0289926975965499878
0.0198529157787561417 -0.0143753150478005409 0.0282458476722240448
0.019407421350479126 -0.00643255515024065971 0.0285445991903543472
0.0223135761916637421 -0.014346475712954998 0.0263485312461853027
0.022505464032292366 -0.0114138852804899216 0.0261880718171596527
0.0220720674842596054 -0.0236895084381103516 0.0265566948801279068
0.0224920995533466339 -0.00855644792318344116 0.0261958837509155273
0.0224091485142707825 -0.0203248895704746246 0.0262767896056175232
0.0217807050794363022 -0.0166812743991613388 0.0267877411097288132
0.0221502687782049179 -0.016680397093296051 0.0264849122613668442
0.0241324771195650101 -0.00172579626087099314 0.0246598627418279648
0.0249401070177555084 -0.00153699843212962151 0.0238846205174922943
0.0166527871042490005 -0.000986075261607766151 0.0302345138043165207
0.0169495232403278351 -0.0237196497619152069 0.0300881564617156982
0.0174365732818841934 -0.0145333940163254738 0.029798487201333046
0.0173432398587465286 -0.00549170095473527908 0.0298425108194351196
0.0181935299187898636 -0.00573283527046442032 0.0293541140854358673
0.0180194992572069168 -0.00718136224895715714 0.0294556673616170883
0.0183301661163568497 -0.00226650666445493698 0.029271906241774559
0.00706069124862551689 -0.00250604422762989998 0.033786136656999588
0.00577426794916391373 -0.0188344810158014297 0.0340486727654933929
0.00703307939693331718 -0.00492818048223853111 0.033793378621339798
0.00735955778509378433 -0.00387646909803152084 0.0337291471660137177
0.00626628473401069641 -0.0173653736710548401 0.0339519642293453217
0.00606345897540450096 -0.0232540890574455261 0.0339959226548671722
0.00624768855050206184 -0.00809587258845567703 0.0339483916759490967
0.00677019078284502029 -0.0140782482922077179 0.0338515341281890869
0.0042711854912340641 -0.0118129746988415718 0.0342568717896938324
