ply
format ascii 1.0
element vertex 730
property float x
property float y
property float z
end_header
0.000305826775729656219 0.69530189037322998 0.183794513344764709
0.000288750015897676349 1.40085387229919434 0.195866987109184265
0.00033165563945658505 0.752944052219390869 0.165534749627113342
0.00039957225089892745 0.528495490550994873 0.117520928382873535
0.000484371936181560159 0.667750835418701172 0.0575715452432632446
0.000389657507184892893 1.12698054313659668 0.124530188739299774
0.000515008228830993176 0.761598587036132812 0.035913124680519104
0.000430339598096907139 0.922462642192840576 0.0957698673009872437
0.000200273469090461731 1.42161273956298828 0.258415699005126953
0.000349571811966598034 1.03354597091674805 0.152868866920471191
0.000551343546248972416 0.712911665439605713 0.0102258026599884033
0.000496777473017573357 1.11193382740020752 0.0488014370203018188
0.00035212011425755918 0.682631731033325195 0.151067331433296204
0.000405004451749846339 0.852622032165527344 0.113680601119995117
0.000207646022317931056 1.01245260238647461 0.253203690052032471
0.000134058122057467699 1.43708205223083496 0.305226832628250122
0.000274321064352989197 1.40482461452484131 0.206067577004432678
0.000456522946478798985 0.479254364967346191 0.0772594809532165527
0.000252888858085498214 0.846807479858398438 0.22121913731098175
0.00051289162365719676 0.861348509788513184 0.0374094694852828979
0.000175740817212499678 1.39208757877349854 0.27575916051864624
0.000544834183529019356 1.1865534782409668 0.0148275792598724365
0.000113207599497400224 1.44921731948852539 0.319967150688171387
0.000404140911996364594 0.653762459754943848 0.114291071891784668
0.000223699375055730343 1.18018746376037598 0.241854697465896606
0.000276045495411381125 1.12042999267578125 0.20484846830368042
0.000565498718060553074 0.57859957218170166 0.000218749046325683594
0.000377831602236256003 1.25084519386291504 0.132890522480010986
0.000494613312184810638 0.785414218902587891 0.0503313988447189331
0.000499230518471449614 1.39808773994445801 0.0470672249794006348
0.000554176571313291788 0.312888979911804199 0.00822296738624572754
0.000188592675840482116 1.19449663162231445 0.266673505306243896
0.000354371062712743878 0.827773213386535645 0.149476021528244019
0.000401333527406677604 0.50887751579284668 0.116275787353515625
0.000486839970108121634 0.331407666206359863 0.0558267533779144287
0.000264538073679432273 0.844803690910339355 0.212983697652816772
0.000538303633220493793 1.45026791095733643 0.0194443799555301666
0.000424919882789254189 0.617389202117919922 0.0996013283729553223
0.000235876243095844984 1.26049602031707764 0.23324623703956604
0.000540128676220774651 0.769336104393005371 0.0181541591882705688
0.000454417808214202523 0.739322423934936523 0.0787477195262908936
0.000494949694257229567 0.700944364070892334 0.0500935763120651245
0.000453747430583462119 1.13701105117797852 0.0792216211557388306
0.000464361684862524271 0.61844944953918457 0.0717178434133529663
0.000326126464642584324 0.742873072624206543 0.169443607330322266
0.000555936596356332302 1.16828465461730957 0.00697869807481765747
0.000140150223160162568 1.23513340950012207 0.300920009613037109
0.000554334546905010939 0.064478754997253418 0.0081112980842590332
0.000508886238094419241 1.11087596416473389 0.0402410775423049927
0.000382699596229940653 0.88880234956741333 0.129449084401130676
0.000343348016031086445 1.1046297550201416 0.157268792390823364
0.000230804827879182994 0.959718585014343262 0.236831501126289368
0.000404668506234884262 1.02659356594085693 0.113918110728263855
0.000563493813388049603 0.89352726936340332 0.00163613259792327881
0.000446185993496328592 1.34973824024200439 0.0845671966671943665
0.000298532104352489114 1.41292893886566162 0.1889515221118927
0.000513494014739990234 0.261690497398376465 0.0369836390018463135
0.000328756199451163411 1.45676982402801514 0.167584508657455444
0.000373600429156795144 1.1157686710357666 0.135881781578063965
0.000517734093591570854 1.35796010494232178 0.0339860841631889343
0.00048455325304530561 1.33629357814788818 0.0574433840811252594
0.000479519047075882554 0.678238034248352051 0.0610023140907287598
0.000411262211855500937 1.44822120666503906 0.109256654977798462
0.000179646507604047656 1.17302250862121582 0.272998005151748657
0.000435094640124589205 0.69288170337677002 0.0924082845449447632
0.000105865794466808438 1.47638618946075439 0.325157493352890015
0.000134501155116595328 1.45635354518890381 0.304913640022277832
0.00023525371216237545 1.2359691858291626 0.233686342835426331
0.000430890882853418589 0.798582136631011963 0.0953801125288009644
0.000376863696146756411 0.744444608688354492 0.133574813604354858
0.000545511022210121155 1.06768560409545898 0.0143491029739379883
0.0004262390430085361 1.21685028076171875 0.0986687615513801575
0.000462180556496605277 0.595530033111572266 0.0732598155736923218
0.000132424203911796212 1.31165337562561035 0.306381940841674805
0.000210750295082107186 1.47422206401824951 0.251009106636047363
0.000501081929542124271 1.14810562133789062 0.045758374035358429
0.000315592391416430473 0.952424049377441406 0.176890715956687927
0.000479063222883269191 1.45274603366851807 0.0613245442509651184
0.000436892150901257992 1.1171872615814209 0.0911375284194946289
0.0004942665109410882 1.16789305210113525 0.0505765751004219055
0.000419972289819270372 1.48685121536254883 0.103099077939987183
0.000499505957122892141 0.595545649528503418 0.0468725115060806274
0.000501827977132052183 0.933690547943115234 0.0452309399843215942
0.000542645342648029327 0.842187106609344482 0.0163749903440475464
0.000421471195295453072 1.42221224308013916 0.1020393967628479
6.2019134929869324e-05 1.48508000373840332 0.356154978275299072
0.000510538928210735321 1.0175025463104248 0.0390726923942565918
0.000558191153686493635 1.15847587585449219 0.00538484752178192139
0.000337385688908398151 0.944366574287414551 0.161483854055404663
0.000564539863262325525 0.526712417602539062 0.000896632671356201172
0.00048688624519854784 1.23086977005004883 0.0557940453290939331
0.000238301290664821863 0.888646245002746582 0.231531858444213867
0.000467739853775128722 0.494362354278564453 0.0693296194076538086
5.38054882781580091e-05 1.41737854480743408 0.361961662769317627
0.00051797961350530386 0.330109596252441406 0.0338124930858612061
0.000376237498130649328 1.29723560810089111 0.134017467498779297
0.000459135859273374081 0.37977302074432373 0.0754122734069824219
0.000528336036950349808 0.429881691932678223 0.026491016149520874
0.000494934502057731152 1.03083205223083496 0.0501043200492858887
0.000298360740998759866 0.891574561595916748 0.189072668552398682
0.000513418170157819986 1.24412739276885986 0.0370372310280799866
0.000520666362717747688 1.45036506652832031 0.0319130904972553253
0.000537146523129194975 0.190828442573547363 0.0202624201774597168
0.000526910647749900818 0.808684885501861572 0.0274986773729324341
0.000526558724232017994 1.23091602325439453 0.0277474597096443176
0.000188818943570367992 1.11606764793395996 0.266513526439666748
0.000145789352245628834 1.20602858066558838 0.296933412551879883
0.000188344100024551153 1.07405173778533936 0.266849219799041748
0.000293944089207798243 1.39151859283447266 0.192195028066635132
0.000212278944673016667 1.31241321563720703 0.249928414821624756
0.000249621080001816154 1.05438423156738281 0.223529309034347534
0.000429508218076080084 1.18400776386260986 0.0963575989007949829
0.000490089936647564173 0.970802545547485352 0.053529202938079834
0.000480331014841794968 0.802038431167602539 0.0604283064603805542
0.00045869979658164084 1.21698951721191406 0.0757205337285995483
0.000483041279949247837 1.15618610382080078 0.0585122480988502502
0.000501095375511795282 0.365116000175476074 0.0457488894462585449
0.000527803495060652494 0.118673324584960938 0.0268674790859222412
0.000551578938029706478 1.23387336730957031 0.0100593939423561096
0.000288303388515487313 0.897188067436218262 0.196182742714881897
0.000494146777782589197 0.485683679580688477 0.0506612062454223633
0.000314928882289677858 1.12708079814910889 0.177359789609909058
0.000461046554846689105 0.717877388000488281 0.0740615129470825195
0.0005492554628290236 0.313772201538085938 0.0117020010948181152
0.000321442843414843082 1.20590758323669434 0.172754734754562378
0.00016706809401512146 1.35794496536254883 0.281890362501144409
0.000377099087927490473 0.864961087703704834 0.13340836763381958
0.000508170691318809986 1.15756499767303467 0.0407469496130943298
0.000162317766807973385 1.09042811393737793 0.285248607397079468
0.000451499887276440859 0.403457045555114746 0.080810546875
0.000168036218383349478 1.36194705963134766 0.281205952167510986
0.000540657551027834415 1.15950357913970947 0.0177802965044975281
0.000353823212208226323 0.688860654830932617 0.149863317608833313
0.00045600548037327826 0.962403059005737305 0.0776253044605255127
0.000504053314216434956 0.589878380298614502 0.0436577200889587402
0.000384639773983508348 0.808994114398956299 0.128077462315559387
0.000416956085246056318 0.712755680084228516 0.105231344699859619
0.000458697264548391104 1.14471113681793213 0.075722329318523407
0.000408039079047739506 0.897693634033203125 0.111535251140594482
0.00047898900811560452 1.07741832733154297 0.0613770335912704468
0.000351532420609146357 1.0287402868270874 0.151482805609703064
0.000560824933927506208 0.872665047645568848 0.00352288782596588135
0.000329041882650926709 1.32680130004882812 0.167382553219795227
0.000464500742964446545 0.990472614765167236 0.0716195404529571533
0.000422511569922789931 0.473724842071533203 0.101303905248641968
0.000406567618483677506 1.19558751583099365 0.112575523555278778
0.000103814491012599319 1.3267902135848999 0.326607674360275269
0.000447710277512669563 0.814839482307434082 0.0834895968437194824
0.00044654955854639411 0.755202591419219971 0.084310188889503479
0.000243051457800902426 0.891358435153961182 0.228173702955245972
0.00024019263219088316 1.27777707576751709 0.230194777250289917
0.000168509752256795764 1.23928165435791016 0.280871182680130005
0.000330578535795211792 0.905165195465087891 0.166296184062957764
0.000254701415542513132 1.08489537239074707 0.219937726855278015
0.000309258815832436085 0.912061810493469238 0.181368231773376465
0.000487199547933414578 1.46323168277740479 0.0555725619196891785
0.00015751397586427629 1.35508644580841064 0.288644641637802124
0.000452834094176068902 0.421137332916259766 0.0798673033714294434
0.000469324702862650156 1.10765349864959717 0.0682092234492301941
0.000459021597635000944 0.659339547157287598 0.0754930227994918823
0.000110146815131884068 1.32471144199371338 0.32213100790977478
0.000268130679614841938 0.968874633312225342 0.210443869233131409
0.000435870810179039836 0.865218997001647949 0.0918595641851425171
0.000379324628738686442 1.137520432472229 0.131835028529167175
0.000261985085671767592 1.03905653953552246 0.214788556098937988
0.000361505779437720776 1.13736748695373535 0.144432097673416138
0.00053785636555403471 0.475907444953918457 0.0197606384754180908
0.00044637179234996438 1.43263959884643555 0.0844358652830123901
0.000344092346495017409 0.784018397331237793 0.156742572784423828
0.000256432860624045134 1.31168150901794434 0.218713670969009399
0.000326433684676885605 0.809529900550842285 0.16922643780708313
0.000391502486309036613 1.35406780242919922 0.123225852847099304
0.000464126322185620666 1.35635101795196533 0.0718842595815658569
0.000330833951011300087 0.635273337364196777 0.166115641593933105
0.000132525048684328794 1.254006028175354 0.306310653686523438
0.000408181629609316587 1.41278529167175293 0.111434489488601685
0.00045394024346023798 0.574331402778625488 0.0790852904319763184
0.000491400598548352718 0.238923549652099609 0.052602618932723999
0.000108750333311036229 1.31635487079620361 0.323118269443511963
0.0001355071144644171 1.29436016082763672 0.304202467203140259
0.00028856404242105782 0.875923573970794678 0.195998474955558777
0.000380284094717353582 0.905921339988708496 0.13115672767162323
0.000256933679338544607 0.983315408229827881 0.218359619379043579
0.000359831610694527626 1.20090603828430176 0.145615667104721069
0.000256802712101489305 1.09856271743774414 0.218452215194702148
0.000494335894472897053 0.607143938541412354 0.0505274981260299683
0.00054061028640717268 0.895193576812744141 0.0178136825561523438
0.000352786504663527012 1.05604124069213867 0.150596201419830322
0.000557343300897628069 0.0671744346618652344 0.00598424673080444336
0.000493059749715030193 0.300362825393676758 0.0514296591281890869
0.000383686739951372147 0.526609897613525391 0.128751218318939209
0.000217898079426959157 1.17426025867462158 0.245955958962440491
0.000547272386029362679 0.594379425048828125 0.0131039172410964966
0.000422907265601679683 0.398221492767333984 0.10102418065071106
0.000495765823870897293 0.481346249580383301 0.0495165884494781494
0.00035717041464522481 0.567160606384277344 0.147496998310089111
0.000425200210884213448 0.465215206146240234 0.0994031727313995361
0.000363444036338478327 0.849257051944732666 0.143061846494674683
0.000195096159586682916 1.25446748733520508 0.262075811624526978
0.000345663633197546005 1.04449963569641113 0.155631780624389648
0.000346892920788377523 1.14995133876800537 0.154762715101242065
0.000288512906990945339 1.31727743148803711 0.196034625172615051
0.000241732472204603255 0.926910221576690674 0.229106158018112183
0.000392191344872117043 0.963127791881561279 0.122738853096961975
0.00022960526985116303 1.24135041236877441 0.237679526209831238
0.000125844177091494203 1.48732364177703857 0.311033695936203003
0.000276601349469274282 1.35064959526062012 0.204455524682998657
0.000498003559187054634 0.736175715923309326 0.0479346215724945068
0.00048505250015296042 1.19319021701812744 0.0570904165506362915
0.000332876748871058226 1.16288566589355469 0.164671465754508972
0.000421016826294362545 1.2046058177947998 0.102360621094703674
0.000354137824615463614 0.585775375366210938 0.149640887975692749
0.000511782360263168812 1.1735689640045166 0.0381936728954315186
0.00039982690941542387 0.899376034736633301 0.117340892553329468
0.000549547025002539158 1.01782071590423584 0.0114958286285400391
0.000517753243912011385 1.42734301090240479 0.0339725501835346222
0.000266767747234553099 1.19485974311828613 0.21140742301940918
0.000487772980704903603 0.706682503223419189 0.0551671534776687622
0.000190985199878923595 1.41838812828063965 0.264982104301452637
0.00049576174933463335 0.291895866394042969 0.0495194792747497559
0.000447503873147070408 0.828090190887451172 0.0836355388164520264
0.000338649464538320899 1.37249124050140381 0.160590440034866333
0.000560654152650386095 0.114619135856628418 0.00364363193511962891
0.000546240597032010555 1.23042786121368408 0.0138333141803741455
6.86635030433535576e-05 1.45353388786315918 0.351457744836807251
0.000176396351889707148 1.47391927242279053 0.275295734405517578
0.000228753109695389867 1.28679215908050537 0.238281965255737305
0.000532647478394210339 0.645121932029724121 0.0234429985284805298
0.000517752254381775856 1.32589483261108398 0.0339732244610786438
0.000520706526003777981 1.15005970001220703 0.0318847149610519409
0.000324837164953351021 0.906088709831237793 0.170355081558227539
9.97626048047095537e-05 1.33956027030944824 0.329472154378890991
0.00017422292148694396 1.14619553089141846 0.276832222938537598
9.17155412025749683e-05 1.47503411769866943 0.335161060094833374
0.00048631447134539485 1.11300849914550781 0.0561982840299606323
0.000510051148012280464 0.419013023376464844 0.039417564868927002
0.000390981673263013363 0.583202123641967773 0.123594030737876892
0.000272353732725605369 1.20344352722167969 0.207458391785621643
0.000515697698574513197 0.623479366302490234 0.0354257076978683472
0.00035747585934586823 1.37401831150054932 0.147281080484390259
0.000468120240839198232 1.37065160274505615 0.0690607279539108276
0.000553334422875195742 0.161287784576416016 0.00881835818290710449
0.000453751184977591038 0.728570938110351562 0.079218938946723938
0.000100020843092352152 1.39249110221862793 0.32928958535194397
0.000538463820703327656 0.369255185127258301 0.019331127405166626
0.000529274693690240383 0.813583731651306152 0.025827452540397644
0.000288943585474044085 1.41433548927307129 0.195730134844779968
0.00017211589147336781 1.3536984920501709 0.278321802616119385
0.000531871162820607424 1.43541955947875977 0.023991832509636879
0.00014801332144998014 1.13647699356079102 0.295361161231994629
0.000265351089183241129 1.41222572326660156 0.212408930063247681
0.000207273755222558975 1.37362146377563477 0.253466874361038208
0.000268510979367420077 1.22758316993713379 0.210175037384033203
0.000104390877822879702 1.47883760929107666 0.326200187206268311
0.000459622591733932495 1.16189265251159668 0.0750681459903717041
0.000516854110173881054 1.16141247749328613 0.0346081554889678955
0.00044107076246291399 1.27939605712890625 0.0881834328174591064
0.000220251109567470849 1.43758416175842285 0.244292452931404114
0.000404303806135430932 1.44414997100830078 0.11417592316865921
0.00049826235044747591 1.36664891242980957 0.0477516725659370422
0.000550838536582887173 0.648115932941436768 0.0105828046798706055
0.000358556571882218122 1.15342628955841064 0.146517053246498108
0.000493209343403577805 0.281416893005371094 0.0513238906860351562
0.000414548238040879369 0.689119696617126465 0.10693359375
0.000369611894711852074 1.28790140151977539 0.138701453804969788
0.000503776886034756899 0.258718252182006836 0.0438531935214996338
0.000465932476799935102 1.17199516296386719 0.0706073716282844543
0.000254975049756467342 1.20044541358947754 0.219744294881820679
0.000341098668286576867 1.38427650928497314 0.158858984708786011
0.000307525566313415766 0.81767582893371582 0.182593554258346558
0.000403877435019239783 0.967620968818664551 0.114477336406707764
0.000379000033717602491 1.19159078598022461 0.132064521312713623
0.000540149922017008066 0.498136162757873535 0.0181391537189483643
0.000346904562320560217 1.41989684104919434 0.154754474759101868
0.000182174102519638836 1.3543848991394043 0.271211117506027222
0.000556481594685465097 0.128772854804992676 0.00659343600273132324
0.000458081631222739816 1.46482312679290771 0.0761575475335121155
0.000234668987104669213 1.2700355052947998 0.234099701046943665
0.00034163825330324471 1.34748172760009766 0.158477514982223511
0.000138304007123224437 1.38414549827575684 0.302225202322006226
0.000527864031028002501 0.224526166915893555 0.0268246829509735107
0.000100339326309040189 1.34041130542755127 0.329064428806304932
0.00052346463780850172 0.455240726470947266 0.0299348831176757812
0.000564871472306549549 0.267747163772583008 0.000662177801132202148
0.00036737311165779829 1.32862186431884766 0.14028419554233551
0.000349202367942780256 0.842923402786254883 0.153130039572715759
0.000481052993563935161 0.226579904556274414 0.0599178969860076904
0.000162270298460498452 1.47653698921203613 0.285282164812088013
0.000552609097212553024 1.29098296165466309 0.00933111831545829773
0.000453194952569901943 0.638145625591278076 0.0796121805906295776
0.000450391555204987526 0.849973917007446289 0.0815940797328948975
0.00033270081621594727 1.45718061923980713 0.164795860648155212
3.11859948851633817e-05 1.4341588020324707 0.377952545881271362
0.000280300795566290617 1.16881608963012695 0.201840192079544067
0.000529887271113693714 1.49307143688201904 0.0253943447023630142
0.000329713831888511777 0.731199324131011963 0.166907519102096558
0.000213139675906859338 1.45525872707366943 0.249319911003112793
0.00029427272966131568 1.28188443183898926 0.191962689161300659
0.000321434228681027889 0.744987726211547852 0.172760799527168274
0.000462768832221627235 0.333020687103271484 0.0728439092636108398
0.000401199678890407085 0.604994416236877441 0.116370409727096558
0.000384338432922959328 0.548287153244018555 0.128290504217147827
0.000533450511284172535 1.27748560905456543 0.0228753089904785156
0.000323006825055927038 1.25902009010314941 0.171649068593978882
0.000204898067750036716 0.966050684452056885 0.255146384239196777
0.000283055269392207265 1.05899369716644287 0.199892893433570862
8.14406375866383314e-05 1.46485781669616699 0.342424899339675903
0.000402752950321882963 0.85329735279083252 0.115272298455238342
0.000513000355567783117 0.943771719932556152 0.0373326092958450317
7.49217506381683052e-05 1.30992674827575684 0.347033470869064331
0.00056344340555369854 1.27560830116271973 0.00167175009846687317
0.000427922001108527184 0.447580575942993164 0.0974789857864379883
0.000514297396875917912 0.913698792457580566 0.0364156812429428101
0.000374465773347765207 1.06882798671722412 0.135269999504089355
0.000366334279533475637 0.7082061767578125 0.141018569469451904
0.000380917801521718502 0.896488785743713379 0.130708739161491394
0.000533089390955865383 0.189774870872497559 0.0231305956840515137
0.000311074836645275354 1.16998839378356934 0.180084407329559326
0.000325022934703156352 1.20796358585357666 0.17022375762462616
0.000154742694576270878 1.21986758708953857 0.290603816509246826
0.000122099343570880592 1.30365431308746338 0.313681125640869141
0.000396308198105543852 0.553175806999206543 0.119828462600708008
0.000280917156487703323 1.21212399005889893 0.201404452323913574
0.000173865279066376388 1.36882698535919189 0.277085065841674805
0.000506376498378813267 1.10317754745483398 0.0420153290033340454
0.000279513304121792316 0.865308403968811035 0.20239691436290741
0.000477054185466840863 0.295401573181152344 0.0627448558807373047
0.000353919574990868568 0.56691741943359375 0.149795204401016235
0.000422918936237692833 0.978284657001495361 0.101015910506248474
0.000192971143405884504 1.26514244079589844 0.263578116893768311
0.000453076616395264864 0.66818690299987793 0.0796958208084106445
0.000354784424416720867 0.731371879577636719 0.149183779954910278
0.000518709828611463308 1.44572925567626953 0.0332962758839130402
0.000322896201396360993 1.11182129383087158 0.171727254986763
0.000331615679897367954 1.15543949604034424 0.165562987327575684
0.000399946235120296478 1.13331508636474609 0.117256499826908112
0.000549686606973409653 0.954710185527801514 0.011397138237953186
0.000474863685667514801 1.17580890655517578 0.0642934292554855347
0.000275033991783857346 0.962885022163391113 0.205563560128211975
0.000237686428590677679 1.21718001365661621 0.231966555118560791
0.000442384800408035517 0.584635615348815918 0.0872544646263122559
0.000189435872016474605 1.27892649173736572 0.266077369451522827
0.000455009139841422439 0.586633265018463135 0.0783296525478363037
0.0002557178377173841 1.01449227333068848 0.219219177961349487
0.000416806084103882313 1.2070087194442749 0.105337411165237427
0.000421287666540592909 1.41257941722869873 0.102169126272201538
6.00080020376481116e-05 1.412986159324646 0.357576757669448853
0.000239421147853136063 1.09194099903106689 0.230740189552307129
0.00055615126620978117 0.0856767892837524414 0.00682693719863891602
0.000241348228882998228 1.47246861457824707 0.229377806186676025
0.000313362746965140104 1.15078091621398926 0.178466960787773132
7.35611101845279336e-05 1.32172167301177979 0.347995370626449585
0.000535805127583444118 0.880110502243041992 0.0212106853723526001
0.000422866229200735688 0.653787016868591309 0.101053178310394287
0.000292415090370923281 1.05841159820556641 0.193275958299636841
0.000460278359241783619 1.46528720855712891 0.0746045708656311035
0.000276942882919684052 0.99712371826171875 0.204214096069335938
0.000448725098976865411 1.365287184715271 0.0827721655368804932
0.000367354718036949635 0.740548014640808105 0.140297219157218933
0.000514108047354966402 0.944150328636169434 0.0365495234727859497
0.000326046807458624244 1.27129185199737549 0.169499918818473816
0.000312918098643422127 0.704051375389099121 0.178781315684318542
7.48790771467611194e-05 1.33076202869415283 0.347063630819320679
0.00048782263183966279 0.368248105049133301 0.0551320910453796387
0.000104249862488359213 1.39454936981201172 0.326299875974655151
0.000493118655867874622 1.11202681064605713 0.0513880327343940735
0.000436739705037325621 1.15215837955474854 0.0912452638149261475
0.000440251955296844244 1.391274094581604 0.0887622982263565063
0.000466566707473248243 0.367434144020080566 0.0701589882373809814
0.000276932318229228258 0.948881268501281738 0.204221546649932861
0.000322964799124747515 1.38495612144470215 0.17167876660823822
0.000229129916988313198 1.00610744953155518 0.238015592098236084
0.000234586274018511176 0.953707337379455566 0.234158188104629517
0.000516655563842505217 1.369209885597229 0.0347485542297363281
0.000275559606961905956 1.49126088619232178 0.20519198477268219
0.000430919841164723039 1.24682915210723877 0.0953596457839012146
0.000504661875311285257 0.336972832679748535 0.0432274937629699707
0.000355139549355953932 0.991478979587554932 0.148932740092277527
0.000384220271371304989 1.45783233642578125 0.128374040126800537
0.000520380854140967131 0.33102715015411377 0.0321149528026580811
0.000396374234696850181 1.18059897422790527 0.119781754910945892
0.000464409415144473314 0.29502403736114502 0.0716841220855712891
0.000383994658477604389 0.524960339069366455 0.128533542156219482
0.000203065661480650306 1.43373358249664307 0.256441771984100342
0.000558531202841550112 0.477106094360351562 0.00514444708824157715
8.57248451211489737e-05 1.37262165546417236 0.339396178722381592
0.000503550865687429905 0.923971593379974365 0.0440129488706588745
0.000215121268411166966 0.975904345512390137 0.247919037938117981
0.000310751027427613735 1.38088762760162354 0.180313318967819214
0.000123047342640347779 1.34787273406982422 0.313010931015014648
0.000555292994249612093 0.0816299915313720703 0.00743371248245239258
0.000475663895485922694 1.24526548385620117 0.0637277364730834961
0.000453302840469405055 1.44758045673370361 0.0795359313488006592
0.000298527796985581517 0.968194365501403809 0.188954561948776245
0.000200448732357472181 0.986014306545257568 0.258291840553283691
0.000116959017759654671 1.19248473644256592 0.317315101623535156
0.00051343836821615696 1.03266334533691406 0.0370229631662368774
0.000439566094428300858 1.36571764945983887 0.0892471522092819214
0.000221665861317887902 1.14248096942901611 0.243292301893234253
0.000312771560857072473 1.42255353927612305 0.178884893655776978
0.000365630228770896792 0.5919991135597229 0.141516327857971191
6.66377163724973798e-05 1.42072474956512451 0.352889865636825562
0.000422993151005357504 0.749914705753326416 0.100963428616523743
0.000271749362582340837 0.999550819396972656 0.207885652780532837
0.000473144988063722849 0.650200247764587402 0.0655084401369094849
0.000104967344668693841 1.2549433708190918 0.325792640447616577
0.000178900401806458831 1.3202977180480957 0.273525446653366089
0.000543878646567463875 0.479019880294799805 0.0155031085014343262
0.000434333778684958816 1.47844922542572021 0.092946171760559082
0.00031376472907140851 1.10689103603363037 0.178182795643806458
0.000553969643078744411 0.856691479682922363 0.00836928188800811768
0.000512844766490161419 0.212060093879699707 0.0374425947666168213
0.000118760231998749077 1.20694637298583984 0.316041707992553711
0.0003844104940071702 1.44531083106994629 0.12823958694934845
0.000408943160437047482 1.17587411403656006 0.110896125435829163
0.000332127499859780073 1.01197588443756104 0.165201172232627869
0.000409047555876895785 0.418215155601501465 0.110822319984436035
0.000351657974533736706 0.912630259990692139 0.151394039392471313
0.00049122754717245698 0.325227260589599609 0.0527249574661254883
0.000207406847039237618 1.31579732894897461 0.253372758626937866
5.08311095472890884e-05 1.46981906890869141 0.364064425230026245
0.000510857382323592901 1.44036340713500977 0.0388475917279720306
0.000380684039555490017 1.131630539894104 0.130873963236808777
0.000495203188620507717 1.00534224510192871 0.0499143898487091064
0.000369273970136418939 1.41678309440612793 0.138940364122390747
0.000353432056726887822 1.44079625606536865 0.150139853358268738
0.000548742944374680519 0.478944778442382812 0.0120642483234405518
0.000432329776231199503 1.48782074451446533 0.0943628847599029541
0.000333925185259431601 1.01118123531341553 0.163930296897888184
0.000511362333782017231 1.25796675682067871 0.0384906157851219177
0.000502158480230718851 1.33302795886993408 0.0449972860515117645
0.000192816951312124729 1.3782963752746582 0.2636871337890625
0.000345292355632409453 1.03649115562438965 0.155894219875335693
0.000217571927350945771 1.41970252990722656 0.246186524629592896
0.000299708830425515771 0.931501507759094238 0.188119620084762573
0.000202379713300615549 1.23304784297943115 0.25692671537399292
0.000453035259852185845 1.29203557968139648 0.0797251015901565552
0.000470558501547202468 1.36392045021057129 0.0673370063304901123
0.000254188344115391374 1.38866114616394043 0.220300465822219849
0.000211733102332800627 0.952188253402709961 0.250314295291900635
0.000493689905852079391 0.632879197597503662 0.0509841591119766235
0.000483024661662057042 0.464009881019592285 0.058524012565612793
0.000385196763090789318 1.30629491806030273 0.127683699131011963
0.000318862730637192726 0.707384228706359863 0.1745787113904953
0.000108692111098207533 1.41524279117584229 0.323159396648406982
0.000312304473482072353 0.748346328735351562 0.179215088486671448
0.000441710057202726603 0.704651713371276855 0.0877314954996109009
0.000459312519524246454 1.03258025646209717 0.0752873867750167847
0.000444981415057554841 0.686766743659973145 0.0854187756776809692
0.000477951078210026026 0.786057054996490479 0.0621107965707778931
0.000541538931429386139 0.623586773872375488 0.0171572118997573853
0.000162635769811458886 1.33433175086975098 0.285023778676986694
0.000511417165398597717 0.815262436866760254 0.0384518355131149292
0.000369012821465730667 1.06975698471069336 0.13912498950958252
0.000467048259451985359 0.43104851245880127 0.0698185563087463379
0.000344381696777418256 1.21469926834106445 0.156538039445877075
0.000560591695830225945 0.238994240760803223 0.00368779897689819336
0.000239313638303428888 1.46482014656066895 0.230816170573234558
0.000518049055244773626 1.14583480358123779 0.0337634086608886719
0.000401071651140227914 0.758420646190643311 0.116460919380187988
0.000263203226495534182 1.07444167137145996 0.213927358388900757
0.000558913510758429766 0.052863001823425293 0.00487419962882995605
0.000505581672769039869 0.526953816413879395 0.0425772666931152344
0.000427559891249984503 0.679743289947509766 0.0977349728345870972
0.000156407215399667621 1.20935642719268799 0.289427101612091064
0.000411262881243601441 1.30318582057952881 0.109256178140640259
0.000464187469333410263 1.28685140609741211 0.0718410313129425049
0.000565520604141056538 0.543849945068359375 0.000203281641006469727
0.000323710410157218575 1.45516502857208252 0.171151652932167053
0.000511044694576412439 0.510826587677001953 0.0387152135372161865
0.00025159795768558979 1.17027866840362549 0.222131744027137756
0.000454158114735037088 0.350731134414672852 0.0789313018321990967
0.000333217874867841601 1.48618841171264648 0.164430305361747742
0.000525096256751567125 1.4289778470993042 0.0287813879549503326
0.000358292629243806005 0.848691642284393311 0.146703645586967468
0.000379258650355041027 0.735091924667358398 0.131881698966026306
0.000311203300952911377 1.21421456336975098 0.179993584752082825
0.000540403591003268957 1.38598179817199707 0.0179597996175289154
0.000382747850380837917 0.541645526885986328 0.129414945840835571
0.000194539723452180624 1.45857298374176025 0.262469232082366943
0.000351707014488056302 1.07554030418395996 0.151359379291534424
0.00050810998072847724 0.283991098403930664 0.040789872407913208
0.00037897340371273458 1.48618113994598389 0.132083326578140259
0.000485769793158397079 0.942824065685272217 0.0565833151340484619
0.000497384287882596254 1.02553725242614746 0.048372417688369751
0.000362323626177385449 0.738318204879760742 0.143853917717933655
0.000502755807247012854 0.624342441558837891 0.0445750057697296143
0.00040870392695069313 1.31129860877990723 0.11106526106595993
0.000255863298662006855 1.18928241729736328 0.219116345047950745
0.000407283339882269502 0.889210760593414307 0.112069547176361084
0.000184997523319907486 1.02841079235076904 0.269215106964111328
0.000418971525505185127 1.14206421375274658 0.103806525468826294
0.000396102317608892918 0.8145751953125 0.119973987340927124
0.000531089899595826864 0.510887682437896729 0.0245441794395446777
0.000310715171508491039 1.42200624942779541 0.180338665843009949
0.000564529211260378361 0.235456466674804688 0.000904172658920288086
0.000522407237440347672 1.07666802406311035 0.0306823998689651489
0.000536280102096498013 0.772933602333068848 0.0208749324083328247
0.000254661950748413801 1.31587827205657959 0.219965651631355286
0.000452761305496096611 1.41633224487304688 0.079918786883354187
0.000149931656778790057 1.22051835060119629 0.294004976749420166
0.000451293686637654901 1.17031800746917725 0.0809563100337982178
0.000502258364576846361 0.94444739818572998 0.0449266731739044189
0.000388002867111936212 0.606170177459716797 0.125699922442436218
0.000201066373847424984 1.38781213760375977 0.25785517692565918
0.000154958062921650708 1.1900026798248291 0.290451556444168091
0.000248438824201002717 0.850999355316162109 0.224365085363388062
0.000241769826970994473 1.39332222938537598 0.229079753160476685
0.00050480780191719532 0.655002474784851074 0.0431243777275085449
0.000307373615214601159 0.794486284255981445 0.182700976729393005
0.000438917195424437523 0.385661005973815918 0.0897058546543121338
0.000416169787058606744 1.21129059791564941 0.105787254869937897
0.000520615838468074799 0.239747881889343262 0.0319488346576690674
0.00053803581977263093 1.34789943695068359 0.0196336954832077026
0.000324223045026883483 1.07508754730224609 0.170789241790771484
0.000531671568751335144 1.01632916927337646 0.0241329669952392578
0.000460558250779286027 0.304874420166015625 0.0744067132472991943
0.000335800519678741693 1.1026759147644043 0.16260451078414917
0.000468178011942654848 0.587906837463378906 0.0690198838710784912
0.000169330101925879717 1.33284497261047363 0.280291199684143066
0.00013214122736826539 1.23463654518127441 0.306582003831863403
0.000563201552722603083 0.610817551612854004 0.00184273719787597656
0.000364462088327854872 1.44604897499084473 0.142342135310173035
0.000358185992809012532 1.11633634567260742 0.146779045462608337
0.000244568043854087591 1.03522133827209473 0.227101564407348633
0.000112859357614070177 1.4903409481048584 0.320213377475738525
0.000474392727483063936 0.521907329559326172 0.0646263659000396729
0.000477172259707003832 0.658664584159851074 0.0626613795757293701
0.000454910215921700001 1.3201439380645752 0.0783995836973190308
0.000327933579683303833 1.35442209243774414 0.168166071176528931
0.000459309463622048497 0.402900815010070801 0.0752895176410675049
0.00052428804337978363 0.134034633636474609 0.0293527543544769287
0.000475003529572859406 0.662879526615142822 0.0641945749521255493
0.000458013149909675121 0.62758326530456543 0.0762059688568115234
0.000505764270201325417 0.306981444358825684 0.0424481332302093506
0.000430078420322388411 0.921309232711791992 0.0959544628858566284
0.000469055725261569023 0.339714169502258301 0.0683993697166442871
0.000355813885107636452 0.581579685211181641 0.148456007242202759
0.000260025059105828404 1.26244282722473145 0.216174155473709106
0.000560308340936899185 1.21388542652130127 0.0038881450891494751
0.000562237226404249668 0.30807948112487793 0.00252446532249450684
0.000333371397573500872 0.737349271774291992 0.164321780204772949
0.000154699926497414708 1.18672919273376465 0.290634065866470337
0.00051866989815607667 0.205669641494750977 0.033324509859085083
0.000391121022403240204 1.42911601066589355 0.123495534062385559
0.000503678515087813139 1.02265965938568115 0.043922722339630127
0.000490831909701228142 0.618262410163879395 0.0530046671628952026
0.000245744449784979224 1.42425310611724854 0.226269885897636414
0.000266489922069013119 1.37896370887756348 0.211603820323944092
0.000534874794539064169 0.477486014366149902 0.0218684077262878418
0.000188336663995869458 1.42379605770111084 0.26685449481010437
0.000559715728741139174 1.20361948013305664 0.00430703163146972656
0.000565063906833529472 1.14411163330078125 0.000526122748851776123
0.00054820912191644311 1.27168834209442139 0.0124416574835777283
0.00041454582242295146 0.715827047824859619 0.10693533718585968
0.00053974625188857317 1.15829980373382568 0.0184245333075523376
0.000304610992316156626 1.47240638732910156 0.18465404212474823
0.000405860162572935224 0.426803350448608398 0.113075673580169678
0.000512880855239927769 0.510758936405181885 0.0374170839786529541
5.57682824364746921e-06 1.49872827529907227 0.396057039499282837
0.000529318233020603657 1.08448481559753418 0.0257966592907905579
5.93473305343650281e-05 1.3503105640411377 0.358043819665908813
0.000346782850101590157 1.0598137378692627 0.154840528964996338
0.00018083199393004179 1.19411265850067139 0.272159934043884277
0.000275609927484765649 0.818526208400726318 0.205156415700912476
0.000495947315357625484 1.15908634662628174 0.049388296902179718
0.000428787461714819074 1.26299214363098145 0.0968671515583992004
0.000242120018810965121 0.982716083526611328 0.228832200169563293
0.000294866040349006653 0.956890106201171875 0.191543251276016235
0.000552185054402798414 1.37195587158203125 0.00963089242577552795
0.000375764211639761925 1.1303246021270752 0.134352073073387146
0.000411255867220461369 0.989236295223236084 0.109261170029640198
0.000484085612697526813 0.935892343521118164 0.0577739626169204712
0.000558888539671897888 1.29318976402282715 0.00489183515310287476
0.000540265580639243126 1.19900310039520264 0.0180573686957359314
0.000272554898401722312 1.28341817855834961 0.207316190004348755
0.000137315873871557415 1.37391912937164307 0.302923768758773804
4.63720134575851262e-05 1.45552730560302734 0.367216765880584717
0.000339968304615467787 0.841514706611633301 0.159658089280128479
0.00051189312944188714 1.0414576530456543 0.0381153523921966553
0.000140357020427472889 1.20318317413330078 0.300773829221725464
0.00024540393496863544 1.05844449996948242 0.226510614156723022
0.000537337386049330235 1.11094832420349121 0.0201274752616882324
0.000494970823638141155 0.582397222518920898 0.0500786304473876953
0.000552021956536918879 1.45914733409881592 0.00974619109183549881
0.000199419562704861164 1.22997713088989258 0.259019404649734497
0.000396330287912860513 1.41259706020355225 0.119812816381454468
0.000414931157138198614 0.644979536533355713 0.106662914156913757
0.00039128135540522635 0.534347057342529297 0.12338218092918396
0.000444749835878610611 1.34099233150482178 0.0855825245380401611
0.000503182585816830397 0.381674528121948242 0.0442732870578765869
0.000145998492371290922 1.21482944488525391 0.296785563230514526
0.000554110854864120483 0.858531355857849121 0.00826942920684814453
0.000278706487733870745 1.48812389373779297 0.20296730101108551
0.000310724019072949886 1.47773432731628418 0.180332407355308533
0.000127823892398737371 1.33993697166442871 0.309634149074554443
0.000253810605499893427 1.15522301197052002 0.220567494630813599
0.000380113895516842604 1.26239454746246338 0.131277039647102356
0.000428572355303913355 1.09861230850219727 0.0970192253589630127
0.000224152026930823922 1.04372000694274902 0.241534724831581116
0.000444004108430817723 1.37514317035675049 0.0861097052693367004
0.000456844485597684979 0.546459436416625977 0.0770321488380432129
0.000124713638797402382 1.29683339595794678 0.311832934617996216
0.000286530732410028577 1.00761985778808594 0.197435930371284485
0.000524176226463168859 1.03891849517822266 0.0294318050146102905
0.000488787831272929907 0.99114680290222168 0.0544497221708297729
0.000328918627928942442 0.973819971084594727 0.167469695210456848
0.000252893834840506315 1.41023397445678711 0.221215605735778809
8.74498509801924229e-05 1.35799098014831543 0.338176697492599487
0.00052954978309571743 0.835181772708892822 0.0256329625844955444
0.000432552944403141737 1.3770064115524292 0.0942051410675048828
0.000191090162843465805 1.06760144233703613 0.264907866716384888
0.00046077519073151052 0.996641993522644043 0.0742533355951309204
0.000224506729864515364 1.37258613109588623 0.241283953189849854
0.000482738949358463287 1.19811546802520752 0.0587259978055953979
0.000520161120221018791 0.983028113842010498 0.0322703272104263306
0.000364360806997865438 1.03447461128234863 0.142413735389709473
0.000402571808081120253 0.874113798141479492 0.115400388836860657
0.000253222475294023752 1.35847270488739014 0.220983266830444336
0.000551909557543694973 1.31875371932983398 0.00982564687728881836
0.00034049194073304534 1.33996105194091797 0.159287899732589722
9.04507032828405499e-05 1.28111433982849121 0.336055219173431396
0.000517215696163475513 1.45423352718353271 0.0343525707721710205
8.87815767782740295e-05 1.42616581916809082 0.337235212326049805
0.000243231625063344836 1.09705972671508789 0.228046342730522156
0.000157137008500285447 1.47816097736358643 0.288911163806915283
0.000445555138867348433 1.3762972354888916 0.0850131958723068237
0.000157807342475280166 1.19080996513366699 0.288437247276306152
0.000465577177237719297 0.751675844192504883 0.0708585530519485474
0.000473247666377574205 0.597651422023773193 0.0654358863830566406
0.000423277844674885273 0.730940461158752441 0.100762158632278442
0.000136203947477042675 1.31612956523895264 0.303709834814071655
0.000548952375538647175 1.49651527404785156 0.0119162201881408691
0.000525935785844922066 0.219378948211669922 0.0281879007816314697
0.000535451341420412064 0.221144795417785645 0.0214608311653137207
0.000479878915939480066 1.36515355110168457 0.0607478991150856018
0.000375032570445910096 0.74461066722869873 0.134869322180747986
0.000552636804059147835 0.645944416522979736 0.00931149721145629883
0.000286416150629520416 1.31798648834228516 0.197516918182373047
0.000436002417700365186 0.412084817886352539 0.0917665064334869385
0.000136943563120439649 1.39968931674957275 0.303186953067779541
0.000509446952491998672 1.28850436210632324 0.0398447215557098389
0.000284110778011381626 1.31432271003723145 0.19914671778678894
0.000543133763130754232 1.12178564071655273 0.0160297378897666931
0.000230431294767186046 1.04069924354553223 0.237095564603805542
0.000201563627342693508 0.168219506740570068 0.257503628730773926
0.000199659407371655107 0.743903160095214844 0.258849829435348511
0.000157372429384849966 1.0375368595123291 0.288744717836380005
2.28645458264509216e-05 0.210830569267272949 0.383835434913635254
0.000402268196921795607 0.00200724485330283642 0.115615010261535645
0.000246041512582451105 0.135202035307884216 0.226059868931770325
0.000176810994162224233 0.967792391777038574 0.275002568960189819
2.73315290542086586e-05 0.697269439697265625 0.380677491426467896
5.27366064488887787e-05 0.817785263061523438 0.362717300653457642
0.000332582305418327451 0.411003559827804565 0.164879634976387024
0.000167433550814166665 1.05362391471862793 0.281632006168365479
0.000150831183418631554 0.746031999588012695 0.293369084596633911
0.000161312389536760747 0.280782729387283325 0.285959362983703613
0.000480927730677649379 0.134955957531929016 0.0600064396858215332
0.000118987809401005507 0.232362419366836548 0.315880835056304932
0.000417559145716950297 0.382801055908203125 0.104805022478103638
5.32059348188340664e-05 1.07218837738037109 0.36238551139831543
0.000137967494083568454 0.0507225990295410156 0.302463114261627197
0.000178019166924059391 0.896259903907775879 0.274148464202880859
0.000378504017135128379 0.084179311990737915 0.132415145635604858
0.000395230978028848767 0.161568611860275269 0.120590001344680786
0.000112840774818323553 0.729930520057678223 0.320226490497589111
0.000146251870319247246 0.463685899972915649 0.29660642147064209
9.71360204857774079e-05 0.241536468267440796 0.331329017877578735
0.000120368284115102142 0.353660225868225098 0.314904898405075073
1.18361531349364668e-05 0.277258545160293579 0.391631990671157837
0.000102241792774293572 0.508795499801635742 0.32771947979927063
0.000260304048424586654 0.191647768020629883 0.215976938605308533
0.000102552359749097377 0.289139151573181152 0.327499926090240479
9.89311520243063569e-05 0.572130799293518066 0.330059945583343506
0.000144120378536172211 0.0332960523664951324 0.29811328649520874
3.54117219103500247e-05 0.380804955959320068 0.374965190887451172
0.000323277636198326945 0.357267618179321289 0.171457588672637939
0.000226701435167342424 0.193483293056488037 0.239732399582862854
1.37795268528861925e-05 0.592072665691375732 0.390258103609085083
0.000277884973911568522 0.545702695846557617 0.203548058867454529
0.000229631536058150232 0.427180290222167969 0.237660959362983704
0.000408087449613958597 0.0740475505590438843 0.111501067876815796
0.000206676500965841115 0.70806509256362915 0.253889083862304688
0.000368243025150150061 0.0400009378790855408 0.139669209718704224
7.69300604588352144e-05 0.316717267036437988 0.345613688230514526
8.93940741661936045e-05 1.21587157249450684 0.336802214384078979
0.000123325793538242579 0.757639467716217041 0.312814086675643921
0.000407242390792816877 0.358420908451080322 0.112098485231399536
5.3534877224592492e-05 0.385144472122192383 0.362152963876724243
5.50998156541027129e-05 0.852707982063293457 0.36104661226272583
0.000104571503470651805 1.21175742149353027 0.326072484254837036
0.000200644179130904377 0.475532889366149902 0.258153647184371948
0.000453760934760794044 0.210307091474533081 0.0792120695114135742
0.00020965117437299341 0.00320635223761200905 0.251786112785339355
0.000218407949432730675 0.325722783803939819 0.245595499873161316
9.48504862208210398e-07 0.671561479568481445 0.399329036474227905
6.42038576188497245e-05 0.442712098360061646 0.35461050271987915
0.000496205466333776712 0.0470355302095413208 0.0492058098316192627
0.000207137127290479839 0.570686697959899902 0.253563463687896729
0.000159886112669482827 0.816683828830718994 0.286967664957046509
0.000185393757419660687 0.73054194450378418 0.268934965133666992
0.000377288029994815588 0.395263791084289551 0.13327479362487793
8.4733655967283994e-05 1.21089911460876465 0.340096890926361084
0.000290889816824346781 0.184239685535430908 0.194354265928268433
7.58876267354935408e-05 0.847258210182189941 0.346350640058517456
0.000454148277640342712 0.0245443657040596008 0.0789382457733154297
0.000311072275508195162 0.199593037366867065 0.180086210370063782
0.000110302156826946884 1.01720595359802246 0.322021186351776123
6.26786568318493664e-05 0.613841354846954346 0.355688750743865967
6.5741289290599525e-05 1.07646989822387695 0.353523612022399902
7.11503844286198728e-06 0.293094485998153687 0.394969582557678223
0.000398108211811631918 0.268116384744644165 0.118555933237075806
0.000239581393543630838 0.507349848747253418 0.230626881122589111
0.000182398769538849592 0.0456697568297386169 0.271052300930023193
0.000131347042042762041 0.434406757354736328 0.307143449783325195
0.000189657381270080805 0.648508548736572266 0.265920788049697876
0.000336095632519572973 0.571726560592651367 0.162395879626274109
5.99946179136168212e-05 0.476798683404922485 0.35758623480796814
0.00014272173575591296 0.640183389186859131 0.299102067947387695
0.000305143126752227545 0.08252716064453125 0.184277847409248352
4.8668647650629282e-05 1.25429201126098633 0.365593165159225464
6.55238109175115824e-05 0.651340484619140625 0.353677362203598022
5.86843198107089847e-05 1.06388115882873535 0.358512550592422485
0.00022894705762155354 0.578935503959655762 0.238144859671592712
7.23491903045214713e-05 0.0833092778921127319 0.34885212779045105
0.000119482996524311602 1.08849167823791504 0.315530776977539062
0.000231874830205924809 0.321597874164581299 0.236075058579444885
0.000276966835372149944 0.483252406120300293 0.204197153449058533
0.000467473058961331844 0.168307065963745117 0.0695182681083679199
