ply
format ascii 1.0
element vertex 1017
property float x
property float y
property float z
end_header
0.525816679000854492 -1.99840144432528177e-15 0.455113977193832397
0.620960593223571777 -1.99840144432528177e-15 0.479313015937805176
0.997117817401885986 -1.99840144432528177e-15 0.296894371509552002
0.463608205318450928 -1.99840144432528177e-15 0.400322765111923218
0.525346517562866211 -1.99840144432528177e-15 0.302089273929595947
0.433759868144989014 -1.99840144432528177e-15 0.446445286273956299
0.91953575611114502 -1.99840144432528177e-15 0.104026228189468384
0.742141842842102051 -1.99840144432528177e-15 0.432939022779464722
0.612574934959411621 -1.99840144432528177e-15 0.395484387874603271
0.779710769653320312 -1.99840144432528177e-15 0.139948576688766479
0.750407874584197998 -1.99840144432528177e-15 0.183447718620300293
0.557789981365203857 -1.99840144432528177e-15 0.419327378273010254
0.626104116439819336 -1.99840144432528177e-15 0.282301187515258789
0.835061788558959961 -1.99840144432528177e-15 0.110618472099304199
0.243781387805938721 -1.99840144432528177e-15 0.495256960391998291
0.466462492942810059 -1.99840144432528177e-15 0.271661579608917236
0.788619518280029297 -1.99840144432528177e-15 0.292918562889099121
0.845556199550628662 -1.99840144432528177e-15 0.496049582958221436
0.571370959281921387 -1.99840144432528177e-15 0.479135006666183472
0.491916477680206299 -1.99840144432528177e-15 0.439948946237564087
0.753363251686096191 -1.99840144432528177e-15 0.442662894725799561
0.408491075038909912 -1.99840144432528177e-15 0.479153722524642944
0.644102573394775391 -1.99840144432528177e-15 0.226567387580871582
0.813699126243591309 -1.99840144432528177e-15 0.155108600854873657
0.518169760704040527 -1.99840144432528177e-15 0.464214414358139038
0.799965739250183105 -1.99840144432528177e-15 0.446802794933319092
0.466559648513793945 -1.99840144432528177e-15 0.389464586973190308
0.911006927490234375 -1.99840144432528177e-15 0.248172938823699951
0.576887428760528564 -1.99840144432528177e-15 0.466488093137741089
0.176496267318725586 -1.99840144432528177e-15 0.493085920810699463
0.428545653820037842 -1.99840144432528177e-15 0.287820339202880859
0.521010518074035645 -1.99840144432528177e-15 0.303623616695404053
0.950881898403167725 -1.99840144432528177e-15 0.243871301412582397
0.521964430809020996 -1.99840144432528177e-15 0.421069175004959106
0.961258947849273682 -1.99840144432528177e-15 0.388061642646789551
0.323769271373748779 -1.99840144432528177e-15 0.36035427451133728
0.389829039573669434 -1.99840144432528177e-15 0.477334767580032349
0.207947731018066406 -1.99840144432528177e-15 0.473939388990402222
0.577200889587402344 -1.99840144432528177e-15 0.488154172897338867
0.49216848611831665 -1.99840144432528177e-15 0.292952179908752441
0.226616263389587402 -1.99840144432528177e-15 0.473830312490463257
0.472675204277038574 -1.99840144432528177e-15 0.308942705392837524
0.927673637866973877 -1.99840144432528177e-15 0.251543760299682617
0.946099579334259033 -1.99840144432528177e-15 0.120801538228988647
0.853222906589508057 -1.99840144432528177e-15 0.333540171384811401
0.604578614234924316 -1.99840144432528177e-15 0.299357324838638306
0.925897657871246338 -1.99840144432528177e-15 0.416193634271621704
0.956013381481170654 -1.99840144432528177e-15 0.0995962321758270264
0.181031405925750732 -1.99840144432528177e-15 0.429911494255065918
0.89612966775894165 -1.99840144432528177e-15 0.0744395852088928223
0.693157553672790527 -1.99840144432528177e-15 0.203146189451217651
0.43468177318572998 -1.99840144432528177e-15 0.327441275119781494
0.991170763969421387 -1.99840144432528177e-15 0.291960835456848145
0.847845673561096191 -1.99840144432528177e-15 0.108010321855545044
0.898143887519836426 -1.99840144432528177e-15 0.286535322666168213
0.804255008697509766 -1.99840144432528177e-15 0.297124594449996948
0.803573012351989746 -1.99840144432528177e-15 0.432052493095397949
0.617559313774108887 -1.99840144432528177e-15 0.256212890148162842
0.992431938648223877 -1.99840144432528177e-15 0.374907791614532471
0.64485776424407959 -1.99840144432528177e-15 0.460851699113845825
0.83825075626373291 -1.99840144432528177e-15 0.317457973957061768
0.509014487266540527 -1.99840144432528177e-15 0.307831346988677979
0.994722187519073486 -1.99840144432528177e-15 0.103354960680007935
0.698393464088439941 -1.99840144432528177e-15 0.239505559206008911
0.760055243968963623 -1.99840144432528177e-15 0.470018953084945679
0.588556647300720215 -1.99840144432528177e-15 0.241760313510894775
0.943251967430114746 -1.99840144432528177e-15 0.419926881790161133
0.899349570274353027 -1.99840144432528177e-15 0.319766640663146973
0.957430243492126465 -1.99840144432528177e-15 0.385296732187271118
0.736454486846923828 -1.99840144432528177e-15 0.148193299770355225
0.220989704132080078 -1.99840144432528177e-15 0.429624676704406738
0.969173848628997803 -1.99840144432528177e-15 0.088304668664932251
0.566362917423248291 -1.99840144432528177e-15 0.318140745162963867
0.240066468715667725 -1.99840144432528177e-15 0.418308407068252563
0.569731235504150391 -1.99840144432528177e-15 0.404877364635467529
0.899537324905395508 -1.99840144432528177e-15 0.24391588568687439
0.740258336067199707 -1.99840144432528177e-15 0.412955880165100098
0.905464470386505127 -1.99840144432528177e-15 0.285711884498596191
0.957915365695953369 -1.99840144432528177e-15 0.031077653169631958
0.118430733680725098 -1.99840144432528177e-15 0.488537639379501343
0.680557012557983398 -1.99840144432528177e-15 0.267936855554580688
0.413314700126647949 -1.99840144432528177e-15 0.456152737140655518
0.921333134174346924 -1.99840144432528177e-15 0.161112338304519653
0.982900083065032959 -1.99840144432528177e-15 0.197059810161590576
0.506860733032226562 -1.99840144432528177e-15 0.42328333854675293
0.357933461666107178 -1.99840144432528177e-15 0.404363811016082764
0.967935740947723389 -1.99840144432528177e-15 0.264639496803283691
0.684608101844787598 -1.99840144432528177e-15 0.288363069295883179
0.899382174015045166 -1.99840144432528177e-15 0.402367770671844482
0.792999684810638428 -1.99840144432528177e-15 0.425931721925735474
0.656731724739074707 -1.99840144432528177e-15 0.355498850345611572
0.842309653759002686 -1.99840144432528177e-15 0.164959818124771118
0.705433189868927002 -1.99840144432528177e-15 0.231095731258392334
0.421513080596923828 -1.99840144432528177e-15 0.31758040189743042
0.533936262130737305 -1.99840144432528177e-15 0.474403172731399536
0.924513101577758789 -1.99840144432528177e-15 0.394643843173980713
0.871734619140625 -1.99840144432528177e-15 0.271289467811584473
0.916540563106536865 -1.99840144432528177e-15 0.264640271663665771
0.78401029109954834 -1.99840144432528177e-15 0.490374058485031128
0.143908023834228516 -1.99840144432528177e-15 0.495873212814331055
0.691955327987670898 -1.99840144432528177e-15 0.175491511821746826
0.495207488536834717 -1.99840144432528177e-15 0.332948923110961914
0.681139826774597168 -1.99840144432528177e-15 0.339447557926177979
0.921645224094390869 -1.99840144432528177e-15 0.267379045486450195
0.500822663307189941 -1.99840144432528177e-15 0.404269695281982422
0.666896343231201172 -1.99840144432528177e-15 0.472749799489974976
0.994641005992889404 -1.99840144432528177e-15 0.492422908544540405
0.436656355857849121 -1.99840144432528177e-15 0.462456196546554565
0.947804629802703857 -1.99840144432528177e-15 0.22896459698677063
0.386493682861328125 -1.99840144432528177e-15 0.316384851932525635
0.198243081569671631 -1.99840144432528177e-15 0.481280356645584106
0.383854806423187256 -1.99840144432528177e-15 0.449616581201553345
0.747032284736633301 -1.99840144432528177e-15 0.481080353260040283
0.636750638484954834 -1.99840144432528177e-15 0.304402947425842285
0.869884967803955078 -1.99840144432528177e-15 0.298433899879455566
0.624644637107849121 -1.99840144432528177e-15 0.203875809907913208
0.889564812183380127 -1.99840144432528177e-15 0.0557278990745544434
0.27671736478805542 -1.99840144432528177e-15 0.361763477325439453
0.468566834926605225 -1.99840144432528177e-15 0.413422584533691406
0.592029452323913574 -1.99840144432528177e-15 0.208697378635406494
0.773011982440948486 -1.99840144432528177e-15 0.123659759759902954
0.432676315307617188 -1.99840144432528177e-15 0.392176359891891479
0.320693731307983398 -1.99840144432528177e-15 0.367801189422607422
0.633461475372314453 -1.99840144432528177e-15 0.393787384033203125
0.32124018669128418 -1.99840144432528177e-15 0.411099910736083984
0.974343538284301758 -1.99840144432528177e-15 0.375710010528564453
0.419428408145904541 -1.99840144432528177e-15 0.496090561151504517
0.676973283290863037 -1.99840144432528177e-15 0.235818207263946533
0.236340641975402832 -1.99840144432528177e-15 0.381962299346923828
0.732860147953033447 -1.99840144432528177e-15 0.420017659664154053
0.591376185417175293 -1.99840144432528177e-15 0.407651990652084351
0.895470798015594482 -1.99840144432528177e-15 0.460904777050018311
0.032716214656829834 -1.99840144432528177e-15 0.485219240188598633
0.316164016723632812 -1.99840144432528177e-15 0.471649140119552612
0.877484023571014404 -1.99840144432528177e-15 0.177377283573150635
0.829194307327270508 -1.99840144432528177e-15 0.338367044925689697
0.765308618545532227 -1.99840144432528177e-15 0.212534934282302856
0.704172909259796143 -1.99840144432528177e-15 0.314867496490478516
0.505502998828887939 -1.99840144432528177e-15 0.366113185882568359
0.396434009075164795 -1.99840144432528177e-15 0.353449404239654541
0.722654581069946289 -1.99840144432528177e-15 0.344942331314086914
0.261348247528076172 -1.99840144432528177e-15 0.41811293363571167
0.555309653282165527 -1.99840144432528177e-15 0.337444067001342773
0.852914810180664062 -1.99840144432528177e-15 0.45152658224105835
0.574440240859985352 0.689392745494842529 0
0.778351128101348877 0.457370609045028687 0
0.673900961875915527 0.527184009552001953 0
0.590046525001525879 0.622359931468963623 0
0.918370306491851807 0.138572275638580322 0
0.911039113998413086 0.0790898799896240234 0
0.639900803565979004 0.560109496116638184 0
0.623737812042236328 0.344593524932861328 0
0.79322350025177002 0.564308047294616699 0
0.989403665065765381 0.171686053276062012 0
0.936699151992797852 0.567398250102996826 0
0.902671992778778076 0.238859772682189941 0
0.3150901198387146 0.599279522895812988 0
0.759220480918884277 0.255690604448318481 0
0.862687468528747559 0.340601921081542969 0
0.880133688449859619 0.52658843994140625 0
0.421452462673187256 0.442773908376693726 0
0.831974446773529053 0.55689549446105957 0
0.349857449531555176 0.726212918758392334 0
0.507104933261871338 0.719293177127838135 0
0.857426464557647705 0.116932272911071777 0
0.726784944534301758 0.25423818826675415 0
0.538501858711242676 0.730332672595977783 0
0.983346045017242432 0.291070491075515747 0
0.809105992317199707 0.361226648092269897 0
0.894271910190582275 0.726954460144042969 0
0.542106688022613525 0.665806233882904053 0
0.769672632217407227 0.434515088796615601 0
0.378367424011230469 0.650671899318695068 0
0.849385857582092285 0.290953904390335083 0
0.826369643211364746 0.178450047969818115 0
0.464245498180389404 0.631544530391693115 0
0.187574625015258789 0.617799103260040283 0
0.721948385238647461 0.455180704593658447 0
0.26831895112991333 0.688537180423736572 0
0.840713202953338623 0.285687386989593506 0
0.575267553329467773 0.586564838886260986 0
0.832563459873199463 0.555112957954406738 0
0.861423194408416748 0.143364906311035156 0
0.884112417697906494 0.195138514041900635 0
0.958724379539489746 0.400591492652893066 0
0.688404440879821777 0.261152356863021851 0
0.624465346336364746 0.49510541558265686 0
0.727108001708984375 0.603305816650390625 0
0.954766035079956055 0.261942774057388306 0
0.445302426815032959 0.52666783332824707 0
0.335666000843048096 0.514192938804626465 0
0.619910836219787598 0.511135578155517578 0
0.542840063571929932 0.640771448612213135 0
0.71334153413772583 0.333917856216430664 0
0.770565986633300781 0.400438755750656128 0
0.514707207679748535 0.415157854557037354 0
0.481822848320007324 0.509268522262573242 0
0.492882132530212402 0.585761964321136475 0
0.993579566478729248 0.121336698532104492 0
0.382597208023071289 0.709460914134979248 0
0.768506705760955811 0.629326105117797852 0
0.567118465900421143 0.60690760612487793 0
0.0257390141487121582 0.72948455810546875 0
0.816782593727111816 0.623809516429901123 0
0.828067362308502197 0.325490206480026245 0
0.186774492263793945 0.686866998672485352 0
0.86020660400390625 0.723771333694458008 0
0.806416869163513184 0.47402721643447876 0
0.563193321228027344 0.53771507740020752 0
0.806353211402893066 0.477630525827407837 0
0.634150505065917969 0.311076104640960693 0
0.710990309715270996 0.649020910263061523 0
0.991040170192718506 0.525850415229797363 0
0.858054995536804199 0.557624399662017822 0
0.914366185665130615 0.255616903305053711 0
0.815506398677825928 0.366854161024093628 0
0.835201680660247803 0.685294628143310547 0
0.985849320888519287 0.439902365207672119 0
0.347891271114349365 0.48763662576675415 0
0.793951034545898438 0.617913722991943359 0
0.714404404163360596 0.312608271837234497 0
0.836176156997680664 0.388816297054290771 0
0.318274497985839844 0.680465221405029297 0
0.73762059211730957 0.570986628532409668 0
0.411837637424468994 0.441114097833633423 0
0.606395721435546875 0.587960481643676758 0
0.187847733497619629 0.666761517524719238 0
0.969763517379760742 0.615034162998199463 0
0.964178740978240967 0.12372058629989624 0
0.0716788172721862793 0.712100446224212646 0
0.755800902843475342 0.396894842386245728 0
0.335685193538665771 0.727216899394989014 0
0.929869234561920166 0.408188045024871826 0
0.740695834159851074 0.600754499435424805 0
0.970399796962738037 0.630492031574249268 0
0.978197813034057617 0.0280557870864868164 0
0.99266660213470459 0.56366729736328125 0
0.939183652400970459 0.292920678853988647 0
0.955715656280517578 0.356284886598587036 0
0.994900107383728027 0.0600318312644958496 0
0.672626614570617676 0.402967303991317749 0
0.855150401592254639 0.117754340171813965 0
0.956457436084747314 0.638945162296295166 0
0.57689058780670166 0.440546393394470215 0
0.408881902694702148 0.493781328201293945 0
0.621101856231689453 0.438619852066040039 0
0.7010040283203125 0.645338714122772217 0
0.792430102825164795 0.20469975471496582 0
0.880060017108917236 0.25301748514175415 0
0.472367525100708008 0.512345552444458008 0
0.964395284652709961 0.662495851516723633 0
0.75473487377166748 0.60533219575881958 0
0.896241724491119385 0.440023124217987061 0
0.949644625186920166 0.0680158734321594238 0
0.282137572765350342 0.560311079025268555 0
0.953284323215484619 0.397547453641891479 0
0.265972733497619629 0.572768747806549072 0
0.814977765083312988 0.738879263401031494 0
0.157423198223114014 0.680375218391418457 0
0.932747185230255127 0.237527072429656982 0
0.420889616012573242 0.630885422229766846 0
0.815691232681274414 0.544745206832885742 0
0.952351748943328857 0.297622591257095337 0
0.953911840915679932 0.325386255979537964 0
0.936771392822265625 0.538982987403869629 0
0.944278240203857422 0.626309752464294434 0
0.9373818039894104 0.100013494491577148 0
0.632348060607910156 0.300830215215682983 0
0.937715470790863037 0.450148344039916992 0
0.368607044219970703 0.540279090404510498 0
0.96865236759185791 0.0920540690422058105 0
0.362722635269165039 0.682270348072052002 0
0.770994126796722412 0.716745972633361816 0
0.696511149406433105 0.542014360427856445 0
0.982650458812713623 0.196798324584960938 0
0.315446019172668457 0.595390498638153076 0
0.942537307739257812 0.267048537731170654 0
0.981306552886962891 0.408771216869354248 0
0.726869642734527588 0.395887404680252075 0
0.568322658538818359 0.344210028648376465 0
0.803319931030273438 0.611059010028839111 0
0.717695474624633789 0.48153609037399292 0
0.743790566921234131 0.38242107629776001 0
0.461812376976013184 0.701122462749481201 0
0.751268386840820312 0.677952408790588379 0
0.969021081924438477 0.718098759651184082 0
0.950172364711761475 0.658797085285186768 0
0.415406465530395508 0.488887578248977661 0
0.574785828590393066 0.527731537818908691 0
0.992633640766143799 0.610834002494812012 0
0.708507537841796875 0.47156977653503418 0
0.877715229988098145 0.197845578193664551 0
0.807561576366424561 0.495305538177490234 0
0.745016098022460938 0.681968510150909424 0
0.98659217357635498 0.140026271343231201 0
0.220664739608764648 0.725689411163330078 0
0.999135076999664307 0.511417984962463379 0
0.102960407733917236 0.712253153324127197 0
0.245722472667694092 0.580311298370361328 0
0.698997020721435547 0.737780630588531494 0
0.975156605243682861 0.71789085865020752 0
0.894876003265380859 0.212804675102233887 0
0.701807618141174316 0.511754155158996582 0
0.709314286708831787 0.623079597949981689 0
0.438034892082214355 0.608356237411499023 0
0.942289650440216064 0.260793477296829224 0
0.400438606739044189 0.698760390281677246 0
0.914114415645599365 0.398032635450363159 0
0.703378081321716309 0.37318071722984314 0
0.909195661544799805 0.712199985980987549 0
0.898101091384887695 0.184351325035095215 0
0.880694270133972168 0.701491415500640869 0
0.626456856727600098 0.479904502630233765 0
0.360311686992645264 0.660575449466705322 0
0.873302757740020752 0.38879472017288208 0
0.250585317611694336 0.633517265319824219 0
0.794400453567504883 0.571573257446289062 0
0.93103712797164917 0.49630013108253479 0
0.929570436477661133 0.406413733959197998 0
0.472417891025543213 0.693324029445648193 0
0.455970287322998047 0.545580029487609863 0
0.323909521102905273 0.642923235893249512 0
0.546724081039428711 0.407649606466293335 0
0.63178485631942749 0.493306875228881836 0
0.851854205131530762 0.402649372816085815 0
0.952042281627655029 0.647215187549591064 0
0.784412145614624023 0.619528532028198242 0
0.674605131149291992 0.303267836570739746 0
0.767132282257080078 0.595846235752105713 0
0.795348286628723145 0.54365241527557373 0
0.908281862735748291 0.167906045913696289 0
0.923906862735748291 0.0879257321357727051 0
0.471458017826080322 0.646845817565917969 0
0.618461370468139648 0.417504072189331055 0
0.335536956787109375 0.53206402063369751 0
0.713916778564453125 0.576145648956298828 0
0.883710026741027832 0.39908871054649353 0
0.9412117600440979 0.373518258333206177 0
0.800748586654663086 0.641714215278625488 0
0.118771493434906006 0.732789874076843262 0
0.58320462703704834 0.52645343542098999 0
0.93586498498916626 0.597470939159393311 0
0.576819539070129395 0.534867465496063232 0
0.156116902828216553 0.694690108299255371 0
0.685277938842773438 0.398840814828872681 0
0.262034833431243896 0.712260663509368896 0
0.555205583572387695 0.720395743846893311 0
0.144289255142211914 0.717791616916656494 0
0.814563989639282227 0.331413686275482178 0
0.979819178581237793 0.687020838260650635 0
0.530069112777709961 0.440428793430328369 0
0.94458538293838501 0.708001136779785156 0
0.655475854873657227 0.54823535680770874 0
0.623972594738006592 0.65984731912612915 0
0.704328358173370361 0.636720418930053711 0
0.884652376174926758 0.249577701091766357 0
0.0952299833297729492 0.681210160255432129 0
0.662881731986999512 0.594155728816986084 0
0.827473163604736328 0.149411916732788086 0
0.893322587013244629 0.605142951011657715 0
0.929885745048522949 0.195610702037811279 0
0.767775058746337891 0.731308162212371826 0
0.14195096492767334 0.725950539112091064 0
0.970729291439056396 0.375682920217514038 0
0.888767778873443604 0.505826711654663086 0
0.342217803001403809 0.736089408397674561 0
0.370377480983734131 0.578740835189819336 0
0.485823452472686768 0.689534008502960205 0
0.429166913032531738 0.642279982566833496 0
0.753768324851989746 0.582252860069274902 0
0.898958086967468262 0.15985482931137085 0
0.714147388935089111 0.680809497833251953 0
0.994039177894592285 0.446007668972015381 0
0.978819966316223145 0.436867594718933105 0
0.710591316223144531 0.306281208992004395 0
0.796697914600372314 0.32270282506942749 0
0.674085617065429688 0.651686310768127441 0
0.536670446395874023 0.428144305944442749 0
0.506532371044158936 0.433632224798202515 0
0.350726664066314697 0.602863609790802002 0
0.532476246356964111 0.444075226783752441 0
0.884110391139984131 0.627049744129180908 0
0.577464282512664795 0.524273514747619629 0
0.473327696323394775 0.637407839298248291 0
0.566029906272888184 0.69722592830657959 0
0.996076703071594238 0.726375818252563477 0
0.508369565010070801 0.594374597072601318 0
0.963408768177032471 0.482461392879486084 0
0.0613403916358947754 0.716801762580871582 0
0.795813858509063721 0.577866911888122559 0
0.440093994140625 0.580576300621032715 0
0.248963594436645508 0.636025309562683105 0
0.532734990119934082 0.580872714519500732 0
0.51253199577331543 0.577871084213256836 0
0.960589110851287842 0.658673405647277832 0
0.937086224555969238 0.390482217073440552 0
0.326790928840637207 0.624164462089538574 0
0.873018026351928711 0.272186130285263062 0
0.586233377456665039 0.67378544807434082 0
0.188608348369598389 0.731859743595123291 0
0.66973721981048584 0.297468662261962891 0
0.634962201118469238 0.348764955997467041 0
0.862383484840393066 0.431094825267791748 0
0.378924071788787842 0.591545939445495605 0
0.313956618309020996 0.509447395801544189 0
0.768454790115356445 0.249206125736236572 0
0.702903807163238525 0.628685355186462402 0
0.833549380302429199 0.22004169225692749 0
0.33811873197555542 0.537729024887084961 0
0.226846933364868164 0.733694016933441162 0
0.989470839500427246 0.180168688297271729 0
0.935776591300964355 0.0956923365592956543 0
0.170972228050231934 0.660133719444274902 0
0.523936808109283447 0.367919981479644775 0
0.84738922119140625 0.25153777003288269 0
0.59116363525390625 0.656911969184875488 0
0.924264252185821533 0.248596310615539551 0
0.998116910457611084 0.473460763692855835 0
0.78952336311340332 0.687860727310180664 0
0.702883720397949219 0.530023157596588135 0
0.853747010231018066 0.116624414920806885 0
0.812660872936248779 0.523596525192260742 0
0.685218632221221924 0.314666926860809326 0
0.457592785358428955 0.411078155040740967 0
0.412025392055511475 0.705178737640380859 0
0.522002816200256348 0.604725003242492676 0
0.515443205833435059 0.629464149475097656 0
0.402952313423156738 0.718913793563842773 0
0.700568258762359619 0.315837234258651733 0
0.396836042404174805 0.590608954429626465 0
0.104339778423309326 0.716741323471069336 0
0.93493419885635376 0.625355005264282227 0
0.885194122791290283 0.521145164966583252 0
0.771584093570709229 0.207326173782348633 0
0.880370140075683594 0.527189910411834717 0
0.250427663326263428 0.649264872074127197 0
0.849120378494262695 0.296921640634536743 0
0.273916840553283691 0.659068107604980469 0
0.545824587345123291 0.57343977689743042 0
0.322129309177398682 0.528489232063293457 0
0.396390318870544434 0.511632919311523438 0
0.813849687576293945 0.680925071239471436 0
0.475844800472259521 0.527114748954772949 0
0.742810606956481934 0.31612008810043335 0
0.351434528827667236 0.613483667373657227 0
0.401789486408233643 0.46323809027671814 0
0.767430543899536133 0.434839487075805664 0
0.91368567943572998 0.725854575634002686 0
0.985109865665435791 0.603300929069519043 0
0.687353789806365967 0.420853942632675171 0
0.898293077945709229 0.64847266674041748 0
0.67809373140335083 0.501807332038879395 0
0.916451334953308105 0.532982170581817627 0
0.80169975757598877 0.737248003482818604 0
0.953600108623504639 0.423183917999267578 0
0.262399256229400635 0.690009832382202148 0
0.987064182758331299 0.289046138525009155 0
0.984595060348510742 0.0578846931457519531 0
0.599493265151977539 0.347881913185119629 0
0.387687444686889648 0.464157283306121826 0
0.270715534687042236 0.579740285873413086 0
0.49569326639175415 0.683871984481811523 0
0.245081067085266113 0.684465408325195312 0
0.466056883335113525 0.718727469444274902 0
0.743908524513244629 0.665781855583190918 0
0.817570865154266357 0.480154216289520264 0
0.264816105365753174 0.680464029312133789 0
0.656619906425476074 0.661424458026885986 0
0.898795247077941895 0.649128437042236328 0
0.937909722328186035 0.397395551204681396 0
0.852298378944396973 0.421400487422943115 0
0.982721209526062012 0.655501365661621094 0
0.618252277374267578 0.475049287080764771 0
0.903961062431335449 0.0781624913215637207 0
0.6757354736328125 0.502375364303588867 0
0.724393069744110107 0.249997973442077637 0
0.862746715545654297 0.321273982524871826 0
0.731189727783203125 0.528029322624206543 0
0.900222241878509521 0.563871979713439941 0
0.696791410446166992 0.689731895923614502 0
0.948056340217590332 0.126040995121002197 0
0.551819443702697754 0.346850484609603882 0
0.629523694515228271 0.64765852689743042 0
0.596406280994415283 0.542301177978515625 0
0.429022014141082764 0.669580698013305664 0
0.502633452415466309 0.607873678207397461 0
0.777669250965118408 0.547531366348266602 0
0.590610027313232422 0.503296971321105957 0
0.564695835113525391 0.532195568084716797 0
0.432477355003356934 0.611533045768737793 0
0.767244338989257812 0.724011778831481934 0
0.699760317802429199 0.581194162368774414 0
0.540887236595153809 0.726307451725006104 0
0.880128622055053711 0.111443936824798584 0
0.431849360466003418 0.484210342168807983 0
0.656494617462158203 0.568390965461730957 0
0.931446671485900879 0.239853084087371826 0
0.539525866508483887 0.388610512018203735 0
0.806035697460174561 0.500434041023254395 0
0.815986216068267822 0.438339829444885254 0
0.885455012321472168 0.100353360176086426 0
0.767358481884002686 0.585515856742858887 0
0.169397056102752686 0.696558952331542969 0
0.79181140661239624 0.247681498527526855 0
0.771189749240875244 0.411951988935470581 0
0.539718091487884521 0.729302704334259033 0
0.777300715446472168 0.237641751766204834 0
0.790329694747924805 0.691994667053222656 0
0.762159168720245361 0.220021903514862061 0
0.161115825176239014 0.732048451900482178 0
0.531143665313720703 0.673540115356445312 0
0.857296943664550781 0.180940806865692139 0
0.776056110858917236 0.661181092262268066 0
0.106813609600067139 0.721383869647979736 0
0.800421416759490967 0.441040605306625366 0
0.814894735813140869 0.232569336891174316 0
0.902599334716796875 0.12130439281463623 0
0.997763097286224365 0.319328457117080688 0
0.542435050010681152 0.34594959020614624 0
0.595252156257629395 0.628656625747680664 0
0.713238418102264404 0.275954961776733398 0
0.282375454902648926 0.725047945976257324 0
0.84658735990524292 0.309829086065292358 0
0.660655736923217773 0.586748242378234863 0
0.992273271083831787 0.544266700744628906 0
0.314310133457183838 0.678500056266784668 0
0.953376233577728271 0.225839972496032715 0
0.722743391990661621 0.359568297863006592 0
0.608470320701599121 0.55801624059677124 0
0.689305782318115234 0.445977330207824707 0
0.885563790798187256 0.204374909400939941 0
0.82639545202255249 0.232074081897735596 0
0.821654438972473145 0.721864461898803711 0
0.813527882099151611 0.488249808549880981 0
0.307347416877746582 0.729044020175933838 0
0.803590059280395508 0.532727301120758057 0
0.80541074275970459 0.670794248580932617 0
0.818205714225769043 0.485527396202087402 0
0.538568377494812012 0.373212695121765137 0
0.751044988632202148 0.651852846145629883 0
0.897204041481018066 0.116120874881744385 0
0.64459836483001709 0.348801761865615845 0
0.137320578098297119 0.667261421680450439 0
0.62094414234161377 0.46056094765663147 0
0.788198113441467285 0.360141217708587646 0
0.892151236534118652 0.481921881437301636 0
0.659774422645568848 0.271310806274414062 0
0.53089982271194458 0.625793278217315674 0
0.989225983619689941 0.591006040573120117 0
0.390916883945465088 0.715779006481170654 0
0.800937533378601074 0.622658610343933105 0
0.983760714530944824 0.41475251317024231 0
0.676034688949584961 0.629672765731811523 0
0.54113459587097168 0.526932954788208008 0
0.609220504760742188 0.731988012790679932 0
0.454136490821838379 0.456791132688522339 0
0.679669439792633057 0.321762949228286743 0
0.74332737922668457 0.492327511310577393 0
0.942940592765808105 0.178364038467407227 0
0.519399702548980713 0.36385992169380188 0
0.32067716121673584 0.623219132423400879 0
0.626749217510223389 0.50373232364654541 0
0.739628314971923828 0.606022238731384277 0
0.696983635425567627 0.675475776195526123 0
0.777696371078491211 0.423913449048995972 0
0.845816552639007568 0.426058679819107056 0
0.407047927379608154 0.632363677024841309 0
0.861471474170684814 0.111164450645446777 0
0.810388505458831787 0.518282532691955566 0
0.367850542068481445 0.579835057258605957 0
0.337729811668395996 0.60946965217590332 0
0.628743410110473633 0.282707959413528442 0
0.941700577735900879 0.265745729207992554 0
0.632493495941162109 0.59154742956161499 0
0.408330798149108887 0.522001683712005615 0
0.695386886596679688 0.500124573707580566 0
0.380727291107177734 0.73939889669418335 0
0.88266456127166748 0.599974989891052246 0
0.701578497886657715 0.363658696413040161 0
0.58437657356262207 0.417390733957290649 0
0.285566151142120361 0.711470663547515869 0
0.964168429374694824 0.398392558097839355 0
0.177612602710723877 0.613432407379150391 0
0.618360757827758789 0.623065590858459473 0
0.856638789176940918 0.521210789680480957 0
0.697289228439331055 0.38795056939125061 0
0.844453871250152588 0.433406591415405273 0
0.504783153533935547 0.550555527210235596 0
0.984821617603302002 0.203997373580932617 0
0.785593032836914062 0.235372364521026611 0
0.778383135795593262 0.344436019659042358 0
0.743235111236572266 0.510320186614990234 0
0.376806795597076416 0.56495821475982666 0
0.510882318019866943 0.509875714778900146 0
0.932901561260223389 0.521002769470214844 0
0.349425613880157471 0.633092045783996582 0
0.793724417686462402 0.706030786037445068 0
0.774887263774871826 0.247574746608734131 0
0.76089012622833252 0.428826302289962769 0
0.66660308837890625 0.643515944480895996 0
0.773377716541290283 0.616149783134460449 0
0.619426488876342773 0.403943747282028198 0
0.846796154975891113 0.124871492385864258 0
0.586052775382995605 0.439590483903884888 0
0.303995966911315918 0.578983068466186523 0
0.455815315246582031 0.590222775936126709 0
0.253938615322113037 0.691687881946563721 0
0.950117528438568115 0.174655795097351074 0
0.976323962211608887 0.16065293550491333 0
0.990169644355773926 0.415291517972946167 0
0.526952028274536133 0.532115936279296875 0
0.601426124572753906 0.592834711074829102 0
0.193288445472717285 0.608453869819641113 0
0.728726327419281006 0.553259968757629395 0
0.792140305042266846 0.297418266534805298 0
0.297757804393768311 0.537961602210998535 0
0.489797294139862061 0.650139570236206055 0
0.476473331451416016 0.646969199180603027 0
0.989969849586486816 0.36018410325050354 0
0.983738899230957031 0.21699988842010498 0
0.998712301254272461 0.611859560012817383 0
0.860512912273406982 0.465119600296020508 0
0.0212592482566833496 0.740678489208221436 0
0.447520077228546143 0.567078053951263428 0
0.912267923355102539 0.380998522043228149 0
0.476499080657958984 0.488470137119293213 0
0.700179457664489746 0.251816868782043457 0
0.240704238414764404 0.704380393028259277 0
0.286573588848114014 0.638558566570281982 0
0.964987456798553467 0.0691915154457092285 0
0.750652909278869629 0.269358962774276733 0
0.934306979179382324 0.412169516086578369 0
0.558851838111877441 0.732451081275939941 0
0.884478449821472168 0.187501728534698486 0
0.319346010684967041 0.647569775581359863 0
0.828960299491882324 0.491760611534118652 0
0.136376678943634033 0.720746517181396484 0
0.463688254356384277 0.697314083576202393 0
0.783734500408172607 0.385558038949966431 0
0.414904117584228516 0.680207431316375732 0
0.867594122886657715 0.730916321277618408 0
0.871628642082214355 0.589019596576690674 0
0.6405029296875 0.313116163015365601 0
0.928096652030944824 0.71973264217376709 0
0.487377285957336426 0.486890435218811035 0
0.882509350776672363 0.247516751289367676 0
0.347074270248413086 0.503976821899414062 0
0.621631264686584473 0.426770567893981934 0
0.63039863109588623 0.63977813720703125 0
0.749446988105773926 0.330418884754180908 0
0.367241561412811279 0.513954043388366699 0
0.484591901302337646 0.615342378616333008 0
0.860147774219512939 0.54136812686920166 0
0.995846807956695557 0.237751305103302002 0
0.689860284328460693 0.568269431591033936 0
0.69024127721786499 0.466845124959945679 0
0.859438955783843994 0.396086186170578003 0
0.951463401317596436 0.367958605289459229 0
0.811100602149963379 0.240040123462677002 0
0.874104738235473633 0.343918800354003906 0
0.792493820190429688 0.708890914916992188 0
0.755074501037597656 0.37256699800491333 0
0.852036476135253906 0.211107075214385986 0
0.929328739643096924 0.0637837052345275879 0
0.793574333190917969 0.695434272289276123 0
0.958570361137390137 0.56699526309967041 0
0.444198727607727051 0.467565000057220459 0
0.938434183597564697 0.50132596492767334 0
0.924159705638885498 0.275283575057983398 0
0.256734669208526611 0.591890096664428711 0
0.67155301570892334 0.646454989910125732 0
0.709386467933654785 0.684339165687561035 0
0.928728640079498291 0.715869545936584473 0
0.56912529468536377 0.606563150882720947 0
0.15480881929397583 0.697519481182098389 0
0.796258211135864258 0.395144671201705933 0
0.271626472473144531 0.691249549388885498 0
0.97269141674041748 0.64627307653427124 0
0.391636669635772705 0.526366114616394043 0
0.883440196514129639 0.228410661220550537 0
0.656655311584472656 0.648519217967987061 0
0.966882884502410889 0.215103387832641602 0
0.740926206111907959 0.654385626316070557 0
0.997664570808410645 0.582415282726287842 0
0.975651383399963379 0.0538750886917114258 0
0.842402935028076172 0.663999974727630615 0
0.757632136344909668 0.245548218488693237 0
0.569501638412475586 0.436892598867416382 0
0.427471697330474854 0.659687221050262451 0
0.391054093837738037 0.621275663375854492 0
0.830423355102539062 0.283993244171142578 0
0.719842612743377686 0.34244835376739502 0
0.645601153373718262 0.365009337663650513 0
0.947304904460906982 0.172940731048583984 0
0.749915957450866699 0.185413539409637451 0
0.888146042823791504 0.445493012666702271 0
0.442640781402587891 0.581850230693817139 0
0.917603194713592529 0.177478909492492676 0
0.75221705436706543 0.569765210151672363 0
0.630970597267150879 0.620441913604736328 0
0.61272275447845459 0.665374457836151123 0
0.867059588432312012 0.702556848526000977 0
0.639089524745941162 0.450169682502746582 0
0.580296993255615234 0.455107450485229492 0
0.850818276405334473 0.476155251264572144 0
0.758815526962280273 0.645522832870483398 0
0.971564829349517822 0.675084054470062256 0
0.231396973133087158 0.642563879489898682 0
0.975941240787506104 0.203940391540527344 0
0.34581291675567627 0.698426306247711182 0
0.890539050102233887 0.294443011283874512 0
0.862442433834075928 0.448230147361755371 0
0.346346497535705566 0.628167152404785156 0
0.517188906669616699 0.663184463977813721 0
0.0542950630187988281 0.714030742645263672 0
0.695663332939147949 0.715362191200256348 0
0.944721698760986328 0.408560991287231445 0
0.535294234752655029 0.566106319427490234 0
0.256417989730834961 0.618092775344848633 0
0.666966855525970459 0.577484071254730225 0
0.852057158946990967 0.27918580174446106 0
0.22597426176071167 0.725073635578155518 0
0.784665226936340332 0.243508368730545044 0
0.383533835411071777 0.736103713512420654 0
0.98314899206161499 0.276114791631698608 0
0.541880011558532715 0.6072348952293396 0
0.759939670562744141 0.630211174488067627 0
0.720546245574951172 0.608037352561950684 0
0.425780177116394043 0.485281795263290405 0
0.789219915866851807 0.373427718877792358 0
0.765665292739868164 0.633465886116027832 0
0.575963139533996582 0.595647335052490234 0
0.675821065902709961 0.259786903858184814 0
0.57677537202835083 0.317288190126419067 0
0.568861842155456543 0.614322960376739502 0
0.536220252513885498 0.34424164891242981 0
0.43120110034942627 0.724787533283233643 0
0.814365863800048828 0.396698355674743652 0
0.912676692008972168 0.225631356239318848 0
0.385814487934112549 0.526748359203338623 0
0.0793202519416809082 0.714071214199066162 0
0.851046502590179443 0.570931196212768555 0
0.380890965461730957 0.64662855863571167 0
0.468889057636260986 0.646057844161987305 0
0.64795219898223877 0.468034595251083374 0
0.848072469234466553 0.2697162926197052 0
0.291069328784942627 0.558832406997680664 0
0.650948524475097656 0.293238312005996704 0
0.811969161033630371 0.542831778526306152 0
0.654249906539916992 0.711544513702392578 0
0.683063626289367676 0.463000982999801636 0
0.988234460353851318 0.505672097206115723 0
0.894811511039733887 0.396691501140594482 0
0.80418241024017334 0.253427654504776001 0
0.415043532848358154 0.585098028182983398 0
0.81124424934387207 0.153462886810302734 0
0.525585651397705078 0.420061826705932617 0
0.934518158435821533 0.638733386993408203 0
0.907161533832550049 0.553685128688812256 0
0.924004256725311279 0.731580197811126709 0
0.823718428611755371 0.220357358455657959 0
0.688115477561950684 0.332412362098693848 0
0.885244190692901611 0.404368400573730469 0
0.986736834049224854 0.589200139045715332 0
0.996672868728637695 0.718549072742462158 0
0.580579280853271484 0.477692008018493652 0
0.769419074058532715 0.544322311878204346 0
0.589428305625915527 0.403759688138961792 0
0.561852574348449707 0.530475258827209473 0
0.933022081851959229 0.340779215097427368 0
0.993154406547546387 0.0115733742713928223 0
0.224768221378326416 0.697737514972686768 0
0.620487332344055176 0.676218986511230469 0
0.882984638214111328 0.622760593891143799 0
0.275069713592529297 0.718669891357421875 0
0.444922804832458496 0.450526177883148193 0
0.611800611019134521 0.32807198166847229 0
0.353391766548156738 0.590548157691955566 0
0.436548233032226562 0.502776682376861572 0
0.473635315895080566 0.486986875534057617 0
0.588460206985473633 0.6405830979347229 0
0.797393262386322021 0.689183652400970459 0
0.868172168731689453 0.0997055172920227051 0
0.24423682689666748 0.579258978366851807 0
0.771891474723815918 0.549272894859313965 0
0.809301018714904785 0.664689838886260986 0
0.567822456359863281 0.52815777063369751 0
0.208472371101379395 0.648315370082855225 0
0.991002738475799561 0.598216414451599121 0
0.89172518253326416 0.159760177135467529 0
0.588537991046905518 0.443589717149734497 0
0.635204911231994629 0.396705001592636108 0
0.769053101539611816 0.433390676975250244 0
0.88181072473526001 0.502621352672576904 0
0.731546938419342041 0.444689393043518066 0
0.758033573627471924 0.727906286716461182 0
0.895955443382263184 0.694638550281524658 0
0.612376689910888672 0.561489343643188477 0
0.618756651878356934 0.678530275821685791 0
0.252736270427703857 0.740248024463653564 0
0.853746771812438965 0.474652230739593506 0
0.56670677661895752 0.444233596324920654 0
0.457119464874267578 0.579688608646392822 0
0.952293992042541504 0.115312159061431885 0
0.458109200000762939 0.63123553991317749 0
0.994849860668182373 0.508493900299072266 0
0.990743279457092285 0.190283358097076416 0
0.438893675804138184 0.441494733095169067 0
0.893208563327789307 0.453300595283508301 0
0.835149168968200684 0.20467609167098999 0
0.240556538105010986 0.702124834060668945 0
0.588924944400787354 0.72001117467880249 0
0.741153597831726074 0.587150514125823975 0
0.282904088497161865 0.601307868957519531 0
0.658317923545837402 0.564704418182373047 0
0.782286345958709717 0.686981201171875 0
0.46765589714050293 0.458791226148605347 0
0.304486930370330811 0.666358649730682373 0
0.463026165962219238 0.471717238426208496 0
0.951224565505981445 0.57645118236541748 0
0.626906871795654297 0.624477565288543701 0
0.975372314453125 0.224046528339385986 0
0.150906801223754883 0.6462860107421875 0
0.801154434680938721 0.579101085662841797 0
0.498772680759429932 0.562976956367492676 0
0.659835219383239746 0.495235025882720947 0
0.769692659378051758 0.720129191875457764 0
0.474596679210662842 0.43752741813659668 0
0.968376219272613525 0.234064936637878418 0
0.348067045211791992 0.510382533073425293 0
0.596500873565673828 0.361513495445251465 0
0.421849906444549561 0.706296682357788086 0
0.826576948165893555 0.39803546667098999 0
0.626476287841796875 0.511351704597473145 0
0.781607151031494141 0.32410198450088501 0
0.150180637836456299 0.641354501247406006 0
0.783493280410766602 0.185778617858886719 0
0.437613546848297119 0.489451676607131958 0
0.793386876583099365 0.349192380905151367 0
0.545652925968170166 0.736577093601226807 0
0.448598504066467285 0.453458905220031738 0
0.979606032371520996 0.549580216407775879 0
0.69666135311126709 0.658166944980621338 0
0.961925625801086426 0.563681125640869141 0
0.875183701515197754 0.18019181489944458 0
0.473621368408203125 0.521181225776672363 0
0.788109958171844482 0.477764099836349487 0
0.970371663570404053 0.282340049743652344 0
0.844743788242340088 0.295020639896392822 0
0.377977907657623291 0.720207333564758301 0
0.891888320446014404 0.244543015956878662 0
0.78268057107925415 0.370492488145828247 0
0.639543533325195312 0.403441339731216431 0
0.597980022430419922 0.399135589599609375 0
0.0543555021286010742 0.702909469604492188 0
0.511232554912567139 0.453072518110275269 0
0.643314540386199951 0.72236168384552002 0
0.627129852771759033 0.49124068021774292 0
0.640983760356903076 0.568478405475616455 0
0.933398902416229248 0.398013859987258911 0
0.774019479751586914 0.615954995155334473 0
0.714524567127227783 0.515088081359863281 0
0.89234846830368042 0.598049759864807129 0
0.963760912418365479 0.439614742994308472 0
0.601479172706604004 0.456029415130615234 0
0.797311782836914062 0.32054629921913147 0
0.771392166614532471 0.714313268661499023 0
0.704442679882049561 0.466599524021148682 0
0.906358718872070312 0.582978963851928711 0
0.908285379409790039 0.650739431381225586 0
0.355088770389556885 0.697447240352630615 0
0.681342661380767822 0.4329490065574646 0
0.84973609447479248 0.597584366798400879 0
0.975643277168273926 0.440156131982803345 0
0.361374735832214355 0.603875875473022461 0
0.560603499412536621 0.339868426322937012 0
0.794366359710693359 0.527503788471221924 0
0.662886261940002441 0.355795949697494507 0
0.698099374771118164 0.283651977777481079 0
0.995434820652008057 0.0865622162818908691 0
0.71316838264465332 0.557572603225708008 0
0.265761733055114746 0.714270591735839844 0
0.674466073513031006 0.537488639354705811 0
0.78794705867767334 0.402253657579421997 0
0.206306040287017822 0.677814841270446777 0
0.685437619686126709 0.256487220525741577 0
0.770758211612701416 0.265454113483428955 0
0.880875706672668457 0.295408278703689575 0
0.451765120029449463 0.571253299713134766 0
0.54484713077545166 0.698289692401885986 0
0.963295221328735352 0.0983256697654724121 0
0.856242358684539795 0.262472927570343018 0
0.653550505638122559 0.655347824096679688 0
0.476108193397521973 0.434729069471359253 0
0.90971076488494873 0.318943709135055542 0
0.61188960075378418 0.464632093906402588 0
0.583381593227386475 0.610240340232849121 0
0.19402545690536499 0.669720113277435303 0
0.0816250443458557129 0.718535006046295166 0
0.809244871139526367 0.525077641010284424 0
0.502364516258239746 0.641823947429656982 0
0.265192210674285889 0.711027979850769043 0
0.789384961128234863 0.592875778675079346 0
0.769918918609619141 0.483971238136291504 0
0.952702164649963379 0.260400593280792236 0
0.689674973487854004 0.290169835090637207 0
0.558519721031188965 0.545813918113708496 0
0.565350353717803955 0.731545805931091309 0
0.16304171085357666 0.686318874359130859 0
0.767623305320739746 0.393021374940872192 0
0.735689938068389893 0.230886161327362061 0
0.985198676586151123 0.564387321472167969 0
0.287471473217010498 0.579075276851654053 0
0.464599728584289551 0.515780210494995117 0
0.649189293384552002 0.338430851697921753 0
0.601912617683410645 0.325377225875854492 0
0.47803574800491333 0.440658777952194214 0
0.601044178009033203 0.508896887302398682 0
0.394876539707183838 0.588059842586517334 0
0.198088467121124268 0.644261062145233154 0
0.738575100898742676 0.501032590866088867 0
0.676417410373687744 0.562761545181274414 0
0.672007322311401367 0.325512051582336426 0
0.960084617137908936 0.68211740255355835 0
0.92795795202255249 0.104566574096679688 0
0.662951350212097168 0.472151368856430054 0
0.904891014099121094 0.170069456100463867 0
0.842179000377655029 0.625697553157806396 0
0.493449628353118896 0.631454646587371826 0
0.969800353050231934 0.552280068397521973 0
0.468504786491394043 0.737022161483764648 0
0.849504709243774414 0.718882739543914795 0
0.580572783946990967 0.498044997453689575 0
0.852461695671081543 0.484683483839035034 0
0.413888454437255859 0.69015967845916748 0
0.359710872173309326 0.5201759934425354 0
0.780942201614379883 0.606136143207550049 0
0.420978903770446777 0.541937530040740967 0
0.738464832305908203 0.608840405941009521 0
0.934502005577087402 0.118427097797393799 0
0.97707974910736084 0.725521862506866455 0
0.845205307006835938 0.306961655616760254 0
0.62923741340637207 0.724694132804870605 0
0.628172516822814941 0.391666799783706665 0
0.626552104949951172 0.538519561290740967 0
0.948250055313110352 0.654808402061462402 0
0.924053430557250977 0.641803741455078125 0
0.746747732162475586 0.636300504207611084 0
0.829018592834472656 0.487632066011428833 0
0.395540058612823486 0.635315358638763428 0
0.50141298770904541 0.400922834873199463 0
0.643824934959411621 0.51364588737487793 0
0.425577104091644287 0.563250064849853516 0
0.856775879859924316 0.679615497589111328 0
0.666315913200378418 0.730701625347137451 0
0.972370922565460205 0.658612072467803955 0
0.425712704658508301 0.636731505393981934 0
0.573281466960906982 0.484369099140167236 0
0.498313486576080322 0.419768452644348145 0
0.999533593654632568 0.376045674085617065 0
0.889872431755065918 0.239885330200195312 0
0.709151268005371094 0.424461603164672852 0
0.758919000625610352 0.284194439649581909 0
0.309882104396820068 0.677061200141906738 0
0.392803847789764404 0.563811898231506348 0
0.598700463771820068 0.438893049955368042 0
0.932979583740234375 0.497384697198867798 0
0.774054050445556641 0.238659977912902832 0
0.416247189044952393 0.671585977077484131 0
0.804558515548706055 0.703504085540771484 0
0.889302492141723633 0.619317352771759033 0
0.577219247817993164 0.503239572048187256 0
0.452054917812347412 0.422248899936676025 0
0.366112112998962402 0.487591266632080078 0
0.639121055603027344 0.664922654628753662 0
0.892093002796173096 0.176605463027954102 0
0.495545864105224609 0.633958041667938232 0
0.331742405891418457 0.704815387725830078 0
0.450450778007507324 0.619559586048126221 0
0.946915566921234131 0.4642467200756073 0
0.604579925537109375 0.589347958564758301 0
0.223886430263519287 0.589387118816375732 0
0.376251459121704102 0.642981886863708496 0
0.819823265075683594 0.734534859657287598 0
0.293546855449676514 0.720898926258087158 0
0.846417784690856934 0.560960233211517334 0
0.646297216415405273 0.417116284370422363 0
0.641756415367126465 0.421146988868713379 0
0.913053631782531738 0.58714216947555542 0
0.430203616619110107 0.681712090969085693 0
0.135296404361724854 0.678055167198181152 0
0.849857032299041748 0.448742806911468506 0
0.672209262847900391 0.285008788108825684 0
0.744688749313354492 0.552229046821594238 0
0.816340386867523193 0.266464769840240479 0
0.984429776668548584 0.722425460815429688 0
0.916136443614959717 0.142044544219970703 0
0.780365824699401855 0.574350297451019287 0
0.374499797821044922 0.735805153846740723 0
0.73367232084274292 0.62771761417388916 0
0.546724796295166016 0.42914426326751709 0
0.770442426204681396 0.726085662841796875 0
0.776009857654571533 0.240449607372283936 0
0.36448138952255249 0.532255709171295166 0
0.376905500888824463 0.543030619621276855 0
0.475269973278045654 0.67888110876083374 0
0.411400020122528076 0.663620293140411377 0
0.909783482551574707 0.619632244110107422 0
0.224289655685424805 0.604443669319152832 0
0.421419322490692139 0.602523863315582275 0
0.943965494632720947 0.262312233448028564 0
0.91909712553024292 0.562502920627593994 0
0.721594572067260742 0.422882765531539917 0
0.578703403472900391 0.361970245838165283 0
0.692639589309692383 0.490016251802444458 0
0.783930003643035889 0.445067673921585083 0
0.59234166145324707 0.414506196975708008 0
