ply
format ascii 1.0
element vertex 1077
property float x
property float y
property float z
end_header
0 0.387673646211624146 0.759574413299560547
0 0.320113420486450195 0.560827493667602539
0 0.0532097220420837402 0.035293281078338623
0 0.104303710162639618 0.477688968181610107
0 0.0803552046418190002 0.67313086986541748
0 0.0305969901382923126 0.554848968982696533
0 0.180287554860115051 0.662676095962524414
0 0.134195283055305481 0.769472777843475342
0 0.188661783933639526 0.722075700759887695
0 0.0108695216476917267 0.541021049022674561
0 0.105508282780647278 1.01245903968811035
0 0.319513291120529175 1.05473732948303223
0 0.248238608241081238 1.02110517024993896
0 0.215475544333457947 0.972085356712341309
0 0.286572664976119995 0.899319171905517578
0 0.00549339083954691887 0.0233684778213500977
0 0.205325797200202942 0.647674977779388428
0 0.246427878737449646 0.702295422554016113
0 0.0898560509085655212 0.35409235954284668
0 0.0483071953058242798 0.556899845600128174
0 0.0143007654696702957 0.191946923732757568
0 0.234854608774185181 1.09894025325775146
0 0.00811243336647748947 0.497283637523651123
0 0.290327936410903931 1.03559982776641846
0 0.0273954812437295914 0.649408996105194092
0 0.0706538483500480652 0.648814678192138672
0 0.152897879481315613 0.918865203857421875
0 0.107381641864776611 0.602837681770324707
0 0.0464750304818153381 1.02250874042510986
0 0.168742910027503967 0.618872880935668945
0 0.180262550711631775 1.00411951541900635
0 0.113313667476177216 0.360715627670288086
0 0.181388601660728455 0.65582197904586792
0 0.029372459277510643 0.91289973258972168
0 0.204500719904899597 0.833710193634033203
0 0.00163810362573713064 0.881605803966522217
0 0.284271061420440674 0.922563254833221436
0 0.0628337562084197998 0.94809800386428833
0 0.355426490306854248 0.999765217304229736
0 0.226938351988792419 0.712666869163513184
0 0.0225501805543899536 0.391617536544799805
0 0.0815768688917160034 1.06204986572265625
0 0.276821285486221313 0.896268010139465332
0 0.156526550650596619 0.874553561210632324
0 0.155727505683898926 0.966757059097290039
0 0.20798976719379425 0.929807305335998535
0 0.333749622106552124 0.968624770641326904
0 0.0309128295630216599 0.795043706893920898
0 0.142201527953147888 0.848359942436218262
0 0.0848787948489189148 0.263938307762145996
0 0.0979411602020263672 0.426441669464111328
0 0.0683891698718070984 0.506710588932037354
0 0.0928775817155838013 0.617633223533630371
0 0.109579317271709442 0.532424628734588623
0 0.0586980395019054413 0.419538378715515137
0 0.0261084381490945816 0.540753304958343506
0 0.0154669051989912987 0.81348884105682373
0 0.25631144642829895 0.716934859752655029
0 0.230985879898071289 0.996826171875
0 0.00178335874807089567 0.23808133602142334
0 0.304637640714645386 0.860543549060821533
0 0.15522630512714386 0.54286956787109375
0 0.0243126768618822098 0.723049402236938477
0 0.0734762698411941528 0.224995851516723633
0 0.152759894728660583 1.02305150032043457
0 0.241811439394950867 0.924345433712005615
0 0.00672852015122771263 0.0348100662231445312
0 0.0250729601830244064 0.966665744781494141
0 0.0336991138756275177 0.46489560604095459
0 0.334432274103164673 1.0855945348739624
0 0.20298902690410614 1.09254217147827148
0 0.0464309006929397583 0.51514124870300293
0 0.290505260229110718 0.900180220603942871
0 0.0391621775925159454 0.163524448871612549
0 0.109986402094364166 0.907149553298950195
0 0.0415183715522289276 0.897847652435302734
0 0.129660323262214661 0.917861878871917725
0 0.127147689461708069 0.762028157711029053
0 0.00474477699026465416 0.729701638221740723
0 0.0784814357757568359 1.08542835712432861
0 0.0272535569965839386 0.434695422649383545
0 0.079456031322479248 0.688971281051635742
0 0.116729021072387695 0.712843596935272217
0 0.0927071422338485718 0.742019593715667725
0 0.1520070880651474 0.966638922691345215
0 0.210759267210960388 0.978046715259552002
0 0.044148322194814682 1.00960302352905273
0 0.115204453468322754 0.390750288963317871
0 0.176739484071731567 1.00236666202545166
0 0.0216583069413900375 0.843195438385009766
0 0.151140317320823669 0.712627291679382324
0 0.053583931177854538 0.886262178421020508
0 0.0381993241608142853 0.47047346830368042
0 0.00206426368094980717 1.01879012584686279
0 0.0347995273768901825 0.35584723949432373
0 0.0244847498834133148 1.08840405941009521
0 0.172733888030052185 1.10910654067993164
0 0.164131626486778259 0.66195523738861084
0 0.00758143840357661247 0.555598795413970947
0 0.275773495435714722 0.881888985633850098
0 0.0505296848714351654 0.784609317779541016
0 0.208561897277832031 0.875642180442810059
0 0.00679304590448737144 0.279985964298248291
0 0.207645326852798462 1.0153038501739502
0 0.294007360935211182 0.883459687232971191
0 0.021509198471903801 0.491992771625518799
0 0.0723290741443634033 0.610010266304016113
0 0.0479895435273647308 0.32365882396697998
0 0.0371270999312400818 0.280941009521484375
0 0.340294927358627319 1.03947818279266357
0 0.136093810200691223 1.03700637817382812
0 0.0255662780255079269 0.291138708591461182
0 0.236213967204093933 0.931979179382324219
0 0.318166345357894897 0.897301733493804932
0 0.161521703004837036 0.564394772052764893
0 0.0147616462782025337 1.09538185596466064
0 0.106151975691318512 0.764559388160705566
0 0.146673470735549927 0.783463597297668457
0 0.05476335808634758 0.952729225158691406
0 0.205763444304466248 0.595581471920013428
0 0.0834936723113059998 0.762312531471252441
0 0.159291058778762817 0.8584938645362854
0 0.0992917641997337341 0.99901115894317627
0 0.130624115467071533 1.10587811470031738
0 0.00163410697132349014 0.682613849639892578
0 0.2291259765625 0.921407759189605713
0 0.247310549020767212 0.989586055278778076
0 0.105208061635494232 0.805770516395568848
0 0.00689039519056677818 0.301224410533905029
0 0.14341108500957489 0.515225708484649658
0 0.0589260123670101166 0.556072354316711426
0 0.154019922018051147 0.954743146896362305
0 0.122855566442012787 0.445504426956176758
0 0.0546179004013538361 0.478044569492340088
0 0.0129794599488377571 0.476882278919219971
0 0.358371555805206299 1.00877261161804199
0 0.159152090549468994 0.839003205299377441
0 0.0401171930134296417 0.493855953216552734
0 0.141242578625679016 0.511062502861022949
0 0.0398246459662914276 1.0445331335067749
0 0.325242996215820312 0.906315863132476807
0 0.0173953361809253693 0.336927652359008789
0 0.0862492397427558899 0.526716113090515137
0 0.167589887976646423 0.925619125366210938
0 0.200164750218391418 0.697783291339874268
0 0.0540511012077331543 0.386838078498840332
0 0.112630881369113922 0.805019974708557129
0 0.31496506929397583 1.04111289978027344
0 0.0760484114289283752 0.296523690223693848
0 0.174256280064582825 1.06380856037139893
0 0.0777337327599525452 0.271344780921936035
0 0.101053290069103241 0.303765416145324707
0 0.0420266799628734589 0.248342335224151611
0 0.0488933287560939789 0.830458760261535645
0 0.143210917711257935 0.697923183441162109
0 0.0605595894157886505 0.800237536430358887
0 0.329375028610229492 0.980007469654083252
0 0.0258258525282144547 0.827403008937835693
0 0.0748329460620880127 1.10518121719360352
0 0.269662946462631226 0.910897254943847656
0 0.0208716839551925659 0.0827428102493286133
0 0.129152238368988037 0.947673320770263672
0 0.0649974122643470764 0.780093967914581299
0 0.149474188685417175 1.06792640686035156
0 0.11769365519285202 0.577651083469390869
0 0.0819536074995994568 0.907398343086242676
0 0.168627128005027771 1.02132630348205566
0 0.0960545986890792847 1.09056925773620605
0 0.199716687202453613 0.888690352439880371
0 0.137029170989990234 0.955157756805419922
0 0.0955559238791465759 1.03934085369110107
0 0.0707718506455421448 1.10057783126831055
0 0.0664305761456489563 0.865815937519073486
0 0.329854756593704224 0.960230469703674316
0 0.034656185656785965 1.03921425342559814
0 0.182483449578285217 0.777166128158569336
0 0.255010783672332764 0.879194796085357666
0 0.0163744036108255386 0.249787449836730957
0 0.0284483786672353745 0.46743398904800415
0 0.0272644143551588058 0.180564641952514648
0 0.131667539477348328 0.623789548873901367
0 0.0817993655800819397 0.645613610744476318
0 0.0437637865543365479 0.699628829956054688
0 0.27004435658454895 0.946340620517730713
0 0.30712476372718811 0.959313273429870605
0 0.0625259131193161011 0.30914384126663208
0 0.157988637685775757 0.911101043224334717
0 0.230145379900932312 0.699063241481781006
0 0.136118620634078979 0.970823764801025391
0 0.0817244574427604675 0.570157647132873535
0 0.153907999396324158 1.01043152809143066
0 0.0234718397259712219 1.06296706199645996
0 0.0585935376584529877 0.919517874717712402
0 0.14122144877910614 1.06406807899475098
0 0.00219224230386316776 0.65244138240814209
0 0.0333317555487155914 0.641259133815765381
0 0.107795141637325287 1.04154121875762939
0 0.0561370737850666046 0.16625136137008667
0 0.0530622266232967377 0.292165756225585938
0 0.0650281235575675964 0.483895778656005859
0 0.105254404246807098 0.665708005428314209
0 0.12545543909072876 0.996068239212036133
0 0.118840470910072327 0.779731988906860352
0 0.0334226377308368683 0.150943636894226074
0 0.107791759073734283 0.914798855781555176
0 0.111657075583934784 0.572465956211090088
0 0.247889026999473572 0.930238127708435059
0 0.0802423134446144104 0.428163647651672363
0 0.0780710503458976746 0.409353137016296387
0 0.0550109148025512695 0.5966949462890625
0 0.0756824985146522522 0.297366499900817871
0 0.102281831204891205 0.911020815372467041
0 0.116528630256652832 0.607054829597473145
0 0.0585002265870571136 0.528797030448913574
0 0.164063557982444763 0.722953855991363525
0 0.0232026036828756332 0.783208012580871582
0 0.00613478384912014008 1.10260581970214844
0 0.0455845184624195099 0.697376668453216553
0 0.177413001656532288 0.692505121231079102
0 0.262186169624328613 0.798207521438598633
0 0.243265062570571899 0.846845090389251709
0 0.258849650621414185 0.845881462097167969
0 0.0188978277146816254 1.00387966632843018
0 0.0135876480489969254 1.0942530632019043
0 0.0420234985649585724 1.05694317817687988
0 0.0368582941591739655 0.895850896835327148
0 0.202156230807304382 0.602462232112884521
0 0.173786625266075134 0.738915562629699707
0 0.0578495226800441742 0.778572678565979004
0 0.239675149321556091 1.0259859561920166
0 0.0185036435723304749 0.908910512924194336
0 0.140637516975402832 0.749867737293243408
0 0.160146698355674744 0.546723484992980957
0 0.252723604440689087 0.877031326293945312
0 0.360202819108963013 1.05182850360870361
0 0.0774160027503967285 1.04749441146850586
0 0.0598330684006214142 0.337966263294219971
0 0.0740356817841529846 0.568433821201324463
0 0.263293176889419556 0.761131584644317627
0 0.206535696983337402 0.772894203662872314
0 0.0325702540576457977 0.653862357139587402
0 0.0676179155707359314 1.07541263103485107
0 0.306795805692672729 1.08423721790313721
0 0.186975523829460144 1.05471122264862061
0 0.112902678549289703 0.667543530464172363
0 0.145029440522193909 0.747280001640319824
0 0.0291971899569034576 0.141403555870056152
0 0.1106257364153862 0.674939930438995361
0 0.140348225831985474 0.976514339447021484
0 0.00191189313773065805 0.3003196120262146
0 0.0272922422736883163 0.252593576908111572
0 0.215171143412590027 0.971149623394012451
0 0.0176136493682861328 0.192305326461791992
0 0.307973593473434448 0.95306694507598877
0 0.158543899655342102 0.72165977954864502
0 0.0129270972684025764 0.969488024711608887
0 0.171603888273239136 0.525330066680908203
0 0.110611081123352051 0.496730327606201172
0 0.104138068854808807 0.649961352348327637
0 0.132927820086479187 1.04032135009765625
0 0.0115197254344820976 0.326058089733123779
0 0.0516683235764503479 0.620135605335235596
0 0.0360509864985942841 0.368773221969604492
0 0.291904091835021973 1.00455236434936523
0 0.0653275474905967712 0.627731919288635254
0 0.122470550239086151 0.510259449481964111
0 0.180532321333885193 0.535882949829101562
0 0.131921380758285522 0.674353182315826416
0 0.239563941955566406 0.78912806510925293
0 0.159469723701477051 0.515058755874633789
0 0.175500020384788513 0.829678177833557129
0 0.158181369304656982 0.791781306266784668
0 0.265784621238708496 0.755140304565429688
0 0.0719513818621635437 0.786548256874084473
0 0.0640434250235557556 0.299028337001800537
0 0.0124538624659180641 0.725903868675231934
0 0.0191551819443702698 0.829277992248535156
0 0.22833290696144104 0.900915384292602539
0 0.0943735837936401367 0.809914112091064453
0 0.10878550261259079 0.665089666843414307
0 0.238447889685630798 0.825355589389801025
0 0.0537259653210639954 0.828540563583374023
0 0.13390253484249115 0.975338459014892578
0 0.102728448808193207 0.309481143951416016
0 0.104585349559783936 0.731695473194122314
0 0.227317437529563904 0.955582916736602783
0 0.136113673448562622 0.743366658687591553
0 0.231433019042015076 0.881749272346496582
0 0.25666007399559021 0.888241708278656006
0 0.123075269162654877 0.607342004776000977
0 0.238241598010063171 1.07298970222473145
0 0.275341451168060303 1.09135591983795166
0 0.0694158673286437988 0.319990038871765137
0 0.109506368637084961 0.394245266914367676
0 0.303286045789718628 1.08744168281555176
0 0.0751998424530029297 0.634459495544433594
0 0.0125502264127135277 0.713162064552307129
0 0.250259131193161011 1.01218903064727783
0 0.233354285359382629 0.75526738166809082
0 0.0749889910221099854 0.975442171096801758
0 0.0728158727288246155 0.887751460075378418
0 0.210338741540908813 0.943636596202850342
0 0.189140304923057556 0.97968900203704834
0 0.296533018350601196 0.981294989585876465
0 0.166728094220161438 1.08296453952789307
0 0.23991607129573822 0.682812809944152832
0 0.105077505111694336 1.03721714019775391
0 0.188210353255271912 0.690327644348144531
0 0.0343860015273094177 0.828413009643554688
0 0.074018627405166626 0.86296612024307251
0 0.0696266442537307739 0.81120002269744873
0 0.177557438611984253 1.10012435913085938
0 0.0829543620347976685 0.644632220268249512
0 0.372162133455276489 1.07734334468841553
0 0.10678187757730484 0.412356853485107422
0 0.187848255038261414 1.00391221046447754
0 0.344775080680847168 1.00244474411010742
0 0.14551466703414917 0.914021193981170654
0 0.0511780157685279846 0.500172555446624756
0 0.146898999810218811 0.418855428695678711
0 0.067572079598903656 0.945186972618103027
0 0.166245698928833008 0.878772616386413574
0 0.122273758053779602 0.882994711399078369
0 0.0195050816982984543 0.952299535274505615
0 0.188569352030754089 0.758727669715881348
0 0.144061222672462463 0.47171705961227417
0 0.0294369664043188095 0.388720571994781494
0 0.106934390962123871 0.324178516864776611
0 0.106047444045543671 0.423378407955169678
0 0.0396963618695735931 0.419667959213256836
0 0.10189654678106308 0.748444676399230957
0 0.00225466093979775906 0.673295855522155762
0 0.0164299681782722473 0.939579784870147705
0 0.203955173492431641 1.02601456642150879
0 0.214922547340393066 0.612259149551391602
0 0.0155388331040740013 0.600483119487762451
0 0.275210410356521606 0.948897004127502441
0 0.0992495939135551453 1.02370858192443848
0 0.312140315771102905 0.871945500373840332
0 0.139969751238822937 0.928702771663665771
0 0.0867633745074272156 0.983864903450012207
0 0.145740821957588196 0.481505036354064941
0 0.0303669515997171402 0.607332289218902588
0 0.099509410560131073 0.632525801658630371
0 0.0113331852480769157 0.948968589305877686
0 0.00407284079119563103 1.01102590560913086
0 0.200544238090515137 0.676772356033325195
0 0.0667568817734718323 1.09999263286590576
0 0.156700536608695984 0.439410805702209473
0 0.0717383250594139099 0.284817159175872803
0 0.219858989119529724 1.10622072219848633
0 0.137197390198707581 0.715153396129608154
0 0.141790375113487244 0.722703814506530762
0 0.0174836572259664536 0.957008957862854004
0 0.0632048696279525757 0.59735482931137085
0 0.0219839103519916534 0.299759984016418457
0 0.102604284882545471 0.617970705032348633
0 0.00868688430637121201 0.661400914192199707
0 0.0366094522178173065 0.963392496109008789
0 0.0590459182858467102 0.740403056144714355
0 0.27258726954460144 1.06873059272766113
0 0.227231815457344055 0.634899497032165527
0 0.134948998689651489 0.683977484703063965
0 0.186970755457878113 1.07695925235748291
0 0.0146142439916729927 0.268237471580505371
0 0.183494389057159424 0.899570584297180176
0 0.0153652848675847054 0.802698254585266113
0 0.0475621595978736877 0.645200729370117188
0 0.297080069780349731 1.00717699527740479
0 0.196981757879257202 1.04236257076263428
0 0.123471193015575409 0.982962131500244141
0 0.00936747249215841293 0.897417843341827393
0 0.144337296485900879 1.08690118789672852
0 0.0129341324791312218 1.02238285541534424
0 0.171328052878379822 1.06550729274749756
0 0.0534065477550029755 0.697413980960845947
0 0.0453101955354213715 0.963392436504364014
0 0.0711545050144195557 0.794279277324676514
0 0.0583723895251750946 0.689337372779846191
0 0.0301997493952512741 1.02147316932678223
0 0.155003145337104797 0.537156581878662109
0 0.0952092185616493225 0.424333035945892334
0 0.0591115541756153107 0.192594528198242188
0 0.0638525709509849548 0.6849365234375
0 0.213272452354431152 0.666252732276916504
0 0.245032429695129395 0.950738310813903809
0 0.0790439769625663757 0.992729783058166504
0 0.0515692830085754395 0.659329891204833984
0 0.0656064301729202271 0.404458582401275635
0 0.172751843929290771 0.841857314109802246
0 0.200805336236953735 0.765257120132446289
0 0.0942021384835243225 0.49132460355758667
0 0.141686856746673584 0.861138343811035156
0 0.217124372720718384 1.08944296836853027
0 0.21998576819896698 0.759928584098815918
0 0.120296716690063477 0.422219693660736084
0 0.288869798183441162 0.974765658378601074
0 0.112332895398139954 0.76997673511505127
0 0.227355882525444031 1.10600244998931885
0 0.221082761883735657 0.86953270435333252
0 0.114083051681518555 0.982758820056915283
0 0.212472125887870789 0.679029226303100586
0 0.108131662011146545 0.923119485378265381
0 0.0820678099989891052 0.33690875768661499
0 0.11087334156036377 0.44126582145690918
0 0.0228508394211530685 0.187590539455413818
0 0.0591805391013622284 0.713457822799682617
0 0.0329538546502590179 0.554058313369750977
0 0.215923428535461426 0.944094479084014893
0 0.271965593099594116 0.839809775352478027
0 0.16970805823802948 0.492915749549865723
0 0.0190080422908067703 0.841178536415100098
0 0.254967272281646729 1.11246156692504883
0 0.202568933367729187 1.04177439212799072
0 0.0890408903360366821 1.083854079246521
0 0.0536172389984130859 1.08673238754272461
0 0.124955728650093079 0.589129865169525146
0 0.0398076437413692474 0.834044039249420166
0 0.108356893062591553 0.884031355381011963
0 0.00736806774511933327 0.52701878547668457
0 0.346819967031478882 1.0385974645614624
0 0.182693898677825928 0.847844719886779785
0 0.114376060664653778 0.649548232555389404
0 0.0907138288021087646 0.964626848697662354
0 0.230401426553726196 0.921542704105377197
0 0.0238222088664770126 0.248092114925384521
0 0.158253714442253113 0.447131633758544922
0 0.0509627759456634521 0.93126833438873291
0 0.190371379256248474 0.743143200874328613
0 0.0501076467335224152 0.649654030799865723
0 0.0613784678280353546 0.355861902236938477
0 0.310101151466369629 0.869802951812744141
0 0.0693869218230247498 0.955343008041381836
0 0.00501265609636902809 0.801787972450256348
0 0.0313029401004314423 0.556691646575927734
0 0.0691335499286651611 0.27268528938293457
0 0.038781292736530304 0.846336901187896729
0 0.0196496322751045227 1.06499087810516357
0 0.0352507457137107849 0.942176938056945801
0 0.00262087536975741386 0.0724030733108520508
0 0.0551247857511043549 0.635234713554382324
0 0.145168453454971313 0.756473720073699951
0 0.028777390718460083 0.809295833110809326
0 0.324744850397109985 0.988237261772155762
0 0.0402467288076877594 0.446152806282043457
0 0.279440104961395264 1.08669877052307129
0 0.0166334714740514755 1.0992426872253418
0 0.108754716813564301 0.96322256326675415
0 0.262549459934234619 0.786569535732269287
0 0.192500993609428406 0.867281913757324219
0 0.24552464485168457 1.1114124059677124
0 0.257554024457931519 0.981165528297424316
0 0.111989341676235199 1.0977102518081665
0 0.255150705575942993 0.910199642181396484
0 0.318701088428497314 1.10303068161010742
0 0.21419699490070343 0.832694530487060547
0 0.113175086677074432 0.448974847793579102
0 0.071015380322933197 0.725955486297607422
0 0.0456386283040046692 0.768448829650878906
0 0.106423735618591309 0.883172035217285156
0 0.0505748875439167023 1.05732071399688721
0 0.18272516131401062 0.96335899829864502
0 0.0118554951623082161 0.525434672832489014
0 0.116067945957183838 0.890379965305328369
0 0.1568775475025177 0.930343270301818848
0 0.193659693002700806 0.986756622791290283
0 0.16247732937335968 0.962518274784088135
0 0.162471756339073181 0.535885274410247803
0 0.181844666600227356 0.51791536808013916
0 0.244383126497268677 0.856214821338653564
0 0.211076527833938599 0.920492231845855713
0 0.273865371942520142 0.802602946758270264
0 0.137761414051055908 0.794593989849090576
0 0.26976439356803894 0.752863883972167969
0 0.0951810702681541443 1.0807955265045166
0 0.132923290133476257 0.960401952266693115
0 0.246427103877067566 0.695279777050018311
0 0.0498980581760406494 0.755714178085327148
0 0.278804242610931396 0.934189915657043457
0 0.256417751312255859 0.847056269645690918
0 0.254103749990463257 0.769436895847320557
0 0.125807195901870728 0.714856863021850586
0 0.203100800514221191 0.887208163738250732
0 0.301987320184707642 0.946503996849060059
0 0.285917937755584717 0.857746481895446777
0 0.00404861150309443474 0.863628685474395752
0 0.0917937010526657104 1.11059832572937012
0 0.118896655738353729 0.834830820560455322
0 0.0570466704666614532 0.426939785480499268
0 0.0827028155326843262 0.842596948146820068
0 0.0985757187008857727 0.849981188774108887
0 0.246402502059936523 0.693348288536071777
0 0.217319399118423462 0.676603198051452637
0 0.185395345091819763 1.04333019256591797
0 0.312325447797775269 1.05788028240203857
0 0.29401591420173645 0.986680090427398682
0 0.148212522268295288 0.421667873859405518
0 0.219473704695701599 0.932259500026702881
0 0.152799412608146667 0.559295952320098877
0 0.140729501843452454 0.65049290657043457
0 0.00640890002250671387 0.88030850887298584
0 0.0223216060549020767 0.784370362758636475
0 0.197211071848869324 0.829203963279724121
0 0.289651244878768921 0.909140706062316895
0 0.19268798828125 0.811624646186828613
0 0.0867620036005973816 0.916462540626525879
0 0.263251960277557373 0.739912033081054688
0 0.141581550240516663 0.699659883975982666
0 0.327529072761535645 1.08715271949768066
0 0.246192961931228638 0.744532942771911621
0 0.0861127972602844238 0.8796653151512146
0 0.0436634793877601624 0.477608680725097656
0 0.174682870507240295 0.943819046020507812
0 0.0253015439957380295 0.381159603595733643
0 0.213048696517944336 0.61963421106338501
0 0.0679600611329078674 1.0899808406829834
0 0.0642400607466697693 0.503577351570129395
0 0.257688343524932861 0.823075413703918457
0 0.145125195384025574 0.541742324829101562
0 0.266485810279846191 0.781161069869995117
0 0.104585662484169006 0.918096780776977539
0 0.059887230396270752 1.10722577571868896
0 0.00116384448483586311 0.0939340591430664062
0 0.154482290148735046 0.872791290283203125
0 0.310647159814834595 1.0386347770690918
0 0.10473247617483139 0.803111135959625244
0 0.0717920288443565369 0.892269790172576904
0 0.209014564752578735 0.962375760078430176
0 0.324059873819351196 1.01800501346588135
0 0.257478922605514526 1.01709580421447754
0 0.0060699833557009697 0.277451872825622559
0 0.103376030921936035 0.683278083801269531
0 0.0127816544845700264 1.02555036544799805
0 0.186775535345077515 0.892333030700683594
0 0.036722969263792038 0.321973562240600586
0 0.0431801937520503998 0.55726158618927002
0 0.0169525053352117538 0.797255337238311768
0 0.0172011237591505051 0.984867990016937256
0 0.0244127195328474045 0.255922794342041016
0 0.249538525938987732 0.70021510124206543
0 0.0219014864414930344 0.815345287322998047
0 0.0459902547299861908 0.169783592224121094
0 0.0335080362856388092 0.209130704402923584
0 0.120553150773048401 1.0129244327545166
0 0.0701911374926567078 0.56284862756729126
0 0.21865411102771759 0.899622261524200439
0 0.128311917185783386 0.928606510162353516
0 0.197504863142967224 0.812320232391357422
0 0.0884497016668319702 0.657899260520935059
0 0.170701012015342712 0.618234157562255859
0 0.131124421954154968 0.961252450942993164
0 0.00115091796033084393 0.95731055736541748
0 0.230781391263008118 0.664659619331359863
0 0.250732988119125366 0.955095529556274414
0 0.214887484908103943 0.937585949897766113
0 0.17044106125831604 0.932781219482421875
0 0.150914102792739868 0.673864483833312988
0 0.176593765616416931 0.799643933773040771
0 0.326803028583526611 0.975851118564605713
0 0.00706641329452395439 0.858785390853881836
0 0.119908250868320465 0.813501417636871338
0 0.0359034538269042969 0.812499701976776123
0 0.160954698920249939 0.92494964599609375
0 0.0432523228228092194 0.44000476598739624
0 0.035663314163684845 0.317306220531463623
0 0.166601762175559998 0.784440338611602783
0 0.217645525932312012 0.768554985523223877
0 0.000526819436345249414 0.919225394725799561
0 0.162560760974884033 0.735061764717102051
0 0.210661157965660095 0.966092467308044434
0 0.0281689446419477463 0.231734991073608398
0 0.304065853357315063 1.04164516925811768
0 0.175660178065299988 0.64591825008392334
0 0.201081141829490662 0.597574770450592041
0 0.120001330971717834 0.33984827995300293
0 0.306607186794281006 0.943696498870849609
0 0.0912753716111183167 0.91295546293258667
0 0.0465364605188369751 0.134387731552124023
0 0.0484563596546649933 0.95839303731918335
0 0.009093492291867733 0.525800168514251709
0 0.251740425825119019 0.712221264839172363
0 0.150440752506256104 1.0943758487701416
0 0.291616648435592651 1.1116020679473877
0 0.107777833938598633 0.8885689377784729
0 0.202851682901382446 0.674867689609527588
0 0.000584430701564997435 0.0589348077774047852
0 0.122308090329170227 0.871221959590911865
0 0.00657919188961386681 1.03662574291229248
0 0.00414548814296722412 0.148189008235931396
0 0.0629942640662193298 0.610450506210327148
0 0.340706080198287964 0.979292809963226318
0 0.00957560352981090546 0.366855442523956299
0 0.136250585317611694 0.657918214797973633
0 0.0264181196689605713 1.04418110847473145
0 0.00122333026956766844 0.25225520133972168
0 0.24084046483039856 0.779666304588317871
0 0.107891157269477844 0.830359756946563721
0 0.272388190031051636 1.00805819034576416
0 0.105158701539039612 0.893507897853851318
0 0.157951667904853821 0.987978339195251465
0 0.127805918455123901 0.893171548843383789
0 0.20408165454864502 0.958816647529602051
0 0.0888246744871139526 0.755553781986236572
0 0.295715481042861938 1.07002007961273193
0 0.0664017572999000549 0.454209864139556885
0 0.0259369518607854843 0.180323898792266846
0 0.149342179298400879 0.779484808444976807
0 0.350610345602035522 1.05822360515594482
0 0.037362612783908844 1.01744914054870605
0 0.275159686803817749 0.809048056602478027
0 0.00284588942304253578 0.674825012683868408
0 0.276449471712112427 1.05866873264312744
0 0.308055639266967773 1.03272247314453125
0 0.0978043600916862488 1.07861471176147461
0 0.160575300455093384 0.799602270126342773
0 0.0249728169292211533 0.592066764831542969
0 0.0100544793531298637 0.878608882427215576
0 0.0317166559398174286 0.76760554313659668
0 0.171890571713447571 0.635152101516723633
0 0.011136266402900219 0.391165733337402344
0 0.0460604913532733917 0.913157641887664795
0 0.0252713058143854141 0.83832162618637085
0 0.138929575681686401 0.892816543579101562
0 0.095378383994102478 0.577917635440826416
0 0.30519983172416687 1.06393671035766602
0 0.290072202682495117 0.88144838809967041
0 0.0941988825798034668 0.967399239540100098
0 0.197937294840812683 0.843080222606658936
0 0.240809127688407898 0.781480908393859863
0 0.223820969462394714 0.745188057422637939
0 0.0656349882483482361 0.506206870079040527
0 0.0342437364161014557 0.940606296062469482
0 0.0483873672783374786 0.304829001426696777
0 0.270590454339981079 1.00527644157409668
0 0.19587726891040802 0.605341434478759766
0 0.264444291591644287 0.753737688064575195
0 0.226493790745735168 0.97965085506439209
0 0.00642670271918177605 0.0836762189865112305
0 0.150533124804496765 0.713600277900695801
0 0.0348790846765041351 0.660542726516723633
0 0.192834660410881042 0.898001253604888916
0 0.0453621447086334229 0.511818468570709229
0 0.0857736766338348389 0.58088606595993042
0 0.358457893133163452 1.04816699028015137
0 0.134182855486869812 0.58854752779006958
0 0.000419912015786394477 0.501392841339111328
0 0.196983620524406433 0.654978036880493164
0 0.121586404740810394 0.968449950218200684
0 0.092131391167640686 0.647940635681152344
0 0.101216986775398254 0.562859237194061279
0 0.0537338517606258392 0.786935925483703613
0 0.027880469337105751 0.361713707447052002
0 0.0792325586080551147 0.920548141002655029
0 0.0135565251111984253 0.468382060527801514
0 0.127537339925765991 0.654018104076385498
0 0.214879557490348816 0.924840211868286133
0 0.00547474948689341545 0.956254959106445312
0 0.262195497751235962 0.95643848180770874
0 0.160024389624595642 0.49733126163482666
0 0.238130852580070496 0.867750644683837891
0 0.0626252815127372742 0.589965701103210449
0 0.0373479761183261871 0.858028590679168701
0 0.263339787721633911 1.05764603614807129
0 0.0587648823857307434 0.403282701969146729
0 0.0894881784915924072 0.259913086891174316
0 0.094049893319606781 0.773685812950134277
0 0.159759819507598877 0.73897254467010498
0 0.168131589889526367 0.751472711563110352
0 0.0608726702630519867 1.03253591060638428
0 0.18984512984752655 0.933532357215881348
0 0.00995236355811357498 1.1044609546661377
0 0.208915188908576965 0.684753358364105225
0 0.0570080876350402832 0.979187846183776855
0 0.00175682955887168646 0.957615375518798828
0 0.202471479773521423 0.85744088888168335
0 0.0450866781175136566 1.03198039531707764
0 0.00700890272855758667 0.432966172695159912
0 0.0271051712334156036 0.108839631080627441
0 0.04181700199842453 0.425802171230316162
0 0.120747804641723633 0.519738674163818359
0 0.0388152487576007843 0.32303088903427124
0 0.0269607342779636383 0.271751284599304199
0 0.263491570949554443 1.05279314517974854
0 0.207961782813072205 1.03965139389038086
0 0.110063791275024414 0.346356213092803955
0 0.124695934355258942 0.697358131408691406
0 0.0580529533326625824 1.10217952728271484
0 0.110971845686435699 0.463144123554229736
0 0.0344519577920436859 0.259521782398223877
0 0.0314099378883838654 0.368160247802734375
0 0.349434018135070801 1.06707584857940674
0 0.149906769394874573 1.09842240810394287
0 0.230922415852546692 1.04759013652801514
0 0.0969195589423179626 0.596813678741455078
0 0.266941875219345093 0.858892440795898438
0 0.0859986394643783569 0.987828075885772705
0 0.120325759053230286 0.557202935218811035
0 0.227648064494132996 0.855369091033935547
0 0.0682753399014472961 0.350693583488464355
0 0.136268898844718933 0.62115323543548584
0 0.0250378437340259552 0.284262120723724365
0 0.17541348934173584 0.747708916664123535
0 0.0479915924370288849 0.706590235233306885
0 0.261157631874084473 1.00221824645996094
0 0.248385295271873474 0.788082718849182129
0 0.0185594912618398666 1.02273118495941162
0 0.28019365668296814 0.971481800079345703
0 0.0881716534495353699 0.437191545963287354
0 0.152837961912155151 1.08301055431365967
0 0.0388799943029880524 0.407629251480102539
0 0.329682767391204834 1.01427078247070312
0 0.032382819801568985 0.625603556632995605
0 0.0189003590494394302 0.717657089233398438
0 0.170754134654998779 0.743839740753173828
0 0.238290771842002869 0.724697589874267578
0 0.198155954480171204 0.940095901489257812
0 0.0204816386103630066 0.168244659900665283
0 0.0806360319256782532 0.520360291004180908
0 0.0410551354289054871 0.230739593505859375
0 0.0993909910321235657 0.292590498924255371
0 0.175548478960990906 0.986306309700012207
0 0.199633762240409851 0.626992523670196533
0 0.224575474858283997 0.800091028213500977
0 0.167222917079925537 1.0447688102722168
0 0.22133946418762207 0.758507370948791504
0 0.0533284507691860199 0.731943070888519287
0 0.255637496709823608 1.08394074440002441
0 0.235949158668518066 0.907372832298278809
0 0.0565073564648628235 0.996973276138305664
0 0.0859900936484336853 0.626005947589874268
0 0.0200699102133512497 1.07284486293792725
0 0.180606290698051453 1.02496552467346191
0 0.251909404993057251 0.874616622924804688
0 0.124334655702114105 0.495749175548553467
0 0.0682730376720428467 0.2527732253074646
0 0.0124731948599219322 0.265427231788635254
0 0.00883003324270248413 0.597374618053436279
0 0.175457760691642761 0.790795624256134033
0 0.185586258769035339 0.762115478515625
0 0.144553810358047485 0.730817079544067383
0 0.136288896203041077 0.846824765205383301
0 0.186376824975013733 0.637511134147644043
0 0.353573113679885864 1.02497696876525879
0 0.00928234681487083435 0.448819458484649658
0 0.109841600060462952 1.10964095592498779
0 0.0691339075565338135 0.53396075963973999
0 0.101348459720611572 1.02214384078979492
0 0.0587075240910053253 0.857457637786865234
0 0.235355451703071594 0.805959403514862061
0 0.0462804324924945831 0.958193540573120117
0 0.010752752423286438 0.130466699600219727
0 0.211499243974685669 0.908809065818786621
0 0.120640315115451813 0.420097231864929199
0 0.25532957911491394 1.01743161678314209
0 0.171397194266319275 0.598176836967468262
0 0.157455489039421082 0.496639609336853027
0 0.238239675760269165 1.07819032669067383
0 0.218708068132400513 0.904626846313476562
0 0.112388633191585541 0.323501229286193848
0 0.124443612992763519 0.566730141639709473
0 0.0054789162240922451 0.0548930168151855469
0 0.0570237524807453156 0.883929193019866943
0 0.0844202116131782532 0.827457189559936523
0 0.0206971969455480576 0.254911065101623535
0 0.0301053505390882492 0.799098014831542969
0 0.16037769615650177 0.967672824859619141
0 0.194002196192741394 1.05948638916015625
0 0.281722664833068848 0.991979241371154785
0 0.176460042595863342 0.836975991725921631
0 0.0356221534311771393 0.580331027507781982
0 0.0608994923532009125 0.289324641227722168
0 0.151016741991043091 0.847551107406616211
0 0.00156811799388378859 0.99999701976776123
0 0.0557548590004444122 1.04710304737091064
0 0.140630424022674561 0.490693986415863037
0 0.263386815786361694 1.09253835678100586
0 0.0983412414789199829 0.962184429168701172
0 0.0157595034688711166 1.01023244857788086
0 0.213202282786369324 0.674171388149261475
0 0.0281549729406833649 0.0873198509216308594
0 0.287155300378799438 0.892969250679016113
0 0.24489767849445343 1.03728342056274414
0 0.0287374556064605713 0.984518885612487793
0 0.0963128656148910522 0.332513511180877686
0 0.0503652878105640411 0.612345516681671143
0 0.141630738973617554 0.842056751251220703
0 0.165487214922904968 0.710487484931945801
0 0.0805919840931892395 0.353448748588562012
0 0.108931474387645721 0.927150905132293701
0 0.126317352056503296 0.618856489658355713
0 0.206732437014579773 0.734241724014282227
0 0.0371505618095397949 0.623262345790863037
0 0.111403279006481171 0.64958035945892334
0 0.313303768634796143 1.04406464099884033
0 0.0753654986619949341 1.08092868328094482
0 0.0832563489675521851 0.479886353015899658
0 0.0991892591118812561 0.830994546413421631
0 0.0979945436120033264 0.811487197875976562
0 0.0473659560084342957 0.453443944454193115
0 0.27593347430229187 1.11072623729705811
0 0.0559493862092494965 0.472814083099365234
0 0.160900577902793884 0.656322956085205078
0 0.000796700827777385712 0.231419503688812256
0 0.103079892694950104 0.968124091625213623
0 0.218557149171829224 0.998062968254089355
0 0.138412803411483765 0.732479095458984375
0 0.158833906054496765 1.02735984325408936
0 0.309096068143844604 0.913475751876831055
0 0.00167710601817816496 0.113860607147216797
0 0.0294372327625751495 0.135252416133880615
0 0.0715865939855575562 0.94592970609664917
0 0.212841585278511047 0.697396159172058105
0 0.199645146727561951 0.733220338821411133
0 0.0256085488945245743 0.511253774166107178
0 0.0763388797640800476 0.285956501960754395
0 0.0903069227933883667 0.467737734317779541
0 0.117266595363616943 1.0081031322479248
0 0.119920827448368073 0.758939921855926514
0 0.27515760064125061 0.804782509803771973
0 0.097127571702003479 0.286023497581481934
0 0.0849559307098388672 0.438095033168792725
0 0.0735706910490989685 0.337546646595001221
0 0.261163085699081421 1.00772655010223389
0 0.25645601749420166 0.874474704265594482
0 0.0350250042974948883 0.352377474308013916
0 0.167278870940208435 0.739159464836120605
0 0.346148759126663208 1.10427689552307129
0 0.0358652845025062561 0.396523535251617432
0 0.121252916753292084 0.443895876407623291
0 0.0885366648435592651 0.410924017429351807
0 0.115586042404174805 1.00799798965454102
0 0.027995644137263298 0.223131060600280762
0 0.247842073440551758 0.86626589298248291
0 0.040721546858549118 0.293117403984069824
0 0.162002265453338623 0.739310264587402344
0 0.370526999235153198 1.07484054565429688
0 0.055804964154958725 0.735115289688110352
0 0.14521828293800354 0.970180928707122803
0 0.189537003636360168 0.861745357513427734
0 0.0739318877458572388 0.216482222080230713
0 0.142824083566665649 0.618716835975646973
0 0.180265501141548157 0.585769116878509521
0 0.066160157322883606 0.549525082111358643
0 0.171550899744033813 0.950448334217071533
0 0.040907733142375946 0.765842914581298828
0 0.0842276066541671753 0.790275752544403076
0 0.0638658702373504639 0.849319696426391602
0 0.0595450177788734436 0.774460673332214355
0 0.0506093166768550873 0.526443064212799072
0 0.222451597452163696 0.827847778797149658
0 0.0644169449806213379 0.952704131603240967
0 0.201515793800354004 0.883975028991699219
0 0.0711320415139198303 0.58348160982131958
0 0.0787847265601158142 1.10630321502685547
0 0.0111367367208003998 0.295486688613891602
0 0.152934357523918152 0.595281422138214111
0 0.209007382392883301 0.942386627197265625
0 0.0271624233573675156 0.416179835796356201
0 0.018552904948592186 1.04953384399414062
0 0.247492715716362 1.01605474948883057
0 0.0780113115906715393 0.617594003677368164
0 0.282931149005889893 0.801986515522003174
0 0.00356695312075316906 0.685156345367431641
0 0.0609930753707885742 0.569604873657226562
0 0.0727458372712135315 0.829911172389984131
0 0.0874686464667320251 0.566768348217010498
0 0.0512897782027721405 0.456982314586639404
0 0.132541179656982422 1.0923771858215332
0 0.0335044153034687042 0.811028838157653809
0 0.0941332578659057617 0.948691844940185547
0 0.0645091831684112549 0.875070929527282715
0 0.269979178905487061 0.997298657894134521
0 0.213375717401504517 0.971583724021911621
0 0.0298550333827733994 0.122300505638122559
0 0.314050406217575073 1.03030669689178467
0 0.0502231121063232422 0.262512326240539551
0 0.0256869047880172729 0.0923255681991577148
0 0.0487155281007289886 0.247700214385986328
0 0.0293613281100988388 0.724400520324707031
0 0.00460069673135876656 0.253556787967681885
0 0.00378688913770020008 0.877778828144073486
0 0.00542506342753767967 1.1012648344039917
0 0.239022716879844666 0.854639112949371338
0 0.38918265700340271 1.09835433959960938
0 0.0293685551732778549 1.10009253025054932
0 0.0403793714940547943 0.628407478332519531
0 0.309279531240463257 1.01153039932250977
0 0.241264015436172485 0.979535281658172607
0 0.101949192583560944 0.397552073001861572
0 0.287632912397384644 1.03851759433746338
0 0.166207611560821533 0.661947369575500488
0 0.0779392942786216736 0.372172951698303223
0 0.0151910083368420601 0.0526832342147827148
0 0.0268341004848480225 0.842291355133056641
0 0.0750894397497177124 0.670793235301971436
0 0.0115050552412867546 0.2190132737159729
0 0.00545157305896282196 0.905526638031005859
0 0.0356379859149456024 0.898930966854095459
0 0.196925774216651917 1.00988864898681641
0 0.00294668832793831825 1.11029541492462158
0 0.136608794331550598 0.484997093677520752
0 0.165165618062019348 0.52965080738067627
0 0.145319372415542603 0.438902974128723145
0 0.0566985607147216797 0.818684875965118408
0 0.0878596976399421692 1.02014243602752686
0 0.166500851511955261 0.899615883827209473
0 0.0559133253991603851 0.990362405776977539
0 0.14045657217502594 0.466212868690490723
0 0.0497721657156944275 0.820096969604492188
0 0.106925010681152344 0.897946715354919434
0 0.14131443202495575 0.661520421504974365
0 0.0355192013084888458 0.913679957389831543
0 0.281445831060409546 0.857749581336975098
0 0.237348198890686035 1.09403979778289795
0 0.0326169915497303009 0.415024220943450928
0 0.120011523365974426 1.06846427917480469
0 0.0814599320292472839 0.759451150894165039
0 0.0357015989720821381 0.8819580078125
0 0.30949363112449646 0.896100223064422607
0 0.355478018522262573 0.989346623420715332
0 0.214667707681655884 1.01252865791320801
0 0.013963053934276104 0.207185089588165283
0 0.274894207715988159 1.0903552770614624
0 0.195930376648902893 0.577493369579315186
0 0.0684439018368721008 0.987044870853424072
0 0.150800883769989014 0.45667952299118042
0 0.103804983198642731 0.380044162273406982
0 0.387688249349594116 1.1095508337020874
0 0.0628722906112670898 0.572625696659088135
0 0.184059977531433105 0.649337410926818848
0 0.332075208425521851 1.00917506217956543
0 0.0260126888751983643 0.344105780124664307
0 0.295150279998779297 0.948767423629760742
0 0.334530353546142578 0.958904266357421875
0 0.158382520079612732 0.488847255706787109
0 0.0562732107937335968 0.815466880798339844
0 0.306033015251159668 1.02271103858947754
0 0.00497767841443419456 0.853734433650970459
0 0.209013819694519043 0.832601666450500488
0 0.0424059405922889709 0.183603167533874512
0 0.223648309707641602 0.80311882495880127
0 0.19041907787322998 0.981216251850128174
0 0.148305386304855347 0.462997555732727051
0 0.013424932025372982 0.311071932315826416
0 0.174429506063461304 0.677645742893218994
0 0.00559653853997588158 0.835647284984588623
0 0.206244617700576782 0.694827675819396973
0 0.00822800677269697189 0.399264812469482422
0 0.00348813994787633419 0.688948512077331543
0 0.20302252471446991 1.05024945735931396
0 0.298292607069015503 0.867985844612121582
0 0.0847424045205116272 0.588604450225830078
0 0.134417638182640076 0.476062357425689697
0 0.136955663561820984 0.481345057487487793
0 0.0342281721532344818 0.963046431541442871
0 0.197204217314720154 0.699523806571960449
0 0.0440931022167205811 1.03939032554626465
0 0.154567822813987732 0.783133745193481445
0 0.204798385500907898 1.10806941986083984
0 0.0706069469451904297 0.783418357372283936
0 0.170173346996307373 0.837312698364257812
0 0.347101479768753052 0.999645769596099854
0 0.145267143845558167 0.889330804347991943
0 0.0891974717378616333 0.772110104560852051
0 0.112634003162384033 0.951101303100585938
0 0.297224611043930054 1.03493702411651611
0 0.240870937705039978 1.01950573921203613
0 0.135065555572509766 0.475652217864990234
0 0.0484347529709339142 0.3578377366065979
0 0.197097375988960266 0.923898994922637939
0 0.172825813293457031 0.922105371952056885
0 0.0259759910404682159 0.796795070171356201
0 0.131939142942428589 0.919154822826385498
0 0.0988385230302810669 0.64310610294342041
0 0.301037400960922241 1.02678334712982178
0 0.0587358884513378143 1.04250442981719971
0 0.00252322107553482056 0.757693886756896973
0 0.138233289122581482 1.03258132934570312
0 0.238826200366020203 0.756371974945068359
0 0.265088170766830444 0.989334166049957275
0 0.068200036883354187 0.709107398986816406
0 0.252692550420761108 1.099953293800354
0 0.213796809315681458 0.932239234447479248
0 0.00164477922953665257 0.420152485370635986
0 0.203351303935050964 0.73196256160736084
0 0.196196138858795166 0.749479591846466064
0 0.114166617393493652 0.416317164897918701
0 0.167662307620048523 0.974668979644775391
0 0.107067398726940155 1.02433168888092041
0 0.233634784817695618 1.02749240398406982
0 0.246654704213142395 0.731914043426513672
0 0.101210035383701324 0.544566154479980469
0 0.0199610069394111633 0.549283206462860107
0 0.0376213453710079193 0.510929226875305176
0 0.170284971594810486 0.531339704990386963
0 0.197496324777603149 0.869101166725158691
0 0.135179340839385986 0.984558939933776855
0 0.351061850786209106 1.04578185081481934
0 0.0431526564061641693 1.05096685886383057
0 0.267501115798950195 1.01967298984527588
0 0.128459200263023376 0.591061592102050781
0 0.0345538035035133362 0.876234531402587891
0 0.27878299355506897 0.929201662540435791
0 0.245604783296585083 0.909749269485473633
0 0.0270566046237945557 0.765127003192901611
0 0.210342124104499817 1.05366706848144531
0 0.19376923143863678 0.712973237037658691
0 0.247668728232383728 0.913342177867889404
0 0.0248799640685319901 0.860180377960205078
0 0.0109135042876005173 0.590693891048431396
0 0.00457217823714017868 0.355189979076385498
0 0.0635807067155838013 0.260142385959625244
0 0.196513772010803223 0.976198673248291016
0 0.0341077558696269989 0.648992657661437988
0 0.111849986016750336 0.881121397018432617
0 0.000719811010640114546 0.406473875045776367
0 0.198285683989524841 0.838431477546691895
0 0.162895485758781433 1.10745048522949219
0 0.0103794578462839127 0.968857228755950928
0 0.149478361010551453 0.741495370864868164
0 0.0499984286725521088 0.320214509963989258
0 0.0126344552263617516 0.564219772815704346
0 0.0152395311743021011 0.969290971755981445
0 0.071773916482925415 0.615358114242553711
0 0.0995193645358085632 0.618794083595275879
0 0.028978690505027771 0.405700445175170898
0 0.254333525896072388 0.710775136947631836
0 0.0711701437830924988 0.367547750473022461
0 0.282152235507965088 0.977831602096557617
0 0.0624333880841732025 1.00880050659179688
0 0.103334285318851471 1.03307473659515381
0 0.107359781861305237 0.403777718544006348
0 0.119817078113555908 0.373305022716522217
0 0.00162556360010057688 0.629168987274169922
0 0.0388986431062221527 0.797665297985076904
0 0.233190968632698059 0.817905306816101074
0 0.2360200434923172 1.02932178974151611
0 0.227761507034301758 1.01559352874755859
0 0.0460213981568813324 0.303236663341522217
0 0.00909435655921697617 0.0771416425704956055
0 0.015947999432682991 0.689348042011260986
0 0.0599402859807014465 0.372847676277160645
0 0.0982168018817901611 0.28210371732711792
0 0.219610556960105896 0.995397567749023438
0 0.161603033542633057 0.770149707794189453
0 0.192748889327049255 0.808873116970062256
0 0.138758465647697449 0.843972325325012207
0 0.098275400698184967 0.605924069881439209
0 0.107035495340824127 0.656981706619262695
0 0.181867778301239014 1.07369506359100342
0 0.0533117130398750305 0.395933032035827637
0 0.212084531784057617 1.10844171047210693
0 0.124444782733917236 0.681605935096740723
0 0.0990451648831367493 0.697041511535644531
0 0.209312558174133301 0.773443937301635742
0 0.00408836035057902336 0.165951192378997803
0 0.111751653254032135 0.671476125717163086
0 0.131943032145500183 0.71825408935546875
0 0.289226382970809937 0.968377828598022461
0 0.187754064798355103 0.619948744773864746
0 0.300958603620529175 0.872681856155395508
0 0.339552164077758789 1.00975370407104492
0.321721971035003662 1.10189635194046787e-14 0.0768259763717651367
0.141177743673324585 1.10189635194046787e-14 0.272026687860488892
0.311157882213592529 1.10189635194046787e-14 0.00192028284072875977
0.0636393725872039795 1.10189635194046787e-14 0.695474565029144287
0.0684238225221633911 1.10189635194046787e-14 0.274389028549194336
0.220298126339912415 1.10189635194046787e-14 0.195554614067077637
0.0991069301962852478 1.10189635194046787e-14 0.741875290870666504
0.0780936777591705322 1.10189635194046787e-14 0.867150306701660156
0.0543608628213405609 1.10189635194046787e-14 0.0157707780599594116
0.133854687213897705 1.10189635194046787e-14 0.578778862953186035
0.0343286730349063873 1.10189635194046787e-14 0.679024457931518555
0.242094084620475769 1.10189635194046787e-14 0.290187537670135498
0.0352124832570552826 1.10189635194046787e-14 0.465713262557983398
0.349840730428695679 1.10189635194046787e-14 0.0077502131462097168
0.00820884387940168381 1.10189635194046787e-14 0.37097543478012085
