ply
format ascii 1.0
element vertex 739
property float x
property float y
property float z
end_header
0.328135251998901367 0.800000011920928955 0.14819355309009552
0.535857737064361572 0.800000011920928955 0.12336866557598114
0.305051267147064209 0.800000011920928955 0.226024165749549866
1.69033432006835938 0.800000011920928955 0.316158562898635864
0.252898097038269043 0.800000011920928955 0.188384726643562317
0.174918711185455322 0.800000011920928955 0.296993732452392578
0.409717559814453125 0.800000011920928955 0.240036368370056152
0.386115312576293945 0.800000011920928955 0.291336596012115479
2.28986096382141113 0.800000011920928955 0.296183913946151733
0.878115594387054443 0.800000011920928955 0.165373325347900391
0.436284542083740234 0.800000011920928955 0.21067693829536438
0.682330310344696045 0.800000011920928955 0.178843632340431213
1.40046107769012451 0.800000011920928955 0.272103190422058105
0.37027662992477417 0.800000011920928955 0.226275444030761719
0.00127653987146914005 0.800000011920928955 0.182098358869552612
1.6850506067276001 0.800000011920928955 0.295374512672424316
0.0811629593372344971 0.800000011920928955 0.2563057541847229
0.606076061725616455 0.800000011920928955 0.223033830523490906
0.830052793025970459 0.800000011920928955 0.302776604890823364
0.561187565326690674 0.800000011920928955 0.121267646551132202
0.247112497687339783 0.800000011920928955 0.275873810052871704
0.0128048788756132126 0.800000011920928955 0.0136643648147583008
1.89772284030914307 0.800000011920928955 0.250759541988372803
2.11660933494567871 0.800000011920928955 0.307206302881240845
1.01925325393676758 0.800000011920928955 0.262682616710662842
0.354047507047653198 0.800000011920928955 0.193905487656593323
0.0442204810678958893 0.800000011920928955 0.250735640525817871
0.640416145324707031 0.800000011920928955 0.219417423009872437
0.558238565921783447 0.800000011920928955 0.194031000137329102
0.132825955748558044 0.800000011920928955 0.0565598905086517334
0.242031380534172058 0.800000011920928955 0.195154711604118347
0.666518509387969971 0.800000011920928955 0.213852137327194214
1.51214969158172607 0.800000011920928955 0.279028862714767456
0.309498190879821777 0.800000011920928955 0.190366744995117188
0.809352397918701172 0.800000011920928955 0.284362435340881348
0.927016735076904297 0.800000011920928955 0.144218876957893372
0.634555160999298096 0.800000011920928955 0.263869136571884155
0.904912889003753662 0.800000011920928955 0.122456744313240051
0.108357027173042297 0.800000011920928955 0.166841432452201843
0.348939478397369385 0.800000011920928955 0.0879400372505187988
0.391847729682922363 0.800000011920928955 0.0766586512327194214
0.00674045179039239883 0.800000011920928955 0.20703481137752533
2.13237261772155762 0.800000011920928955 0.313707202672958374
0.361017197370529175 0.800000011920928955 0.1917448490858078
1.97539091110229492 0.800000011920928955 0.298618167638778687
1.16195249557495117 0.800000011920928955 0.241140544414520264
0.748444736003875732 0.800000011920928955 0.310602337121963501
1.09483659267425537 0.800000011920928955 0.257182121276855469
1.18277692794799805 0.800000011920928955 0.301681965589523315
0.839380860328674316 0.800000011920928955 0.15382009744644165
0.265754640102386475 0.800000011920928955 0.275898128747940063
0.428845077753067017 0.800000011920928955 0.154838442802429199
0.941360175609588623 0.800000011920928955 0.194006800651550293
0.522734344005584717 0.800000011920928955 0.144694283604621887
0.0336565189063549042 0.800000011920928955 0.270623236894607544
0.513925373554229736 0.800000011920928955 0.202985763549804688
0.292641341686248779 0.800000011920928955 0.264985263347625732
1.59968304634094238 0.800000011920928955 0.250902831554412842
0.789479494094848633 0.800000011920928955 0.111443594098091125
0.00292299897409975529 0.800000011920928955 0.125328972935676575
0.306427031755447388 0.800000011920928955 0.232768863439559937
0.710191547870635986 0.800000011920928955 0.20261499285697937
1.25070250034332275 0.800000011920928955 0.315374851226806641
2.01332664489746094 0.800000011920928955 0.317185848951339722
0.224138781428337097 0.800000011920928955 0.222381472587585449
0.176716789603233337 0.800000011920928955 0.208386749029159546
1.4023822546005249 0.800000011920928955 0.267997384071350098
0.52984011173248291 0.800000011920928955 0.186105012893676758
0.903366029262542725 0.800000011920928955 0.20930403470993042
0.277250736951828003 0.800000011920928955 0.108401045203208923
1.4679558277130127 0.800000011920928955 0.254918962717056274
1.13383674621582031 0.800000011920928955 0.218187302350997925
0.611216187477111816 0.800000011920928955 0.280662357807159424
0.430774658918380737 0.800000011920928955 0.214661270380020142
1.32453274726867676 0.800000011920928955 0.174407511949539185
1.61892080307006836 0.800000011920928955 0.260946929454803467
0.805418789386749268 0.800000011920928955 0.314576566219329834
1.16212236881256104 0.800000011920928955 0.229013711214065552
1.41650629043579102 0.800000011920928955 0.221769720315933228
0.325671970844268799 0.800000011920928955 0.0697345435619354248
0.341714769601821899 0.800000011920928955 0.161095201969146729
0.521222829818725586 0.800000011920928955 0.189632341265678406
1.48963642120361328 0.800000011920928955 0.299017399549484253
1.54043424129486084 0.800000011920928955 0.196050524711608887
0.182146400213241577 0.800000011920928955 0.26847374439239502
1.07265090942382812 0.800000011920928955 0.230491489171981812
0.156490400433540344 0.800000011920928955 0.288865417242050171
2.14531683921813965 0.800000011920928955 0.285798877477645874
0.686300873756408691 0.800000011920928955 0.190297707915306091
0.668766200542449951 0.800000011920928955 0.282551050186157227
1.01791727542877197 0.800000011920928955 0.14261193573474884
0.0897326469421386719 0.800000011920928955 0.0284622311592102051
0.72033458948135376 0.800000011920928955 0.264105707406997681
1.88107204437255859 0.800000011920928955 0.273041456937789917
0.564342319965362549 0.800000011920928955 0.200882226228713989
1.86093282699584961 0.800000011920928955 0.280345797538757324
0.396077185869216919 0.800000011920928955 0.256321728229522705
0.906792223453521729 0.800000011920928955 0.190028592944145203
0.324752092361450195 0.800000011920928955 0.19053967297077179
0.212418898940086365 0.800000011920928955 0.172870725393295288
1.40655088424682617 0.800000011920928955 0.197006776928901672
1.4219968318939209 0.800000011920928955 0.183356001973152161
1.59087634086608887 0.800000011920928955 0.254989415407180786
0.254683136940002441 0.800000011920928955 0.04245033860206604
0.29679715633392334 0.800000011920928955 0.231858551502227783
0.287285089492797852 0.800000011920928955 0.20823138952255249
1.23388636112213135 0.800000011920928955 0.169469967484474182
1.97253239154815674 0.800000011920928955 0.297408849000930786
1.07817530632019043 0.800000011920928955 0.189765825867652893
0.378888309001922607 0.800000011920928955 0.218634322285652161
1.23954248428344727 0.800000011920928955 0.307658672332763672
0.372999846935272217 0.800000011920928955 0.220771133899688721
0.690558254718780518 0.800000011920928955 0.129624933004379272
0.340658962726593018 0.800000011920928955 0.106592714786529541
1.82842373847961426 0.800000011920928955 0.283765316009521484
0.489714354276657104 0.800000011920928955 0.109770849347114563
0.00994129199534654617 0.800000011920928955 0.205344229936599731
1.35827815532684326 0.800000011920928955 0.288898468017578125
1.35593569278717041 0.800000011920928955 0.177061617374420166
0.615717172622680664 0.800000011920928955 0.203622698783874512
1.15865015983581543 0.800000011920928955 0.147880852222442627
0.429798930883407593 0.800000011920928955 0.164017066359519958
0.345561057329177856 0.800000011920928955 0.306402683258056641
0.817197144031524658 0.800000011920928955 0.257932186126708984
0.31836402416229248 0.800000011920928955 0.220732331275939941
0.134678855538368225 0.800000011920928955 0.0700738728046417236
0.461090445518493652 0.800000011920928955 0.242251873016357422
0.214783549308776855 0.800000011920928955 0.189760595560073853
0.985083639621734619 0.800000011920928955 0.171409115195274353
0.488023430109024048 0.800000011920928955 0.0880182981491088867
0.66199880838394165 0.800000011920928955 0.19812166690826416
1.10061824321746826 0.800000011920928955 0.191874369978904724
1.15199613571166992 0.800000011920928955 0.180444583296775818
1.39263331890106201 0.800000011920928955 0.318225085735321045
0.36635395884513855 0.800000011920928955 0.206163093447685242
1.01617777347564697 0.800000011920928955 0.251449316740036011
1.87685954570770264 0.800000011920928955 0.319591671228408813
1.32086050510406494 0.800000011920928955 0.313673198223114014
0.226631596684455872 0.800000011920928955 0.131894737482070923
0.0257864929735660553 0.800000011920928955 0.126832917332649231
0.770418107509613037 0.800000011920928955 0.175103083252906799
0.22834661602973938 0.800000011920928955 0.0840694457292556763
1.60661113262176514 0.800000011920928955 0.298318088054656982
0.93225628137588501 0.800000011920928955 0.261326909065246582
0.303532302379608154 0.800000011920928955 0.218220889568328857
1.08625340461730957 0.800000011920928955 0.194577991962432861
1.54328739643096924 0.800000011920928955 0.217602923512458801
1.403373122215271 0.800000011920928955 0.313413411378860474
0.307277381420135498 0.800000011920928955 0.09905204176902771
0.413522183895111084 0.800000011920928955 0.3133125901222229
1.90861415863037109 0.800000011920928955 0.314548313617706299
0.123552151024341583 0.800000011920928955 0.197813019156455994
0.662504673004150391 0.800000011920928955 0.308823436498641968
0.277905732393264771 0.800000011920928955 0.227908432483673096
0.144057542085647583 0.800000011920928955 0.0906054526567459106
0.916991174221038818 0.800000011920928955 0.142163470387458801
0.000117610703455284238 0.800000011920928955 0.255630314350128174
0.945345580577850342 0.800000011920928955 0.258413434028625488
0.829226016998291016 0.800000011920928955 0.167165100574493408
2.01418185234069824 0.800000011920928955 0.318434387445449829
1.11435067653656006 0.800000011920928955 0.249077171087265015
2.0250551700592041 0.800000011920928955 0.319272011518478394
1.84859240055084229 0.800000011920928955 0.235800564289093018
0.923188507556915283 0.800000011920928955 0.187422007322311401
0.531203925609588623 0.800000011920928955 0.201645910739898682
2.12639188766479492 0.800000011920928955 0.267046421766281128
0.943996191024780273 0.800000011920928955 0.178309604525566101
0.796370327472686768 0.800000011920928955 0.260188668966293335
1.5998615026473999 0.800000011920928955 0.273664295673370361
0.0891785919666290283 0.800000011920928955 0.0296194553375244141
0.387768983840942383 0.800000011920928955 0.098347589373588562
0.461284667253494263 0.800000011920928955 0.271013647317886353
0.312879443168640137 0.800000011920928955 0.0435841083526611328
1.26470303535461426 0.800000011920928955 0.218178212642669678
0.037647198885679245 0.800000011920928955 0.219162136316299438
0.677604138851165771 0.800000011920928955 0.284765630960464478
2.33300232887268066 0.800000011920928955 0.316876679658889771
0.904686808586120605 0.800000011920928955 0.241554975509643555
0.287999331951141357 0.800000011920928955 0.222774416208267212
1.72154843807220459 0.800000011920928955 0.232920050621032715
0.609528005123138428 0.800000011920928955 0.272884637117385864
0.990365862846374512 0.800000011920928955 0.293758153915405273
1.11900162696838379 0.800000011920928955 0.267009228467941284
1.08262479305267334 0.800000011920928955 0.258786648511886597
1.37252843379974365 0.800000011920928955 0.293491065502166748
1.60382401943206787 0.800000011920928955 0.235295608639717102
0.868356466293334961 0.800000011920928955 0.111880496144294739
0.0536793358623981476 0.800000011920928955 0.283857136964797974
0.311321347951889038 0.800000011920928955 0.196192085742950439
1.37554240226745605 0.800000011920928955 0.187210321426391602
1.71165108680725098 0.800000011920928955 0.296613454818725586
0.925045251846313477 0.800000011920928955 0.17223551869392395
0.331874936819076538 0.800000011920928955 0.111677318811416626
0.235732585191726685 0.800000011920928955 0.174011737108230591
0.503760576248168945 0.800000011920928955 0.303492456674575806
1.99164891242980957 0.800000011920928955 0.276746511459350586
0.835794210433959961 0.800000011920928955 0.253345131874084473
0.474247962236404419 0.800000011920928955 0.105384349822998047
0.955997705459594727 0.800000011920928955 0.125266417860984802
0.359631240367889404 0.800000011920928955 0.224558472633361816
0.330949991941452026 0.800000011920928955 0.185029372572898865
0.699538528919219971 0.800000011920928955 0.209271654486656189
1.28463566303253174 0.800000011920928955 0.227966994047164917
1.67938768863677979 0.800000011920928955 0.225991293787956238
0.847465753555297852 0.800000011920928955 0.221359997987747192
1.40529811382293701 0.800000011920928955 0.255792111158370972
1.51018416881561279 0.800000011920928955 0.247600257396697998
0.0297980140894651413 0.800000011920928955 0.17995142936706543
0.494521111249923706 0.800000011920928955 0.276389390230178833
0.0133908092975616455 0.800000011920928955 0.289509326219558716
0.325873136520385742 0.800000011920928955 0.0486193597316741943
0.794454991817474365 0.800000011920928955 0.313513398170471191
1.02319705486297607 0.800000011920928955 0.190880164504051208
1.16639196872711182 0.800000011920928955 0.306709825992584229
0.0454862900078296661 0.800000011920928955 0.176206782460212708
0.530384838581085205 0.800000011920928955 0.0874120146036148071
0.911211907863616943 0.800000011920928955 0.147508725523948669
0.165109053254127502 0.800000011920928955 0.22434680163860321
1.37031710147857666 0.800000011920928955 0.304573744535446167
0.796095848083496094 0.800000011920928955 0.307054281234741211
0.486186563968658447 0.800000011920928955 0.214267298579216003
0.553213298320770264 0.800000011920928955 0.259994745254516602
0.369745075702667236 0.800000011920928955 0.294634014368057251
0.951234161853790283 0.800000011920928955 0.267884552478790283
0.837067365646362305 0.800000011920928955 0.267587065696716309
0.0328582748770713806 0.800000011920928955 0.177071318030357361
0.314256995916366577 0.800000011920928955 0.173114344477653503
0.376779615879058838 0.800000011920928955 0.272154420614242554
0.385939568281173706 0.800000011920928955 0.218150526285171509
0.019914623349905014 0.800000011920928955 0.257228553295135498
1.78544127941131592 0.800000011920928955 0.307876557111740112
1.05580496788024902 0.800000011920928955 0.269151657819747925
1.54204225540161133 0.800000011920928955 0.21867823600769043
0.649007260799407959 0.800000011920928955 0.184313490986824036
0.367288440465927124 0.800000011920928955 0.129529163241386414
2.44126272201538086 0.800000011920928955 0.308566123247146606
0.109265133738517761 0.800000011920928955 0.070722728967666626
1.2906334400177002 0.800000011920928955 0.316560626029968262
1.22269761562347412 0.800000011920928955 0.253194332122802734
1.00259661674499512 0.800000011920928955 0.166819050908088684
0.885508239269256592 0.800000011920928955 0.22155781090259552
0.203686431050300598 0.800000011920928955 0.0434699952602386475
0.102967709302902222 0.800000011920928955 0.298112869262695312
0.441332161426544189 0.800000011920928955 0.2016620934009552
0.93384861946105957 0.800000011920928955 0.134154736995697021
0.0688260942697525024 0.800000011920928955 0.0185957252979278564
1.42864370346069336 0.800000011920928955 0.313972234725952148
1.74093747138977051 0.800000011920928955 0.315614581108093262
0.279418379068374634 0.800000011920928955 0.0796795785427093506
1.24112308025360107 0.800000011920928955 0.28451809287071228
2.04563093185424805 0.800000011920928955 0.307378023862838745
1.36226809024810791 0.800000011920928955 0.283828973770141602
2.04869651794433594 0.800000011920928955 0.299422353506088257
0.518172621726989746 0.800000011920928955 0.225233644247055054
0.972382783889770508 0.800000011920928955 0.251612007617950439
0.453049421310424805 0.800000011920928955 0.153923511505126953
1.32415771484375 0.800000011920928955 0.228178724646568298
0.0193170700222253799 0.800000011920928955 0.00548022985458374023
1.65353035926818848 0.800000011920928955 0.247956246137619019
0.244042173027992249 0.800000011920928955 0.118405476212501526
0.433072745800018311 0.800000011920928955 0.197853624820709229
0.522610604763031006 0.800000011920928955 0.100820913910865784
0.639721333980560303 0.800000011920928955 0.155254453420639038
0.0584475211799144745 0.800000011920928955 0.0130600035190582275
0.365056067705154419 0.800000011920928955 0.296783775091171265
1.47796499729156494 0.800000011920928955 0.256925851106643677
0.769438743591308594 0.800000011920928955 0.202172234654426575
1.51390612125396729 0.800000011920928955 0.245606213808059692
0.472755759954452515 0.800000011920928955 0.183739393949508667
1.16516506671905518 0.800000011920928955 0.180228084325790405
0.999960660934448242 0.800000011920928955 0.191910877823829651
0.427144438028335571 0.800000011920928955 0.083032950758934021
1.95660579204559326 0.800000011920928955 0.248240381479263306
0.225661545991897583 0.800000011920928955 0.227841466665267944
0.496410250663757324 0.800000011920928955 0.254887640476226807
1.70365285873413086 0.800000011920928955 0.230216950178146362
1.45135676860809326 0.800000011920928955 0.20886838436126709
0.313165634870529175 0.800000011920928955 0.085559844970703125
1.86443376541137695 0.800000011920928955 0.235184594988822937
0.194909155368804932 0.800000011920928955 0.0867526829242706299
0.0572243854403495789 0.800000011920928955 0.216355517506599426
1.87667977809906006 0.800000011920928955 0.245600417256355286
1.4128948450088501 0.800000011920928955 0.204730242490768433
0.548768222332000732 0.800000011920928955 0.0826340466737747192
0.798909783363342285 0.800000011920928955 0.272061169147491455
1.19051766395568848 0.800000011920928955 0.304484426975250244
0.186995640397071838 0.800000011920928955 0.163717165589332581
0.602310001850128174 0.800000011920928955 0.247922718524932861
0.387710839509963989 0.800000011920928955 0.0610111355781555176
0.684091925621032715 0.800000011920928955 0.160217493772506714
1.16683483123779297 0.800000011920928955 0.180122077465057373
1.3813323974609375 0.800000011920928955 0.176898732781410217
1.15822696685791016 0.800000011920928955 0.279369175434112549
0.45295146107673645 0.800000011920928955 0.221796184778213501
0.278599411249160767 0.800000011920928955 0.29230383038520813
1.7223588228225708 0.800000011920928955 0.312967360019683838
0.203044489026069641 0.800000011920928955 0.13349422812461853
0.522228538990020752 0.800000011920928955 0.0884523391723632812
1.32225394248962402 0.800000011920928955 0.230728000402450562
1.51651537418365479 0.800000011920928955 0.255830824375152588
0.675145745277404785 0.800000011920928955 0.316382080316543579
1.32568585872650146 0.800000011920928955 0.284079700708389282
1.72554218769073486 0.800000011920928955 0.229480832815170288
0.895144224166870117 0.800000011920928955 0.188974782824516296
0.878707528114318848 0.800000011920928955 0.308259874582290649
0.314584285020828247 0.800000011920928955 0.115392968058586121
0.646750867366790771 0.800000011920928955 0.300972640514373779
0.655345380306243896 0.800000011920928955 0.192695900797843933
1.53681182861328125 0.800000011920928955 0.205149531364440918
0.90431445837020874 0.800000011920928955 0.289516746997833252
0.888561785221099854 0.800000011920928955 0.220898270606994629
1.13593995571136475 0.800000011920928955 0.147134184837341309
1.15139448642730713 0.800000011920928955 0.229757502675056458
1.03532779216766357 0.800000011920928955 0.262005805969238281
0.456571459770202637 0.800000011920928955 0.0582971274852752686
0.545136511325836182 0.800000011920928955 0.173524141311645508
1.23530399799346924 0.800000011920928955 0.157546103000640869
0.315900981426239014 0.800000011920928955 0.307238131761550903
0.0877033472061157227 0.800000011920928955 0.0913190841674804688
0.179995268583297729 0.800000011920928955 0.053563922643661499
0.0907232314348220825 0.800000011920928955 0.151357412338256836
1.52168476581573486 0.800000011920928955 0.262623816728591919
1.1972041130065918 0.800000011920928955 0.307900995016098022
0.4033336341381073 0.800000011920928955 0.0639168620109558105
0.455769836902618408 0.800000011920928955 0.231288731098175049
0.13614344596862793 0.800000011920928955 0.227324694395065308
0.287609487771987915 0.800000011920928955 0.100984096527099609
1.36003637313842773 0.800000011920928955 0.298776417970657349
0.0984491631388664246 0.800000011920928955 0.304525911808013916
0.964813649654388428 0.800000011920928955 0.133269444108009338
2.00583291053771973 0.800000011920928955 0.272733807563781738
1.69135665893554688 0.800000011920928955 0.236551165580749512
0.00903713516891002655 0.800000011920928955 0.0543178319931030273
1.39019870758056641 0.800000011920928955 0.214593231678009033
0.49230465292930603 0.800000011920928955 0.258733242750167847
0.22854188084602356 0.800000011920928955 0.250880181789398193
2.08769416809082031 0.800000011920928955 0.264278233051300049
0.214596271514892578 0.800000011920928955 0.170765116810798645
0.914827048778533936 0.800000011920928955 0.27649843692779541
0.110995829105377197 0.800000011920928955 0.319607675075531006
0.233388230204582214 0.800000011920928955 0.111522972583770752
0.307371020317077637 0.800000011920928955 0.0701957643032073975
1.35321831703186035 0.800000011920928955 0.282781243324279785
1.17049968242645264 0.800000011920928955 0.179473400115966797
0.435087770223617554 0.800000011920928955 0.216140210628509521
0.880786478519439697 0.800000011920928955 0.184809133410453796
1.05694258213043213 0.800000011920928955 0.196002662181854248
0.50421142578125 0.800000011920928955 0.297312140464782715
0.0808908864855766296 0.800000011920928955 0.214470416307449341
0.104606896638870239 0.800000011920928955 0.0677855014801025391
0.0291221104562282562 0.800000011920928955 0.18375791609287262
1.73471522331237793 0.800000011920928955 0.268936067819595337
1.01203787326812744 0.800000011920928955 0.222006887197494507
0.989985108375549316 0.800000011920928955 0.177062958478927612
0.92914968729019165 0.800000011920928955 0.211553961038589478
0.241720989346504211 0.800000011920928955 0.0733240097761154175
0.490195602178573608 0.800000011920928955 0.297243505716323853
0.690785050392150879 0.800000011920928955 0.119982331991195679
0.209380865097045898 0.800000011920928955 0.316641867160797119
0.418981939554214478 0.800000011920928955 0.298659592866897583
1.25218260288238525 0.800000011920928955 0.220050841569900513
1.40115749835968018 0.800000011920928955 0.291890501976013184
0.205531612038612366 0.800000011920928955 0.25208359956741333
1.54078638553619385 0.800000011920928955 0.196927875280380249
0.353286206722259521 0.800000011920928955 0.0658169984817504883
1.04844856262207031 0.800000011920928955 0.302118837833404541
0.0644513145089149475 0.800000011920928955 0.309515088796615601
2.21767306327819824 0.800000011920928955 0.306039512157440186
0.791024446487426758 0.800000011920928955 0.233843177556991577
0.714823901653289795 0.800000011920928955 0.267010122537612915
1.64180123805999756 0.800000011920928955 0.227584391832351685
0.721072793006896973 0.800000011920928955 0.215674340724945068
1.44669508934020996 0.800000011920928955 0.306224256753921509
1.66381144523620605 0.800000011920928955 0.311922252178192139
1.77503061294555664 0.800000011920928955 0.306368261575698853
0.14406643807888031 0.800000011920928955 0.290819823741912842
1.18973124027252197 0.800000011920928955 0.172153830528259277
0.69701838493347168 0.800000011920928955 0.161467134952545166
0.747428655624389648 0.800000011920928955 0.193326905369758606
0.207079559564590454 0.800000011920928955 0.279599428176879883
0.020381879061460495 0.800000011920928955 0.263864040374755859
0.619206249713897705 0.800000011920928955 0.107902616262435913
1.87258827686309814 0.800000011920928955 0.234931543469429016
1.8311610221862793 0.800000011920928955 0.246695876121520996
0.13811337947845459 0.800000011920928955 0.0613772571086883545
0.0338346138596534729 0.800000011920928955 0.300988763570785522
0.914927065372467041 0.800000011920928955 0.171675682067871094
0.291137397289276123 0.800000011920928955 0.184022977948188782
2.08918547630310059 0.800000011920928955 0.315704077482223511
1.06991112232208252 0.800000011920928955 0.301582664251327515
1.0350726842880249 0.800000011920928955 0.209040522575378418
0.669517457485198975 0.800000011920928955 0.16744329035282135
0.459138482809066772 0.800000011920928955 0.0579137802124023438
1.34458482265472412 0.800000011920928955 0.235508888959884644
0.730642318725585938 0.800000011920928955 0.165303871035575867
0.546640992164611816 0.800000011920928955 0.158810466527938843
1.22350227832794189 0.800000011920928955 0.221351414918899536
1.06960606575012207 0.800000011920928955 0.234154984354972839
1.103904128074646 0.800000011920928955 0.252206265926361084
-1.48769885299770976e-14 0.569321870803833008 0.190556198358535767
-1.48769885299770976e-14 0.744264960289001465 0.269827961921691895
-1.48769885299770976e-14 0.595075786113739014 0.109412230551242828
-1.48769885299770976e-14 0.515947580337524414 0.150441557168960571
-1.48769885299770976e-14 0.145802021026611328 0.0365428328514099121
-1.48769885299770976e-14 0.490579664707183838 0.0554999858140945435
-1.48769885299770976e-14 0.511918902397155762 0.0416820645332336426
-1.48769885299770976e-14 0.603653311729431152 0.208117276430130005
-1.48769885299770976e-14 0.535199463367462158 0.0607575550675392151
-1.48769885299770976e-14 0.521191954612731934 0.0891016796231269836
-1.48769885299770976e-14 0.528417468070983887 0.128826409578323364
-1.48769885299770976e-14 0.539958477020263672 0.00846951454877853394
-1.48769885299770976e-14 0.488200902938842773 0.152212485671043396
-1.48769885299770976e-14 0.455515503883361816 0.118653789162635803
-1.48769885299770976e-14 0.701437532901763916 0.110900744795799255
-1.48769885299770976e-14 0.118092656135559082 0.00108796358108520508
-1.48769885299770976e-14 0.628542304039001465 0.250801235437393188
-1.48769885299770976e-14 0.633810520172119141 0.0352603644132614136
-1.48769885299770976e-14 0.579509854316711426 0.0129754245281219482
-1.48769885299770976e-14 0.525301337242126465 0.0407298356294631958
-1.48769885299770976e-14 0.70430600643157959 0.0895574390888214111
-1.48769885299770976e-14 0.62343364953994751 0.200492992997169495
-1.48769885299770976e-14 0.66456449031829834 0.150719568133354187
-1.48769885299770976e-14 0.303515017032623291 0.0760119408369064331
-1.48769885299770976e-14 0.752157628536224365 0.189425885677337646
-1.48769885299770976e-14 0.226908981800079346 0.0269492417573928833
-1.48769885299770976e-14 0.586067020893096924 0.0326438546180725098
-1.48769885299770976e-14 0.180584549903869629 0.0538452267646789551
-1.48769885299770976e-14 0.750952720642089844 0.290157109498977661
-1.48769885299770976e-14 0.575660288333892822 0.109970070421695709
-1.48769885299770976e-14 0.663223624229431152 0.0473170839250087738
-1.48769885299770976e-14 0.32033964991569519 0.12132205069065094
-1.48769885299770976e-14 0.795930266380310059 0.256051242351531982
-1.48769885299770976e-14 0.659985899925231934 0.218687847256660461
-1.48769885299770976e-14 0.712579727172851562 0.0771147161722183228
-1.48769885299770976e-14 0.714543163776397705 0.223275110125541687
-1.48769885299770976e-14 0.733745455741882324 0.165721699595451355
-1.48769885299770976e-14 0.534921884536743164 0.0871704518795013428
-1.48769885299770976e-14 0.739146828651428223 0.25449708104133606
-1.48769885299770976e-14 0.219240486621856689 0.0633864998817443848
-1.48769885299770976e-14 0.607874155044555664 0.0929090306162834167
-1.48769885299770976e-14 0.739105165004730225 0.269388288259506226
-1.48769885299770976e-14 0.450630873441696167 0.0675152242183685303
-1.48769885299770976e-14 0.686491429805755615 0.139350712299346924
-1.48769885299770976e-14 0.305441528558731079 0.0241369456052780151
-1.48769885299770976e-14 0.620207250118255615 0.0312933102250099182
-1.48769885299770976e-14 0.586591660976409912 0.133259177207946777
-1.48769885299770976e-14 0.147328674793243408 0.0445998609066009521
-1.48769885299770976e-14 0.66713869571685791 0.198092997074127197
-1.48769885299770976e-14 0.289900302886962891 0.0869379937648773193
-1.48769885299770976e-14 0.672108888626098633 0.0672605037689208984
-1.48769885299770976e-14 0.636828601360321045 0.00125210732221603394
-1.48769885299770976e-14 0.5798073410987854 0.167143687605857849
-1.48769885299770976e-14 0.699555099010467529 0.206463068723678589
-1.48769885299770976e-14 0.70024341344833374 0.0268567092716693878
-1.48769885299770976e-14 0.46568259596824646 0.153799742460250854
-1.48769885299770976e-14 0.756629467010498047 0.230517804622650146
-1.48769885299770976e-14 0.449672996997833252 0.00539867579936981201
-1.48769885299770976e-14 0.753235161304473877 0.0948842763900756836
-1.48769885299770976e-14 0.796241104602813721 0.0430081933736801147
-1.48769885299770976e-14 0.677813291549682617 0.21272750198841095
-1.48769885299770976e-14 0.331174671649932861 0.0713089406490325928
-1.48769885299770976e-14 0.280692458152770996 0.00447703897953033447
-1.48769885299770976e-14 0.763995587825775146 0.0164230689406394958
-1.48769885299770976e-14 0.0635949373245239258 0.00169456005096435547
-1.48769885299770976e-14 0.406862974166870117 0.070366203784942627
-1.48769885299770976e-14 0.683472096920013428 0.24410499632358551
-1.48769885299770976e-14 0.203175187110900879 0.00259339809417724609
-1.48769885299770976e-14 0.567673921585083008 0.189840465784072876
-1.48769885299770976e-14 0.586545407772064209 0.146068304777145386
-1.48769885299770976e-14 0.579887151718139648 0.16557060182094574
-1.48769885299770976e-14 0.764507830142974854 0.0236419513821601868
-1.48769885299770976e-14 0.695682048797607422 0.125345617532730103
-1.48769885299770976e-14 0.610203206539154053 0.177818864583969116
-1.48769885299770976e-14 0.500145435333251953 0.0792566388845443726
-1.48769885299770976e-14 0.411735206842422485 0.115922212600708008
-1.48769885299770976e-14 0.243205010890960693 0.0408723801374435425
-1.48769885299770976e-14 0.541655182838439941 0.0835656300187110901
-1.48769885299770976e-14 0.645902156829833984 0.0243401266634464264
-1.48769885299770976e-14 0.431754946708679199 0.0789386183023452759
-1.48769885299770976e-14 0.48185199499130249 0.0906402617692947388
-1.48769885299770976e-14 0.450350910425186157 0.10533006489276886
-1.48769885299770976e-14 0.618292927742004395 0.117821142077445984
-1.48769885299770976e-14 0.400321811437606812 0.0824040919542312622
-1.48769885299770976e-14 0.443874865770339966 0.100918278098106384
-1.48769885299770976e-14 0.722502052783966064 0.189747586846351624
-1.48769885299770976e-14 0.747120797634124756 0.221799060702323914
-1.48769885299770976e-14 0.728955745697021484 0.15325947105884552
-1.48769885299770976e-14 0.6387215256690979 0.159095510840415955
-1.48769885299770976e-14 0.655869841575622559 0.182189628481864929
-1.48769885299770976e-14 0.694956362247467041 0.0897434428334236145
-1.48769885299770976e-14 0.776502847671508789 0.00995678361505270004
-1.48769885299770976e-14 0.658171653747558594 0.119312718510627747
-1.48769885299770976e-14 0.670462846755981445 0.247968167066574097
-1.48769885299770976e-14 0.739428520202636719 0.0722528994083404541
-1.48769885299770976e-14 0.585456728935241699 0.0907345786690711975
-1.48769885299770976e-14 0.728074729442596436 0.162999451160430908
-1.48769885299770976e-14 0.495144188404083252 0.120549991726875305
-1.48769885299770976e-14 0.610621392726898193 0.219560816884040833
-1.48769885299770976e-14 0.0545229911804199219 0.0213552117347717285
-1.48769885299770976e-14 0.633418679237365723 0.220590978860855103
-1.48769885299770976e-14 0.249591231346130371 0.0242829322814941406
-1.48769885299770976e-14 0.263666987419128418 0.0615527182817459106
-1.48769885299770976e-14 0.657403349876403809 0.136397823691368103
-1.48769885299770976e-14 0.780807316303253174 0.233597353100776672
-1.48769885299770976e-14 0.636755883693695068 0.0990755036473274231
-1.48769885299770976e-14 0.550884604454040527 0.163906127214431763
-1.48769885299770976e-14 0.77628326416015625 0.164283156394958496
-1.48769885299770976e-14 0.313384830951690674 0.0164180248975753784
-1.48769885299770976e-14 0.712134182453155518 0.157769441604614258
-1.48769885299770976e-14 0.635870099067687988 0.190091267228126526
-1.48769885299770976e-14 0.528108954429626465 0.0817830264568328857
-1.48769885299770976e-14 0.102202773094177246 0.00805541872978210449
-1.48769885299770976e-14 0.352664470672607422 0.00955551862716674805
-1.48769885299770976e-14 0.592280745506286621 0.106386281549930573
-1.48769885299770976e-14 0.287376105785369873 0.0442346334457397461
-1.48769885299770976e-14 0.498180955648422241 0.159499436616897583
-1.48769885299770976e-14 0.730920016765594482 0.0177735015749931335
-1.48769885299770976e-14 0.240963578224182129 0.0547280460596084595
-1.48769885299770976e-14 0.49498218297958374 0.188343912363052368
-1.48769885299770976e-14 0.591427624225616455 0.102638490498065948
-1.48769885299770976e-14 0.607073783874511719 0.151073187589645386
-1.48769885299770976e-14 0.495088070631027222 0.16013045608997345
-1.48769885299770976e-14 0.603419184684753418 0.186831623315811157
-1.48769885299770976e-14 0.723387837409973145 0.141445279121398926
-1.48769885299770976e-14 0.587522804737091064 0.204447388648986816
-1.48769885299770976e-14 0.335127919912338257 0.00978572666645050049
-1.48769885299770976e-14 0.554776608943939209 0.187959939241409302
-1.48769885299770976e-14 0.738074123859405518 0.214250266551971436
-1.48769885299770976e-14 0.614268362522125244 0.0738832205533981323
-1.48769885299770976e-14 0.129910647869110107 0.0406631529331207275
-1.48769885299770976e-14 0.65881037712097168 0.124235540628433228
-1.48769885299770976e-14 0.184499859809875488 0.00747452676296234131
-1.48769885299770976e-14 0.371544033288955688 0.113019391894340515
-1.48769885299770976e-14 0.78186112642288208 0.0426195152103900909
-1.48769885299770976e-14 0.727640330791473389 0.0855310410261154175
-1.48769885299770976e-14 0.707344114780426025 0.0910146981477737427
-1.48769885299770976e-14 0.42426222562789917 0.0964007377624511719
-1.48769885299770976e-14 0.465116232633590698 0.0936390608549118042
-1.48769885299770976e-14 0.269395947456359863 0.0947124063968658447
-1.48769885299770976e-14 0.493875622749328613 0.136846661567687988
-1.48769885299770976e-14 0.178297281265258789 0.0419221073389053345
-1.48769885299770976e-14 0.458519816398620605 0.0332422256469726562
-1.48769885299770976e-14 0.340259313583374023 0.0645916014909744263
-1.48769885299770976e-14 0.705388188362121582 0.0462156087160110474
-1.48769885299770976e-14 0.731634616851806641 0.149003908038139343
-1.48769885299770976e-14 0.548435807228088379 0.145647883415222168
-1.48769885299770976e-14 0.71311420202255249 0.238473609089851379
-1.48769885299770976e-14 0.47489774227142334 0.0763255804777145386
-1.48769885299770976e-14 0.783996164798736572 0.193987295031547546
-1.48769885299770976e-14 0.239132821559906006 0.0157562941312789917
-1.48769885299770976e-14 0.760819911956787109 0.129363939166069031
-1.48769885299770976e-14 0.39497065544128418 0.153786942362785339
-1.48769885299770976e-14 0.558441638946533203 0.125829994678497314
-1.48769885299770976e-14 0.640911400318145752 0.0374909862875938416
-1.48769885299770976e-14 0.773372948169708252 0.0709070712327957153
-1.48769885299770976e-14 0.762672841548919678 0.0401004552841186523
-1.48769885299770976e-14 0.733969569206237793 0.153858527541160583
-1.48769885299770976e-14 0.28839641809463501 0.0637854337692260742
-1.48769885299770976e-14 0.502424359321594238 0.0276260003447532654
-1.48769885299770976e-14 0.18879544734954834 0.0429758429527282715
-1.48769885299770976e-14 0.787560105323791504 0.273683905601501465
-1.48769885299770976e-14 0.256368398666381836 0.0410910099744796753
-1.48769885299770976e-14 0.568990707397460938 0.0973426178097724915
-1.48769885299770976e-14 0.543094873428344727 0.181737661361694336
-1.48769885299770976e-14 0.180437386035919189 0.0668789893388748169
-1.48769885299770976e-14 0.526845812797546387 0.149141043424606323
-1.48769885299770976e-14 0.70067143440246582 0.236041814088821411
-1.48769885299770976e-14 0.282387793064117432 0.00273787975311279297
-1.48769885299770976e-14 0.67679065465927124 0.0802253410220146179
-1.48769885299770976e-14 0.770247340202331543 0.19111160933971405
-1.48769885299770976e-14 0.449098438024520874 0.0637575387954711914
-1.48769885299770976e-14 0.692129850387573242 0.108443975448608398
-1.48769885299770976e-14 0.728011786937713623 0.153192296624183655
-1.48769885299770976e-14 0.514896750450134277 0.0462160557508468628
-1.48769885299770976e-14 0.646240174770355225 0.122701659798622131
-1.48769885299770976e-14 0.294009208679199219 0.0437387526035308838
-1.48769885299770976e-14 0.331985771656036377 0.127819493412971497
-1.48769885299770976e-14 0.331021040678024292 0.09705352783203125
-1.48769885299770976e-14 0.378524154424667358 0.0456964671611785889
-1.48769885299770976e-14 0.421144336462020874 0.104201838374137878
-1.48769885299770976e-14 0.273269593715667725 0.00969690084457397461
-1.48769885299770976e-14 0.388166904449462891 0.0430375188589096069
-1.48769885299770976e-14 0.485224694013595581 0.0850049257278442383
-1.48769885299770976e-14 0.606178998947143555 0.147083282470703125
-1.48769885299770976e-14 0.179817080497741699 0.0570644587278366089
-1.48769885299770976e-14 0.307454496622085571 0.0399497151374816895
-1.48769885299770976e-14 0.685215532779693604 0.0625702887773513794
-1.48769885299770976e-14 0.561851918697357178 0.219684094190597534
-1.48769885299770976e-14 0.432112306356430054 0.0949568450450897217
-1.48769885299770976e-14 0.727740347385406494 0.109349764883518219
-1.48769885299770976e-14 0.603372156620025635 0.0539280921220779419
-1.48769885299770976e-14 0.151184201240539551 0.0131752192974090576
-1.48769885299770976e-14 0.355034917593002319 0.119605898857116699
-1.48769885299770976e-14 0.442862659692764282 0.0743256807327270508
-1.48769885299770976e-14 0.341341346502304077 0.076307445764541626
-1.48769885299770976e-14 0.553974151611328125 0.213323295116424561
-1.48769885299770976e-14 0.726232349872589111 0.194447070360183716
-1.48769885299770976e-14 0.377197176218032837 0.144651159644126892
-1.48769885299770976e-14 0.597830057144165039 0.18865320086479187
-1.48769885299770976e-14 0.779217183589935303 0.112843424081802368
-1.48769885299770976e-14 0.77151024341583252 0.18172571063041687
-1.48769885299770976e-14 0.669000148773193359 0.243379935622215271
-1.48769885299770976e-14 0.718301296234130859 0.0750901848077774048
-1.48769885299770976e-14 0.727858304977416992 0.290644854307174683
-1.48769885299770976e-14 0.774295806884765625 0.0406760275363922119
-1.48769885299770976e-14 0.41006159782409668 0.202096506953239441
-1.48769885299770976e-14 0.0479321442544460297 0.215829566121101379
-1.48769885299770976e-14 0.434475511312484741 0.193356141448020935
-1.48769885299770976e-14 0.302410691976547241 0.19959491491317749
-1.48769885299770976e-14 0.449046820402145386 0.307430416345596313
-1.48769885299770976e-14 0.147940367460250854 0.279813587665557861
-1.48769885299770976e-14 0.282950639724731445 0.311375826597213745
-1.48769885299770976e-14 0.154159292578697205 0.127983450889587402
-1.48769885299770976e-14 0.753385484218597412 0.306774556636810303
-1.48769885299770976e-14 0.317867040634155273 0.167353898286819458
-1.48769885299770976e-14 0.0407386980950832367 0.241856366395950317
-1.48769885299770976e-14 0.27131161093711853 0.179713800549507141
-1.48769885299770976e-14 0.11489422619342804 0.0473331809043884277
-1.48769885299770976e-14 0.181909576058387756 0.176174774765968323
-1.48769885299770976e-14 0.354546964168548584 0.257759988307952881
-1.48769885299770976e-14 0.0623694248497486115 0.128915935754776001
-1.48769885299770976e-14 0.149487361311912537 0.174846217036247253
-1.48769885299770976e-14 0.149935856461524963 0.317245841026306152
-1.48769885299770976e-14 0.403439760208129883 0.25822758674621582
-1.48769885299770976e-14 0.448067039251327515 0.309510380029678345
-1.48769885299770976e-14 0.30181354284286499 0.308271676301956177
-1.48769885299770976e-14 0.291569411754608154 0.231634631752967834
-1.48769885299770976e-14 0.355772227048873901 0.176024392247200012
-1.48769885299770976e-14 0.00590650830417871475 0.202417686581611633
-1.48769885299770976e-14 0.333369344472885132 0.14837239682674408
-1.48769885299770976e-14 0.617435038089752197 0.281236410140991211
-1.48769885299770976e-14 0.115812361240386963 0.165563672780990601
-1.48769885299770976e-14 0.0527629517018795013 0.146238416433334351
-1.48769885299770976e-14 0.0935898348689079285 0.248107999563217163
-1.48769885299770976e-14 0.680700302124023438 0.297783851623535156
-1.48769885299770976e-14 0.157402411103248596 0.201121687889099121
-1.48769885299770976e-14 0.41963919997215271 0.280341029167175293
-1.48769885299770976e-14 0.0673509389162063599 0.141419157385826111
-1.48769885299770976e-14 0.0320989601314067841 0.0129978060722351074
-1.48769885299770976e-14 0.131161078810691833 0.0601232051849365234
-1.48769885299770976e-14 0.542067170143127441 0.269557356834411621
-1.48769885299770976e-14 0.0385138839483261108 0.108410373330116272
-1.48769885299770976e-14 0.0898207128047943115 0.238094091415405273
-1.48769885299770976e-14 0.22145882248878479 0.108399733901023865
-1.48769885299770976e-14 0.194518327713012695 0.0961028039455413818
-1.48769885299770976e-14 0.102415777742862701 0.124900326132774353
-1.48769885299770976e-14 0.00504262233152985573 0.0808099359273910522
-1.48769885299770976e-14 0.0293988566845655441 0.135346487164497375
-1.48769885299770976e-14 0.0863537117838859558 0.101802214980125427
-1.48769885299770976e-14 0.139803200960159302 0.138950422406196594
-1.48769885299770976e-14 0.277321398258209229 0.163483515381813049
-1.48769885299770976e-14 0.337160378694534302 0.265752911567687988
-1.48769885299770976e-14 0.628662705421447754 0.285264074802398682
-1.48769885299770976e-14 0.0152516886591911316 0.290954470634460449
-1.48769885299770976e-14 0.114708594977855682 0.126500427722930908
-1.48769885299770976e-14 0.0926393046975135803 0.261482805013656616
-1.48769885299770976e-14 0.339098840951919556 0.236122548580169678
-1.48769885299770976e-14 0.410725444555282593 0.190009817481040955
-1.48769885299770976e-14 0.549424529075622559 0.291707396507263184
-1.48769885299770976e-14 0.509443581104278564 0.30129358172416687
-1.48769885299770976e-14 0.000402311066864058375 0.0613715946674346924
-1.48769885299770976e-14 0.478970140218734741 0.299773991107940674
-1.48769885299770976e-14 0.139449283480644226 0.146460056304931641
-1.48769885299770976e-14 0.0668048486113548279 0.197293519973754883
-1.48769885299770976e-14 0.154757991433143616 0.0761316418647766113
-1.48769885299770976e-14 0.675018370151519775 0.305692940950393677
-1.48769885299770976e-14 0.0647311285138130188 0.166770592331886292
-1.48769885299770976e-14 0.216837957501411438 0.122503817081451416
-1.48769885299770976e-14 0.105321727693080902 0.314666986465454102
-1.48769885299770976e-14 0.584375619888305664 0.302322953939437866
-1.48769885299770976e-14 0.679451465606689453 0.286919087171554565
-1.48769885299770976e-14 0.18059481680393219 0.211210519075393677
-1.48769885299770976e-14 0.439086824655532837 0.274325579404830933
-1.48769885299770976e-14 0.696144998073577881 0.31317514181137085
-1.48769885299770976e-14 0.534407377243041992 0.232626795768737793
-1.48769885299770976e-14 0.575486123561859131 0.311762452125549316
-1.48769885299770976e-14 0.390049725770950317 0.17782217264175415
-1.48769885299770976e-14 0.00772811984643340111 0.0586299598217010498
-1.48769885299770976e-14 0.0655604526400566101 0.308446586132049561
-1.48769885299770976e-14 0.268862992525100708 0.110140666365623474
-1.48769885299770976e-14 0.235666736960411072 0.276296019554138184
-1.48769885299770976e-14 0.343442231416702271 0.3003711998462677
-1.48769885299770976e-14 0.758758723735809326 0.306547015905380249
-1.48769885299770976e-14 0.120756082236766815 0.159793868660926819
-1.48769885299770976e-14 0.211034104228019714 0.0935590863227844238
-1.48769885299770976e-14 0.38552778959274292 0.17692604660987854
-1.48769885299770976e-14 0.0405969694256782532 0.167740106582641602
-1.48769885299770976e-14 0.584600269794464111 0.294956296682357788
-1.48769885299770976e-14 0.513085544109344482 0.288673579692840576
-1.48769885299770976e-14 0.304883629083633423 0.299845129251480103
-1.48769885299770976e-14 0.411181360483169556 0.188735067844390869
-1.48769885299770976e-14 0.568775653839111328 0.270083129405975342
-1.48769885299770976e-14 0.128639504313468933 0.230910018086433411
-1.48769885299770976e-14 0.342300146818161011 0.193261638283729553
-1.48769885299770976e-14 0.253557056188583374 0.158128127455711365
-1.48769885299770976e-14 0.117962852120399475 0.147956296801567078
-1.48769885299770976e-14 0.326975345611572266 0.220341712236404419
-1.48769885299770976e-14 0.199723809957504272 0.219379156827926636
-1.48769885299770976e-14 0.482565879821777344 0.25545501708984375
-1.48769885299770976e-14 0.507990896701812744 0.287148833274841309
-1.48769885299770976e-14 0.0415197163820266724 0.17140081524848938
-1.48769885299770976e-14 0.533561050891876221 0.307377606630325317
-1.48769885299770976e-14 0.0421725437045097351 0.160719022154808044
-1.48769885299770976e-14 0.0769759193062782288 0.169178664684295654
-1.48769885299770976e-14 0.369446456432342529 0.283097773790359497
-1.48769885299770976e-14 0.0945179387927055359 0.19738142192363739
-1.48769885299770976e-14 0.662006199359893799 0.274670183658599854
-1.48769885299770976e-14 0.210132583975791931 0.242717206478118896
-1.48769885299770976e-14 0.459468573331832886 0.305127531290054321
-1.48769885299770976e-14 0.627091109752655029 0.314796209335327148
-1.48769885299770976e-14 0.42811623215675354 0.180461287498474121
-1.48769885299770976e-14 0.169913217425346375 0.0891793370246887207
-1.48769885299770976e-14 0.60998237133026123 0.295623183250427246
-1.48769885299770976e-14 0.140822961926460266 0.193304896354675293
-1.48769885299770976e-14 0.207540914416313171 0.157074585556983948
-1.48769885299770976e-14 0.0273520629853010178 0.204939603805541992
-1.48769885299770976e-14 0.0575620196759700775 0.0443527102470397949
-1.48769885299770976e-14 0.0613699033856391907 0.144243866205215454
-1.48769885299770976e-14 0.0300653483718633652 0.0883125215768814087
-1.48769885299770976e-14 0.307293862104415894 0.311737895011901855
-1.48769885299770976e-14 0.159817427396774292 0.195283234119415283
-1.48769885299770976e-14 0.480634301900863647 0.246509045362472534
-1.48769885299770976e-14 0.390060126781463623 0.196285635232925415
-1.48769885299770976e-14 0.139417633414268494 0.308902323246002197
-1.48769885299770976e-14 0.557895362377166748 0.282621622085571289
-1.48769885299770976e-14 0.102972231805324554 0.285418510437011719
-1.48769885299770976e-14 0.278558075428009033 0.176253914833068848
-1.48769885299770976e-14 0.30378115177154541 0.157122582197189331
-1.48769885299770976e-14 0.0524732433259487152 0.0398389101028442383
-1.48769885299770976e-14 0.162593290209770203 0.130101218819618225
-1.48769885299770976e-14 0.296277374029159546 0.318519502878189087
-1.48769885299770976e-14 0.0724380612373352051 0.295950531959533691
-1.48769885299770976e-14 0.386759966611862183 0.28805193305015564
-1.48769885299770976e-14 0.012631724588572979 0.227057024836540222
-1.48769885299770976e-14 0.213996678590774536 0.139556765556335449
-1.48769885299770976e-14 0.652037084102630615 0.289054811000823975
-1.48769885299770976e-14 0.45936894416809082 0.204911753535270691
-1.48769885299770976e-14 0.0368212908506393433 0.172792419791221619
-1.48769885299770976e-14 0.103979699313640594 0.104586333036422729
