ply
format ascii 1.0
element vertex 739
property float x
property float y
property float z
end_header
0.442767024040222168 4.49640324973188399e-15 0.187229007482528687
0.0897412002086639404 4.49640324973188399e-15 0.193914934992790222
0.352027356624603271 4.49640324973188399e-15 0.172935828566551208
0.457725942134857178 4.49640324973188399e-15 0.180364161729812622
0.195435255765914917 4.49640324973188399e-15 0.143141776323318481
0.0550850629806518555 4.49640324973188399e-15 0.198878288269042969
0.255659133195877075 4.49640324973188399e-15 0.140573263168334961
0.367250591516494751 4.49640324973188399e-15 0.196425527334213257
0.359573006629943848 4.49640324973188399e-15 0.0926422625780105591
0.438128232955932617 4.49640324973188399e-15 0.1881256103515625
0.360837727785110474 4.49640324973188399e-15 0.06325569748878479
0.442646771669387817 4.49640324973188399e-15 0.131794005632400513
0.377399861812591553 4.49640324973188399e-15 0.0926714316010475159
0.393298625946044922 4.49640324973188399e-15 0.101321183145046234
0.419149637222290039 4.49640324973188399e-15 0.163846284151077271
0.382795602083206177 4.49640324973188399e-15 0.089969336986541748
0.252412557601928711 4.49640324973188399e-15 0.176852285861968994
0.341512799263000488 4.49640324973188399e-15 0.197555527091026306
0.131577283143997192 4.49640324973188399e-15 0.170975148677825928
0.169568926095962524 4.49640324973188399e-15 0.163789123296737671
0.169071942567825317 4.49640324973188399e-15 0.170496881008148193
0.45802009105682373 4.49640324973188399e-15 0.181305795907974243
0.249647423624992371 4.49640324973188399e-15 0.119855426251888275
0.170961588621139526 4.49640324973188399e-15 0.129766225814819336
0.441275596618652344 4.49640324973188399e-15 0.0364042669534683228
0.383972644805908203 4.49640324973188399e-15 0.093944743275642395
0.298532724380493164 4.49640324973188399e-15 0.111071653664112091
0.276875436305999756 4.49640324973188399e-15 0.184957787394523621
0.431734055280685425 4.49640324973188399e-15 0.0638493597507476807
0.303356528282165527 4.49640324973188399e-15 0.197701752185821533
0.347017288208007812 4.49640324973188399e-15 0.171600475907325745
0.0979575812816619873 4.49640324973188399e-15 0.189382180571556091
0.26083838939666748 4.49640324973188399e-15 0.120556347072124481
0.376387119293212891 4.49640324973188399e-15 0.157342836260795593
0.393653303384780884 4.49640324973188399e-15 0.105904810130596161
0.46616971492767334 4.49640324973188399e-15 0.138425841927528381
0.208047389984130859 4.49640324973188399e-15 0.128284692764282227
0.179161518812179565 4.49640324973188399e-15 0.138370811939239502
0.413528531789779663 4.49640324973188399e-15 0.0336151123046875
0.170641213655471802 4.49640324973188399e-15 0.175221741199493408
0.272063672542572021 4.49640324973188399e-15 0.116646923124790192
0.195708036422729492 4.49640324973188399e-15 0.13207012414932251
0.334331750869750977 4.49640324973188399e-15 0.113690733909606934
0.19370877742767334 4.49640324973188399e-15 0.138007014989852905
0.282139778137207031 4.49640324973188399e-15 0.147054970264434814
0.0744165182113647461 4.49640324973188399e-15 0.18739810585975647
0.277084052562713623 4.49640324973188399e-15 0.134129717946052551
0.364319115877151489 4.49640324973188399e-15 0.114068247377872467
0.235028102993965149 4.49640324973188399e-15 0.186472058296203613
0.20464169979095459 4.49640324973188399e-15 0.133679389953613281
0.298537135124206543 4.49640324973188399e-15 0.0882964059710502625
0.291766524314880371 4.49640324973188399e-15 0.116693764925003052
0.364795982837677002 4.49640324973188399e-15 0.181909024715423584
0.135763764381408691 4.49640324973188399e-15 0.188095420598983765
0.250811278820037842 4.49640324973188399e-15 0.171617209911346436
0.254934966564178467 4.49640324973188399e-15 0.196675390005111694
0.240769967436790466 4.49640324973188399e-15 0.183185577392578125
0.454801261425018311 4.49640324973188399e-15 0.1438092440366745
0.207653403282165527 4.49640324973188399e-15 0.137916624546051025
0.462498217821121216 4.49640324973188399e-15 0.065244719386100769
0.146002262830734253 4.49640324973188399e-15 0.19036547839641571
0.315507411956787109 4.49640324973188399e-15 0.10054924339056015
0.242155939340591431 4.49640324973188399e-15 0.163604706525802612
0.354648798704147339 4.49640324973188399e-15 0.0626101046800613403
0.175179839134216309 4.49640324973188399e-15 0.154652237892150879
0.397655516862869263 4.49640324973188399e-15 0.0881000086665153503
0.235429689288139343 4.49640324973188399e-15 0.118928194046020508
0.251687467098236084 4.49640324973188399e-15 0.136681213974952698
0.426317453384399414 4.49640324973188399e-15 0.0603458285331726074
0.381409287452697754 4.49640324973188399e-15 0.138013064861297607
0.378250658512115479 4.49640324973188399e-15 0.108704693615436554
0.238278329372406006 4.49640324973188399e-15 0.137743502855300903
0.199196279048919678 4.49640324973188399e-15 0.18982832133769989
0.254549980163574219 4.49640324973188399e-15 0.163072943687438965
0.332201182842254639 4.49640324973188399e-15 0.144231230020523071
0.377095222473144531 4.49640324973188399e-15 0.0470544546842575073
0.382622778415679932 4.49640324973188399e-15 0.0563507974147796631
0.306234598159790039 4.49640324973188399e-15 0.0857308879494667053
0.37752869725227356 4.49640324973188399e-15 0.107302345335483551
0.0175850391387939453 4.49640324973188399e-15 0.199465423822402954
0.239778384566307068 4.49640324973188399e-15 0.108528971672058105
0.202343493700027466 4.49640324973188399e-15 0.183383852243423462
0.441837161779403687 4.49640324973188399e-15 0.032719343900680542
0.210017174482345581 4.49640324973188399e-15 0.11134561151266098
0.418065249919891357 4.49640324973188399e-15 0.0247012823820114136
0.313416123390197754 4.49640324973188399e-15 0.134404987096786499
0.329321622848510742 4.49640324973188399e-15 0.0820207744836807251
0.297450661659240723 4.49640324973188399e-15 0.0843126997351646423
0.330036520957946777 4.49640324973188399e-15 0.18443530797958374
0.428244292736053467 4.49640324973188399e-15 0.130472555756568909
0.371413528919219971 4.49640324973188399e-15 0.198736011981964111
0.462386906147003174 4.49640324973188399e-15 0.0485696941614151001
0.289595961570739746 4.49640324973188399e-15 0.151979774236679077
0.317696541547775269 4.49640324973188399e-15 0.180428102612495422
0.40545615553855896 4.49640324973188399e-15 0.16143682599067688
0.445034444332122803 4.49640324973188399e-15 0.137479290366172791
0.349982947111129761 4.49640324973188399e-15 0.0738286674022674561
0.395922541618347168 4.49640324973188399e-15 0.04814949631690979
0.38938450813293457 4.49640324973188399e-15 0.121779926121234894
0.253949791193008423 4.49640324973188399e-15 0.138454750180244446
0.217345774173736572 4.49640324973188399e-15 0.166794106364250183
0.309965729713439941 4.49640324973188399e-15 0.068241119384765625
0.278089284896850586 4.49640324973188399e-15 0.152306437492370605
0.0710204541683197021 4.49640324973188399e-15 0.18337579071521759
0.232286185026168823 4.49640324973188399e-15 0.128647342324256897
0.357997298240661621 4.49640324973188399e-15 0.135771602392196655
0.404038429260253906 4.49640324973188399e-15 0.083197668194770813
0.225897729396820068 4.49640324973188399e-15 0.195265963673591614
0.404455423355102539 4.49640324973188399e-15 0.0528820455074310303
0.0911968350410461426 4.49640324973188399e-15 0.167840152978897095
0.426949501037597656 4.49640324973188399e-15 0.0598613321781158447
0.283300220966339111 4.49640324973188399e-15 0.155037686228752136
0.418691307306289673 4.49640324973188399e-15 0.181673407554626465
0.417226672172546387 4.49640324973188399e-15 0.186006546020507812
0.348799765110015869 4.49640324973188399e-15 0.112492956221103668
0.38401716947555542 4.49640324973188399e-15 0.0760370418429374695
0.127354592084884644 4.49640324973188399e-15 0.163766324520111084
0.416100829839706421 4.49640324973188399e-15 0.0397290438413619995
0.291676878929138184 4.49640324973188399e-15 0.112873941659927368
0.263988465070724487 4.49640324973188399e-15 0.18683210015296936
0.281053066253662109 4.49640324973188399e-15 0.141806527972221375
0.318543791770935059 4.49640324973188399e-15 0.0750096961855888367
0.453659683465957642 4.49640324973188399e-15 0.151821523904800415
0.212353646755218506 4.49640324973188399e-15 0.12880292534828186
0.390281021595001221 4.49640324973188399e-15 0.110062651336193085
0.359383642673492432 4.49640324973188399e-15 0.117782309651374817
0.330800801515579224 4.49640324973188399e-15 0.170760348439216614
0.365730226039886475 4.49640324973188399e-15 0.0548203438520431519
0.423982739448547363 4.49640324973188399e-15 0.0800905972719192505
0.423130184412002563 4.49640324973188399e-15 0.185044616460800171
0.308061331510543823 4.49640324973188399e-15 0.15344160795211792
0.125279784202575684 4.49640324973188399e-15 0.187391132116317749
0.316857218742370605 4.49640324973188399e-15 0.0867082998156547546
0.398452937602996826 4.49640324973188399e-15 0.0593396127223968506
0.376542568206787109 4.49640324973188399e-15 0.103680126368999481
0.335234642028808594 4.49640324973188399e-15 0.198320969939231873
0.405123978853225708 4.49640324973188399e-15 0.105846256017684937
0.123346954584121704 4.49640324973188399e-15 0.173018321394920349
0.432381033897399902 4.49640324973188399e-15 0.0956960245966911316
0.383219391107559204 4.49640324973188399e-15 0.17661692202091217
0.25349310040473938 4.49640324973188399e-15 0.166444495320320129
0.368662267923355103 4.49640324973188399e-15 0.0613062530755996704
0.331649839878082275 4.49640324973188399e-15 0.133111864328384399
0.442480742931365967 4.49640324973188399e-15 0.0919968113303184509
0.360854446887969971 4.49640324973188399e-15 0.144386306405067444
0.44945681095123291 4.49640324973188399e-15 0.195089131593704224
0.417645484209060669 4.49640324973188399e-15 0.0905143842101097107
0.257301092147827148 4.49640324973188399e-15 0.121946349740028381
0.436076968908309937 4.49640324973188399e-15 0.192901343107223511
0.218476250767707825 4.49640324973188399e-15 0.141363769769668579
0.148104488849639893 4.49640324973188399e-15 0.159098401665687561
0.322703659534454346 4.49640324973188399e-15 0.184411197900772095
0.276712775230407715 4.49640324973188399e-15 0.16129593551158905
0.463395893573760986 4.49640324973188399e-15 0.126637116074562073
0.417584657669067383 4.49640324973188399e-15 0.0921690240502357483
0.316148102283477783 4.49640324973188399e-15 0.0931767374277114868
0.427541613578796387 4.49640324973188399e-15 0.0757865309715270996
0.281288683414459229 4.49640324973188399e-15 0.135847359895706177
0.403883516788482666 4.49640324973188399e-15 0.158675655722618103
0.167228609323501587 4.49640324973188399e-15 0.147744312882423401
0.440786004066467285 4.49640324973188399e-15 0.0125616788864135742
0.407458961009979248 4.49640324973188399e-15 0.0840616375207901001
0.252389311790466309 4.49640324973188399e-15 0.160807251930236816
0.369971722364425659 4.49640324973188399e-15 0.100629694759845734
0.3430347740650177 4.49640324973188399e-15 0.14490702748298645
0.463324159383773804 4.49640324973188399e-15 0.103044949471950531
0.266316652297973633 4.49640324973188399e-15 0.184159442782402039
0.315992563962936401 4.49640324973188399e-15 0.161755278706550598
0.444254636764526367 4.49640324973188399e-15 0.198450088500976562
0.402224630117416382 4.49640324973188399e-15 0.084059789776802063
0.288756310939788818 4.49640324973188399e-15 0.142477929592132568
0.435905426740646362 4.49640324973188399e-15 0.152746289968490601
0.440079450607299805 4.49640324973188399e-15 0.150998979806900024
0.434374690055847168 4.49640324973188399e-15 0.17292630672454834
0.368136823177337646 4.49640324973188399e-15 0.0447222292423248291
0.310163110494613647 4.49640324973188399e-15 0.101509921252727509
0.46346697211265564 4.49640324973188399e-15 0.0179276764392852783
0.180587887763977051 4.49640324973188399e-15 0.196842089295387268
0.384273052215576172 4.49640324973188399e-15 0.137326985597610474
0.422813773155212402 4.49640324973188399e-15 0.168406158685684204
0.0713239610195159912 4.49640324973188399e-15 0.195982873439788818
0.455375880002975464 4.49640324973188399e-15 0.0537538081407546997
0.361634165048599243 4.49640324973188399e-15 0.116380900144577026
0.433280766010284424 4.49640324973188399e-15 0.164677798748016357
0.247553229331970215 4.49640324973188399e-15 0.189583569765090942
0.274447619915008545 4.49640324973188399e-15 0.089724421501159668
0.432369530200958252 4.49640324973188399e-15 0.165811747312545776
0.369254261255264282 4.49640324973188399e-15 0.0665933489799499512
0.332437992095947266 4.49640324973188399e-15 0.0669629126787185669
0.410841405391693115 4.49640324973188399e-15 0.197570502758026123
0.424363553524017334 4.49640324973188399e-15 0.0823304653167724609
0.167585641145706177 4.49640324973188399e-15 0.167147606611251831
0.265161663293838501 4.49640324973188399e-15 0.0974723026156425476
0.461166918277740479 4.49640324973188399e-15 0.158201202750205994
0.359280675649642944 4.49640324973188399e-15 0.0973366424441337585
0.338831067085266113 4.49640324973188399e-15 0.140694871544837952
0.428376376628875732 4.49640324973188399e-15 0.167278915643692017
0.0642617344856262207 4.49640324973188399e-15 0.182712271809577942
0.331629931926727295 4.49640324973188399e-15 0.0913095399737358093
0.300445914268493652 4.49640324973188399e-15 0.161179959774017334
0.281232625246047974 4.49640324973188399e-15 0.14943358302116394
0.11990848183631897 4.49640324973188399e-15 0.150035887956619263
0.302768528461456299 4.49640324973188399e-15 0.184735268354415894
0.329762756824493408 4.49640324973188399e-15 0.0983208194375038147
0.295225858688354492 4.49640324973188399e-15 0.151138126850128174
0.412381082773208618 4.49640324973188399e-15 0.0493957847356796265
0.257851749658584595 4.49640324973188399e-15 0.180419802665710449
0.261353492736816406 4.49640324973188399e-15 0.163174539804458618
0.177695572376251221 4.49640324973188399e-15 0.170951560139656067
0.310927510261535645 4.49640324973188399e-15 0.0919916778802871704
0.305535763502120972 4.49640324973188399e-15 0.159192770719528198
0.327045798301696777 4.49640324973188399e-15 0.169717416167259216
0.460912257432937622 4.49640324973188399e-15 0.0998383909463882446
0.318183362483978271 4.49640324973188399e-15 0.120225422084331512
0.410389304161071777 4.49640324973188399e-15 0.120279394090175629
0.421634763479232788 4.49640324973188399e-15 0.0586521923542022705
0.242541104555130005 4.49640324973188399e-15 0.10904230922460556
0.439831852912902832 4.49640324973188399e-15 0.188507989048957825
0.42412179708480835 4.49640324973188399e-15 0.0408402532339096069
0.255719423294067383 4.49640324973188399e-15 0.196468517184257507
0.355694770812988281 4.49640324973188399e-15 0.0711666792631149292
0.193856328725814819 4.49640324973188399e-15 0.148354321718215942
0.397208988666534424 4.49640324973188399e-15 0.123333826661109924
0.353329122066497803 4.49640324973188399e-15 0.189773932099342346
0.273747682571411133 4.49640324973188399e-15 0.135893970727920532
0.382417589426040649 4.49640324973188399e-15 0.136090204119682312
0.29735267162322998 4.49640324973188399e-15 0.161485135555267334
0.318364441394805908 4.49640324973188399e-15 0.17723982036113739
0.458168357610702515 4.49640324973188399e-15 0.184316083788871765
0.224580749869346619 4.49640324973188399e-15 0.182363927364349365
0.153326809406280518 4.49640324973188399e-15 0.170293256640434265
0.346035122871398926 4.49640324973188399e-15 0.0616485178470611572
0.338198244571685791 4.49640324973188399e-15 0.0576529800891876221
0.368222177028656006 4.49640324973188399e-15 0.0804662331938743591
0.458299040794372559 4.49640324973188399e-15 0.17534269392490387
0.215774178504943848 4.49640324973188399e-15 0.198747754096984863
0.421533972024917603 4.49640324973188399e-15 0.151741564273834229
0.465243667364120483 4.49640324973188399e-15 0.0809377580881118774
0.259898841381072998 4.49640324973188399e-15 0.197423845529556274
0.391641169786453247 4.49640324973188399e-15 0.122539572417736053
0.1959725022315979 4.49640324973188399e-15 0.198989108204841614
0.19351273775100708 4.49640324973188399e-15 0.124311104416847229
0.362876266241073608 4.49640324973188399e-15 0.0942571386694908142
0.349770694971084595 4.49640324973188399e-15 0.110285960137844086
0.34741365909576416 4.49640324973188399e-15 0.191039517521858215
0.416795581579208374 4.49640324973188399e-15 0.103110179305076599
0.460021704435348511 4.49640324973188399e-15 0.198019519448280334
0.416335761547088623 4.49640324973188399e-15 0.123556956648826599
0.354085624217987061 4.49640324973188399e-15 0.187953755259513855
0.439428865909576416 4.49640324973188399e-15 0.0633318126201629639
0.446986526250839233 4.49640324973188399e-15 0.0262727886438369751
0.0679633915424346924 4.49640324973188399e-15 0.190496444702148438
0.130437701940536499 4.49640324973188399e-15 0.162259221076965332
0.409540027379989624 4.49640324973188399e-15 0.198650836944580078
0.39364093542098999 4.49640324973188399e-15 0.0957747027277946472
0.407273799180984497 4.49640324973188399e-15 0.0746475309133529663
0.105165272951126099 4.49640324973188399e-15 0.174248978495597839
0.33614581823348999 4.49640324973188399e-15 0.0782112032175064087
0.323736041784286499 4.49640324973188399e-15 0.179874494671821594
0.456094175577163696 4.49640324973188399e-15 0.0520294010639190674
0.310083925724029541 4.49640324973188399e-15 0.153408706188201904
0.320903420448303223 4.49640324973188399e-15 0.134987190365791321
0.343851327896118164 4.49640324973188399e-15 0.156764626502990723
0.341413050889968872 4.49640324973188399e-15 0.0542350113391876221
0.390243440866470337 4.49640324973188399e-15 0.0589912831783294678
0.430707752704620361 4.49640324973188399e-15 0.154509395360946655
0.393382489681243896 4.49640324973188399e-15 0.0318342149257659912
0.341426610946655273 4.49640324973188399e-15 0.132036417722702026
0.12180793285369873 4.49640324973188399e-15 0.151453122496604919
0.399549305438995361 4.49640324973188399e-15 0.0554601848125457764
0.446881890296936035 4.49640324973188399e-15 0.0263222306966781616
0.444767117500305176 4.49640324973188399e-15 0.0319485962390899658
0.363058388233184814 4.49640324973188399e-15 0.139004290103912354
0.408428102731704712 4.49640324973188399e-15 0.174959763884544373
0.224896863102912903 4.49640324973188399e-15 0.160973906517028809
0.164892584085464478 4.49640324973188399e-15 0.141729384660720825
0.426558554172515869 4.49640324973188399e-15 0.0197778642177581787
0.372892498970031738 4.49640324973188399e-15 0.182783305644989014
0.0891342759132385254 4.49640324973188399e-15 0.165205284953117371
0.188528627157211304 4.49640324973188399e-15 0.120565496385097504
0.122120052576065063 4.49640324973188399e-15 0.192918106913566589
0.364742279052734375 4.49640324973188399e-15 0.114227257668972015
0.438172847032546997 4.49640324973188399e-15 0.03669777512550354
0.296951085329055786 4.49640324973188399e-15 0.110432334244251251
0.215609878301620483 4.49640324973188399e-15 0.11592305451631546
0.459348082542419434 4.49640324973188399e-15 0.171213358640670776
0.102062374353408813 4.49640324973188399e-15 0.17983989417552948
0.447270125150680542 4.49640324973188399e-15 0.160202011466026306
0.365742266178131104 4.49640324973188399e-15 0.08030729740858078
0.371900796890258789 4.49640324973188399e-15 0.190276041626930237
0.176810353994369507 4.49640324973188399e-15 0.148778706789016724
0.144220501184463501 4.49640324973188399e-15 0.163456320762634277
0.29101639986038208 4.49640324973188399e-15 0.163929522037506104
0.408569127321243286 4.49640324973188399e-15 0.138624489307403564
0.1586342453956604 4.49640324973188399e-15 0.182512611150741577
0.452847450971603394 4.49640324973188399e-15 0.0560799390077590942
0.35314565896987915 4.49640324973188399e-15 0.110220693051815033
0.307881534099578857 4.49640324973188399e-15 0.0763392373919487
0.230385735630989075 4.49640324973188399e-15 0.193058237433433533
0.280020564794540405 4.49640324973188399e-15 0.105208605527877808
0.409711837768554688 4.49640324973188399e-15 0.0942560210824012756
0.0375758707523345947 4.49640324973188399e-15 0.194194406270980835
0.0531540811061859131 4.49640324973188399e-15 0.19399610161781311
0.447036415338516235 4.49640324973188399e-15 0.106681473553180695
0.41697239875793457 4.49640324973188399e-15 0.129594981670379639
0.3409138023853302 4.49640324973188399e-15 0.17683488130569458
0.200918465852737427 4.49640324973188399e-15 0.158434227108955383
0.366058111190795898 4.49640324973188399e-15 0.196130841970443726
0.333561420440673828 4.49640324973188399e-15 0.13328021764755249
0.24338880181312561 4.49640324973188399e-15 0.151571452617645264
0.359289228916168213 4.49640324973188399e-15 0.113835722208023071
0.370152980089187622 4.49640324973188399e-15 0.0835319086909294128
0.466449588537216187 0.386733502149581909 0.0191852003335952759
0.466449588537216187 0.152958720922470093 0.0303481742739677429
0.466449588537216187 0.497087001800537109 0.0249288678169250488
0.466449588537216187 0.204600244760513306 0.0190757587552070618
0.466449588537216187 0.336502641439437866 0.0395318120718002319
0.466449588537216187 0.323342084884643555 0.049617469310760498
0.466449588537216187 0.463347882032394409 0.0364144071936607361
0.466449588537216187 0.357629477977752686 0.0484663397073745728
0.466449588537216187 0.495094835758209229 0.0203649252653121948
0.466449588537216187 0.083425566554069519 0.0516938306391239166
0.466449588537216187 0.227862507104873657 0.0798923894762992859
0.466449588537216187 0.351371854543685913 0.0895745232701301575
0.466449588537216187 0.189250215888023376 0.0583766065537929535
0.466449588537216187 0.605659306049346924 0.0266528725624084473
0.466449588537216187 0.244606360793113708 0.0611017979681491852
0.466449588537216187 0.040533602237701416 0.0618907660245895386
0.466449588537216187 0.320910900831222534 0.0652246549725532532
0.466449588537216187 0.30315011739730835 0.00406754761934280396
0.466449588537216187 0.0303861089050769806 0.0822931379079818726
0.466449588537216187 0.671397149562835693 0.0182596594095230103
0.466449588537216187 0.227283939719200134 0.106183916330337524
0.466449588537216187 0.187653377652168274 0.0286937393248081207
0.466449588537216187 0.269636780023574829 0.0264712423086166382
0.466449588537216187 0.0583062246441841125 0.0304085742682218552
0.466449588537216187 0.0276173856109380722 0.0577206648886203766
0.466449588537216187 0.257104098796844482 0.106187552213668823
0.466449588537216187 0.382572710514068604 0.0456835776567459106
0.466449588537216187 0.753548622131347656 0.0112099498510360718
0.466449588537216187 0.148815363645553589 0.0763698667287826538
0.466449588537216187 0.466613292694091797 0.029082760214805603
0.466449588537216187 0.0355673506855964661 0.165442898869514465
0.466449588537216187 0.156355947256088257 0.0463326945900917053
0.466449588537216187 0.164847671985626221 0.0594975128769874573
0.466449588537216187 0.403762310743331909 0.0162917375564575195
0.466449588537216187 0.402457237243652344 0.0783612877130508423
0.466449588537216187 0.630904734134674072 0.0407420545816421509
0.466449588537216187 0.508100748062133789 0.00733345746994018555
0.466449588537216187 0.11120007187128067 0.159967795014381409
0.466449588537216187 0.22445562481880188 0.081763632595539093
0.466449588537216187 0.0333488769829273224 0.0328746996819972992
0.466449588537216187 0.0309640374034643173 0.153654366731643677
0.466449588537216187 0.65321272611618042 0.00593101978302001953
0.466449588537216187 0.46028938889503479 0.0226686522364616394
0.466449588537216187 0.185586258769035339 0.0188365913927555084
0.466449588537216187 0.323865681886672974 0.113991804420948029
0.466449588537216187 0.510584115982055664 0.0369208306074142456
0.466449588537216187 0.149545878171920776 0.116132147610187531
0.466449588537216187 0.344918966293334961 0.112503021955490112
0.466449588537216187 0.29532015323638916 0.0450320765376091003
0.466449588537216187 0.28372618556022644 0.0606277957558631897
0.466449588537216187 0.219480827450752258 0.000386338680982589722
0.466449588537216187 0.163656458258628845 0.0677859485149383545
0.466449588537216187 0.255581110715866089 0.0733623579144477844
0.466449588537216187 0.104540899395942688 0.0759189128875732422
0.466449588537216187 0.219588980078697205 0.0742058157920837402
0.466449588537216187 0.228563666343688965 0.128333166241645813
0.466449588537216187 0.152789533138275146 0.126672446727752686
0.466449588537216187 0.521646440029144287 0.0376541763544082642
0.466449588537216187 0.00820362847298383713 0.0682416260242462158
0.466449588537216187 0.375456333160400391 0.0964274108409881592
0.466449588537216187 0.00609143590554594994 0.0824052393436431885
0.466449588537216187 0.254683941602706909 0.0404101461172103882
0.466449588537216187 0.366944760084152222 0.0245088040828704834
0.466449588537216187 0.109777510166168213 0.124939471483230591
0.466449588537216187 0.138705596327781677 0.0469759367406368256
0.466449588537216187 0.344937890768051147 0.0360173285007476807
0.466449588537216187 0.0529747791588306427 0.0924720615148544312
0.466449588537216187 0.398274719715118408 0.050886988639831543
0.466449588537216187 0.480406999588012695 0.0624511837959289551
0.466449588537216187 0.0606311075389385223 0.0324498675763607025
0.466449588537216187 0.388711303472518921 0.0926161929965019226
0.466449588537216187 0.0162853468209505081 0.0672097206115722656
0.466449588537216187 0.0543478429317474365 0.133739382028579712
0.466449588537216187 0.0599245987832546234 0.0627610832452774048
0.466449588537216187 0.422452658414840698 0.00124205648899078369
0.466449588537216187 0.385146230459213257 0.0131722763180732727
0.466449588537216187 0.197640031576156616 0.0506911277770996094
0.466449588537216187 0.357204526662826538 0.0193496346473693848
0.466449588537216187 0.484286069869995117 0.0402476787567138672
0.466449588537216187 0.624270141124725342 0.0192786604166030884
0.466449588537216187 0.0376170836389064789 0.12089306116104126
0.466449588537216187 0.278075307607650757 0.0784142389893531799
0.466449588537216187 0.178712233901023865 0.0760465115308761597
0.466449588537216187 0.0422683171927928925 0.152277335524559021
0.466449588537216187 0.538293600082397461 0.0198561549186706543
0.466449588537216187 0.258937656879425049 0.0785742104053497314
0.466449588537216187 0.577304959297180176 0.0130379348993301392
0.466449588537216187 0.354999333620071411 0.10815691202878952
0.466449588537216187 0.247256562113761902 0.13424248993396759
0.466449588537216187 0.154250800609588623 0.0846633762121200562
0.466449588537216187 0.010985279455780983 0.115753799676895142
0.466449588537216187 0.100752189755439758 0.114488303661346436
0.466449588537216187 0.203962564468383789 0.0876975804567337036
0.466449588537216187 0.116277135908603668 0.0435549840331077576
0.466449588537216187 0.0813012421131134033 0.0339374765753746033
0.466449588537216187 0.0187572240829467773 0.0213362276554107666
0.466449588537216187 0.188729181885719299 0.0904834866523742676
0.466449588537216187 0.206800654530525208 0.0524701215326786041
0.466449588537216187 0.189118176698684692 0.0966762527823448181
0.466449588537216187 0.299730271100997925 0.0985282734036445618
0.466449588537216187 0.367520779371261597 0.00275506824254989624
0.466449588537216187 0.0376668348908424377 0.17342744767665863
0.466449588537216187 0.173325404524803162 0.14227759838104248
0.466449588537216187 0.345646798610687256 0.0924715399742126465
0.466449588537216187 0.568384408950805664 0.0320384949445724487
0.466449588537216187 0.480159282684326172 0.0644343346357345581
0.466449588537216187 0.253284692764282227 0.0549082458019256592
0.466449588537216187 0.355811089277267456 0.0740903392434120178
0.466449588537216187 0.4361114501953125 0.0208000540733337402
0.466449588537216187 0.0737916380167007446 0.17136576771736145
0.466449588537216187 0.617981612682342529 0.0434750616550445557
0.466449588537216187 0.0401364192366600037 0.164334073662757874
0.466449588537216187 0.100207030773162842 0.0794159919023513794
0.466449588537216187 0.076292775571346283 0.178712040185928345
0.466449588537216187 0.122228346765041351 0.11370588093996048
0.466449588537216187 0.547121942043304443 0.0305004268884658813
0.466449588537216187 0.10400225967168808 0.161058723926544189
0.466449588537216187 0.1143813356757164 0.118552021682262421
0.466449588537216187 0.0117391720414161682 0.0432033464312553406
0.466449588537216187 0.094469219446182251 0.00747548788785934448
0.466449588537216187 0.242299631237983704 0.000258665531873703003
0.466449588537216187 0.355306804180145264 0.0807292461395263672
0.466449588537216187 0.323416858911514282 0.0887330099940299988
0.466449588537216187 0.129743903875350952 0.108237139880657196
0.466449588537216187 0.223626837134361267 0.141225829720497131
0.466449588537216187 0.0589057616889476776 0.0346046574413776398
0.466449588537216187 0.550350427627563477 0.0277477502822875977
0.466449588537216187 0.143476203083992004 0.0078419707715511322
0.466449588537216187 0.0341732576489448547 0.0258844923228025436
0.466449588537216187 0.083034709095954895 0.0353198610246181488
0.466449588537216187 0.119913242757320404 0.142541155219078064
0.466449588537216187 0.16582903265953064 0.141680717468261719
0.466449588537216187 0.151900976896286011 0.0591432452201843262
0.466449588537216187 0.418608427047729492 0.0611010193824768066
0.466449588537216187 0.756597697734832764 0.00280994176864624023
0.466449588537216187 0.0446994714438915253 0.120677240192890167
0.466449588537216187 0.400444895029067993 0.0810498073697090149
0.466449588537216187 0.0869468376040458679 0.177190959453582764
0.466449588537216187 0.204719647765159607 0.0859774947166442871
0.466449588537216187 0.140405341982841492 0.163676559925079346
0.466449588537216187 0.155710086226463318 0.090801924467086792
0.466449588537216187 0.0783930346369743347 0.177904248237609863
0.466449588537216187 0.66586989164352417 0.00578939914703369141
0.466449588537216187 0.224320724606513977 0.0799674540758132935
0.466449588537216187 0.00879354216158390045 0.101734466850757599
0.466449588537216187 0.0537279620766639709 0.149438828229904175
0.466449588537216187 0.0981165990233421326 0.144229218363761902
0.466449588537216187 0.0482814349234104156 0.0246985256671905518
0.466449588537216187 0.374145627021789551 0.0554688572883605957
0.466449588537216187 0.34028172492980957 0.00896739959716796875
0.466449588537216187 0.188737615942955017 0.144279420375823975
0.466449588537216187 0.182166308164596558 0.117804311215877533
0.466449588537216187 0.00113909330684691668 0.0575262196362018585
0.466449588537216187 0.27522575855255127 0.0716727972030639648
0.466449588537216187 0.0622495710849761963 0.112716518342494965
0.466449588537216187 0.328160285949707031 0.0680177062749862671
0.466449588537216187 0.1900605708360672 0.0173628591001033783
0.466449588537216187 0.0593965128064155579 0.0246279817074537277
0.466449588537216187 0.0793587341904640198 0.0610333532094955444
0.466449588537216187 0.168666824698448181 0.142453700304031372
0.466449588537216187 0.444800585508346558 0.0868157222867012024
0.466449588537216187 0.254245758056640625 0.0636221468448638916
0.466449588537216187 0.325229525566101074 0.0555008947849273682
0.466449588537216187 0.0274390969425439835 0.0262806620448827744
0.466449588537216187 0.487651586532592773 0.010402292013168335
0.466449588537216187 0.40231052041053772 0.00863959640264511108
0.466449588537216187 0.443396955728530884 0.00725410133600234985
0.466449588537216187 0.241873934864997864 0.116125017404556274
0.466449588537216187 0.392944216728210449 0.0682107508182525635
0.466449588537216187 0.123754404485225677 0.0316389128565788269
0.466449588537216187 0.201877832412719727 0.0348070785403251648
0.466449588537216187 0.0595051459968090057 0.160303249955177307
0.466449588537216187 0.033461298793554306 0.131592229008674622
0.466449588537216187 0.242949917912483215 0.0750385075807571411
0.466449588537216187 0.326823711395263672 0.0477518439292907715
0.466449588537216187 0.376418352127075195 0.0717485249042510986
0.466449588537216187 0.0414833351969718933 0.139173805713653564
0.466449588537216187 0.224818989634513855 0.128756716847419739
0.466449588537216187 0.527079224586486816 0.00234523415565490723
0.466449588537216187 0.256337136030197144 0.124815143644809723
0.466449588537216187 0.381795525550842285 0.042937740683555603
0.466449588537216187 0.0847199410200119019 0.0495698638260364532
0.466449588537216187 0.0372634418308734894 0.103389836847782135
0.466449588537216187 0.174351274967193604 0.0271370112895965576
0.466449588537216187 0.0412563644349575043 0.0716132074594497681
0.466449588537216187 0.178193852305412292 0.0481788180768489838
0.466449588537216187 0.383305609226226807 0.00520490854978561401
0.466449588537216187 0.574700236320495605 0.0407734662294387817
0.466449588537216187 0.314326673746109009 0.0825721099972724915
0.466449588537216187 0.162039965391159058 0.0674138665199279785
0.466449588537216187 0.0421889573335647583 0.171790957450866699
0.466449588537216187 0.0603418014943599701 0.00315443519502878189
0.466449588537216187 0.266100704669952393 0.0786741673946380615
0.466449588537216187 0.197199568152427673 0.07035866379737854
0.466449588537216187 0.739671468734741211 0.0129687041044235229
0.466449588537216187 0.563850164413452148 0.0215323716402053833
0.466449588537216187 0.0883095934987068176 0.0689469575881958008
0.466449588537216187 0.226851105690002441 0.0765227973461151123
0.466449588537216187 0.556823909282684326 0.0430775731801986694
0.466449588537216187 0.408728092908859253 0.0916985496878623962
0.466449588537216187 0.0869582295417785645 0.0614696741104125977
0.466449588537216187 0.251000255346298218 0.0672779753804206848
0.466449588537216187 0.235916897654533386 0.133137732744216919
0.466449588537216187 0.591489732265472412 0.0277750492095947266
0.466449588537216187 0.338382333517074585 0.00070330500602722168
0.466449588537216187 0.192876264452934265 0.08680763840675354
0.466449588537216187 0.369587421417236328 0.0137576758861541748
0.466449588537216187 0.515551447868347168 0.063607439398765564
0.466449588537216187 0.591758370399475098 0.008233681321144104
0.466449588537216187 0.0504834726452827454 0.0845230147242546082
0.466449588537216187 0.567901790142059326 0.04986611008644104
0.466449588537216187 0.448390692472457886 0.0184539929032325745
0.466449588537216187 0.392582416534423828 0.06894683837890625
0.466449588537216187 0.152135923504829407 0.0969492048025131226
0.466449588537216187 0.124610833823680878 0.167209699749946594
0.466449588537216187 0.202400162816047668 0.0668620914220809937
0.466449588537216187 0.0765947848558425903 0.0205675475299358368
0.466449588537216187 0.191480427980422974 0.1380423903465271
0.466449588537216187 0.0231870505958795547 0.191632241010665894
0.466449588537216187 0.0859696492552757263 0.0840253755450248718
0.466449588537216187 0.435077399015426636 0.0255272313952445984
0.466449588537216187 0.245801955461502075 0.0306776687502861023
0.466449588537216187 0.521357119083404541 0.0552986413240432739
0.466449588537216187 0.370551258325576782 0.0104116648435592651
0.466449588537216187 0.0219407062977552414 0.19327390193939209
0.466449588537216187 0.432413548231124878 0.0852676257491111755
0.466449588537216187 0.353341430425643921 0.0940261110663414001
0.466449588537216187 0.113818824291229248 0.129635795950889587
0.466449588537216187 0.594437658786773682 0.00976423919200897217
0.466449588537216187 0.123613610863685608 0.154376029968261719
0.466449588537216187 0.220757648348808289 4.40217554569244385e-05
0.466449588537216187 0.046144239604473114 0.113781660795211792
0.466449588537216187 0.534112870693206787 0.0643859207630157471
0.466449588537216187 0.0200205948203802109 0.0892185196280479431
0.466449588537216187 0.292763829231262207 0.0118944495916366577
0.466449588537216187 0.476727873086929321 0.00457517802715301514
0.466449588537216187 0.142043992877006531 0.139228790998458862
0.466449588537216187 0.478272438049316406 0.035570293664932251
0.466449588537216187 0.0732179954648017883 0.126142919063568115
0.466449588537216187 0.537246584892272949 0.0141807496547698975
0.466449588537216187 0.206622228026390076 0.0682522952556610107
0.466449588537216187 0.406965881586074829 0.036314062774181366
0.466449588537216187 0.472730070352554321 0.0254008099436759949
0.466449588537216187 0.29510459303855896 0.0638180747628211975
0.466449588537216187 0.0161307957023382187 0.0627551674842834473
0.466449588537216187 0.100346498191356659 0.138081178069114685
0.466449588537216187 0.705063283443450928 0.00155766308307647705
0.466449588537216187 0.712069511413574219 0.00132438540458679199
0.466449588537216187 0.486865133047103882 0.00613362342119216919
0.466449588537216187 0.546948850154876709 0.0378237664699554443
0.466449588537216187 0.181372016668319702 0.129624813795089722
0.466449588537216187 0.502509534358978271 0.00219304859638214111
0.466449588537216187 0.0023966736625880003 0.109583139419555664
0.466449588537216187 0.775786221027374268 0.00501409173011779785
0.466449588537216187 0.121795654296875 0.165569484233856201
0.466449588537216187 0.425851434469223022 0.0298236384987831116
0.466449588537216187 0.232362866401672363 0.0768359154462814331
0.466449588537216187 0.533011376857757568 0.016040608286857605
0.466449588537216187 0.213565826416015625 0.0637424960732460022
0.466449588537216187 0.359313398599624634 0.0530517920851707458
0.466449588537216187 0.0770151242613792419 0.17886081337928772
0.466449588537216187 0.16013064980506897 0.150818973779678345
0.466449588537216187 0.200257211923599243 0.0807648524641990662
0.466449588537216187 0.378382354974746704 0.0175662264227867126
0.466449588537216187 0.536935389041900635 0.00839374959468841553
0.466449588537216187 0.0473737306892871857 0.187406450510025024
0.466449588537216187 0.514133155345916748 0.026183202862739563
0.466449588537216187 0.331068754196166992 0.0307948887348175049
0.466449588537216187 0.239978224039077759 0.0956052616238594055
0.466449588537216187 0.359452217817306519 0.10997096449136734
0.466449588537216187 0.556706786155700684 0.0463402271270751953
0.466449588537216187 0.382359683513641357 0.0228593572974205017
0.466449588537216187 0.454965204000473022 0.0476038828492164612
0.466449588537216187 0.129344969987869263 0.130075335502624512
0.466449588537216187 0.146462395787239075 0.162815824151039124
0.466449588537216187 0.0639249607920646667 0.132378667593002319
0.466449588537216187 0.0293713901191949844 0.156797483563423157
0.466449588537216187 0.356956303119659424 0.0562912225723266602
0.466449588537216187 0.166609138250350952 0.0954173579812049866
0.466449588537216187 0.403852760791778564 0.0464175492525100708
0.466449588537216187 0.0207304731011390686 0.00215504132211208344
0.466449588537216187 0.0810802802443504333 0.0427125468850135803
0.466449588537216187 0.0141675490885972977 0.18942926824092865
0.466449588537216187 0.353306859731674194 0.0573998615145683289
0.466449588537216187 0.395670622587203979 0.0769383683800697327
0.466449588537216187 0.101229749619960785 0.0549893900752067566
0.466449588537216187 0.17608623206615448 0.13393847644329071
0.466449588537216187 0.186945974826812744 0.0805451720952987671
0.466449588537216187 0.466029375791549683 0.0771040245890617371
0.466449588537216187 0.296501368284225464 0.00846028327941894531
0.466449588537216187 0.417331308126449585 0.0394705459475517273
0.466449588537216187 0.286016792058944702 0.126263439655303955
0.466449588537216187 0.587985992431640625 0.0440409332513809204
0.466449588537216187 0.480236589908599854 0.0504159778356552124
0.466449588537216187 0.30942004919052124 0.0315341353416442871
0.466449588537216187 0.338051259517669678 0.0200707092881202698
0.466449588537216187 0.1324024498462677 0.113471902906894684
0.466449588537216187 0.242178544402122498 0.0190693698823451996
0.466449588537216187 0.113259732723236084 0.0292718559503555298
0.466449588537216187 0.586576342582702637 0.0228788107633590698
0.466449588537216187 0.380561530590057373 0.0323743820190429688
0.466449588537216187 0.0804717391729354858 0.0575714148581027985
0.466449588537216187 0.48226436972618103 0.033786185085773468
0.466449588537216187 0.409031867980957031 0.0573779493570327759
0.466449588537216187 0.0537137165665626526 0.0478139445185661316
0.466449588537216187 0.0520524978637695312 0.0349699854850769043
0.466449588537216187 0.21808914840221405 0.0351373441517353058
0.466449588537216187 0.727638542652130127 0.00298760831356048584
0.466449588537216187 0.528039097785949707 0.0513700395822525024
0.466449588537216187 0.453325092792510986 0.0324737578630447388
0.466449588537216187 0.413115411996841431 0.0682605430483818054
0.466449588537216187 0.0621177516877651215 0.0622062981128692627
0.466449588537216187 0.3272208571434021 0.0432067066431045532
0.466449588537216187 0.0707193538546562195 0.079199574887752533
0.466449588537216187 0.162171259522438049 0.0236011259257793427
0.466449588537216187 0.218208655714988708 0.133847624063491821
0.466449588537216187 0.394912123680114746 0.0141227468848228455
0.466449588537216187 0.0466743931174278259 0.151189684867858887
0.466449588537216187 0.187645450234413147 0.0689135938882827759
0.466449588537216187 0.514178931713104248 0.054625391960144043
0.466449588537216187 0.415465563535690308 0.0617805644869804382
0.466449588537216187 0.219413191080093384 0.136144667863845825
0.466449588537216187 0.180421963334083557 0.0680627226829528809
0.466449588537216187 0.266059845685958862 0.00733021646738052368
0.466449588537216187 0.196732267737388611 0.00361867621541023254
0.466449588537216187 0.703524291515350342 0.0222127437591552734
0.466449588537216187 0.108345605432987213 0.0238998141139745712
0.466449588537216187 0.150976553559303284 0.0892522335052490234
0.466449588537216187 0.592733383178710938 0.020761534571647644
0.466449588537216187 0.116137340664863586 0.127089560031890869
0.466449588537216187 0.556849658489227295 0.0225741863250732422
0.466449588537216187 0.442189604043960571 0.0796226486563682556
0.466449588537216187 0.100309789180755615 0.153734222054481506
0.466449588537216187 0.0585262849926948547 0.0329174250364303589
0.466449588537216187 0.364880681037902832 0.00158941000699996948
0.466449588537216187 0.451618731021881104 0.0193612426519393921
0.466449588537216187 0.448409706354141235 0.058000124990940094
0.466449588537216187 0.0868948251008987427 0.0932425856590270996
0.466449588537216187 0.451536744832992554 0.00310033559799194336
0.466449588537216187 0.452404111623764038 0.0501224026083946228
0.466449588537216187 0.0175418257713317871 0.0696053355932235718
0.466449588537216187 0.0370589382946491241 0.164679095149040222
0.466449588537216187 0.170900091528892517 0.117277979850769043
0.466449588537216187 0.333619862794876099 0.0744263008236885071
0.466449588537216187 0.192152366042137146 0.142125159502029419
0.466449588537216187 0.502864062786102295 0.0564767718315124512
0.466449588537216187 0.572297930717468262 0.0185506641864776611
0.466449588537216187 0.135540574789047241 0.107231505215167999
0.466449588537216187 0.225830301642417908 0.120369881391525269
0.466449588537216187 0.00142336823046207428 0.0424543730914592743
0.466449588537216187 0.0873795002698898315 0.0150262601673603058
0.466449588537216187 0.545767843723297119 0.0251495242118835449
0.466449588537216187 0.0102768829092383385 0.0266195312142372131
0.466449588537216187 0.694190502166748047 0.000333160161972045898
0.466449588537216187 0.144192680716514587 0.163541585206985474
0.466449588537216187 0.0774312242865562439 0.174623504281044006
0.466449588537216187 0.710280358791351318 0.00362873077392578125
0.466449588537216187 0.0923335179686546326 0.152897089719772339
0.466449588537216187 0.563737690448760986 0.0483481436967849731
0.466449588537216187 0.125300124287605286 0.166348874568939209
0.466449588537216187 0.582423627376556396 0.051995202898979187
0.466449588537216187 0.0343382544815540314 0.177012473344802856
0.466449588537216187 0.563667476177215576 0.031639978289604187
0.466449588537216187 0.223278790712356567 0.142774015665054321
0.466449588537216187 0.224473431706428528 0.0151580981910228729
0.466449588537216187 0.218007087707519531 0.11312459409236908
0.466449588537216187 0.255714625120162964 0.111128963530063629
0.466449588537216187 0.201723173260688782 0.101228877902030945
0.466449588537216187 0.186939522624015808 0.136617884039878845
0.466449588537216187 0.225997567176818848 0.0210059806704521179
0.466449588537216187 0.101657271385192871 0.0155626088380813599
0.466449588537216187 0.120115481317043304 0.00534010864794254303
0.466449588537216187 0.401754528284072876 0.0572095140814781189
0.466449588537216187 0.670627295970916748 0.012729838490486145
0.466449588537216187 0.308244436979293823 0.0770647451281547546
0.466449588537216187 0.204020097851753235 0.0541563667356967926
0.466449588537216187 0.155275449156761169 0.11486130952835083
0.466449588537216187 0.150988295674324036 0.0427966825664043427
0.466449588537216187 0.149209544062614441 0.144163191318511963
0.466449588537216187 0.43264317512512207 0.0524732470512390137
0.466449588537216187 0.0273479465395212173 0.0554341748356819153
0.466449588537216187 0.46345171332359314 0.0613159909844398499
0.466449588537216187 0.272472530603408813 0.000901393592357635498
0.466449588537216187 0.322772830724716187 0.0361884832382202148
0.466449588537216187 0.353600531816482544 0.0540123358368873596
0.466449588537216187 0.0646007508039474487 0.0877473652362823486
0.466449588537216187 0.190070942044258118 0.0437429510056972504
0.466449588537216187 0.0113128777593374252 0.0986514240503311157
0.466449588537216187 0.0460323691368103027 0.0413511544466018677
0.466449588537216187 0.319039911031723022 0.0259499028325080872
0.466449588537216187 0.185359194874763489 0.0931520015001296997
0.466449588537216187 0.175238445401191711 0.142678961157798767
0.466449588537216187 0.203605681657791138 0.00103612989187240601
0.466449588537216187 0.440184563398361206 0.0313098058104515076
0.466449588537216187 0.0742634385824203491 0.130194365978240967
0.466449588537216187 0.120689287781715393 0.0897183418273925781
0.466449588537216187 0.0668561682105064392 0.158539250493049622
0.466449588537216187 0.00780844641849398613 0.150756269693374634
0.466449588537216187 0.495805114507675171 0.0298732444643974304
0.466449588537216187 0.136154726147651672 0.119706675410270691
0.466449588537216187 0.221078976988792419 0.00653492286801338196
0.466449588537216187 0.100758589804172516 0.0530234426259994507
0.466449588537216187 0.387129336595535278 0.0952859744429588318
0.466449588537216187 0.18710009753704071 0.144703924655914307
0.466449588537216187 0.137739419937133789 0.111831784248352051
0.466449588537216187 0.22553551197052002 0.121979266405105591
0.466449588537216187 0.558674812316894531 0.0111714452505111694
0.466449588537216187 0.484241098165512085 0.0440482422709465027
0.466449588537216187 0.257151573896408081 0.021346360445022583
0.466449588537216187 0.0663312897086143494 0.0752794742584228516
0.466449588537216187 0.39637601375579834 0.0957838147878646851
0.466449588537216187 0.580150783061981201 0.0392675846815109253
0.466449588537216187 0.0158597268164157867 0.163413822650909424
0.466449588537216187 0.127755805850028992 0.0418277569115161896
0.466449588537216187 0.19798491895198822 0.00473191216588020325
0.466449588537216187 0.367260336875915527 0.0601111650466918945
0.466449588537216187 0.0014840979129076004 0.0566945523023605347
0.466449588537216187 0.274015545845031738 0.0629525482654571533
0.466449588537216187 0.0669899135828018188 0.140223011374473572
0.466449588537216187 0.313200622797012329 0.118898414075374603
0.466449588537216187 0.137717992067337036 0.0312449261546134949
0.466449588537216187 0.029944712296128273 0.0966749191284179688
0.466449588537216187 0.652644038200378418 0.0359352976083755493
0.466449588537216187 0.200658559799194336 0.0493311062455177307
0.466449588537216187 0.0382667593657970428 0.117624707520008087
0.466449588537216187 0.0215819180011749268 0.0753940865397453308
0.466449588537216187 0.186487659811973572 0.136506125330924988
