ply
format ascii 1.0
element vertex 754
property float x
property float y
property float z
end_header
0.368642359972000122 0.344365715980529785 0.0809201896190643311
0.473945379257202148 0.344365715980529785 0.115874171257019043
0.36081993579864502 0.344365715980529785 0.103931590914726257
0.386133581399917603 0.344365715980529785 0.0661014020442962646
0.425313562154769897 0.344365715980529785 0.0874107033014297485
0.350157499313354492 0.344365715980529785 0.0059825703501701355
0.432565271854400635 0.344365715980529785 0.0733876675367355347
0.113707780838012695 0.344365715980529785 0.0412915498018264771
0.440226823091506958 0.344365715980529785 0.161833435297012329
0.165431797504425049 0.344365715980529785 0.0462722480297088623
0.363876938819885254 0.344365715980529785 0.0867472738027572632
0.411229968070983887 0.344365715980529785 0.0534402914345264435
0.493222326040267944 0.344365715980529785 0.120007835328578949
0.254665195941925049 0.344365715980529785 0.0344591066241264343
0.459634721279144287 0.344365715980529785 0.000818572938442230225
0.439335614442825317 0.344365715980529785 0.153507441282272339
0.1127491295337677 0.344365715980529785 0.0215220004320144653
0.158001333475112915 0.344365715980529785 0.0495310872793197632
0.271291971206665039 0.344365715980529785 0.070205986499786377
0.38301926851272583 0.344365715980529785 0.068798363208770752
0.378458559513092041 0.344365715980529785 0.0652873367071151733
0.362220913171768188 0.344365715980529785 0.109639868140220642
0.389096617698669434 0.344365715980529785 0.0998248085379600525
0.110492736101150513 0.344365715980529785 0.0175806432962417603
0.32291606068611145 0.344365715980529785 0.127812638878822327
0.414320707321166992 0.344365715980529785 0.0394603833556175232
0.17280203104019165 0.344365715980529785 0.00450402498245239258
0.315903931856155396 0.344365715980529785 0.0693817958235740662
0.345610648393630981 0.344365715980529785 0.0433619134128093719
0.266955196857452393 0.344365715980529785 0.034163646399974823
0.391216278076171875 0.344365715980529785 0.0897226780652999878
0.432954907417297363 0.344365715980529785 0.109265312552452087
0.0965055227279663086 0.344365715980529785 0.00603762269020080566
0.447106540203094482 0.344365715980529785 0.148263782262802124
0.255498409271240234 0.344365715980529785 0.0212633833289146423
0.229758650064468384 0.344365715980529785 0.0667377561330795288
0.44196319580078125 0.344365715980529785 0.120469972491264343
0.153634101152420044 0.344365715980529785 0.00833570957183837891
0.215838968753814697 0.344365715980529785 0.048528619110584259
0.470748096704483032 0.344365715980529785 0.050703488290309906
0.234467685222625732 0.344365715980529785 0.0280925482511520386
0.286832749843597412 0.344365715980529785 0.0138201415538787842
0.437442511320114136 0.344365715980529785 0.0118155926465988159
0.266507804393768311 0.344365715980529785 0.0639991611242294312
0.450041770935058594 0.344365715980529785 0.115095973014831543
0.259307265281677246 0.344365715980529785 0.00824809819459915161
0.200804978609085083 0.344365715980529785 0.0652395859360694885
0.210316359996795654 0.344365715980529785 0.0347380191087722778
0.489287286996841431 0.344365715980529785 0.166379004716873169
0.198772132396697998 0.344365715980529785 0.000533394515514373779
0.481859803199768066 0.344365715980529785 0.188902750611305237
0.295065879821777344 0.344365715980529785 0.105271488428115845
0.425983518362045288 0.344365715980529785 0.086651042103767395
0.202340930700302124 0.344365715980529785 0.0318925380706787109
0.260660648345947266 0.344365715980529785 0.0493192523717880249
0.428923964500427246 0.344365715980529785 0.0284276511520147324
0.197702288627624512 0.344365715980529785 0.0715160295367240906
0.390450239181518555 0.344365715980529785 0.0924271345138549805
0.467792302370071411 0.344365715980529785 0.0591654218733310699
0.288504630327224731 0.344365715980529785 0.0946128442883491516
0.352406620979309082 0.344365715980529785 0.0424268841743469238
0.11858704686164856 0.344365715980529785 0.000836685299873352051
0.0361147820949554443 0.344365715980529785 0.00210554897785186768
0.3255939781665802 0.344365715980529785 0.114834487438201904
0.4683990478515625 0.344365715980529785 0.0566094666719436646
0.299610435962677002 0.344365715980529785 0.0605798512697219849
0.49233931303024292 0.344365715980529785 0.164295971393585205
0.316178828477859497 0.344365715980529785 0.0820491015911102295
0.322121083736419678 0.344365715980529785 0.0502913892269134521
0.0868522822856903076 0.344365715980529785 0.0293977558612823486
0.440551578998565674 0.344365715980529785 0.0705228373408317566
0.375050783157348633 0.344365715980529785 0.00929195433855056763
0.42487335205078125 0.344365715980529785 0.154520303010940552
0.341817378997802734 0.344365715980529785 0.0357256904244422913
0.2336253821849823 0.344365715980529785 0.0475550517439842224
0.475040048360824585 0.344365715980529785 0.0877739861607551575
0.388406664133071899 0.344365715980529785 0.0567245446145534515
0.468497514724731445 0.344365715980529785 0.0140364076942205429
0.477842569351196289 0.344365715980529785 0.042212165892124176
0.342363238334655762 0.344365715980529785 0.0965882167220115662
0.487436652183532715 0.344365715980529785 0.0674994587898254395
0.330032587051391602 0.344365715980529785 0.102613501250743866
0.296370893716812134 0.344365715980529785 0.0829802230000495911
0.444431036710739136 0.344365715980529785 0.14691510796546936
0.363842099905014038 0.344365715980529785 0.0363593138754367828
0.261976242065429688 0.344365715980529785 0.00170475989580154419
0.352978825569152832 0.344365715980529785 0.0234854146838188171
0.417904257774353027 0.344365715980529785 0.104747757315635681
0.114521265029907227 0.344365715980529785 0.00799596309661865234
0.130661934614181519 0.344365715980529785 0.0010798722505569458
0.393088787794113159 0.344365715980529785 0.0317918956279754639
0.307645201683044434 0.344365715980529785 0.0885640829801559448
0.251802742481231689 0.344365715980529785 0.00559560209512710571
0.484299451112747192 0.344365715980529785 0.00565188378095626831
0.413218826055526733 0.344365715980529785 0.00539669767022132874
0.233359664678573608 0.344365715980529785 0.0781901776790618896
0.379649102687835693 0.344365715980529785 0.0795417577028274536
0.326772630214691162 0.344365715980529785 0.0962035655975341797
0.223602652549743652 0.344365715980529785 0.0451825857162475586
0.185209512710571289 0.344365715980529785 0.0354666262865066528
0.261423110961914062 0.344365715980529785 0.0171121656894683838
0.443505734205245972 0.344365715980529785 0.150413170456886292
0.452907741069793701 0.344365715980529785 0.130042374134063721
0.409713417291641235 0.344365715980529785 0.0311881937086582184
0.0798919200897216797 0.344365715980529785 0.0287784785032272339
0.343881040811538696 0.344365715980529785 0.0329899415373802185
0.326138734817504883 0.344365715980529785 0.0241426005959510803
0.187508225440979004 0.344365715980529785 0.044535510241985321
0.272968500852584839 0.344365715980529785 0.067350439727306366
0.418829232454299927 0.344365715980529785 0.0306939594447612762
0.417796850204467773 0.344365715980529785 0.0475956164300441742
0.421991705894470215 0.344365715980529785 0.141288891434669495
0.339546442031860352 0.344365715980529785 0.0980118140578269958
0.482845276594161987 0.344365715980529785 0.0711636319756507874
0.436965376138687134 0.344365715980529785 0.168625518679618835
0.492034077644348145 0.344365715980529785 0.0567593090236186981
0.442243218421936035 0.344365715980529785 0.0301672015339136124
0.397745668888092041 0.344365715980529785 0.154068022966384888
0.310930252075195312 0.344365715980529785 0.10795128345489502
0.47000575065612793 0.344365715980529785 0.179522722959518433
0.432796686887741089 0.344365715980529785 0.0986117422580718994
0.296320497989654541 0.344365715980529785 0.0581131875514984131
0.488627851009368896 0.344365715980529785 0.148412257432937622
0.414611071348190308 0.344365715980529785 0.134177833795547485
0.287770926952362061 0.344365715980529785 0.0593501254916191101
0.434586971998214722 0.344365715980529785 0.13658258318901062
0.499244838953018188 0.344365715980529785 0.122707031667232513
0.406647384166717529 0.344365715980529785 0.036126893013715744
0.320244133472442627 0.344365715980529785 0.00543839484453201294
0.0916762650012969971 0.344365715980529785 0.00253579020500183105
0.268919944763183594 0.344365715980529785 0.0778197422623634338
0.146165400743484497 0.344365715980529785 0.0512215793132781982
0.344260215759277344 0.344365715980529785 0.118341371417045593
0.470804452896118164 0.344365715980529785 0.144143775105476379
0.0912381336092948914 0.344365715980529785 0.125009417533874512
0.240276828408241272 0.344365715980529785 0.163716286420822144
0.0196077451109886169 0.344365715980529785 0.0356349796056747437
0.00148344633635133505 0.344365715980529785 0.130265489220619202
0.100119993090629578 0.344365715980529785 0.166510939598083496
0.0950779169797897339 0.344365715980529785 0.0605351626873016357
0.273653954267501831 0.344365715980529785 0.139473959803581238
0.264697492122650146 0.344365715980529785 0.132881402969360352
0.297012984752655029 0.344365715980529785 0.159745603799819946
0.290149033069610596 0.344365715980529785 0.187629178166389465
0.414037168025970459 0.344365715980529785 0.193371817469596863
0.0611771680414676666 0.344365715980529785 0.0564593374729156494
0.223869010806083679 0.344365715980529785 0.143536835908889771
0.084632478654384613 0.344365715980529785 0.131167173385620117
0.12390851229429245 0.344365715980529785 0.0968632921576499939
0.24067455530166626 0.344365715980529785 0.14016859233379364
0.216709956526756287 0.344365715980529785 0.178150594234466553
0.253584623336791992 0.344365715980529785 0.145018458366394043
0.336452364921569824 0.344365715980529785 0.184904783964157104
0.0834357365965843201 0.344365715980529785 0.0862445011734962463
0.0979895293712615967 0.344365715980529785 0.149073287844657898
0.193822324275970459 0.344365715980529785 0.116464458405971527
0.134094998240470886 0.344365715980529785 0.180493816733360291
0.358232736587524414 0.344365715980529785 0.172513276338577271
0.011259482242166996 0.344365715980529785 0.187761485576629639
0.114884525537490845 0.344365715980529785 0.0626580119132995605
0.0513245314359664917 0.344365715980529785 0.0612345039844512939
0.265568345785140991 0.344365715980529785 0.175222724676132202
0.180824846029281616 0.344365715980529785 0.102549009025096893
0.154204890131950378 0.344365715980529785 0.133621484041213989
0.182387068867683411 0.344365715980529785 0.159382164478302002
0.0399099960923194885 0.344365715980529785 0.0455152392387390137
0.198971852660179138 0.344365715980529785 0.188583448529243469
0.430472403764724731 0.344365715980529785 0.179782912135124207
0.0111190695315599442 0.344365715980529785 0.183444797992706299
0.077309727668762207 0.344365715980529785 0.102069392800331116
0.160061046481132507 0.344365715980529785 0.153930962085723877
0.14031006395816803 0.344365715980529785 0.0707037001848220825
0.197682753205299377 0.344365715980529785 0.15129987895488739
0.102254487574100494 0.344365715980529785 0.168212577700614929
0.0383981727063655853 0.344365715980529785 0.132919669151306152
0.134101554751396179 0.344365715980529785 0.168474078178405762
0.0145412236452102661 0.344365715980529785 0.159342408180236816
0.145073056221008301 0.344365715980529785 0.0657339990139007568
0.0969544500112533569 0.344365715980529785 0.141542047262191772
0.139980003237724304 0.344365715980529785 0.0787867233157157898
0.193451598286628723 0.344365715980529785 0.138168737292289734
0.0862294360995292664 0.344365715980529785 0.0990019962191581726
0.0928943753242492676 0.344365715980529785 0.0843879133462905884
0.169531792402267456 0.344365715980529785 0.192346960306167603
0.215353921055793762 0.344365715980529785 0.1843719482421875
0.184282869100570679 0.344365715980529785 0.0988921746611595154
0.0274955891072750092 0.344365715980529785 0.0406503826379776001
0.114172600209712982 0.344365715980529785 0.137490719556808472
0.199012443423271179 0.344365715980529785 0.0885735154151916504
0.0317116975784301758 0.344365715980529785 0.160635858774185181
0.396731257438659668 0.344365715980529785 0.167538538575172424
0.223622038960456848 0.344365715980529785 0.0955512672662734985
0.0768315792083740234 0.344365715980529785 0.144417047500610352
0.220846697688102722 0.344365715980529785 0.103417456150054932
0.030765097588300705 0.344365715980529785 0.0888230130076408386
0.209397092461585999 0.344365715980529785 0.0889378711581230164
0.348500698804855347 0.344365715980529785 0.188175365328788757
0.0292981751263141632 0.344365715980529785 0.181460469961166382
0.335567623376846313 0.344365715980529785 0.178879067301750183
0.114150635898113251 0.344365715980529785 0.137189477682113647
0.407626807689666748 0.344365715980529785 0.164940521121025085
0.307817339897155762 0.344365715980529785 0.180006414651870728
0.180265799164772034 0.344365715980529785 0.118287496268749237
0.421873360872268677 0.344365715980529785 0.191250771284103394
0.0476090684533119202 0.344365715980529785 0.0661920309066772461
0.00702718505635857582 0.344365715980529785 0.0540865957736968994
0.176242440938949585 0.344365715980529785 0.104370966553688049
0.194588944315910339 0.344365715980529785 0.147436797618865967
0.375634491443634033 0.344365715980529785 0.157257229089736938
0.058194328099489212 0.344365715980529785 0.149318993091583252
0.3767070472240448 0.344365715980529785 0.164679676294326782
0.0492150746285915375 0.344365715980529785 0.0296275168657302856
0.26235160231590271 0.344365715980529785 0.111012153327465057
0.000241643516346812248 0.344365715980529785 0.0677717626094818115
0.29945334792137146 0.344365715980529785 0.140461266040802002
0.0632689595222473145 0.344365715980529785 0.128984063863754272
0.340103656053543091 0.344365715980529785 0.149812549352645874
0.13924311101436615 0.344365715980529785 0.14049743115901947
0.0585481822490692139 0.344365715980529785 0.0536783188581466675
0.209919214248657227 0.344365715980529785 0.156937494874000549
0.164419591426849365 0.344365715980529785 0.129074305295944214
0.00164620950818061829 0.344365715980529785 0.114171676337718964
0.00923486892133951187 0.344365715980529785 0.1520729660987854
0.170838251709938049 0.344365715980529785 0.160143285989761353
0.397574335336685181 0.344365715980529785 0.191388711333274841
0.381948322057723999 0.344365715980529785 0.18811461329460144
0.237714871764183044 0.344365715980529785 0.099758148193359375
0.0479878894984722137 0.344365715980529785 0.126074761152267456
0.43978455662727356 0.344365715980529785 0.194253355264663696
0.120133310556411743 0.344365715980529785 0.0698665827512741089
0.292081087827682495 0.344365715980529785 0.168357521295547485
0.182193219661712646 0.344365715980529785 0.0939197167754173279
0.303843706846237183 0.344365715980529785 0.13072475790977478
0.0326336920261383057 0.344365715980529785 0.0545851141214370728
0.0846907719969749451 0.344365715980529785 0.125390470027923584
0.078564867377281189 0.344365715980529785 0.128060191869735718
0.433578342199325562 0.344365715980529785 0.197616711258888245
0.213354319334030151 0.344365715980529785 0.191338911652565002
0.193052381277084351 0.344365715980529785 0.163552939891815186
0.0346423275768756866 0.344365715980529785 0.0793107077479362488
0.113052606582641602 0.344365715980529785 0.09052286297082901
0.14895261824131012 0.344365715980529785 0.17169654369354248
0.0772982314229011536 0.344365715980529785 0.138215780258178711
0.051470782607793808 0.344365715980529785 0.125501096248626709
0.28698432445526123 0.344365715980529785 0.163421094417572021
0.159695148468017578 0.344365715980529785 0.180183932185173035
0.188050806522369385 0.344365715980529785 0.115786187350749969
0.174180671572685242 0.344365715980529785 0.157625928521156311
0.45052337646484375 0.344365715980529785 0.19414973258972168
0.30656123161315918 0.344365715980529785 0.151467278599739075
0.144185915589332581 0.344365715980529785 0.166230693459510803
0.0638119503855705261 0.344365715980529785 0.156604841351509094
0.241903230547904968 0.344365715980529785 0.196820273995399475
0.25433582067489624 0.344365715980529785 0.180956006050109863
0.0244851969182491302 0.344365715980529785 0.0949120521545410156
0.152054876089096069 0.344365715980529785 0.0741272568702697754
0.300005137920379639 0.344365715980529785 0.199142903089523315
0.348558127880096436 0.344365715980529785 0.1686258465051651
0.0794790536165237427 0.344365715980529785 0.0565814971923828125
0.204161599278450012 0.344365715980529785 0.148097917437553406
0.293394774198532104 0.344365715980529785 0.134896472096443176
0.0719998180866241455 0.344365715980529785 0.174564093351364136
0.0868924111127853394 0.344365715980529785 0.126801103353500366
0.0328118093311786652 0.344365715980529785 0.0834258794784545898
0.268274605274200439 0.344365715980529785 0.147984355688095093
0.464529246091842651 0.344365715980529785 0.198992490768432617
0.127868965268135071 0.344365715980529785 0.100555464625358582
0.453618377447128296 0.344365715980529785 0.198970258235931396
0.195236295461654663 0.344365715980529785 0.194427356123924255
0.0265382584184408188 0.344365715980529785 0.078548625111579895
0.0108756609261035919 0.344365715980529785 0.119182705879211426
0.0342113673686981201 0.344365715980529785 0.0531015098094940186
0.121910803020000458 0.344365715980529785 0.0514006614685058594
0.326443523168563843 0.344365715980529785 0.158418640494346619
0.150866568088531494 0.344365715980529785 0.156640186905860901
0.244896560907363892 0.344365715980529785 0.160918742418289185
0.0108499713242053986 0.344365715980529785 0.180919870734214783
0.156708195805549622 0.344365715980529785 0.14862339198589325
0.359123080968856812 0.344365715980529785 0.182955950498580933
0.197072863578796387 0.344365715980529785 0.0962165594100952148
0.0532925054430961609 0.344365715980529785 0.141512706875801086
0.37941443920135498 0.344365715980529785 0.197256088256835938
0.346445769071578979 0.344365715980529785 0.190971225500106812
0.217277079820632935 0.344365715980529785 0.138812482357025146
0.14273659884929657 0.344365715980529785 0.0993003398180007935
0.0279865656048059464 0.344365715980529785 0.172943085432052612
0.0519765689969062805 0.344365715980529785 0.134514182806015015
0.120382606983184814 0.344365715980529785 0.146777525544166565
0.128969460725784302 0.344365715980529785 0.179873734712600708
0.140840291976928711 0.344365715980529785 0.142825692892074585
0.187635451555252075 0.344365715980529785 0.115797229111194611
0.258523643016815186 0.344365715980529785 0.141948357224464417
0.371608942747116089 0.344365715980529785 0.180901199579238892
0.0941845998167991638 0.344365715980529785 0.149763762950897217
0.0498602576553821564 0.344365715980529785 0.0712976306676864624
0.170035481452941895 0.344365715980529785 0.132719606161117554
0.159525245428085327 0.344365715980529785 0.196820765733718872
0.0307000335305929184 0.344365715980529785 0.0733710229396820068
0.108317568898200989 0.344365715980529785 0.0485976934432983398
0.0534601546823978424 0.344365715980529785 0.106626257300376892
0.266624689102172852 0.344365715980529785 0.143539994955062866
0.162833288311958313 0.344365715980529785 0.136122480034828186
0.0642587095499038696 0.344365715980529785 0.0828096494078636169
0.0862562954425811768 0.344365715980529785 0.0826499983668327332
0.128238767385482788 0.344365715980529785 0.118091054260730743
0.0138394609093666077 0.344365715980529785 0.0545393675565719604
0.0739747360348701477 0.344365715980529785 0.100076720118522644
0.144719392061233521 0.344365715980529785 0.0793936774134635925
0.015461835078895092 0.344365715980529785 0.186355382204055786
0.138611912727355957 0.344365715980529785 0.0833941102027893066
0.0339998193085193634 0.344365715980529785 0.050653606653213501
0.0272169969975948334 0.344365715980529785 0.0184369385242462158
0.181297749280929565 0.344365715980529785 0.13332366943359375
0.100839115679264069 0.344365715980529785 0.14441053569316864
0.0561706088483333588 0.344365715980529785 0.0967760831117630005
0.0758782774209976196 0.344365715980529785 0.174297094345092773
0.262800693511962891 0.344365715980529785 0.126386731863021851
0.0416605658829212189 0.344365715980529785 0.11177431046962738
0.346720188856124878 0.344365715980529785 0.189763173460960388
0.127465173602104187 0.344365715980529785 0.104253470897674561
0.0214381702244281769 0.344365715980529785 0.16160370409488678
0.036387227475643158 0.344365715980529785 0.178401261568069458
0.0707674324512481689 0.344365715980529785 0.0845496654510498047
0.251920640468597412 0.344365715980529785 0.127166301012039185
0.191809415817260742 0.344365715980529785 0.181802570819854736
0.341824620962142944 0.344365715980529785 0.16470751166343689
0.00701107177883386612 0.344365715980529785 0.126670777797698975
0.34082368016242981 0.344365715980529785 0.172151491045951843
0.0285452082753181458 0.344365715980529785 0.180055022239685059
0.111892290413379669 0.344365715980529785 0.100248523056507111
0.275312691926956177 0.344365715980529785 0.138537108898162842
0.00091425521532073617 0.344365715980529785 0.0849337726831436157
0.145680218935012817 0.344365715980529785 0.0888785049319267273
0.231650486588478088 0.344365715980529785 0.113366521894931793
0.0792983844876289368 0.344365715980529785 0.0933320149779319763
0.0726851671934127808 0.344365715980529785 0.176022529602050781
0.0806628763675689697 0.344365715980529785 0.116530336439609528
0.0256257709115743637 0.344365715980529785 0.0320983827114105225
0.134642139077186584 0.344365715980529785 0.0580454766750335693
0.259689241647720337 0.344365715980529785 0.147351682186126709
0.0267001818865537643 0.344365715980529785 0.0127405077219009399
0.0618682540953159332 0.344365715980529785 0.138091489672660828
0.124192692339420319 0.344365715980529785 0.160788685083389282
0.17767728865146637 0.344365715980529785 0.129708200693130493
0.0141970422118902206 0.344365715980529785 0.103095173835754395
0.274514228105545044 0.344365715980529785 0.194438055157661438
0.288190245628356934 0.344365715980529785 0.145527541637420654
0.0315557718276977539 0.344365715980529785 0.0203368961811065674
0.202648341655731201 0.344365715980529785 0.123726792633533478
0.116857513785362244 0.344365715980529785 0.0650050044059753418
0.170000851154327393 0.344365715980529785 0.0911726504564285278
0.243242412805557251 0.344365715980529785 0.177835628390312195
0.0268725752830505371 0.344365715980529785 0.185119718313217163
0.180779203772544861 0.344365715980529785 0.196624755859375
0.145909041166305542 0.344365715980529785 0.154615625739097595
0.124047994613647461 0.344365715980529785 0.0681250393390655518
0.108009934425354004 0.344365715980529785 0.162070930004119873
0.133110344409942627 0.344365715980529785 0.180500969290733337
0.196065217256546021 0.344365715980529785 0.152132555842399597
0.00344675593078136444 0.344365715980529785 0.0959359630942344666
0.124483808875083923 0.344365715980529785 0.102024659514427185
0.225144922733306885 0.344365715980529785 0.115983642637729645
0.319255828857421875 0.344365715980529785 0.139016300439834595
0.0711493566632270813 0.344365715980529785 0.137507498264312744
0.217281416058540344 0.344365715980529785 0.144834920763969421
0.0157013963907957077 0.344365715980529785 0.12250983715057373
0.188313096761703491 0.344365715980529785 0.108093641698360443
0.00426332652568817139 0.344365715980529785 0.0939339622855186462
0.139426738023757935 0.344365715980529785 0.0836182385683059692
0.0252510383725166321 0.344365715980529785 0.170436173677444458
0.0703048929572105408 0.344365715980529785 0.179526954889297485
0.317440181970596313 0.344365715980529785 0.149500429630279541
0.34650576114654541 0.344365715980529785 0.146399050951004028
0.0188413523137569427 0.344365715980529785 0.110283307731151581
0.405421853065490723 0.344365715980529785 0.164165660738945007
0.12059929221868515 0.344365715980529785 0.147089868783950806
0.379842549562454224 0.344365715980529785 0.15521453320980072
0.304731279611587524 0.344365715980529785 0.185863211750984192
0.0342304892838001251 0.344365715980529785 0.156188160181045532
0.165901511907577515 0.344365715980529785 0.129450350999832153
0.213154613971710205 0.344365715980529785 0.184711858630180359
0.28335234522819519 0.344365715980529785 0.116288729012012482
0.272778332233428955 0.344365715980529785 0.173556044697761536
0.0831560790538787842 0.344365715980529785 0.189949557185173035
0.121875554323196411 0.344365715980529785 0.0509244799613952637
0.283124238252639771 0.344365715980529785 0.193002507090568542
0.103386424481868744 0.344365715980529785 0.0565180480480194092
0.269237041473388672 0.344365715980529785 0.128004908561706543
0.00704416725784540176 0.344365715980529785 0.16722598671913147
0.0342932865023612976 0.344365715980529785 0.0228792876005172729
0.331664383411407471 0.344365715980529785 0.162004515528678894
0.285106509923934937 0.344365715980529785 0.168422266840934753
0.339657366275787354 0.344365715980529785 0.193547889590263367
0.0375245027244091034 0.344365715980529785 0.185950323939323425
0.279009163379669189 0.344365715980529785 0.143047600984573364
0.0856697112321853638 0.344365715980529785 0.141256123781204224
0.421263039112091064 0.344365715980529785 0.199901580810546875
0.0525430776178836823 0.344365715980529785 0.0806448832154273987
0.0342237092554569244 0.344365715980529785 0.0846996232867240906
0.0368932001292705536 0.344365715980529785 0.103792265057563782
0.123936116695404053 0.344365715980529785 0.182855725288391113
0.176142483949661255 0.344365715980529785 0.149892717599868774
0.231005042791366577 0.344365715980529785 0.111364908516407013
0.026969078928232193 0.344365715980529785 0.164620846509933472
0.195739284157752991 0.344365715980529785 0.156691670417785645
0.316910207271575928 0.344365715980529785 0.127433031797409058
0.268090397119522095 0.344365715980529785 0.147259235382080078
0.382180184125900269 0.344365715980529785 0.170896515250205994
0.0751618221402168274 0.344365715980529785 0.152805790305137634
0.177928954362869263 0.344365715980529785 0.103759072721004486
0.0296573136001825333 0.344365715980529785 0.0158403217792510986
0.177395060658454895 0.344365715980529785 0.0774606838822364807
0.0927426144480705261 0.344365715980529785 0.168971523642539978
0.214372903108596802 0.344365715980529785 0.178170502185821533
0.0894043967127799988 0.344365715980529785 0.0715218335390090942
0.00753413653001189232 0.344365715980529785 0.129082635045051575
0.0186702646315097809 0.344365715980529785 0.0124514997005462646
0.250314325094223022 0.344365715980529785 0.179972276091575623
0.0191579330712556839 0.344365715980529785 0.183124363422393799
0.201865658164024353 0.344365715980529785 0.151335597038269043
0.0903319790959358215 0.344365715980529785 0.169550344347953796
0.324273347854614258 0.344365715980529785 0.181914925575256348
0.0618535391986370087 0.344365715980529785 0.15811571478843689
0.0703662633895874023 0.344365715980529785 0.183343008160591125
0.0577792264521121979 0.344365715980529785 0.0691929459571838379
0.0218455065041780472 0.344365715980529785 0.0605868399143218994
0.270724892616271973 0.344365715980529785 0.172059103846549988
0.339222311973571777 0.344365715980529785 0.168425083160400391
0.107312478125095367 0.344365715980529785 0.136929154396057129
0.334182858467102051 0.344365715980529785 0.138276472687721252
0.197282180190086365 0.344365715980529785 0.12314528226852417
0.0487982369959354401 0.344365715980529785 0.116266153752803802
0.00468466803431510925 0.344365715980529785 0.00250616669654846191
0.268171936273574829 0.344365715980529785 0.153671547770500183
0.298196256160736084 0.344365715980529785 0.137847065925598145
0.0666595771908760071 0.344365715980529785 0.155833899974822998
0.0355787165462970734 0.344365715980529785 0.172150000929832458
0.331869304180145264 0.344365715980529785 0.142944693565368652
0.0101504046469926834 0.344365715980529785 0.107880614697933197
0.145599678158760071 0.344365715980529785 0.0664963275194168091
0.0816969424486160278 0.344365715980529785 0.16518518328666687
0.00434946315363049507 0.344365715980529785 0.102616921067237854
0.0999342203140258789 0.344365715980529785 0.191370457410812378
0.348170965909957886 0.344365715980529785 0.199361130595207214
0.126209601759910583 0.344365715980529785 0.0992136001586914062
0.27165338397026062 0.344365715980529785 0.126623600721359253
0.27952110767364502 0.344365715980529785 0.124070771038532257
0.181716054677963257 0.344365715980529785 0.0996228381991386414
0.00422765873372554779 0.344365715980529785 0.184631884098052979
0.222396582365036011 0.344365715980529785 0.11957201361656189
0.247732579708099365 0.344365715980529785 0.179912611842155457
0.257375806570053101 0.344365715980529785 0.196936458349227905
0.0763687342405319214 0.344365715980529785 0.0353815257549285889
0.174952372908592224 0.344365715980529785 0.170406252145767212
0.0572992488741874695 0.344365715980529785 0.13998684287071228
0.107618257403373718 0.344365715980529785 0.0800673887133598328
0.122543863952159882 0.344365715980529785 0.116435468196868896
0.166630968451499939 0.344365715980529785 0.127278000116348267
0.0129916137084364891 0.344365715980529785 0.0442997515201568604
0.415923982858657837 0.344365715980529785 0.197400793433189392
0.00730622280389070511 0.344365715980529785 0.0109509676694869995
0.247593551874160767 0.344365715980529785 0.125680834054946899
0.150378063321113586 0.344365715980529785 0.0705557167530059814
0.112773321568965912 0.344365715980529785 0.157675176858901978
0.20522734522819519 0.344365715980529785 0.149109631776809692
0.0573317073285579681 0.344365715980529785 0.114264421164989471
0.161182954907417297 0.344365715980529785 0.189538434147834778
0.00899967458099126816 0.344365715980529785 0.17034989595413208
0.0145671023055911064 0.344365715980529785 0.0997007638216018677
0.182095378637313843 0.344365715980529785 0.134916812181472778
0.0999191552400588989 0.344365715980529785 0.0597146898508071899
0.0745921134948730469 0.344365715980529785 0.131248980760574341
0.130549505352973938 0.344365715980529785 0.0718587338924407959
0.39331972599029541 0.344365715980529785 0.177972078323364258
0.284993141889572144 0.344365715980529785 0.126319259405136108
0.126274049282073975 0.344365715980529785 0.0833376795053482056
0.137708932161331177 0.344365715980529785 0.180938497185707092
0.341069400310516357 0.344365715980529785 0.154028221964836121
0.20621839165687561 0.344365715980529785 0.103477641940116882
0.189762130379676819 0.344365715980529785 0.090212695300579071
0.249608695507049561 0.344365715980529785 0.162177503108978271
0.0347140245139598846 0.344365715980529785 0.170860245823860168
0.240960553288459778 0.344365715980529785 0.121057957410812378
0.161294102668762207 0.344365715980529785 0.174154430627822876
0.211335748434066772 0.344365715980529785 0.116569340229034424
0.157852068543434143 0.344365715980529785 0.112896770238876343
0.0787152349948883057 0.344365715980529785 0.0817115902900695801
0.301601827144622803 0.344365715980529785 0.170143827795982361
0.0385970734059810638 0.344365715980529785 0.0905682668089866638
0.106005631387233734 0.344365715980529785 0.0702691376209259033
0.00300148525275290012 0.344365715980529785 0.112413458526134491
0.102754905819892883 0.344365715980529785 0.138483241200447083
0.337027996778488159 0.344365715980529785 0.181501656770706177
0.062716953456401825 0.344365715980529785 0.154306367039680481
0.0764140859246253967 0.344365715980529785 0.13958442211151123
0.0705706477165222168 0.344365715980529785 0.0383171588182449341
0.0758494362235069275 0.344365715980529785 0.0509022772312164307
0.229021519422531128 0.344365715980529785 0.138775765895843506
0.169343262910842896 0.344365715980529785 0.166377857327461243
0.09931231290102005 0.344365715980529785 0.134394839406013489
0.0854211673140525818 0.344365715980529785 0.109599083662033081
0.162483751773834229 0.344365715980529785 0.117016211152076721
0.0716276466846466064 0.344365715980529785 0.162819713354110718
0.03331790491938591 0.344365715980529785 0.0544807165861129761
0.0196125898510217667 0.344365715980529785 0.090922527015209198
0.121772415935993195 0.344365715980529785 0.187360778450965881
0.0207103099673986435 0.344365715980529785 0.0786716490983963013
0.0660099610686302185 0.344365715980529785 0.0647770315408706665
0.0228874664753675461 0.344365715980529785 0.181910932064056396
0.157813146710395813 0.344365715980529785 0.0745702087879180908
0.0634483247995376587 0.344365715980529785 0.179535329341888428
0.28975224494934082 0.344365715980529785 0.139273539185523987
0.200281858444213867 0.344365715980529785 0.177695229649543762
0.0330099612474441528 0.344365715980529785 0.166470766067504883
0.181682854890823364 0.344365715980529785 0.0935225635766983032
0.399806022644042969 0.344365715980529785 0.194537520408630371
0.273444622755050659 0.344365715980529785 0.109838835895061493
0.060419425368309021 0.344365715980529785 0.0413947850465774536
0.266399800777435303 0.344365715980529785 0.129992678761482239
0.0578096248209476471 0.344365715980529785 0.121746301651000977
0.0637745186686515808 0.344365715980529785 0.186842650175094604
0.139078423380851746 0.344365715980529785 0.0868346691131591797
0.147592410445213318 0.344365715980529785 0.114163555204868317
0.170939132571220398 0.344365715980529785 0.157892197370529175
0.0165333915501832962 0.344365715980529785 0.167800933122634888
0.0458252169191837311 0.344365715980529785 0.086729101836681366
0.0115867182612419128 0.344365715980529785 0.0089883953332901001
0.101939916610717773 0.344365715980529785 0.146118134260177612
0.281240791082382202 0.344365715980529785 0.134031981229782104
0.244696497917175293 0.344365715980529785 0.12490004301071167
0.375741899013519287 0.344365715980529785 0.196938872337341309
0.321237713098526001 0.344365715980529785 0.184754595160484314
0.235004469752311707 0.344365715980529785 0.141980499029159546
0.312431186437606812 0.344365715980529785 0.141695141792297363
0.166888520121574402 0.344365715980529785 0.151296854019165039
0.182390287518501282 0.344365715980529785 0.0853679999709129333
0.169615298509597778 0.344365715980529785 0.0733797848224639893
0.113983027637004852 0.344365715980529785 0.0619470775127410889
0.217269182205200195 0.344365715980529785 0.0921605229377746582
0.0444177389144897461 0.344365715980529785 0.170721203088760376
0.122939988970756531 0.344365715980529785 0.135240465402603149
0.204490050673484802 0.344365715980529785 0.189804777503013611
0.0669912844896316528 0.344365715980529785 0.177277505397796631
0.361110270023345947 0.344365715980529785 0.1553669273853302
0.0634779408574104309 0.344365715980529785 0.0369254946708679199
0.0130767393857240677 0.344365715980529785 0.00958690047264099121
0.20907340943813324 0.344365715980529785 0.10813690721988678
0.205795407295227051 0.344365715980529785 0.114697165787220001
0.122272521257400513 0.344365715980529785 0.178833276033401489
0.0167764835059642792 0.344365715980529785 0.10071185976266861
0.0126671073958277702 0.344365715980529785 0.148312628269195557
0.0536256842315196991 0.344365715980529785 0.0645992457866668701
0.0512005910277366638 0.344365715980529785 0.148999571800231934
0.0584334917366504669 0.344365715980529785 0.0886023640632629395
0.0261474549770355225 0.344365715980529785 0.137566164135932922
0.207089155912399292 0.344365715980529785 0.0947664380073547363
0.0881559625267982483 0.344365715980529785 0.0820304527878761292
0.233522891998291016 0.344365715980529785 0.109335936605930328
0.0333751551806926727 0.344365715980529785 0.118980430066585541
0.224804490804672241 0.344365715980529785 0.103378728032112122
0.115300677716732025 0.344365715980529785 0.155658438801765442
0.144704043865203857 0.344365715980529785 0.150115877389907837
0.279360502958297729 0.344365715980529785 0.176300585269927979
0.223467573523521423 0.344365715980529785 0.133784443140029907
0.112668178975582123 0.344365715980529785 0.0680782347917556763
0.20352645218372345 0.344365715980529785 0.194519266486167908
0.163693830370903015 0.344365715980529785 0.183365434408187866
0.150012955069541931 0.344365715980529785 0.182875454425811768
0.191194012761116028 0.344365715980529785 0.122028417885303497
0.217516437172889709 0.344365715980529785 0.194477573037147522
0.0462828651070594788 0.344365715980529785 0.0572607964277267456
0.118041716516017914 0.344365715980529785 0.154899746179580688
0.218494415283203125 0.344365715980529785 0.183030068874359131
0.0363645963370800018 0.344365715980529785 0.142576277256011963
6.42070153844542801e-05 0.344365715980529785 0.140712335705757141
0.2789040207862854 0.344365715980529785 0.171861708164215088
0.155078709125518799 0.344365715980529785 0.0848076716065406799
0.0787829384207725525 0.344365715980529785 0.0662702322006225586
0.0137181282043457031 0.344365715980529785 0.12206614762544632
0.255758553743362427 0.344365715980529785 0.133440136909484863
0.413312464952468872 0.344365715980529785 0.190766453742980957
0.0214654114097356796 0.344365715980529785 0.15655788779258728
0.0426920093595981598 0.344365715980529785 0.129212141036987305
0.0840212330222129822 0.344365715980529785 0.163368701934814453
0.314729034900665283 0.344365715980529785 0.150439530611038208
0.221894890069961548 0.344365715980529785 0.115843765437602997
0.244529843330383301 0.344365715980529785 0.185162395238876343
0.238164231181144714 0.344365715980529785 0.194123879075050354
0.419876515865325928 0.344365715980529785 0.197198450565338135
0.266554087400436401 0.344365715980529785 0.187981009483337402
0.109921582043170929 0.344365715980529785 0.199335232377052307
0.421035200357437134 0.344365715980529785 0.194766998291015625
0.257875025272369385 0.344365715980529785 0.1183171346783638
0.135616585612297058 0.344365715980529785 0.111109174787998199
0.0263123326003551483 0.344365715980529785 0.0224541127681732178
0.0869717001914978027 0.344365715980529785 0.101136811077594757
0.215891465544700623 0.344365715980529785 0.168419957160949707
0.280025184154510498 0.344365715980529785 0.163056403398513794
0.162373557686805725 0.344365715980529785 0.0746566504240036011
0.118235945701599121 0.344365715980529785 0.171909257769584656
0.0146651575341820717 0.344365715980529785 0.0931400805711746216
0.0894446149468421936 0.344365715980529785 0.0896480455994606018
0.0254463069140911102 0.344365715980529785 0.0550345033407211304
0.00940473098307847977 0.344365715980529785 0.0519372224807739258
0.0116334268823266029 0.344365715980529785 0.145273879170417786
0.173257842659950256 0.344365715980529785 0.144109442830085754
0.136290848255157471 0.344365715980529785 0.182780027389526367
0.106910876929759979 0.344365715980529785 0.0886405706405639648
0.0824033543467521667 0.344365715980529785 0.115206122398376465
0.0307415369898080826 0.344365715980529785 0.142000734806060791
0.314031600952148438 0.344365715980529785 0.183894723653793335
0.0196563750505447388 0.344365715980529785 0.185545057058334351
0.174761146306991577 0.344365715980529785 0.117046438157558441
0.0792178362607955933 0.344365715980529785 0.0405664891004562378
0.262510061264038086 0.344365715980529785 0.144379153847694397
0.00626575108617544174 0.344365715980529785 0.0510048866271972656
0.141894146800041199 0.344365715980529785 0.162990152835845947
0.167579814791679382 0.344365715980529785 0.0835766568779945374
0.140896514058113098 0.344365715980529785 0.121545404195785522
0.024633435532450676 0.344365715980529785 0.0735512673854827881
0.361044824123382568 0.344365715980529785 0.167190536856651306
0.361944496631622314 0.344365715980529785 0.178192019462585449
0.175024032592773438 0.344365715980529785 0.152014076709747314
0.404196470975875854 0.344365715980529785 0.176210865378379822
0.244169816374778748 0.344365715980529785 0.116428256034851074
0.0910638496279716492 0.344365715980529785 0.191192016005516052
0.240409791469573975 0.344365715980529785 0.135208189487457275
0.269615888595581055 0.344365715980529785 0.199517190456390381
0.399994939565658569 0.344365715980529785 0.161904469132423401
0.158308178186416626 0.344365715980529785 0.178147748112678528
0.174233049154281616 0.344365715980529785 0.101877942681312561
0.0225070696324110031 0.344365715980529785 0.0885332152247428894
0.491490304470062256 0.344365715980529785 0.198175027966499329
0.058617372065782547 0.344365715980529785 0.160726040601730347
0.0684544667601585388 0.344365715980529785 0.102933287620544434
0.46869012713432312 0.344365715980529785 0.188535898923873901
0.133603006601333618 0.344365715980529785 0.140360981225967407
0.156573355197906494 0.344365715980529785 0.0906468555331230164
0.0612419247627258301 0.344365715980529785 0.0274480283260345459
0.210918232798576355 0.344365715980529785 0.181011632084846497
0.136291593313217163 0.344365715980529785 0.0682508498430252075
0.162832275032997131 0.344365715980529785 0.130667686462402344
0.362131386995315552 0.344365715980529785 0.168624177575111389
0.123258128762245178 0.344365715980529785 0.0995384231209754944
0.0556976534426212311 0.344365715980529785 0.114432640373706818
0.216475948691368103 0.344365715980529785 0.0888600125908851624
0.140585973858833313 0.344365715980529785 0.187370777130126953
0.254191577434539795 0.344365715980529785 0.150354921817779541
0.046691063791513443 0.344365715980529785 0.0677745342254638672
0.0747741907835006714 0.344365715980529785 0.184580236673355103
0.0568003877997398376 0.344365715980529785 0.0423083603382110596
0.11998690664768219 0.344365715980529785 0.14836515486240387
0.00988822150975465775 0.344365715980529785 0.00601616501808166504
0.463649600744247437 0.344365715980529785 0.19068869948387146
0.152191668748855591 0.344365715980529785 0.113516204059123993
0.0943629518151283264 0.344365715980529785 0.133807450532913208
0.0357093028724193573 0.344365715980529785 0.0579271167516708374
0.268810808658599854 0.344365715980529785 0.111086234450340271
0.21784643828868866 0.344365715980529785 0.124142512679100037
0.0888377651572227478 0.344365715980529785 0.136081218719482422
0.349550068378448486 0.344365715980529785 0.140380650758743286
0.01976764015853405 0.344365715980529785 0.0649819374084472656
0.156544581055641174 0.344365715980529785 0.147312462329864502
0.211180165410041809 0.344365715980529785 0.132236465811729431
0.0177216846495866776 0.344365715980529785 0.12909930944442749
0.265319734811782837 0.344365715980529785 0.143405646085739136
0.381252437829971313 0.344365715980529785 0.174585253000259399
0.139796093106269836 0.344365715980529785 0.170126929879188538
0.0780152678489685059 0.344365715980529785 0.0647111237049102783
0.0672932639718055725 0.344365715980529785 0.094069063663482666
0.01367193553596735 0.344365715980529785 0.106442891061306
0.302026182413101196 0.344365715980529785 0.137560576200485229
0.334044188261032104 0.344365715980529785 0.176439225673675537
0.0668256804347038269 0.344365715980529785 0.0511743873357772827
0.0695746615529060364 0.344365715980529785 0.0752384662628173828
0.1964559406042099 0.344365715980529785 0.171772465109825134
0.239483088254928589 0.344365715980529785 0.175718441605567932
0.0884622931480407715 0.344365715980529785 0.114969260990619659
0.302533775568008423 0.344365715980529785 0.143100976943969727
0.396452963352203369 0.344365715980529785 0.193960875272750854
0.132017210125923157 0.344365715980529785 0.105006597936153412
0.236569955945014954 0.344365715980529785 0.152172520756721497
0.083604760468006134 0.344365715980529785 0.075964026153087616
0.197144746780395508 0.344365715980529785 0.13716377317905426
0.0460879132151603699 0.344365715980529785 0.176980778574943542
0.269246608018875122 0.344365715980529785 0.113987930119037628
0.425020813941955566 0.344365715980529785 0.170120015740394592
0.122308731079101562 0.344365715980529785 0.173069044947624207
0.082556210458278656 0.344365715980529785 0.105263367295265198
0.107481956481933594 0.344365715980529785 0.0527881383895874023
0.00865627080202102661 0.344365715980529785 0.148299545049667358
0.202799171209335327 0.344365715980529785 0.197483912110328674
0.286953210830688477 0.344365715980529785 0.121393546462059021
0.357196956872940063 0.344365715980529785 0.157861769199371338
0.212826624512672424 0.344365715980529785 0.11784941703081131
0.064180418848991394 0.344365715980529785 0.16461537778377533
0.0839683711528778076 0.344365715980529785 0.18663199245929718
0.144864246249198914 0.344365715980529785 0.0734358727931976318
0.0943797528743743896 0.344365715980529785 0.152659446001052856
0.419159263372421265 0.344365715980529785 0.193174585700035095
0.302444607019424438 0.344365715980529785 0.126303583383560181
0.270358949899673462 0.344365715980529785 0.194174304604530334
0.154322654008865356 0.344365715980529785 0.0751106142997741699
0.143478378653526306 0.344365715980529785 0.137523382902145386
0.0916197746992111206 0.344365715980529785 0.0949797630310058594
0.0947655439376831055 0.344365715980529785 0.130881160497665405
0.000704546808265149593 0.344365715980529785 0.156447947025299072
0.261016994714736938 0.344365715980529785 0.162983566522598267
0.161092087626457214 0.344365715980529785 0.12129317969083786
0.146731704473495483 0.344365715980529785 0.0868868380784988403
0.0772530436515808105 0.344365715980529785 0.170821934938430786
0.292136609554290771 0.344365715980529785 0.150961041450500488
0.244678884744644165 0.344365715980529785 0.179135844111442566
0.201942324638366699 0.344365715980529785 0.167610883712768555
0.0995346084237098694 0.344365715980529785 0.0437013208866119385
0.113697834312915802 0.344365715980529785 0.0536587834358215332
0.110974743962287903 0.344365715980529785 0.0547752678394317627
0.0950054079294204712 0.344365715980529785 0.094378940761089325
0.0987164229154586792 0.344365715980529785 0.153027981519699097
0.295381128787994385 0.344365715980529785 0.158933177590370178
0.0441408120095729828 0.344365715980529785 0.0218653976917266846
0.267165929079055786 0.344365715980529785 0.108068495988845825
0.365895777940750122 0.344365715980529785 0.172971010208129883
0.030543474480509758 0.344365715980529785 0.0171650350093841553
0.312191426753997803 0.344365715980529785 0.166947409510612488
0.392701476812362671 0.344365715980529785 0.172603428363800049
0.103576995432376862 0.344365715980529785 0.089705251157283783
0.464301198720932007 0.344365715980529785 0.187479376792907715
0.235812216997146606 0.344365715980529785 0.152179330587387085
0.175560802221298218 0.344365715980529785 0.0879563614726066589
0.162186354398727417 0.344365715980529785 0.0740386396646499634
0.0756182223558425903 0.344365715980529785 0.181240588426589966
0.234795376658439636 0.344365715980529785 0.148250237107276917
0.261903584003448486 0.344365715980529785 0.160606607794761658
0.161512255668640137 0.344365715980529785 0.145328745245933533
0.0488899871706962585 0.344365715980529785 0.1437796950340271
0.0271863676607608795 0.344365715980529785 0.0854708179831504822
0.130164980888366699 0.344365715980529785 0.132394701242446899
0.184219673275947571 0.344365715980529785 0.139521479606628418
0.192679867148399353 0.344365715980529785 0.1159176304936409
0.215562820434570312 0.344365715980529785 0.112711511552333832
0.102434158325195312 0.344365715980529785 0.186209678649902344
0.143906459212303162 0.344365715980529785 0.154713273048400879
0.120961457490921021 0.344365715980529785 0.130163669586181641
0.21864694356918335 0.344365715980529785 0.165058895945549011
0.252108663320541382 0.344365715980529785 0.136355042457580566
0.0293583869934082031 0.344365715980529785 0.15121576189994812
0.0143567416816949844 0.344365715980529785 0.120747826993465424
0.43744206428527832 0.344365715980529785 0.180502206087112427
0.0851883888244628906 0.344365715980529785 0.132159680128097534
0.0130393030121922493 0.344365715980529785 0.107932902872562408
0.25009530782699585 0.344365715980529785 0.173500195145606995
0.226326316595077515 0.344365715980529785 0.185681805014610291
0.303236514329910278 0.344365715980529785 0.179814621806144714
