ply
format ascii 1.0
element vertex 699
property float x
property float y
property float z
end_header
0.0152731910347938538 -0.0626981183886528015 -0.0256178267300128937
0.0118799181655049324 -0.0746565312147140503 -0.0273987539112567902
0.0115369865670800209 -0.0587801970541477203 -0.0275787375867366791
0.0148916151374578476 -0.0590226016938686371 -0.0258180927485227585
0.011441878043115139 -0.0580288395285606384 -0.0276286546140909195
0.0139919780194759369 -0.0621726773679256439 -0.0262902583926916122
0.0150961969047784805 -0.0634075179696083069 -0.02571072056889534
0.0132010392844676971 -0.0614286623895168304 -0.0267053749412298203
0.0128321908414363861 -0.0620276853442192078 -0.0268989615142345428
0.013210042379796505 -0.0592026188969612122 -0.0267006512731313705
0.0150365168228745461 -0.0766621306538581848 -0.0257420409470796585
0.0155697409063577652 -0.0746487602591514587 -0.0254621859639883041
0.0164038650691509247 -0.0674640461802482605 -0.0250244028866291046
0.0120636951178312302 -0.078790910542011261 -0.0273023005574941635
0.0167527850717306137 -0.0601417012512683868 -0.0248412750661373138
0.0148557275533676147 -0.0690702274441719055 -0.0258369278162717819
0.0166741646826267242 -0.0683114826679229736 -0.0248825382441282272
0.015222121961414814 -0.0804863795638084412 -0.0256446301937103271
0.0114228036254644394 -0.0801557824015617371 -0.0276386663317680359
0.0130354948341846466 -0.0745484232902526855 -0.0267922598868608475
0.0156988166272640228 -0.0819155052304267883 -0.025394439697265625
0.0146041307598352432 -0.0764146223664283752 -0.0259689763188362122
0.0075128534808754921 -0.058832261711359024 -0.0288208033889532089
0.00937380827963352203 -0.0587642677128314972 -0.0283621177077293396
0.00701241055503487587 -0.0673738569021224976 -0.0289441514760255814
0.00379543681629002094 -0.0740318223834037781 -0.0297370627522468567
0.00578942615538835526 -0.058399498462677002 -0.0292455889284610748
0.00387726863846182823 -0.0772979259490966797 -0.0297168940305709839
0.00613839412108063698 -0.0636099129915237427 -0.0291595757007598877
0.00639214180409908295 -0.0586483478546142578 -0.0290970336645841599
0.00400319648906588554 -0.0581912100315093994 -0.0296858549118041992
0.00526560097932815552 -0.0642241761088371277 -0.0293747000396251678
0.00590138183906674385 -0.0625341311097145081 -0.0292179938405752182
0.00410929694771766663 -0.0676892846822738647 -0.0296597033739089966
0.00511797936633229256 -0.0819591209292411804 -0.0294110849499702454
0.00826563499867916107 -0.0689885988831520081 -0.0286352578550577164
0.00773835275322198868 -0.0787236616015434265 -0.0287652220577001572
0.00811007246375083923 -0.0721022263169288635 -0.0286736004054546356
0.00881549995392560959 -0.0778358429670333862 -0.0284997299313545227
0.00936519913375377655 -0.0769422724843025208 -0.0283642411231994629
0.0104271881282329559 -0.0787276327610015869 -0.0281024836003780365
0.0085618291050195694 -0.0669065862894058228 -0.0285622533410787582
0.00636514276266098022 -0.081714436411857605 -0.0291036888957023621
0.00873607397079467773 -0.0792082175612449646 -0.0285193063318729401
0.0100729074329137802 -0.0730802267789840698 -0.0281898044049739838
0.0098628755658864975 -0.0645423009991645813 -0.0282415729016065598
-0.00262797367759048939 -0.0692709535360336304 -0.0297812670469284058
-0.00248605338856577873 -0.0714847967028617859 -0.0297812670469284058
0.000550610770005732775 -0.0627028793096542358 -0.0297812670469284058
-0.00331040332093834877 -0.0613539591431617737 -0.0297812670469284058
0.00187780929263681173 -0.0586650557816028595 -0.0297812670469284058
0.00016502459766343236 -0.0644917935132980347 -0.0297812670469284058
-0.00305317877791821957 -0.061999782919883728 -0.0297812670469284058
0.000441065814811736345 -0.0637053996324539185 -0.0297812670469284058
-0.00289826374500989914 -0.0655279234051704407 -0.0297812670469284058
-0.00229390733875334263 -0.0652096569538116455 -0.0297812670469284058
0.000298131257295608521 -0.0610661692917346954 -0.0297812670469284058
0.000780179689172655344 -0.0662543326616287231 -0.0297812670469284058
0.00222162110731005669 -0.0646777600049972534 -0.0297812670469284058
0.00271234777756035328 -0.0651282668113708496 -0.0297812670469284058
0.00130035588517785072 -0.0740464255213737488 -0.0297812670469284058
-0.000385531224310398102 -0.0714993327856063843 -0.0297812670469284058
0.00312982173636555672 -0.0718668848276138306 -0.0297812670469284058
0.000307959155179560184 -0.0801631733775138855 -0.0297812670469284058
0.0011322458740323782 -0.0693475082516670227 -0.0297812670469284058
0.00114875286817550659 -0.0750125870108604431 -0.0297812670469284058
0.000573310069739818573 -0.0734009519219398499 -0.0297812670469284058
-0.000430502695962786674 -0.0740346834063529968 -0.0297812670469284058
0.00201480160467326641 -0.0766753479838371277 -0.0297812670469284058
0.00328725459985435009 -0.0721581056714057922 -0.0297812670469284058
-0.0074284910224378109 -0.0580904595553874969 -0.0288415979593992233
-0.00618491927161812782 -0.0657394304871559143 -0.0291481111198663712
-0.0048218131996691227 -0.0617850050330162048 -0.029484085738658905
-0.00830255541950464249 -0.0719875022768974304 -0.0286261606961488724
-0.00777263706550002098 -0.0602323487401008606 -0.0287567730993032455
-0.00998913682997226715 -0.0729036852717399597 -0.0282104555517435074
-0.0078046722337603569 -0.0675853937864303589 -0.0287488773465156555
-0.00968592613935470581 -0.059580683708190918 -0.0282851904630661011
-0.0100185582414269447 -0.061657831072807312 -0.0282032042741775513
-0.00789059698581695557 -0.068435177206993103 -0.0287276990711688995
-0.00952703878283500671 -0.0679046139121055603 -0.0283243525773286819
-0.0091996537521481514 -0.063709847629070282 -0.0284050460904836655
-0.00627740658819675446 -0.0724912136793136597 -0.0291253160685300827
-0.00757537316530942917 -0.0803081467747688293 -0.0288053937256336212
-0.00635569170117378235 -0.0789973586797714233 -0.02910601906478405
-0.00410136627033352852 -0.0643416792154312134 -0.0296616610139608383
-0.0070155654102563858 -0.0736688748002052307 -0.0289433747529983521
-0.00633554486557841301 -0.077089264988899231 -0.0291109848767518997
-0.00621488038450479507 -0.0798333585262298584 -0.0291407275944948196
-0.0072703259065747261 -0.079570770263671875 -0.028880581259727478
-0.00365920364856719971 -0.0672008618712425232 -0.0297706443816423416
-0.00782395154237747192 -0.0751928836107254028 -0.0287441257387399673
-0.00625992473214864731 -0.0676289424300193787 -0.0291296225041151047
-0.00593720655888319016 -0.0777855589985847473 -0.0292091667652130127
-0.015072869136929512 -0.0719775855541229248 -0.0257229674607515335
-0.0112148448824882507 -0.0581812262535095215 -0.0277478154748678207
-0.0157446712255477905 -0.064960874617099762 -0.0253703780472278595
-0.0159120988100767136 -0.0581892207264900208 -0.0252825058996677399
-0.0143575407564640045 -0.0654087364673614502 -0.026098400354385376
-0.0149442469701170921 -0.0623934641480445862 -0.0257904734462499619
-0.0140564320608973503 -0.0677598193287849426 -0.0262564346194267273
-0.0159883536398410797 -0.0758395493030548096 -0.0252424851059913635
-0.0164257045835256577 -0.0719631686806678772 -0.025012945756316185
-0.0158414822071790695 -0.0769473016262054443 -0.0253195688128471375
-0.0157898254692554474 -0.0596911683678627014 -0.025346679612994194
-0.0161861106753349304 -0.0623210892081260681 -0.0251386929303407669
-0.0135786579921841621 -0.072609342634677887 -0.0265071894973516464
-0.0159103218466043472 -0.0803709179162979126 -0.0252834390848875046
-0.0130141135305166245 -0.0757972300052642822 -0.0268034860491752625
-0.0111756576225161552 -0.0688808262348175049 -0.027768382802605629
-0.0120536098256707191 -0.0767136290669441223 -0.0273075979202985764
-0.0133114233613014221 -0.0782632604241371155 -0.0266474466770887375
-0.0109595470130443573 -0.0763712376356124878 -0.0278818067163228989
-0.0116745242848992348 -0.0642616748809814453 -0.027506556361913681
-0.013202207162976265 -0.0726228728890419006 -0.026704767718911171
-0.0121994651854038239 -0.0764403119683265686 -0.0272310487926006317
-0.0132369156926870346 -0.0703658685088157654 -0.0266865510493516922
-0.0139833064749836922 -0.0726037472486495972 -0.0262948144227266312
-0.0202712491154670715 -0.061536002904176712 -0.0218286048620939255
-0.0190560519695281982 -0.0653065070509910583 -0.0229051746428012848
-0.0195067655295133591 -0.0607430562376976013 -0.0225058775395154953
-0.0193826183676719666 -0.0602598302066326141 -0.0226158611476421356
-0.0177642572671175003 -0.0592298991978168488 -0.0240496024489402771
-0.0224479157477617264 -0.063247285783290863 -0.0199002455919981003
-0.020008571445941925 -0.0628667399287223816 -0.0220613144338130951
-0.0200920235365629196 -0.0675083622336387634 -0.0219873841851949692
-0.018097754567861557 -0.0592765957117080688 -0.0237541515380144119
-0.0219123270362615585 -0.0763578116893768311 -0.0203747358173131943
-0.0210935696959495544 -0.0603809691965579987 -0.0211000889539718628
-0.0197487808763980865 -0.0693079307675361633 -0.0222914703190326691
-0.0186124779284000397 -0.0671033933758735657 -0.0232981443405151367
-0.0181878246366977692 -0.0771359056234359741 -0.023674357682466507
-0.0207204557955265045 -0.0787656158208847046 -0.0214306395500898361
-0.0187337100505828857 -0.0746752992272377014 -0.0231907423585653305
-0.0192802269011735916 -0.0689923837780952454 -0.0227065738290548325
-0.0181370824575424194 -0.0713494569063186646 -0.0237193107604980469
-0.0184719040989875793 -0.0657629221677780151 -0.023422684520483017
-0.0173562709242105484 -0.0629511177539825439 -0.0244110487401485443
-0.0183567460626363754 -0.0755144283175468445 -0.0235247053205966949
-0.0183230265974998474 -0.069527849555015564 -0.023554578423500061
-0.0185602996498346329 -0.0793975219130516052 -0.0233443733304738998
-0.0203516110777854919 -0.074184708297252655 -0.0217574108392000198
-0.0250187385827302933 -0.0617468357086181641 -0.0161799360066652298
-0.0262853093445301056 -0.0793734192848205566 -0.0143449911847710609
-0.0263506174087524414 -0.0692575424909591675 -0.0142503781244158745
-0.0262258946895599365 -0.0705150589346885681 -0.0144310705363750458
-0.0253207199275493622 -0.0671720579266548157 -0.0157424397766590118
-0.0260393712669610977 -0.0705886334180831909 -0.0147012937813997269
-0.0236295182257890701 -0.0623093992471694946 -0.0181925669312477112
-0.0254959780722856522 -0.0680670738220214844 -0.0154885351657867432
-0.0264470446854829788 -0.0674864128232002258 -0.0141106769442558289
-0.0261493343859910965 -0.0724910944700241089 -0.0145419873297214508
-0.0260953009128570557 -0.0747244879603385925 -0.014620266854763031
-0.0261616334319114685 -0.0750972926616668701 -0.0145241674035787582
-0.023743361234664917 -0.0783756077289581299 -0.0180276390165090561
-0.0235936697572469711 -0.0819677412509918213 -0.0182445049285888672
-0.0237547997385263443 -0.0672993510961532593 -0.018011065199971199
-0.0226887650787830353 -0.0684763342142105103 -0.019555484876036644
-0.0227755717933177948 -0.0657654255628585815 -0.0194297246634960175
-0.0254355017095804214 -0.0762996971607208252 -0.0155761511996388435
-0.0250884722918272018 -0.0773147419095039368 -0.0160789098590612411
-0.023118412122130394 -0.073374524712562561 -0.0189330335706472397
-0.0245363004505634308 -0.0771875903010368347 -0.0168788675218820572
-0.0247444529086351395 -0.0802348107099533081 -0.0165773089975118637
-0.0241780597716569901 -0.0720333084464073181 -0.0173978693783283234
-0.0226561762392520905 -0.0709841996431350708 -0.0196026992052793503
-0.0283640921115875244 -0.0595626309514045715 -0.00919440481811761856
-0.027109391987323761 -0.0617251284420490265 -0.0125027811154723167
-0.028376283124089241 -0.0603656694293022156 -0.00916226301342248917
-0.0284628905355930328 -0.0725002437829971313 -0.0089339008554816246
-0.0289597306400537491 -0.0728234723210334778 -0.00762384291738271713
-0.0281763020902872086 -0.0702481493353843689 -0.00968957226723432541
-0.0290461927652359009 -0.0762486234307289124 -0.00739586213603615761
-0.0285985544323921204 -0.0677173659205436707 -0.00857618637382984161
-0.0286935660988092422 -0.0661611482501029968 -0.00832565966993570328
-0.0290905199944972992 -0.0582884550094604492 -0.00727897416800260544
-0.0285275224596261978 -0.0617826730012893677 -0.00876347720623016357
-0.0284883175045251846 -0.0592123344540596008 -0.008866848424077034
-0.0268045049160718918 -0.0681166276335716248 -0.0133067034184932709
-0.0274206250905990601 -0.0689865723252296448 -0.0116821248084306717
-0.0288790743798017502 -0.0806975960731506348 -0.00783651415258646011
-0.0279682260006666183 -0.0792807862162590027 -0.0102382255718111992
-0.0272550303488969803 -0.07837706059217453 -0.0121187632903456688
-0.0278736874461174011 -0.0815453603863716125 -0.0104874996468424797
-0.0269411373883485794 -0.0794086679816246033 -0.0129464361816644669
-0.0272440183907747269 -0.0781219750642776489 -0.0121478019282221794
-0.0274690855294466019 -0.07044973224401474 -0.0115543492138385773
-0.027225349098443985 -0.0687246918678283691 -0.012197030708193779
-0.0271166469901800156 -0.0713795945048332214 -0.0124836508184671402
-0.026726309210062027 -0.0702169761061668396 -0.0135128907859325409
-0.0298495553433895111 -0.0718878954648971558 -0.00123905681539326906
-0.0294164717197418213 -0.0647855028510093689 -0.00480581913143396378
-0.0296061411499977112 -0.0616847537457942963 -0.00324374809861183167
-0.0298112910240888596 -0.0767643526196479797 -0.00155419786460697651
-0.0297849122434854507 -0.0709433183073997498 -0.00177144201006740332
-0.0298692956566810608 -0.0745480060577392578 -0.00107647839467972517
-0.029490223154425621 -0.0630793794989585876 -0.00419841334223747253
-0.0298939589411020279 -0.0681545734405517578 -0.000873357465025037527
-0.0292558073997497559 -0.0602286793291568756 -0.00612900452688336372
-0.0295539889484643936 -0.0584953166544437408 -0.00367325916886329651
-0.0295219589024782181 -0.064304158091545105 -0.00393705675378441811
-0.0298361890017986298 -0.0597257316112518311 -0.00134912284556776285
-0.0295270644128322601 -0.0733342394232749939 -0.00389501475729048252
-0.0293595306575298309 -0.0746443495154380798 -0.00527477264404296875
-0.0292179714888334274 -0.0751493796706199646 -0.0064406110905110836
-0.0293022524565458298 -0.0796295255422592163 -0.00574650242924690247
-0.0291673634201288223 -0.0660110637545585632 -0.00685739610344171524
-0.0296025872230529785 -0.0795714259147644043 -0.00327301677316427231
-0.0295725632458925247 -0.0773113444447517395 -0.00352029292844235897
-0.0294442716985940933 -0.0786979794502258301 -0.00457688421010971069
-0.0291908867657184601 -0.0721782892942428589 -0.00666367262601852417
-0.0292832404375076294 -0.0732495486736297607 -0.00590307358652353287
-0.0295500010251998901 -0.0725975483655929565 -0.00370611087419092655
-0.0291844476014375687 -0.0751839503645896912 -0.00671672262251377106
0.0239244904369115829 -0.0820000022649765015 -0.0261254459619522095
0.0231848824769258499 -0.0820000022649765015 -0.028023621067404747
0.0212397854775190353 -0.0820000022649765015 -0.0249291490763425827
0.0223559159785509109 -0.0820000022649765015 -0.0273857489228248596
0.0189931448549032211 -0.0820000022649765015 -0.0271917935460805893
0.0211384501308202744 -0.0820000022649765015 -0.0213738158345222473
0.0227505750954151154 -0.0820000022649765015 -0.0204448029398918152
0.0209889709949493408 -0.0820000022649765015 -0.0229647122323513031
0.023734627291560173 -0.0820000022649765015 -0.0229218341410160065
0.0304509736597537994 -0.0820000022649765015 -0.019763212651014328
0.0324954912066459656 -0.0820000022649765015 -0.0175373777747154236
0.0282004270702600479 -0.0820000022649765015 -0.0200640037655830383
0.0293142367154359818 -0.0820000022649765015 -0.0170486792922019958
0.0299946330487728119 -0.0820000022649765015 -0.0183553863316774368
0.0257495027035474777 -0.0820000022649765015 -0.0214793961495161057
0.0269078537821769714 -0.0820000022649765015 -0.0234878771007061005
0.0272278487682342529 -0.0820000022649765015 -0.0225128903985023499
0.0146177401766180992 -0.0820000022649765015 -0.0312148500233888626
0.0123297944664955139 -0.0820000022649765015 -0.0322428420186042786
0.0132491905242204666 -0.0820000022649765015 -0.033489525318145752
0.0196599774062633514 -0.0820000022649765015 -0.0305068306624889374
0.0176492687314748764 -0.0820000022649765015 -0.0256647542119026184
0.01509874127805233 -0.0820000022649765015 -0.0288131497800350189
0.0185106135904788971 -0.0820000022649765015 -0.0288346372544765472
0.0334169641137123108 -0.0820000022649765015 -0.0161848068237304688
0.0345826558768749237 -0.0820000022649765015 -0.0128991268575191498
0.0313683599233627319 -0.0820000022649765015 -0.0112905222922563553
0.0316409319639205933 -0.0820000022649765015 -0.0120119731873273849
0.0328906439244747162 -0.0820000022649765015 -0.0143846720457077026
0.0287764575332403183 -0.0820000022649765015 -0.0113120554015040398
0.031220579519867897 -0.0820000022649765015 -0.0154409827664494514
0.03002135269343853 -0.0820000022649765015 -0.0129875699058175087
0.0299181658774614334 -0.0820000022649765015 -0.0112557029351592064
0.00641872454434633255 -0.0820000022649765015 -0.031817905604839325
0.00972364470362663269 -0.0820000022649765015 -0.0357028655707836151
0.00482576293870806694 -0.0820000022649765015 -0.0319202020764350891
0.00752590829506516457 -0.0820000022649765015 -0.034625031054019928
0.00686987116932868958 -0.0820000022649765015 -0.0334906652569770813
0.0110524175688624382 -0.0820000022649765015 -0.0321263223886489868
0.00478610862046480179 -0.0820000022649765015 -0.0295107997953891754
0.00849042460322380066 -0.0820000022649765015 -0.0308884810656309128
0.00832955911755561829 -0.0820000022649765015 -0.031178036704659462
0.0339734330773353577 -0.0820000022649765015 -0.00369027187116444111
0.0356030687689781189 -0.0820000022649765015 -0.00751978438347578049
0.0332107953727245331 -0.0820000022649765015 -0.00321333901956677437
0.0338367410004138947 -0.0820000022649765015 -0.00522911408916115761
0.036449730396270752 -0.0820000022649765015 -0.00109305034857243299
0.0315540581941604614 -0.0820000022649765015 -0.00727631431072950363
0.0325952842831611633 -0.0820000022649765015 -0.00386352790519595146
0.0301774963736534119 -0.0820000022649765015 -0.00462296931073069572
0.0355513431131839752 -0.0820000022649765015 -0.00858226511627435684
0.00311550218611955643 -0.0820000022649765015 -0.0364841632544994354
-0.00319486320950090885 -0.0820000022649765015 -0.0310431085526943207
-0.00208054692484438419 -0.0820000022649765015 -0.0333496220409870148
-0.000824063143227249384 -0.0820000022649765015 -0.032458033412694931
0.00312675652094185352 -0.0820000022649765015 -0.0348904840648174286
0.00392735470086336136 -0.0820000022649765015 -0.0353783741593360901
-0.000532621517777442932 -0.0820000022649765015 -0.0308358389884233475
0.00135199353098869324 -0.0820000022649765015 -0.0339821353554725647
0.0329263880848884583 -0.0820000022649765015 0.00719369249418377876
0.0359815135598182678 -0.0820000022649765015 0.00575829716399312019
0.0339722111821174622 -0.0820000022649765015 0.00522495061159133911
0.0356537513434886932 -0.0820000022649765015 0.00728130713105201721
0.0316428244113922119 -0.0820000022649765015 0.00294023752212524414
0.0315927080810070038 -0.0820000022649765015 0.00428291922435164452
0.0305959414690732956 -0.0820000022649765015 0.00137649523094296455
0.0300507433712482452 -0.0820000022649765015 0.00577721977606415749
-0.0113887842744588852 -0.0820000022649765015 -0.0325136519968509674
-0.010519854724407196 -0.0820000022649765015 -0.0340427346527576447
-0.0108989980071783066 -0.0820000022649765015 -0.0320291891694068909
-0.010567941702902317 -0.0820000022649765015 -0.0353816673159599304
-0.00952748581767082214 -0.0820000022649765015 -0.0337847620248794556
-0.00839787907898426056 -0.0820000022649765015 -0.0296289101243019104
-0.00418058643117547035 -0.0820000022649765015 -0.0306568164378404617
-0.00580269936472177505 -0.0820000022649765015 -0.0299795381724834442
-0.00460288301110267639 -0.0820000022649765015 -0.0302472803741693497
0.0349785760045051575 -0.0820000022649765015 0.00971235055476427078
0.0339583232998847961 -0.0820000022649765015 0.0133647145703434944
0.0342524163424968719 -0.0820000022649765015 0.01028453279286623
0.033055480569601059 -0.0820000022649765015 0.0166362226009368896
0.0320636443793773651 -0.0820000022649765015 0.0146496864035725594
0.0321375913918018341 -0.0820000022649765015 0.00912522058933973312
0.0273331888020038605 -0.0820000022649765015 0.0122810788452625275
0.0287394803017377853 -0.0820000022649765015 0.0115299168974161148
0.0317409150302410126 -0.0820000022649765015 0.0081280246376991272
-0.0168848764151334763 -0.0820000022649765015 -0.0297308694571256638
-0.0169689338654279709 -0.0820000022649765015 -0.0315686315298080444
-0.0159816015511751175 -0.0820000022649765015 -0.0292055327445268631
-0.017153572291135788 -0.0820000022649765015 -0.0253591760993003845
-0.0166114456951618195 -0.0820000022649765015 -0.0291084907948970795
-0.0157280787825584412 -0.0820000022649765015 -0.028018515557050705
-0.0150016462430357933 -0.0820000022649765015 -0.0275285877287387848
-0.0148106841370463371 -0.0820000022649765015 -0.0287456493824720383
-0.0156841203570365906 -0.0820000022649765015 -0.0275453254580497742
0.0269534531980752945 -0.0820000022649765015 0.0222551058977842331
0.0269479192793369293 -0.0820000022649765015 0.0226084534078836441
0.0267666224390268326 -0.0820000022649765015 0.0197287946939468384
0.0274462606757879257 -0.0820000022649765015 0.0197403132915496826
0.0245182495564222336 -0.0820000022649765015 0.018751051276922226
0.0257472582161426544 -0.0820000022649765015 0.0162336193025112152
0.028478473424911499 -0.0820000022649765015 0.0181608404964208603
0.0241452790796756744 -0.0820000022649765015 0.0183475911617279053
-0.0249151848256587982 -0.0819999948143959045 -0.0241401921957731247
-0.0245759934186935425 -0.0820000022649765015 -0.022515399381518364
-0.0207042023539543152 -0.0820000022649765015 -0.0240812245756387711
-0.0244514346122741699 -0.0819999948143959045 -0.0232671778649091721
-0.0208572167903184891 -0.0820000022649765015 -0.029245574027299881
-0.022355424240231514 -0.0820000022649765015 -0.0263968780636787415
-0.0215272493660449982 -0.0820000022649765015 -0.0248063504695892334
-0.0190418753772974014 -0.0820000022649765015 -0.0273712575435638428
-0.0212292168289422989 -0.0820000022649765015 -0.0299242176115512848
0.0219024382531642914 -0.0820000022649765015 0.0205688048154115677
0.0187612753361463547 -0.0820000022649765015 0.0271432995796203613
0.0207967553287744522 -0.0820000022649765015 0.0265436936169862747
0.0215805377811193466 -0.0820000022649765015 0.023114493116736412
0.0259643662720918655 -0.0820000022649765015 0.0258097071200609207
0.0229320600628852844 -0.0820000022649765015 0.0227703042328357697
0.0257663540542125702 -0.0820000022649765015 0.0252627227455377579
0.0255443528294563293 -0.0820000022649765015 0.022946532815694809
0.0218135789036750793 -0.0820000022649765015 0.0282795336097478867
-0.0289091095328330994 -0.0819999948143959045 -0.0157132390886545181
-0.025934465229511261 -0.0819999948143959045 -0.015347776934504509
-0.0290628392249345779 -0.0820000022649765015 -0.0162413064390420914
-0.0303849168121814728 -0.0819999948143959045 -0.0166174266487360001
-0.0252833068370819092 -0.0820000022649765015 -0.020502917468547821
-0.0280855204910039902 -0.0819999948143959045 -0.0226875133812427521
-0.0275221429765224457 -0.0819999948143959045 -0.021719176322221756
-0.0297251753509044647 -0.0819999948143959045 -0.0223904680460691452
-0.0260379090905189514 -0.0820000022649765015 -0.0204210225492715836
0.014032537117600441 -0.0820000022649765015 0.03441610187292099
0.0173896215856075287 -0.0820000022649765015 0.0304772723466157913
0.0163900572806596756 -0.0820000022649765015 0.0291556511074304581
0.0206036418676376343 -0.0820000022649765015 0.030230991542339325
0.0188337638974189758 -0.0820000022649765015 0.0276022851467132568
0.0130935357883572578 -0.0820000022649765015 0.0340565666556358337
0.0147328581660985947 -0.0820000022649765015 0.0300970785319805145
0.0133968237787485123 -0.0820000022649765015 0.031479276716709137
0.0138304242864251137 -0.0820000022649765015 0.0307786725461483002
-0.0346854403614997864 -0.0819999948143959045 -0.0110979489982128143
-0.0328671559691429138 -0.0819999948143959045 -0.0137746147811412811
-0.032420281320810318 -0.0819999948143959045 -0.0138463079929351807
-0.0337154865264892578 -0.0819999948143959045 -0.010374770499765873
-0.031513601541519165 -0.0819999948143959045 -0.0149331046268343925
-0.0314803831279277802 -0.0819999948143959045 -0.0104367677122354507
-0.0298226568847894669 -0.0819999948143959045 -0.0118090230971574783
-0.0289968810975551605 -0.0819999948143959045 -0.00865329243242740631
-0.0294550526887178421 -0.0819999948143959045 -0.0109242377802729607
0.00659381365403532982 -0.0820000022649765015 0.0352205336093902588
0.0100072640925645828 -0.0820000022649765015 0.0312436539679765701
0.0110201239585876465 -0.0820000022649765015 0.0356126576662063599
0.00830662157386541367 -0.0820000022649765015 0.0343491509556770325
0.0107956025749444962 -0.0820000022649765015 0.0351598598062992096
0.0075023481622338295 -0.0820000022649765015 0.0309472717344760895
0.00600485363975167274 -0.0820000022649765015 0.0323839262127876282
0.00597256049513816833 -0.0820000022649765015 0.0329617895185947418
0.0093245403841137886 -0.0820000022649765015 0.028509603813290596
-0.0361770428717136383 -0.0819999948143959045 -0.00583357829600572586
-0.0366983674466609955 -0.0819999948143959045 -0.00442479411140084267
-0.0345354937016963959 -0.0819999948143959045 -0.00615490879863500595
-0.0365204401314258575 -0.0819999948143959045 -0.00662261713296175003
-0.0330763161182403564 -0.0819999948143959045 -0.00666974997147917747
-0.0306887384504079819 -0.0819999948143959045 -0.00037711096229031682
-0.0307262949645519257 -0.0819999948143959045 -0.00263232504948973656
-0.0348825268447399139 -0.0819999948143959045 -0.00155129190534353256
-0.00209783203899860382 -0.0820000022649765015 0.0309579428285360336
0.00125747779384255409 -0.0820000022649765015 0.0306306872516870499
-0.00131741724908351898 -0.0820000022649765015 0.0303742103278636932
-0.00115500460378825665 -0.0820000022649765015 0.0320349745452404022
0.00153921544551849365 -0.0820000022649765015 0.0369100011885166168
0.0026406522374600172 -0.0820000022649765015 0.0326338186860084534
-0.000342932064086198807 -0.0820000022649765015 0.0367564335465431213
0.00356842181645333767 -0.0820000022649765015 0.0308542028069496155
0.00266441516578197479 -0.0820000022649765015 0.0350543446838855743
-0.0296272449195384979 -0.0819999948143959045 0.00546718481928110123
-0.0314899943768978119 -0.0819999948143959045 0.00704450346529483795
-0.0308112036436796188 -0.0819999948143959045 0.00452492991462349892
-0.0345354527235031128 -0.0819999948143959045 0.00188068009447306395
-0.0371879860758781433 -0.0819999948143959045 0.00105751398950815201
-0.035864703357219696 -0.0819999948143959045 0.00236458308063447475
-0.0369667820632457733 -0.0819999948143959045 0.00210037454962730408
-0.00714820297434926033 -0.0820000022649765015 0.031042635440826416
-0.0117318853735923767 -0.0820000022649765015 0.0313110537827014923
-0.0113960616290569305 -0.0820000022649765015 0.030148576945066452
-0.0115237170830368996 -0.0820000022649765015 0.0304606631398200989
-0.00420370092615485191 -0.0820000022649765015 0.0309015437960624695
-0.00585853355005383492 -0.0820000022649765015 0.0358729138970375061
-0.00560994399711489677 -0.0820000022649765015 0.0350525751709938049
-0.00444603804498910904 -0.0820000022649765015 0.0361717641353607178
-0.0287674684077501297 -0.0819999948143959045 0.0133349914103746414
-0.0298674516379833221 -0.0819999948143959045 0.012654576450586319
-0.0309861823916435242 -0.0819999948143959045 0.0121651329100131989
-0.0308982059359550476 -0.0819999948143959045 0.0162125322967767715
-0.0350103266537189484 -0.0819999948143959045 0.0108206132426857948
-0.0316418595612049103 -0.0819999948143959045 0.011768328957259655
-0.0299898684024810791 -0.0819999948143959045 0.00746762845665216446
-0.0327826142311096191 -0.0819999948143959045 0.0106925778090953827
-0.0155713064596056938 -0.0820000022649765015 0.0325740724802017212
-0.0120224952697753906 -0.0820000022649765015 0.0295932460576295853
-0.0141589585691690445 -0.0820000022649765015 0.032519947737455368
-0.015716182067990303 -0.0820000022649765015 0.0306882765144109726
-0.0162793118506669998 -0.0820000022649765015 0.0319754853844642639
-0.0147930551320314407 -0.0820000022649765015 0.0265988744795322418
-0.0150835542008280754 -0.0820000022649765015 0.0277679525315761566
-0.0158869232982397079 -0.0820000022649765015 0.0290062129497528076
-0.0168035402894020081 -0.0820000022649765015 0.028649618849158287
-0.0261813271790742874 -0.0819999948143959045 0.0226764772087335587
-0.0266943406313657761 -0.0819999948143959045 0.0161093398928642273
-0.0260570142418146133 -0.0819999948143959045 0.0216438956558704376
-0.0209366027265787125 -0.0820000022649765015 0.0220888052135705948
-0.0225057974457740784 -0.0820000022649765015 0.0210710763931274414
-0.0257858224213123322 -0.0819999948143959045 0.0231145117431879044
-0.0268072374165058136 -0.0819999948143959045 0.0245462767779827118
-0.0214160643517971039 -0.0820000022649765015 0.0264463666826486588
-0.0186529122292995453 -0.0820000022649765015 0.0252754613757133484
-0.0222876947373151779 -0.0820000022649765015 0.0273369532078504562
-0.0211363621056079865 -0.0820000022649765015 0.0249402076005935669
-0.0292720142751932144 -0.0819999948143959045 0.0193496700376272202
-0.0293884389102458954 -0.0819999948143959045 0.018557058647274971
-0.0324266068637371063 -0.0819999948143959045 0.0184893738478422165
-0.029551677405834198 -0.0819999948143959045 0.0200788360089063644
-0.0278539489954710007 -0.0819999948143959045 0.0204176846891641617
0.0253743473440408707 -0.0580000020563602448 -0.0249890200793743134
0.0186344608664512634 -0.0580000020563602448 -0.0255617443472146988
0.0207321848720312119 -0.0580000020563602448 -0.0275234058499336243
0.0190013814717531204 -0.0580000020563602448 -0.0248974151909351349
0.0225830003619194031 -0.0580000020563602448 -0.0234485752880573273
0.0220870524644851685 -0.0580000020563602448 -0.0242978744208812714
0.0261443033814430237 -0.0580000020563602448 -0.0242496822029352188
0.0231537222862243652 -0.0580000020563602448 -0.0239855144172906876
0.0289024021476507187 -0.0580000020563602448 -0.0185840316116809845
0.0293861106038093567 -0.0580000020563602448 -0.0176246780902147293
0.0283634103834629059 -0.0580000020563602448 -0.0182063989341259003
0.0288078971207141876 -0.0580000020563602448 -0.0216882545500993729
0.0249987617135047913 -0.0580000020563602448 -0.0213767122477293015
0.0260658301413059235 -0.0580000020563602448 -0.0165154356509447098
0.0265280026942491531 -0.0580000020563602448 -0.0188882332295179367
0.026692291721701622 -0.0580000020563602448 -0.016740109771490097
0.015236816368997097 -0.0580000020563602448 -0.0325671173632144928
0.011781289242208004 -0.0580000020563602448 -0.0286031328141689301
0.013639131560921669 -0.0580000020563602448 -0.0336338058114051819
0.0115411244332790375 -0.0580000020563602448 -0.0293846782296895981
0.0151593536138534546 -0.0580000020563602448 -0.0311177745461463928
0.0199324749410152435 -0.0580000020563602448 -0.0293325502425432205
0.0136371748521924019 -0.0580000020563602448 -0.0277432482689619064
0.014284033328294754 -0.0580000020563602448 -0.026338597759604454
0.0162598546594381332 -0.0580000020563602448 -0.0286385267972946167
0.0308001264929771423 -0.0580000020563602448 -0.00857638567686080933
0.0306203849613666534 -0.0580000020563602448 -0.0103187542408704758
0.0307789016515016556 -0.0580000020563602448 -0.0105227772146463394
0.0307178609073162079 -0.0580000020563602448 -0.0102546466514468193
0.0324731655418872833 -0.0580000020563602448 -0.00962013192474842072
0.0289316866546869278 -0.0580000020563602448 -0.00932889524847269058
0.0278711803257465363 -0.0580000020563602448 -0.0143282786011695862
0.0302761215716600418 -0.0580000020563602448 -0.0117353368550539017
0.0293070562183856964 -0.0580000020563602448 -0.0114236306399106979
0.00536821223795413971 -0.0580000020563602448 -0.0310905631631612778
0.0117036392912268639 -0.0580000020563602448 -0.0347200632095336914
0.0103607634082436562 -0.0580000020563602448 -0.0339549146592617035
0.00602176086977124214 -0.0580000020563602448 -0.0355977192521095276
0.0044077984057366848 -0.0580000020563602448 -0.0355729945003986359
0.0111785642802715302 -0.0580000020563602448 -0.0304141901433467865
0.0123067013919353485 -0.0580000020563602448 -0.0343916267156600952
0.00504121696576476097 -0.0580000020563602448 -0.0305539127439260483
0.0331077314913272858 -0.0580000020563602448 -0.00179348827805370092
0.0361181460320949554 -0.0580000020563602448 -0.000465874531073495746
0.0362219810485839844 -0.0580000020563602448 -0.00576339475810527802
0.0320268198847770691 -0.0580000020563602448 -0.00203040242195129395
0.0350057817995548248 -0.0580000020563602448 -0.00850568618625402451
0.0307480692863464355 -0.0580000020563602448 -0.00621804827824234962
0.0311491675674915314 -0.0580000020563602448 -0.00583484861999750137
0.0346677228808403015 -0.0580000020563602448 -0.00684231659397482872
0.00260210153646767139 -0.0580000020563602448 -0.0364929027855396271
-0.00247789081186056137 -0.0579999983310699463 -0.0342372730374336243
-0.00377261056564748287 -0.0579999983310699463 -0.0331314168870449066
0.00152820872608572245 -0.0580000020563602448 -0.0365095250308513641
-0.00255851843394339085 -0.0579999983310699463 -0.0348245985805988312
-0.000106852501630783081 -0.0579999983310699463 -0.0323946774005889893
-0.00298424414359033108 -0.0579999983310699463 -0.0298695433884859085
0.00381291098892688751 -0.0580000020563602448 -0.0338334515690803528
0.0356281101703643799 -0.0580000020563602448 0.00532356835901737213
0.0370310395956039429 -0.0580000020563602448 0.00324688572436571121
0.0346609018743038177 -0.0580000020563602448 0.00722865061834454536
0.0359038747847080231 -0.0580000020563602448 0.00379697605967521667
0.0327552519738674164 -0.0580000020563602448 0.00411952752619981766
0.0303137917071580887 -0.0580000020563602448 0.00600464362651109695
0.0300806351006031036 -0.0580000020563602448 0.0052362498827278614
0.0363738909363746643 -0.0580000020563602448 0.000877700978890061378
0.0302991531789302826 -0.0580000020563602448 0.00325642363168299198
-0.0117185013368725777 -0.0579999983310699463 -0.0311023704707622528
-0.00605393201112747192 -0.0579999983310699463 -0.0352001972496509552
-0.0112793371081352234 -0.0579999983310699463 -0.0312298871576786041
-0.0081345774233341217 -0.0579999983310699463 -0.0361740589141845703
-0.00725369155406951904 -0.0579999983310699463 -0.0324245095252990723
-0.00557289272546768188 -0.0579999983310699463 -0.030111800879240036
-0.00586314499378204346 -0.0579999983310699463 -0.0348269529640674591
-0.00514511670917272568 -0.0579999983310699463 -0.0326516628265380859
0.0331887081265449524 -0.0580000020563602448 0.0155263794586062431
0.0337647907435894012 -0.0580000020563602448 0.0134510025382041931
0.02956414595246315 -0.0580000020563602448 0.0141108660027384758
0.0306045971810817719 -0.0580000020563602448 0.0145850358530879021
0.0291413404047489166 -0.0580000020563602448 0.0142501695081591606
0.0308455191552639008 -0.0580000020563602448 0.00779646774753928185
0.0316384509205818176 -0.0580000020563602448 0.0106790652498602867
0.0289335381239652634 -0.0580000020563602448 0.0104313939809799194
0.0299730151891708374 -0.0580000020563602448 0.00768827972933650017
-0.016054810956120491 -0.0579999983310699463 -0.0323475487530231476
-0.0182108115404844284 -0.0579999983310699463 -0.027771826833486557
-0.0167614035308361053 -0.0579999983310699463 -0.0322366207838058472
-0.0152926770970225334 -0.0579999983310699463 -0.0311649739742279053
-0.0135212820023298264 -0.0579999983310699463 -0.0312077850103378296
-0.0117902848869562149 -0.0579999983310699463 -0.02907521091401577
-0.0128244776278734207 -0.0579999983310699463 -0.0335519462823867798
0.0317530035972595215 -0.0580000020563602448 0.0186817850917577744
0.0296900384128093719 -0.0580000020563602448 0.0185403469949960709
0.0311864204704761505 -0.0580000020563602448 0.0198411140590906143
0.0265324413776397705 -0.0580000020563602448 0.0223424602299928665
0.025396173819899559 -0.0580000020563602448 0.0218374487012624741
0.0299770869314670563 -0.0580000020563602448 0.0177777521312236786
0.0297184344381093979 -0.0580000020563602448 0.0157301817089319229
0.0258790943771600723 -0.0580000020563602448 0.0183456670492887497
0.0259416047483682632 -0.0580000020563602448 0.0160178318619728088
-0.0191827248781919479 -0.0579999983310699463 -0.0233809705823659897
-0.0216673985123634338 -0.0579999983310699463 -0.0226524285972118378
-0.0191316213458776474 -0.0579999983310699463 -0.0230750441551208496
-0.0196633078157901764 -0.0579999983310699463 -0.0267527643591165543
-0.0242164209485054016 -0.0579999983310699463 -0.0279805883765220642
-0.0273898988962173462 -0.0579999983310699463 -0.0254404917359352112
-0.02368922159075737 -0.0579999983310699463 -0.0272451955825090408
-0.0234470497816801071 -0.0579999983310699463 -0.0271585434675216675
0.0194577760994434357 -0.0580000020563602448 0.0250756740570068359
0.0184187479317188263 -0.0580000020563602448 0.0234730355441570282
0.02056170254945755 -0.0580000020563602448 0.0266131870448589325
0.0190174970775842667 -0.0580000020563602448 0.0272097252309322357
0.0237332563847303391 -0.0580000020563602448 0.024651799350976944
0.0258336439728736877 -0.0580000020563602448 0.0245026685297489166
0.0227874666452407837 -0.0580000020563602448 0.0290836542844772339
0.0251491926610469818 -0.0580000020563602448 0.0256742704659700394
0.0250342600047588348 -0.0580000020563602448 0.0235116630792617798
-0.0254747271537780762 -0.0579999983310699463 -0.018772440031170845
-0.0297323539853096008 -0.0579999983310699463 -0.0177284330129623413
-0.027261584997177124 -0.0579999983310699463 -0.0172226987779140472
-0.0291929487138986588 -0.0579999983310699463 -0.0205332003533840179
-0.0242547374218702316 -0.0579999983310699463 -0.0212184414267539978
-0.02474178746342659 -0.0579999983310699463 -0.0214170776307582855
-0.0273741893470287323 -0.0579999983310699463 -0.0218217037618160248
-0.0306811165064573288 -0.0579999983310699463 -0.0208290871232748032
0.0188537184149026871 -0.0580000020563602448 0.0282717645168304443
0.0194709412753582001 -0.0580000020563602448 0.0304570812731981277
0.0162119437009096146 -0.0580000020563602448 0.0330573879182338715
0.0166860949248075485 -0.0580000020563602448 0.03261551633477211
0.0185777563601732254 -0.0580000020563602448 0.0295792184770107269
0.0128643596544861794 -0.0580000020563602448 0.0305251851677894592
0.0137377353385090828 -0.0580000020563602448 0.0303297359496355057
0.0149222901090979576 -0.0580000020563602448 0.0295446291565895081
0.0120590738952159882 -0.0580000020563602448 0.0293164476752281189
-0.0317754484713077545 -0.0579999983310699463 -0.0124646564945578575
-0.0327001102268695831 -0.0579999983310699463 -0.0163899622857570648
-0.0322897545993328094 -0.0579999983310699463 -0.0127056380733847618
-0.0294933933764696121 -0.0579999983310699463 -0.0150354085490107536
-0.0309689193964004517 -0.0579999983310699463 -0.011290297843515873
-0.0295290518552064896 -0.0579999983310699463 -0.0113728418946266174
-0.0301779881119728088 -0.0579999983310699463 -0.00775865698233246803
-0.027884703129529953 -0.0579999983310699463 -0.0121792331337928772
0.00840195640921592712 -0.0580000020563602448 0.034608449786901474
0.00734566431492567062 -0.0580000020563602448 0.0346193015575408936
0.00864476989954710007 -0.0580000020563602448 0.0352766700088977814
0.0103608136996626854 -0.0580000020563602448 0.0350245311856269836
0.00586653128266334534 -0.0580000020563602448 0.0308931209146976471
0.00568197201937437057 -0.0580000020563602448 0.0347342304885387421
0.00982262101024389267 -0.0580000020563602448 0.0290171205997467041
0.00586848007515072823 -0.0580000020563602448 0.0337326154112815857
-0.031111542135477066 -0.0579999983310699463 -0.00605116086080670357
-0.0351394563913345337 -0.0579999983310699463 -0.00775237660855054855
-0.0366796813905239105 -0.0579999983310699463 -0.00335653172805905342
-0.0326285064220428467 -0.0579999983310699463 -0.00624724011868238449
-0.0301008131355047226 -0.0579999983310699463 -9.28390218177810311e-05
-0.0357371456921100616 -0.0579999983310699463 -0.000567108392715454102
-0.0326156318187713623 -0.0579999983310699463 -7.09031301084905863e-05
-0.0021548103541135788 -0.0579999983310699463 0.0322306565940380096
-0.0037025760393589735 -0.0579999983310699463 0.0347117520868778229
-0.00120112497825175524 -0.0579999983310699463 0.0335414223372936249
0.00166579440701752901 -0.0580000020563602448 0.0309978611767292023
0.0011281109182164073 -0.0579999983310699463 0.0359649471938610077
0.00293733645230531693 -0.0580000020563602448 0.0349261574447154999
0.00043068290688097477 -0.0579999983310699463 0.0343814007937908173
0.00377830327488481998 -0.0580000020563602448 0.0322929657995700836
-0.0306978225708007812 -0.0579999983310699463 0.00453791208565235138
-0.0317617431282997131 -0.0579999983310699463 0.00464540999382734299
-0.0310693420469760895 -0.0579999983310699463 0.00716495700180530548
-0.0333848074078559875 -0.0579999983310699463 0.00675537902861833572
-0.032305348664522171 -0.0579999983310699463 0.000423514284193515778
-0.0356957688927650452 -0.0579999983310699463 0.00456519890576601028
-0.0360114201903343201 -0.0579999983310699463 0.00769465696066617966
-0.0352660529315471649 -0.0579999983310699463 0.00679403729736804962
-0.0307199452072381973 -0.0579999983310699463 0.000159171642735600471
-0.00853656232357025146 -0.0579999983310699463 0.0296587757766246796
-0.0108314724639058113 -0.0579999983310699463 0.0294030681252479553
-0.00617882376536726952 -0.0579999983310699463 0.0305535942316055298
-0.00553558114916086197 -0.0579999983310699463 0.0351078696548938751
-0.00514303892850875854 -0.0579999983310699463 0.0313930325210094452
-0.00884705223143100739 -0.0579999983310699463 0.0349703766405582428
-0.00732194306328892708 -0.0579999983310699463 0.034149613231420517
-0.0120075717568397522 -0.0579999983310699463 0.0345876850187778473
-0.0303353350609540939 -0.0579999983310699463 0.0138238174840807915
-0.0296883750706911087 -0.0579999983310699463 0.0130782183259725571
-0.0284821540117263794 -0.0579999983310699463 0.0107248704880475998
-0.0309210233390331268 -0.0579999983310699463 0.0155182778835296631
-0.0322068221867084503 -0.0579999983310699463 0.0121623808518052101
-0.0310618672519922256 -0.0579999983310699463 0.0106706302613019943
-0.0305144377052783966 -0.0579999983310699463 0.00786370877176523209
-0.0345233343541622162 -0.0579999983310699463 0.0136547116562724113
-0.0324029289186000824 -0.0579999983310699463 0.00823013670742511749
-0.0131143610924482346 -0.0579999983310699463 0.0309052355587482452
-0.0146692534908652306 -0.0579999983310699463 0.0300453118979930878
-0.0146836899220943451 -0.0579999983310699463 0.0335804782807826996
-0.0163509994745254517 -0.0579999983310699463 0.0297689344733953476
-0.0200159233063459396 -0.0579999983310699463 0.0291281528770923615
-0.0191631857305765152 -0.0579999983310699463 0.0297465696930885315
-0.0125948712229728699 -0.0579999983310699463 0.0280253402888774872
-0.0267180595546960831 -0.0579999983310699463 0.022520158439874649
-0.0261857602745294571 -0.0579999983310699463 0.0212162453681230545
-0.0233770124614238739 -0.0579999983310699463 0.0204787217080593109
-0.0170659124851226807 -0.0579999983310699463 0.0246745292097330093
-0.025320831686258316 -0.0579999983310699463 0.0239693149924278259
-0.0245488658547401428 -0.0579999983310699463 0.0235861893743276596
-0.0209531895816326141 -0.0579999983310699463 0.0245195645838975906
-0.0245325341820716858 -0.0579999983310699463 0.0267393924295902252
-0.0254719872027635574 -0.0579999983310699463 0.0251480992883443832
-0.0252706017345190048 -0.0579999983310699463 0.026415625587105751
-0.0230440627783536911 -0.0579999983310699463 0.0279435981065034866
-0.028731808066368103 -0.0579999983310699463 0.0183570422232151031
-0.0293682049959897995 -0.0579999983310699463 0.0179337617009878159
-0.0284394212067127228 -0.0579999983310699463 0.0208394937217235565
-0.0286100432276725769 -0.0579999983310699463 0.0177440065890550613
-0.0295393355190753937 -0.0579999983310699463 0.0205088108777999878
0.00451982486993074417 -0.000214143976336345077 0.0274739973247051239
0.020156562328338623 -0.000623921514488756657 0.0274242423474788666
-0.0137044396251440048 -0.00196730508469045162 0.0272611267864704132
-0.0360964685678482056 -0.00539009133353829384 0.0268455259501934052
-0.0115192066878080368 -0.00243739108555018902 0.0272040478885173798
-0.0181703567504882812 -0.00382710481062531471 0.0270353052765130997
-0.0406788736581802368 -0.00420221500098705292 0.0269897598773241043
-0.0441349558532238007 -0.000243924121605232358 0.0274703819304704666
-0.0244859829545021057 -0.004355662502348423 0.026971127837896347
0.0130288898944854736 -0.00240152562037110329 0.0272084027528762817
-0.00558510050177574158 -0.00295936479233205318 0.027140667662024498
-0.0102164922282099724 -0.000725380901712924242 0.027411922812461853
-0.0438816994428634644 -0.00535199325531721115 0.0268501508980989456
-0.0445177406072616577 -0.0020760165061801672 0.0272479262202978134
0.028464173898100853 -0.000846040842588990927 0.0273972712457180023
-0.0386077128350734711 -0.00373795232735574245 0.02704613097012043
-0.0453538112342357635 -0.00389061053283512592 0.0270275939255952835
-0.0179698336869478226 -0.000175450957613065839 0.0274786967784166336
-0.0490287095308303833 -0.00498247472569346428 0.0268950182944536209
-0.0180036183446645737 -0.00294783827848732471 0.0271420683711767197
0.0401665307581424713 -0.000237481057411059737 0.0274711642414331436
-0.0384116657078266144 -0.004352569580078125 0.0269715022295713425
0.0464481227099895477 -0.00022366554185282439 0.0274728424847126007
-0.023204457014799118 -8.73284225235693157e-05 0.0274893958121538162
-0.0427676960825920105 -0.00171812460757791996 0.0272913817316293716
-0.0194831341505050659 -3.44541440426837653e-05 0.0274958163499832153
-0.0027818288654088974 -0.00164218409918248653 0.0273006036877632141
-0.0351842381060123444 -0.00527103384956717491 0.0268599819391965866
-0.0271147154271602631 -0.000211737511563114822 0.0274742897599935532
-0.0389672629535198212 -0.00230351323261857033 0.0272203031927347183
-0.0195444822311401367 -0.00334118516184389591 0.0270943064242601395
0.0352905131876468658 -0.000624831998720765114 0.027424132451415062
-0.0378310456871986389 -0.00472352467477321625 0.0269264616072177887
-0.0369000658392906189 -0.00293275411240756512 0.0271438993513584137
-0.00231990218162536621 -0.00225846422836184502 0.0272257737815380096
-0.0345538109540939331 -0.00473418273031711578 0.0269251670688390732
-0.0498179048299789429 -0.00136826559901237488 0.0273338630795478821
-0.000381782650947570801 -0.000681322591844946146 0.0274172723293304443
-0.0179911069571971893 -0.00345717323943972588 0.0270802229642868042
-0.0288388561457395554 -0.00193988997489213943 0.0272644553333520889
0.0211222302168607712 -0.000456476002000272274 0.0274445731192827225
-0.0136359939351677895 -0.000750358798541128635 0.027408890426158905
0.0216060318052768707 -0.000232528109336271882 0.0274717658758163452
-0.049935556948184967 -0.003317276481539011 0.0270972102880477905
-0.0465023592114448547 -0.00447058398276567459 0.0269571729004383087
-0.0394476838409900665 -0.0034031581599265337 0.0270867813378572464
0.0370276756584644318 -0.00458350498229265213 0.0269434619694948196
-0.0147821344435214996 -0.00534821860492229462 0.0268506091088056564
-0.00623989105224609375 -0.00502237584441900253 0.0268901735544204712
0.0350212939083576202 -0.00369750545360147953 0.027051042765378952
