ply
format ascii 1.0
element vertex 747
property float x
property float y
property float z
end_header
0.768389999866485596 0.50896531343460083 0.00251117069274187088
0.88280099630355835 0.535268902778625488 0.00231616385281085968
0.829668045043945312 0.532099545001983643 0.00265479041263461113
0.881325960159301758 0.52433311939239502 0.00202809763140976429
0.615270435810089111 0.461091518402099609 0.00242469273507595062
0.330072700977325439 0.38458666205406189 0.00261088740080595016
0.707867801189422607 0.485278874635696411 0.00234635593369603157
1.02312111854553223 0.560787498950958252 0.00189212826080620289
1.05194759368896484 0.57176363468170166 0.00196224870160222054
0.373358309268951416 0.393941819667816162 0.00252075563184916973
1.04386436939239502 0.563119173049926758 0.00178993656300008297
0.722583293914794922 0.485361546277999878 0.00223076972179114819
0.812724828720092773 0.51767265796661377 0.00239487295038998127
0.856204390525817871 0.517829060554504395 0.00205093855038285255
0.939574122428894043 0.537447988986968994 0.00192122987937182188
0.631854534149169922 0.472985267639160156 0.002618022495880723
0.440673530101776123 0.40950167179107666 0.0024083196185529232
0.619249701499938965 0.453955918550491333 0.0021971485111862421
0.677684009075164795 0.481098353862762451 0.00247345678508281708
0.338909506797790527 0.385043799877166748 0.00255265110172331333
0.331553936004638672 0.384385347366333008 0.00259350379928946495
0.440060257911682129 0.414988666772842407 0.00256369519047439098
0.703815698623657227 0.475531339645385742 0.00211151083931326866
0.580520808696746826 0.458414316177368164 0.00262958346866071224
0.754738450050354004 0.504162132740020752 0.00248879147693514824
0.691978514194488525 0.491194307804107666 0.00263582449406385422
0.770408689975738525 0.512819111347198486 0.00260068336501717567
1.08222246170043945 0.607304275035858154 0.00269437744282186031
0.73302757740020752 0.50033259391784668 0.00255765859037637711
0.979923665523529053 0.547870159149169922 0.00188387173693627119
1.06778502464294434 0.602209150791168213 0.00267028715461492538
0.923908472061157227 0.551326274871826172 0.00242726528085768223
0.645386576652526855 0.460846632719039917 0.00217677862383425236
0.445710837841033936 0.410604953765869141 0.00239822873845696449
0.651976108551025391 0.477843582630157471 0.00259009655565023422
0.397942721843719482 0.398619472980499268 0.00245213205926120281
0.941066205501556396 0.549123585224151611 0.00222944817505776882
1.04192054271697998 0.594460844993591309 0.00266495742835104465
0.694159626960754395 0.490694105625152588 0.0026046407874673605
0.505755841732025146 0.424249917268753052 0.00229150941595435143
1.01075315475463867 0.572578310966491699 0.00231451075524091721
0.592147707939147949 0.453997284173965454 0.00241534039378166199
0.640315234661102295 0.476119637489318848 0.00263621192425489426
0.859754979610443115 0.540490031242370605 0.00264391256496310234
0.840654134750366211 0.516584038734436035 0.00214133691042661667
0.159332871437072754 0.337432712316513062 0.00268526584841310978
0.498385488986968994 0.427314579486846924 0.00243457569740712643
0.827135384082794189 0.515684545040130615 0.00222494080662727356
0.737114250659942627 0.501584649085998535 0.00255926232784986496
0.743974208831787109 0.507659256458282471 0.00267089973203837872
0.549118578433990479 0.4461517333984375 0.00254481332376599312
1.08716320991516113 0.579557895660400391 0.00189394480548799038
0.823294937610626221 0.519063055515289307 0.00234834430739283562
0.760261893272399902 0.492528766393661499 0.002125544473528862
0.833878397941589355 0.528192341327667236 0.00251392694190144539
0.455191671848297119 0.419454127550125122 0.00256496062502264977
0.861794352531433105 0.524827361106872559 0.00219807587563991547
0.85054701566696167 0.516362547874450684 0.00205603311769664288
0.306826412677764893 0.374956130981445312 0.00253297621384263039
0.649392962455749512 0.471371829509735107 0.00243331538513302803
1.00725483894348145 0.583455324172973633 0.00264079845510423183
0.900958418846130371 0.549697041511535645 0.00256639253348112106
0.790290594100952148 0.5058249831199646 0.00224965787492692471
0.891515851020812988 0.543630421161651611 0.0024756572674959898
0.908708691596984863 0.549460172653198242 0.002497826237231493
0.443999111652374268 0.402706921100616455 0.00219535967335104942
0.78344273567199707 0.489160120487213135 0.00184751581400632858
0.898182690143585205 0.520340144634246826 0.00178359705023467541
0.227991938591003418 0.330311000347137451 0.00194008974358439445
0.163926422595977783 0.310530245304107666 0.00191075471229851246
0.53231203556060791 0.430806219577789307 0.00225861161015927792
0.4228954017162323 0.395401418209075928 0.00216404395177960396
0.667363882064819336 0.460020184516906738 0.00197810097597539425
0.838319063186645508 0.508157610893249512 0.00192896765656769276
0.24423515796661377 0.345812022686004639 0.00223507056944072247
0.252115547657012939 0.354016274213790894 0.00239693536423146725
0.167673230171203613 0.332839101552963257 0.00249250233173370361
0.351239532232284546 0.364210367202758789 0.00188260420691221952
0.30487021803855896 0.359775364398956299 0.00213235383853316307
0.646710038185119629 0.449643462896347046 0.00185896526090800762
0.596548795700073242 0.444304943084716797 0.00211430806666612625
0.143007963895797729 0.303990602493286133 0.00189895834773778915
0.755529999732971191 0.486319690942764282 0.00199317606166005135
0.425634294748306274 0.397004902362823486 0.00218607927672564983
0.314231336116790771 0.347557187080383301 0.00172233348712325096
0.335498809814453125 0.360520422458648682 0.00190748460590839386
0.0977707058191299438 0.292487919330596924 0.0019458309980109334
0.50532609224319458 0.416020035743713379 0.00206926930695772171
0.376546919345855713 0.385106772184371948 0.00225294381380081177
0.284532427787780762 0.356783181428909302 0.00221318588592112064
0.486773282289505005 0.409072071313858032 0.00202732998877763748
0.320479273796081543 0.360949814319610596 0.00203954917378723621
0.277129769325256348 0.361171811819076538 0.00239281938411295414
0.620266437530517578 0.438641339540481567 0.00176904781255871058
0.0870435237884521484 0.308669239282608032 0.00247546983882784843
0.67532646656036377 0.466148018836975098 0.00208236696198582649
0.55510246753692627 0.430101931095123291 0.00205677212215960026
0.234541773796081543 0.344453215599060059 0.00227544223889708519
0.372432202100753784 0.380192399024963379 0.00215113488957285881
0.563721656799316406 0.428448289632797241 0.00194239430129528046
0.253295421600341797 0.341083794832229614 0.00203284993767738342
0.224172681570053101 0.332781076431274414 0.00203841296024620533
0.588324546813964844 0.430013418197631836 0.00178827089257538319
0.99376291036605835 0.549471437931060791 0.00181694573257118464
0.555302858352661133 0.426989108324050903 0.00196980591863393784
0.435558915138244629 0.389809340238571167 0.00190927635412663221
0.718536734580993652 0.475418061017990112 0.00199050572700798512
0.391563862562179565 0.384054034948348999 0.00210380624048411846
0.555207729339599609 0.428034305572509766 0.00199922989122569561
0.897710323333740234 0.521106064319610596 0.00180838257074356079
0.322040081024169922 0.356917113065719604 0.00191646325401961803
0.637252151966094971 0.448608100414276123 0.00190632068552076817
0.843755900859832764 0.509121239185333252 0.00191185064613819122
0.629813194274902344 0.450085252523422241 0.00200640526600182056
0.560577630996704102 0.43421483039855957 0.00212570535950362682
1.01409006118774414 0.554093658924102783 0.0017808978445827961
0.292873740196228027 0.368654429912567139 0.00247191661037504673
0.686437845230102539 0.467569589614868164 0.00203236169181764126
0.391673773527145386 0.370108544826507568 0.00172051053959876299
0.346591174602508545 0.368592500686645508 0.00204000016674399376
0.151668310165405273 0.332598328590393066 0.00261408207006752491
0.489956855773925781 0.417291820049285889 0.0022272355854511261
0.954815506935119629 0.539012014865875244 0.00184205116238445044
0.249309375882148743 0.336399167776107788 0.00193631206639111042
0.231189489364624023 0.343573093414306641 0.00227815518155694008
0.412881642580032349 0.376288741827011108 0.00172013323754072189
0.148370951414108276 0.311346739530563354 0.00205772649496793747
0.12427675724029541 0.312464356422424316 0.00228134263306856155
0.291818678379058838 0.366279244422912598 0.00241523375734686852
0.158113569021224976 0.303561240434646606 0.00176620518323034048
0.554769277572631836 0.423847407102584839 0.00188792811241000891
0.640123367309570312 0.457808196544647217 0.00213561090640723705
0.312740147113800049 0.369068443775177002 0.00232416042126715183
0.335221260786056519 0.36134040355682373 0.00193219271022826433
0.302192628383636475 0.362690865993499756 0.00223374692723155022
0.3782004714012146 0.366520494222640991 0.00173002516385167837
0.86260455846786499 0.573013186454772949 0.00680858921259641647
0.99086529016494751 0.587023377418518066 0.00357223907485604286
0.90991818904876709 0.570609688758850098 0.00456975586712360382
0.920004308223724365 0.576268255710601807 0.00494415778666734695
0.882110416889190674 0.575742721557617188 0.00639906106516718864
0.963608026504516602 0.585769891738891602 0.00449792388826608658
0.226779639720916748 0.39243394136428833 0.00751519761979579926
0.732436835765838623 0.524251759052276611 0.00532569363713264465
0.842832446098327637 0.55221259593963623 0.004734815564006567
0.49129563570022583 0.469194561243057251 0.00744702620431780815
1.07239425182342529 0.619134783744812012 0.0047177579253911972
0.856785833835601807 0.557490348815917969 0.00490077678114175797
0.503093719482421875 0.470642328262329102 0.00717127090319991112
0.943521797657012939 0.583694517612457275 0.00502114091068506241
0.96653294563293457 0.579349040985107422 0.00349387247115373611
1.05867564678192139 0.628550291061401367 0.00657018274068832397
0.435731112957000732 0.448932886123657227 0.00689034629613161087
0.449589192867279053 0.449821650981903076 0.00645442353561520576
0.26572650671005249 0.400482296943664551 0.00705609936267137527
0.964684665203094482 0.604734659194946289 0.00707191182300448418
0.42348402738571167 0.442268729209899902 0.00646426668390631676
1.02950894832611084 0.597103357315063477 0.00340576516464352608
1.07579195499420166 0.606532096862792969 0.00284147169440984726
0.989590883255004883 0.583789229393005371 0.00317725725471973419
0.634048104286193848 0.501612663269042969 0.0061670658178627491
0.665988028049468994 0.5163307785987854 0.00691092479974031448
0.978807568550109863 0.595902621746063232 0.00528370868414640427
0.962541401386260986 0.593361854553222656 0.00558870937675237656
0.924289226531982422 0.580935835838317871 0.00541563145816326141
0.760341048240661621 0.546608626842498779 0.00728646712377667427
0.367909371852874756 0.431504756212234497 0.00721880747005343437
0.849471569061279297 0.551208198070526123 0.00432858755812048912
0.340130209922790527 0.417948007583618164 0.00646752864122390747
0.864632964134216309 0.571547865867614746 0.00652459170669317245
0.450985193252563477 0.452439069747924805 0.00675938557833433151
0.851025223731994629 0.555771708488464355 0.00489579141139984131
0.738389134407043457 0.521826505661010742 0.00475104618817567825
0.575419247150421143 0.491225183010101318 0.00709667429327964783
1.00766634941101074 0.591165721416473389 0.00346672488376498222
0.672463893890380859 0.50359046459197998 0.00489156320691108704
0.867320716381072998 0.55855405330657959 0.00462294137105345726
0.439832985401153564 0.450886845588684082 0.00699467770755290985
0.840408504009246826 0.546504497528076172 0.0040447283536195755
0.294283568859100342 0.411047697067260742 0.00736318249255418777
0.502349495887756348 0.458444535732269287 0.00551782082766294479
0.523856878280639648 0.470595568418502808 0.00632790150120854378
0.544537246227264404 0.481226563453674316 0.00696153007447719574
0.561772823333740234 0.481703281402587891 0.0063325897790491581
0.627927422523498535 0.50347900390625 0.00667134812101721764
1.08810758590698242 0.612140893936157227 0.00311913574114441872
0.920378386974334717 0.574983716011047363 0.00475180242210626602
0.96913599967956543 0.59341806173324585 0.00533065944910049438
0.781225740909576416 0.539748072624206543 0.00549779273569583893
1.0836491584777832 0.622862637042999268 0.00477858446538448334
0.637445211410522461 0.496701568365097046 0.00535234762355685234
0.976937174797058105 0.58599245548248291 0.00399137334898114204
0.879569947719573975 0.579953610897064209 0.00708261039108037949
0.469561219215393066 0.462598025798797607 0.00741268880665302277
0.832750558853149414 0.559967100620269775 0.00621142424643039703
0.882038235664367676 0.581220865249633789 0.00715801399201154709
1.05241250991821289 0.614528417587280273 0.00488743977621197701
1.07886946201324463 0.619347929954528809 0.00448616687208414078
0.682876229286193848 0.521773159503936768 0.00698130810633301735
0.637460470199584961 0.510081946849822998 0.00719839287921786308
0.370441079139709473 0.424974203109741211 0.00621546013280749321
1.08500587940216064 0.625133037567138672 0.00503723416477441788
0.826619386672973633 0.552371025085449219 0.00541019625961780548
0.693748831748962402 0.510680973529815674 0.00501218996942043304
0.928066909313201904 0.591967523097991943 0.00678587844595313072
1.02828109264373779 0.603667497634887695 0.00436118151992559433
0.414441883563995361 0.442622989416122437 0.00687762489542365074
0.112842023372650146 0.344235599040985107 0.00545580964535474777
0.311181485652923584 0.402562439441680908 0.00551098771393299103
0.638365983963012695 0.483131945133209229 0.00344244949519634247
0.695537805557250977 0.505231499671936035 0.00418798439204692841
0.639385223388671875 0.492217332124710083 0.0046552661806344986
0.50561058521270752 0.452856659889221191 0.00461517320945858955
0.155446887016296387 0.357986539602279663 0.00563630182296037674
0.328130006790161133 0.400337100028991699 0.00452070077881217003
0.173064231872558594 0.366557717323303223 0.00610910775139927864
0.829620659351348877 0.534257411956787109 0.00278932391665875912
0.116508781909942627 0.348270386457443237 0.00586486188694834709
0.671197652816772461 0.489944547414779663 0.0030592968687415123
0.607508659362792969 0.477558255195617676 0.00391700631007552147
0.444489359855651855 0.421405702829360962 0.00273822061717510223
0.62732774019241333 0.474584370851516724 0.002707707230001688
0.102183759212493896 0.345248281955718994 0.00602518999949097633
0.495317518711090088 0.438490182161331177 0.00304731540381908417
0.182477176189422607 0.355183839797973633 0.00415995530784130096
0.809370934963226318 0.534216880798339844 0.00359994499012827873
0.165268361568450928 0.362121164798736572 0.00581104215234518051
0.476174145936965942 0.445078492164611816 0.00472821947187185287
0.627204000949859619 0.486597329378128052 0.00437063490971922874
0.152741938829421997 0.344740152359008789 0.00391715718433260918
0.123487383127212524 0.339400053024291992 0.00435934681445360184
0.0990358740091323853 0.321688443422317505 0.00290051591582596302
0.881702899932861328 0.555681765079498291 0.00364681659266352654
0.503851711750030518 0.446969717741012573 0.00387360504828393459
0.998047590255737305 0.583484947681427002 0.00279438355937600136
0.476100742816925049 0.443226426839828491 0.00447556888684630394
0.778018712997436523 0.524963140487670898 0.00358656165190041065
0.537350296974182129 0.456333547830581665 0.00381566816940903664
0.758585512638092041 0.51549607515335083 0.00306329852901399136
0.291771948337554932 0.381691128015518188 0.0034128422848880291
0.308562904596328735 0.396345794200897217 0.00475855916738510132
0.457817405462265015 0.425316572189331055 0.00274074496701359749
0.985126733779907227 0.57919996976852417 0.00272381491959095001
0.471825152635574341 0.442452490329742432 0.00454109674319624901
0.244617149233818054 0.364008128643035889 0.0028730777557939291
1.03528344631195068 0.594023227691650391 0.00274790171533823013
0.458376169204711914 0.436873972415924072 0.00431329291313886642
0.208946883678436279 0.362885713577270508 0.00415596971288323402
0.356757938861846924 0.400891661643981934 0.00344330072402954102
0.532452583312988281 0.461603939533233643 0.00474046822637319565
0.285452961921691895 0.391012310981750488 0.00495399069041013718
0.602602303028106689 0.477660596370697021 0.00412889476865530014
0.197363048791885376 0.357388317584991455 0.0038641798309981823
0.437724590301513672 0.436765462160110474 0.00513073988258838654
0.49660038948059082 0.437166452407836914 0.00281291594728827477
0.151421427726745605 0.363073170185089111 0.00650057801976799965
0.304987460374832153 0.381537467241287231 0.00285894284024834633
0.404984056949615479 0.41602557897567749 0.00358808133751153946
0.373083293437957764 0.407373130321502686 0.00367978517897427082
0.140612602233886719 0.362598299980163574 0.00687071867287158966
0.609750986099243164 0.484323740005493164 0.00476034358143806458
0.497791260480880737 0.437955141067504883 0.00287376390770077705
0.367903530597686768 0.41089203953742981 0.00437422282993793488
0.262091517448425293 0.375280499458312988 0.00372445187531411648
0.118174076080322266 0.351196467876434326 0.00620157131925225258
0.519548654556274414 0.450809180736541748 0.00377078773453831673
0.51795494556427002 0.451653540134429932 0.00395156117156147957
0.141548722982406616 0.349502772092819214 0.00502563640475273132
0.218478888273239136 0.365059256553649902 0.00407172832638025284
0.367808401584625244 0.416858375072479248 0.00520148966461420059
0.630171000957489014 0.477503150701522827 0.00299592385999858379
0.4332084059715271 0.42468869686126709 0.00364603195339441299
0.332171142101287842 0.388489603996276855 0.00272270338609814644
0.263294816017150879 0.390195161104202271 0.00573435891419649124
0.092863619327545166 0.3260459303855896 0.00375069910660386086
0.480291843414306641 0.43234020471572876 0.00280419411137700081
0.977955341339111328 0.577214717864990234 0.00273889792151749134
0.146570831537246704 0.343761324882507324 0.00403081486001610756
0.984579861164093018 0.6216278076171875 0.0094552505761384964
0.583303451538085938 0.519191265106201172 0.0131794735789299011
0.697642803192138672 0.555635809898376465 0.0139491762965917587
0.955726504325866699 0.635503411293029785 0.0150824720039963722
0.763114809989929199 0.569913804531097412 0.0127270165830850601
0.879778563976287842 0.610634744167327881 0.0144044179469347
0.791642665863037109 0.569327235221862793 0.0104767866432666779
0.830230236053466797 0.594131588935852051 0.0138917108997702599
0.616482973098754883 0.533924520015716553 0.0144518390297889709
0.516625523567199707 0.49770355224609375 0.012671375647187233
0.69355320930480957 0.547599256038665771 0.0122227929532527924
1.0152137279510498 0.645804524421691895 0.0132979098707437515
0.871553301811218262 0.592809200286865234 0.0105129368603229523
0.412994205951690674 0.476828247308731079 0.0150409042835235596
0.526021957397460938 0.502429187297821045 0.0131712695583701134
0.968335390090942383 0.630345463752746582 0.0128518864512443542
1.07180595397949219 0.664281249046325684 0.0137895355001091957
0.589354932308197021 0.526535511016845703 0.0145865809172391891
0.416741430759429932 0.47993016242980957 0.015547432005405426
0.929231047630310059 0.61361926794052124 0.0115132648497819901
0.780222713947296143 0.569621086120605469 0.0113924788311123848
0.560936212539672852 0.511448860168457031 0.0128741944208741188
0.971662402153015137 0.626030862331390381 0.0115180891007184982
0.212433218955993652 0.421270191669464111 0.0158023424446582794
1.05511140823364258 0.639634609222412109 0.00880108773708343506
0.941331028938293457 0.611133277416229248 0.00999437831342220306
0.657465577125549316 0.539439499378204346 0.0128233088180422783
0.966422557830810547 0.614606320858001709 0.00902166962623596191
0.525769412517547607 0.504481792449951172 0.0137077849358320236
0.746399164199829102 0.562865495681762695 0.0121804317459464073
0.197295069694519043 0.414538294076919556 0.0152193410322070122
0.52740401029586792 0.509064853191375732 0.0147437043488025665
0.629760801792144775 0.539345383644104004 0.0148411327973008156
1.05180013179779053 0.641784429550170898 0.00958752445876598358
1.03445935249328613 0.654760181903839111 0.0141393411904573441
0.403109431266784668 0.478411614894866943 0.0161688271909952164
0.723999381065368652 0.55521690845489502 0.0119012407958507538
0.766347289085388184 0.574516713619232178 0.0136501956731081009
0.665302038192749023 0.539458870887756348 0.0122507242485880852
0.728342354297637939 0.558124780654907227 0.012314898893237114
0.90565025806427002 0.599039554595947266 0.00957230757921934128
0.447181999683380127 0.480562180280685425 0.0134637104347348213
0.176786065101623535 0.411505758762359619 0.0159655120223760605
0.566601812839508057 0.524646878242492676 0.0157867316156625748
0.428829014301300049 0.482811272144317627 0.0153836356475949287
0.895958840847015381 0.618037700653076172 0.0150799453258514404
0.955275297164916992 0.622097909450531006 0.0117333307862281799
0.759124755859375 0.576737821102142334 0.0147428456693887711
0.631562530994415283 0.53264462947845459 0.0130176795646548271
0.633927285671234131 0.533483207225799561 0.013055015355348587
0.404363095760345459 0.47760462760925293 0.0158728323876857758
1.06605958938598633 0.647777199745178223 0.0100487889721989632
0.798992037773132324 0.588355183601379395 0.0147362127900123596
0.816916108131408691 0.581930637359619141 0.0117943864315748215
0.953300654888153076 0.621978163719177246 0.01184864342212677
0.87870180606842041 0.605447649955749512 0.0131750022992491722
0.634252071380615234 0.536838769912719727 0.0138777289539575577
0.295558810234069824 0.442457348108291626 0.01502256840467453
0.86300283670425415 0.611829578876495361 0.0159421078860759735
0.546839892864227295 0.514105916023254395 0.0145833985880017281
0.233876228332519531 0.427180022001266479 0.0157133154571056366
1.00510001182556152 0.642744064331054688 0.0132710207253694534
1.04385519027709961 0.648592650890350342 0.0118907950818538666
0.846333622932434082 0.59901505708694458 0.0139372088015079498
0.683102786540985107 0.559660375118255615 0.0160360746085643768
0.661833226680755615 0.552592754364013672 0.0158201996237039566
0.63186955451965332 0.533795833587646484 0.0132855363190174103
0.43507152795791626 0.487961828708648682 0.0162231661379337311
1.04858529567718506 0.639887750148773193 0.00934588443487882614
0.95011436939239502 0.613031744956970215 0.00982612930238246918
0.546887755393981934 0.517681598663330078 0.0154820568859577179
0.114897549152374268 0.387767314910888672 0.0145365949720144272
0.501779139041900635 0.49054872989654541 0.0119601450860500336
0.0791546255350112915 0.3553600013256073 0.00899371877312660217
0.704123258590698242 0.533970475196838379 0.00800517387688159943
0.466928035020828247 0.469441682100296021 0.00920276064425706863
0.588692784309387207 0.508293688297271729 0.0100327311083674431
0.779821813106536865 0.562422096729278564 0.00960562936961650848
0.485342085361480713 0.483426481485366821 0.011374366469681263
0.426314353942871094 0.469911396503448486 0.0123141314834356308
0.912117481231689453 0.598339200019836426 0.00891901645809412003
0.417298257350921631 0.470564126968383789 0.0131432134658098221
0.199446558952331543 0.384979277849197388 0.00760266976431012154
0.13896709680557251 0.394471108913421631 0.0144543517380952835
0.0617455840110778809 0.373058140277862549 0.0147420801222324371
0.296918928623199463 0.416526615619659424 0.00837967637926340103
0.6096077561378479 0.5050506591796875 0.00767323141917586327
0.179805457592010498 0.393244028091430664 0.0111353378742933273
0.602272510528564453 0.513363003730773926 0.0103110689669847488
0.703083217144012451 0.541351079940795898 0.00994403194636106491
0.191629707813262939 0.411817342042922974 0.0149502847343683243
0.264207750558853149 0.417885303497314453 0.011132996529340744
0.647400438785552979 0.52264857292175293 0.00932845287024974823
0.485064417123794556 0.482240855693817139 0.0110956886783242226
0.141836881637573242 0.394506186246871948 0.0142517238855361938
0.138607457280158997 0.375330090522766113 0.0096513284370303154
0.426514565944671631 0.452389955520629883 0.00787848327308893204
0.886881172657012939 0.586912691593170166 0.00789565034210681915
0.216750204563140869 0.391874641180038452 0.00806734990328550339
0.786979973316192627 0.561183393001556396 0.00876558758318424225
0.865680575370788574 0.581667304039001465 0.00813445355743169785
0.732638299465179443 0.551431417465209961 0.0103095043450593948
0.566751360893249512 0.50612485408782959 0.0111023774370551109
0.33358648419380188 0.431052029132843018 0.00934257917106151581
0.258974254131317139 0.427898257970809937 0.0140450550243258476
0.498679816722869873 0.480110526084899902 0.00955483876168727875
0.645006299018859863 0.524025619029998779 0.0098523218184709549
0.204330369830131531 0.392309993505477905 0.00909241009503602982
0.202913165092468262 0.392019808292388916 0.00912361964583396912
0.308672785758972168 0.437542617321014404 0.0128161497414112091
0.832894504070281982 0.570168137550354004 0.00764909107238054276
0.0885381102561950684 0.383361458778381348 0.0153673775494098663
0.10737079381942749 0.388581931591033936 0.0152967749163508415
0.706930279731750488 0.537494659423828125 0.00868751201778650284
0.232461631298065186 0.416867077350616455 0.0132154645398259163
0.354208707809448242 0.440270930528640747 0.010148957371711731
0.930428504943847656 0.600639581680297852 0.00815008766949176788
0.476868569850921631 0.478795111179351807 0.0108302291482686996
0.158042505383491516 0.377865701913833618 0.00885890983045101166
0.832217037677764893 0.569964885711669922 0.00764772715047001839
0.365061581134796143 0.455687105655670166 0.0132389068603515625
0.167305976152420044 0.377021163702011108 0.00796319544315338135
0.318656742572784424 0.44439244270324707 0.0138087179511785507
0.944437086582183838 0.604108691215515137 0.00799309741705656052
0.686082005500793457 0.532142102718353271 0.00887332763522863388
0.31412273645401001 0.423972249031066895 0.00899055507034063339
0.0828269422054290771 0.358705371618270874 0.00956718809902667999
0.258324861526489258 0.425245612859725952 0.0134236123412847519
0.720983624458312988 0.54897463321685791 0.0105484705418348312
0.247989684343338013 0.40610206127166748 0.00935505423694849014
0.570647597312927246 0.502148568630218506 0.00981198810040950775
0.0671796202659606934 0.365135788917541504 0.0123427174985408783
0.263830363750457764 0.417449593544006348 0.0110508836805820465
0.217683911323547363 0.404434323310852051 0.011167505756020546
0.385141968727111816 0.458445310592651367 0.0124551020562648773
0.204428032040596008 0.393353313207626343 0.00934846792370080948
0.420226097106933594 0.452490895986557007 0.00836735963821411133
0.654310286045074463 0.531685948371887207 0.0110995015129446983
0.571941971778869629 0.504156351089477539 0.0102232005447149277
0.34442824125289917 0.438139647245407104 0.010331946425139904
0.330273330211639404 0.436383903026580811 0.0109320292249321938
0.68257981538772583 0.533109486103057861 0.00937547534704208374
0.688045501708984375 0.57964324951171875 0.0228480678051710129
0.972982883453369141 0.664567530155181885 0.0234854221343994141
0.339758515357971191 0.486297160387039185 0.0259778574109077454
0.454749882221221924 0.519911050796508789 0.0259888898581266403
0.787209987640380859 0.615028917789459229 0.0252487491816282272
0.69674217700958252 0.591461658477783203 0.0263156499713659286
0.137138485908508301 0.434322059154510498 0.0286694522947072983
0.815115451812744141 0.631390810012817383 0.028317674994468689
0.447303354740142822 0.520028233528137207 0.0268454551696777344
0.648538827896118164 0.582327842712402344 0.0281634777784347534
0.94681316614151001 0.668320000171661377 0.0277442000806331635
1.02826774120330811 0.676978230476379395 0.0220892876386642456
0.319032430648803711 0.482683300971984863 0.0268895216286182404
1.04046380519866943 0.692166686058044434 0.0264343507587909698
0.175086319446563721 0.442419588565826416 0.0275536943227052689
0.353007316589355469 0.492562472820281982 0.026873243972659111
1.01443946361541748 0.683728456497192383 0.0261213108897209167
1.03980755805969238 0.672438919544219971 0.0191332697868347168
0.908990740776062012 0.633094549179077148 0.0187079682946205139
0.884197592735290527 0.641126573085784912 0.0244158618152141571
0.618444681167602539 0.568275332450866699 0.0261965151876211166
0.811125397682189941 0.628611266613006592 0.0277144256979227066
0.590459823608398438 0.551641941070556641 0.0230347625911235809
0.789668023586273193 0.612823247909545898 0.024156130850315094
1.02826213836669922 0.679907143115997314 0.0231844745576381683
0.992783963680267334 0.684256553649902344 0.0286823641508817673
0.978764474391937256 0.674241781234741211 0.0264698322862386703
0.270842432975769043 0.469518184661865234 0.0272293426096439362
0.990169942378997803 0.683383405208587646 0.0286413766443729401
0.738126397132873535 0.608548343181610107 0.0281842462718486786
0.820763766765594482 0.614082455635070801 0.0212326552718877792
0.584571003913879395 0.55531466007232666 0.0250500906258821487
0.918341517448425293 0.634409010410308838 0.0181785933673381805
0.512608468532562256 0.536185145378112793 0.025755666196346283
0.731276869773864746 0.593099355697631836 0.0231582541018724442
0.684283614158630371 0.590595126152038574 0.0273516383022069931
0.934115052223205566 0.649692416191101074 0.0221686754375696182
0.885654211044311523 0.647698938846588135 0.0267131347209215164
0.985790669918060303 0.666334569454193115 0.0227478537708520889
0.395346581935882568 0.509736537933349609 0.0286702848970890045
0.770905971527099609 0.616528213024139404 0.0275886170566082001
1.00723814964294434 0.658770442008972168 0.0175799764692783356
0.900853812694549561 0.63416522741317749 0.0199962332844734192
0.518762052059173584 0.545233726501464844 0.02846565842628479
0.947538793087005615 0.664658725261688232 0.0262967199087142944
0.612597823143005371 0.559512138366699219 0.0235596802085638046
0.37660670280456543 0.495811134576797485 0.0255114976316690445
0.674109578132629395 0.581038236618041992 0.0248904973268508911
0.333811581134796143 0.482682675123214722 0.0252761505544185638
0.896914839744567871 0.630802512168884277 0.0191694572567939758
1.030792236328125 0.674201369285583496 0.0207759477198123932
0.688941299915313721 0.576990306377410889 0.0217588376253843307
1.00142800807952881 0.675938606262207031 0.0246302783489227295
0.924741625785827637 0.651120543479919434 0.0237254872918128967
0.904882907867431641 0.649185359477996826 0.0251698382198810577
0.670958399772644043 0.585894942283630371 0.0270495247095823288
0.966370105743408203 0.672857880592346191 0.0273054987192153931
0.43326723575592041 0.518967390060424805 0.0279810391366481781
0.777005255222320557 0.615249812602996826 0.0264451391994953156
0.324306249618530273 0.4825553297996521 0.026266053318977356
0.886469125747680664 0.628790020942687988 0.0195574946701526642
1.03021848201751709 0.671431243419647217 0.0198033303022384644
0.360578596591949463 0.49648013710975647 0.0275109689682722092
0.904213011264801025 0.640333294868469238 0.0219347458332777023
0.842722296714782715 0.639497041702270508 0.0283338911831378937
0.612015366554260254 0.563907802104949951 0.0252660326659679413
1.06745851039886475 0.677068948745727539 0.0178455375134944916
1.01055073738098145 0.68360745906829834 0.0265005528926849365
0.411456048488616943 0.5078391432762146 0.0262028425931930542
0.658499836921691895 0.573326408863067627 0.0237122196704149246
1.00690865516662598 0.680480480194091797 0.0257294550538063049
0.572793424129486084 0.54240339994430542 0.0215103961527347565
0.0985975861549377441 0.417842507362365723 0.026717405766248703
0.170267015695571899 0.423005878925323486 0.0208244025707244873
0.455781877040863037 0.494715332984924316 0.0164600368589162827
0.323185116052627563 0.463377207517623901 0.0192211531102657318
0.457848668098449707 0.512077569961547852 0.0227231085300445557
0.432439267635345459 0.496942728757858276 0.0198403019458055496
0.453247129917144775 0.501663923263549805 0.0193335525691509247
0.184973299503326416 0.434353291988372803 0.0234599988907575607
0.130472257733345032 0.400372147560119629 0.0167092271149158478
0.151153057813644409 0.406147480010986328 0.0166103057563304901
0.415854871273040771 0.490452051162719727 0.0192247703671455383
0.628215551376342773 0.558024823665618896 0.0212991852313280106
0.455442845821380615 0.499617993831634521 0.0183292850852012634
0.207169830799102783 0.445260405540466309 0.0251134783029556274
0.471399962902069092 0.509100973606109619 0.0201315693557262421
0.216162562370300293 0.437673360109329224 0.0212964862585067749
0.612396121025085449 0.540927410125732422 0.0166361704468727112
0.492980480194091797 0.506506562232971191 0.0168064925819635391
0.19290335476398468 0.418422281742095947 0.0166406575590372086
0.0710482001304626465 0.388242840766906738 0.0186623409390449524
0.711518645286560059 0.569009900093078613 0.0163120627403259277
0.504182934761047363 0.513697624206542969 0.0182711835950613022
0.0598995089530944824 0.403322964906692505 0.0255149900913238525
0.0936796665191650391 0.409349501132965088 0.0240801610052585602
0.206073999404907227 0.438995420932769775 0.0228917300701141357
0.481618046760559082 0.514040350914001465 0.0208622273057699203
0.270596146583557129 0.446153461933135986 0.0185242928564548492
0.604137241840362549 0.551889181137084961 0.0216342881321907043
0.305074393749237061 0.470973372459411621 0.0240367799997329712
0.0601539015769958496 0.393430233001708984 0.0217900965362787247
0.830642640590667725 0.610508084297180176 0.0188185647130012512
0.399896502494812012 0.483027845621109009 0.0181920360773801804
0.340428352355957031 0.46803632378578186 0.0190802700817584991
0.309328347444534302 0.464150398969650269 0.0210225600749254227
0.199769020080566406 0.435341805219650269 0.0222144704312086105
0.100161075592041016 0.416125357151031494 0.0259050093591213226
0.114397257566452026 0.40818476676940918 0.0213835667818784714
0.378903985023498535 0.480399608612060547 0.0195010993629693985
0.506449580192565918 0.517005443572998047 0.0192599911242723465
0.576674818992614746 0.538501262664794922 0.0196284279227256775
0.399212121963500977 0.485586494207382202 0.0192229431122541428
0.760985195636749268 0.588997960090637207 0.0183828063309192657
0.435110330581665039 0.504039883613586426 0.0222011040896177292
1.02312719821929932 0.661457598209381104 0.0168499685823917389
0.541599571704864502 0.521302461624145508 0.0170292966067790985
0.0627145767211914062 0.402135968208312988 0.0247641056776046753
0.6782570481300354 0.561964631080627441 0.0173095874488353729
0.834847390651702881 0.611681163311004639 0.0187980066984891891
0.360405117273330688 0.47713780403137207 0.0203012470155954361
0.321520537137985229 0.467370748519897461 0.0208953078836202621
0.548626065254211426 0.529901504516601562 0.0194760337471961975
0.130275964736938477 0.423634082078933716 0.0254241563379764557
0.139975622296333313 0.402795374393463135 0.0165775623172521591
0.204710781574249268 0.429042816162109375 0.0193210132420063019
0.176787793636322021 0.440397322177886963 0.0266122296452522278
0.598012566566467285 0.548999428749084473 0.0212228186428546906
0.0582636743783950806 0.384249687194824219 0.018565421923995018
0.293703049421310425 0.456188231706619263 0.0197524279356002808
0.09342193603515625 0.416429430246353149 0.0267542172223329544
0.625173211097717285 0.552362263202667236 0.0195150189101696014
0.880469143390655518 0.618294656276702881 0.0162900481373071671
0.204014569520950317 0.421040534973144531 0.0164063666015863419
0.159773111343383789 0.428858697414398193 0.0241571255028247833
0.522829890251159668 0.520983576774597168 0.0189588163048028946
0.116284608840942383 0.418647825717926025 0.0250878185033798218
0.561631441116333008 0.534485220909118652 0.0197695270180702209
0.542683124542236328 0.520011603832244873 0.0164285954087972641
0.525957107543945312 0.52278667688369751 0.0192913487553596497
0.116044610738754272 0.409632295370101929 0.0217447131872177124
0.105547875165939331 0.401945024728775024 0.0200175400823354721
0.899646759033203125 0.666402041912078857 0.0334082916378974915
0.84389793872833252 0.66618645191192627 0.0415457449853420258
0.419385373592376709 0.538760721683502197 0.0398021265864372253
0.813234925270080566 0.64498668909072876 0.0353441424667835236
0.726209759712219238 0.631747007369995117 0.0415116138756275177
0.609062373638153076 0.600700318813323975 0.0431158356368541718
0.954538285732269287 0.686882317066192627 0.0356614738702774048
0.310495197772979736 0.511461019515991211 0.0420827306807041168
0.782862007617950439 0.634818017482757568 0.034686744213104248
0.404104888439178467 0.537126719951629639 0.0412349142134189606
0.522254526615142822 0.575531840324401855 0.0432093627750873566
0.606392443180084229 0.587351739406585693 0.0367499105632305145
0.746909141540527344 0.642751932144165039 0.0440234877169132233
0.732789099216461182 0.627285182476043701 0.0382784679532051086
0.945376753807067871 0.68149644136428833 0.034288845956325531
0.914415955543518066 0.682459473609924316 0.0393564328551292419
0.660892009735107422 0.614223361015319824 0.0422981902956962585
0.928402185440063477 0.693571865558624268 0.0429158173501491547
0.816422760486602783 0.664333224296569824 0.0446713566780090332
0.531789302825927734 0.570945501327514648 0.0394760146737098694
0.691397666931152344 0.622873067855834961 0.0421666242182254791
0.674209177494049072 0.609484255313873291 0.0379279740154743195
0.512366056442260742 0.569839358329772949 0.0417889244854450226
0.829146504402160645 0.659611344337463379 0.0403976291418075562
0.824943125247955322 0.646380126476287842 0.0343180000782012939
0.914139032363891602 0.67457270622253418 0.035402882844209671
0.906005561351776123 0.66954493522644043 0.034059520810842514
0.604970932006835938 0.594141006469726562 0.0403988771140575409
1.0280611515045166 0.70162123441696167 0.0322507098317146301
0.970593273639678955 0.699649810791015625 0.0397531315684318542
0.674742698669433594 0.617645680904388428 0.0419827103614807129
0.737427890300750732 0.636058211326599121 0.0420357324182987213
0.573013067245483398 0.577975094318389893 0.0369384028017520905
0.516112327575683594 0.57355964183807373 0.0431190505623817444
0.68685990571975708 0.624691247940063477 0.0437587536871433258
0.43207085132598877 0.549023151397705078 0.0431234240531921387
0.789468884468078613 0.652020931243896484 0.0424224734306335449
0.432726383209228516 0.540639162063598633 0.0387800522148609161
0.533099532127380371 0.567466139793395996 0.0375199466943740845
0.569204807281494141 0.575989663600921631 0.0364960953593254089
0.681342244148254395 0.62238842248916626 0.0434085950255393982
0.651000082492828369 0.598057150840759277 0.0355734899640083313
0.337472975254058838 0.516205906867980957 0.0404952839016914368
0.509135305881500244 0.571404099464416504 0.0430593378841876984
0.921172440052032471 0.672690749168395996 0.0334092676639556885
0.307664930820465088 0.511664330959320068 0.0426043793559074402
0.312950074672698975 0.513748049736022949 0.0428779497742652893
0.592994570732116699 0.591212630271911621 0.0406873039901256561
0.749521136283874512 0.6290474534034729 0.0366959869861602783
0.284636616706848145 0.505181550979614258 0.0427274070680141449
1.01536858081817627 0.717255830764770508 0.0420469567179679871
0.0603153705596923828 0.443253040313720703 0.0445440374314785004
0.347498714923858643 0.526400387287139893 0.0441755950450897217
0.684498786926269531 0.618957757949829102 0.0412040837109088898
0.655311107635498047 0.6025199294090271 0.0371961109340190887
0.992049694061279297 0.700294137001037598 0.0369055308401584625
0.970374464988708496 0.691290080547332764 0.0355514027178287506
0.722290754318237305 0.628622472286224365 0.0405087731778621674
0.970772087574005127 0.696836411952972412 0.0383016951382160187
0.87845379114151001 0.664120018482208252 0.0353874526917934418
0.327444911003112793 0.51504284143447876 0.0413895994424819946
0.489992499351501465 0.559131801128387451 0.0396752804517745972
0.851806581020355225 0.663774192333221436 0.0391540601849555969
0.719600319862365723 0.625454127788543701 0.0393020324409008026
0.293459117412567139 0.50854182243347168 0.0431242510676383972
0.789477229118347168 0.652823090553283691 0.0428275391459465027
0.428789675235748291 0.550149500370025635 0.0441792644560337067
0.966474533081054688 0.687530517578125 0.0342241264879703522
0.689160823822021484 0.623897910118103027 0.0430165566504001617
0.585587084293365479 0.589995384216308594 0.0411665067076683044
0.826684415340423584 0.666659355163574219 0.0443315468728542328
0.0480303764343261719 0.433383047580718994 0.041362270712852478
0.244926095008850098 0.484652221202850342 0.0382037162780761719
0.445055842399597168 0.526659786701202393 0.0298758633434772491
0.539614498615264893 0.55513232946395874 0.0303092971444129944
0.195770293474197388 0.461142092943191528 0.0335674844682216644
0.704296410083770752 0.605913519859313965 0.0316687822341918945
0.956062376499176025 0.676273465156555176 0.0300627797842025757
0.37824636697769165 0.522181093692779541 0.0374902337789535522
0.485715985298156738 0.551856696605682373 0.0366231538355350494
0.743985235691070557 0.612911403179168701 0.0293421708047389984
0.357291638851165771 0.516678094863891602 0.037802770733833313
0.267886698246002197 0.480257511138916016 0.0325814336538314819
0.76598823070526123 0.623133957386016846 0.0312649756669998169
0.0940195247530937195 0.423609912395477295 0.0296093877404928207
0.146178483963012695 0.451117575168609619 0.0358260534703731537
0.0566687434911727905 0.417202353477478027 0.0318891480565071106
0.186845630407333374 0.460724800825119019 0.0346763134002685547
0.169053971767425537 0.449439257383346558 0.0315921716392040253
0.144210398197174072 0.453209400177001953 0.0371766909956932068
0.300025433301925659 0.483056217432022095 0.0292448177933692932
0.42451748251914978 0.520226120948791504 0.0296554435044527054
0.765632927417755127 0.618868112564086914 0.0291569232940673828
0.535927176475524902 0.556080162525177002 0.0313348062336444855
0.411499083042144775 0.531404376029968262 0.0372428372502326965
0.905315756797790527 0.66316598653793335 0.0309307258576154709
0.469848990440368652 0.535992681980133057 0.0309353601187467575
0.144385218620300293 0.451163113117218018 0.0361144058406352997
0.667333066463470459 0.590372085571289062 0.0292650666087865829
0.703761458396911621 0.6107674241065979 0.0342063866555690765
0.124554485082626343 0.442977219820022583 0.034901794046163559
0.464229613542556763 0.534713804721832275 0.0311188623309135437
0.0725584030151367188 0.446104854345321655 0.0441773980855941772
0.662624061107635498 0.593350529670715332 0.0314701534807682037
0.295292198657989502 0.496337443590164185 0.0366717316210269928
0.189329564571380615 0.460114955902099609 0.0340000279247760773
0.497452110052108765 0.551095843315124512 0.0345017276704311371
0.45802345871925354 0.528177022933959961 0.0287261065095663071
0.155265897512435913 0.452328354120254517 0.0350950621068477631
0.178277015686035156 0.466703683137893677 0.0389720611274242401
0.261445492506027222 0.485921621322631836 0.0364030115306377411
0.0497494339942932129 0.42545616626739502 0.037093140184879303
0.335309088230133057 0.513552665710449219 0.039471551775932312
0.0687541961669921875 0.444311052560806274 0.0438316129148006439
0.0774522200226783752 0.418944835662841797 0.0296973120421171188
0.437767714262008667 0.537489712238311768 0.0364392101764678955
0.0933263376355171204 0.425068587064743042 0.0304507240653038025
0.290003538131713867 0.501545965671539307 0.0400920957326889038
0.865323424339294434 0.651073098182678223 0.0307216830551624298
0.0499416440725326538 0.412544965744018555 0.0305253565311431885
0.422665715217590332 0.519111037254333496 0.029364587739109993
0.624868690967559814 0.578398287296295166 0.0294819958508014679
0.106636226177215576 0.444763690233230591 0.0384571664035320282
0.369028806686401367 0.503074824810028076 0.0291766822338104248
0.521634340286254883 0.548700392246246338 0.029711330309510231
0.326967984437942505 0.498622089624404907 0.033143267035484314
0.578351378440856934 0.571682393550872803 0.0329615511000156403
0.420632719993591309 0.521574437618255615 0.0309130027890205383
0.351319789886474609 0.517978310585021973 0.0393446795642375946
0.465207755565643311 0.543453037738800049 0.0354004651308059692
0.136328577995300293 0.457465767860412598 0.0404983796179294586
0.233392089605331421 0.472046732902526855 0.0335253924131393433
0.657650947570800781 0.59631878137588501 0.033709205687046051
0.376743674278259277 0.521348118782043457 0.0372906289994716644
0.704588830471038818 0.603987932205200195 0.030650261789560318
0.0842611193656921387 0.447904527187347412 0.0433578044176101685
0.449945598840713501 0.536198616027832031 0.0339838750660419464
0.187832921743392944 0.457699328660964966 0.032997913658618927
0.175516784191131592 0.467551141977310181 0.0398095883429050446
0.131031632423400879 0.44315791130065918 0.0340352095663547516
0.259580373764038086 0.494073450565338135 0.0408077090978622437
0.0602205991744995117 0.440778136253356934 0.0433045513927936554
0.507566928863525391 0.583570003509521484 0.0508625134825706482
0.41162031888961792 0.549049139022827148 0.0465970337390899658
0.155951470136642456 0.483716577291488647 0.0527262501418590546
0.33960685133934021 0.52621382474899292 0.0454135984182357788
0.189793944358825684 0.50292205810546875 0.0588444434106349945
0.215337738394737244 0.489768505096435547 0.0453143417835235596
0.0493388772010803223 0.465508222579956055 0.0612123273313045502
0.250644326210021973 0.500047445297241211 0.045292876660823822
0.227519869804382324 0.508411645889282227 0.0552156902849674225
0.142517566680908203 0.484372258186340332 0.0557318143546581268
0.506315290927886963 0.580501854419708252 0.049088645726442337
0.393576204776763916 0.546368658542633057 0.0482966937124729156
0.441135287284851074 0.566651046276092529 0.0524923354387283325
0.752597689628601074 0.648642539978027344 0.0466019809246063232
0.893044650554656982 0.688118219375610352 0.0455890335142612457
0.18283429741859436 0.480445176362991333 0.0454256758093833923
0.811025381088256836 0.667890429496765137 0.048035159707069397
0.223871946334838867 0.507703900337219238 0.0554504133760929108
0.30744972825050354 0.521741986274719238 0.0486428961157798767
0.449766039848327637 0.559136748313903809 0.0459057502448558807
0.370628297328948975 0.551447808742523193 0.0560295097529888153
0.391126513481140137 0.557575464248657227 0.0561220012605190277
0.192838460206985474 0.493668615818023682 0.0521872155368328094
0.789445459842681885 0.661767005920410156 0.0481527820229530334
0.275997132062911987 0.510949492454528809 0.0475884713232517242
0.334098488092422485 0.524100422859191895 0.0450823791325092316
0.382976919412612915 0.547042608261108398 0.0507709085941314697
0.404683142900466919 0.551801502704620361 0.0497334599494934082
0.706003069877624512 0.641856014728546143 0.0510795712471008301
0.757539093494415283 0.653347909450531006 0.048743169754743576
0.187420949339866638 0.485772609710693359 0.0480431243777275085
0.503986239433288574 0.578163206577301025 0.0480001755058765411
0.0496793389320373535 0.448044121265411377 0.0496842563152313232
0.0671749413013458252 0.454604685306549072 0.0506365150213241577
0.414605319499969482 0.56499183177947998 0.0564890056848526001
0.178380087018013 0.484882175922393799 0.0491918101906776428
0.211273729801177979 0.508541762828826904 0.0584154203534126282
0.288721561431884766 0.524425745010375977 0.0539945177733898163
0.455360352993011475 0.569803237915039062 0.0518344342708587646
0.0603454411029815674 0.454004615545272827 0.0515518635511398315
0.22402074933052063 0.495408236980438232 0.0473515242338180542
0.247814327478408813 0.505403637886047363 0.0493509508669376373
0.124688595533370972 0.474558651447296143 0.0527083426713943481
