ply
format ascii 1.0
element vertex 1101
property float x
property float y
property float z
end_header
0 3.80747079849243164 0.120026297867298126
0 3.48537230491638184 0.145983785390853882
0 3.74449515342712402 0.165615200996398926
0 2.32221364974975586 0.0839617401361465454
0 1.81586384773254395 0.00475624203681945801
0 2.49235773086547852 0.114207059144973755
0 0.737073421478271484 0.017894446849822998
0 1.14485597610473633 0.0130806118249893188
0 0.555852413177490234 0.0119737386703491211
0 2.01240873336791992 0.0184335857629776001
0 1.63577961921691895 0.0435939580202102661
0 1.5187079906463623 0.0243581980466842651
0 3.83710670471191406 0.096584022045135498
0 3.80350756645202637 0.152987942099571228
0 4.19273662567138672 0.106262974441051483
0 4.25852823257446289 0.172610342502593994
0 2.97944116592407227 0.0546015650033950806
0 1.70189523696899414 0.0458485260605812073
0 4.16487646102905273 0.0263500772416591644
0 0.448175907135009766 0.0107765048742294312
0 3.25653171539306641 0.0679172724485397339
0 2.73714518547058105 0.112403295934200287
0 2.88163304328918457 0.045987345278263092
0 3.85401630401611328 0.0413213633000850677
0 2.46878576278686523 0.0380337163805961609
0 3.48200273513793945 0.0985537320375442505
0 4.30835628509521484 0.1643189936876297
0 3.33540630340576172 0.0431659258902072906
0 1.80031943321228027 0.0203781649470329285
0 3.56302499771118164 0.110303372144699097
0 3.17942929267883301 0.00504842773079872131
0 3.50508546829223633 0.00792112573981285095
0 1.56750321388244629 0.00457453727722167969
0 3.49553799629211426 0.123476646840572357
0 2.91900539398193359 0.128592550754547119
0 3.89214420318603516 0.0958458781242370605
0 2.27133536338806152 0.0425087809562683105
0 4.18904590606689453 0.157613947987556458
0 1.93149876594543457 0.126949578523635864
0 0.301183223724365234 0.183363735675811768
0 1.09968483448028564 0.0978393331170082092
0 0.580528497695922852 0.15175609290599823
0 2.448486328125 0.178166374564170837
0 1.74213325977325439 0.193551898002624512
0 0.833783566951751709 0.0877135619521141052
0 0.0898398086428642273 0.0893498212099075317
0 3.17161250114440918 0.19869367778301239
0 1.31565415859222412 0.102621637284755707
0 0.217143192887306213 0.0568621307611465454
0 0.395997494459152222 0.175530672073364258
0 1.9542853832244873 0.13895753026008606
0 0.3228607177734375 0.154276430606842041
0 1.96853291988372803 0.103524178266525269
0 0.636108100414276123 0.145230323076248169
0 0.0586906112730503082 0.196128487586975098
0 1.67168128490447998 0.196953877806663513
0 0.944932043552398682 0.169825941324234009
0 0.623687744140625 0.144415318965911865
0 1.65742743015289307 0.195809245109558105
0 0.933705568313598633 0.0532144457101821899
0 2.21618366241455078 0.193213179707527161
0 0.632750272750854492 0.108515806496143341
0 2.22390389442443848 0.176155731081962585
0 2.10314726829528809 0.17045418918132782
0 0.430909126996994019 0.167368486523628235
0 0.606523275375366211 0.184514224529266357
0 1.41947746276855469 0.0697247087955474854
0 1.29208874702453613 0.135724693536758423
0 1.65109312534332275 0.0923312827944755554
0 2.08097100257873535 0.173085600137710571
0 0.0248848125338554382 0.0660502612590789795
0 1.17440354824066162 0.189177602529525757
0 0.482091128826141357 0.0379188209772109985
0 2.80253028869628906 0.143355473875999451
0 2.59981966018676758 0.168119221925735474
0 1.41493332386016846 0.151066705584526062
0 1.73584854602813721 0.175520256161689758
0 0.629220247268676758 0.168853297829627991
0 1.45991027355194092 0.142054274678230286
0 1.63305938243865967 0.156788170337677002
0 2.13439345359802246 0.176703363656997681
0 0.353722274303436279 0.0566096603870391846
0 2.45738983154296875 0.127198159694671631
0 1.31244170665740967 0.0616057813167572021
0 0.593549072742462158 0.109550662338733673
0 0.14648418128490448 0.0113526284694671631
0 0.236723572015762329 0.164920032024383545
0 0.659422397613525391 0.0892308354377746582
0 0.439910143613815308 0.12658284604549408
0 0.117239028215408325 0.0931619554758071899
0 1.30816149711608887 0.187666192650794983
0 2.24804282188415527 0.189036443829536438
0 1.7516707181930542 0.135534226894378662
0 3.16242885589599609 0.198002666234970093
0 1.11821913719177246 0.0544324517250061035
0 0.343865245580673218 0.195216849446296692
0 0.205216258764266968 0.0814326629042625427
0 0.102179855108261108 0.121561780571937561
0 0.192934051156044006 0.182180091738700867
0 1.85597288608551025 0.112527124583721161
0 1.47773230075836182 0.16517871618270874
0 0.891245484352111816 0.115219593048095703
0 0.430051535367965698 0.173587888479232788
0 3.35279440879821777 0.172297403216362
0 1.39995241165161133 0.084710732102394104
0 0.440455496311187744 0.196133255958557129
0 0.164380401372909546 0.118411906063556671
0 0.776552736759185791 0.101909875869750977
0 0.249094441533088684 0.065328449010848999
0 3.1774134635925293 0.180698767304420471
0 2.72218084335327148 0.163291409611701965
0 0.839034438133239746 0.199085816740989685
0 1.24062979221343994 0.0746407657861709595
0 4.29452228546142578 0.198374643921852112
0 0.563997745513916016 0.0856290832161903381
0 0.763183772563934326 0.143633633852005005
0 1.08895659446716309 0.177151620388031006
0 1.82981503009796143 0.162577420473098755
0 0.0670434534549713135 0.0150941312313079834
0 3.16365814208984375 0.182601973414421082
0 0.64568251371383667 0.109977327287197113
0 2.57635998725891113 0.155348628759384155
0 2.59335184097290039 0.176873862743377686
0 0.115577705204486847 0.0369677543640136719
0 2.80241823196411133 0.158260971307754517
0 1.450797438621521 0.0866353288292884827
0 3.16097593307495117 0.181612610816955566
0 1.80277383327484131 0.182076454162597656
0 1.09979045391082764 0.188242197036743164
0 0.400214880704879761 0.0646446347236633301
0 2.04616236686706543 0.181528866291046143
0 0.595468282699584961 0.103441424667835236
0 2.3421630859375 0.129908174276351929
0 0.0771202445030212402 0.0259903967380523682
0 0.995574355125427246 0.140256196260452271
0 0.856059670448303223 0.137020766735076904
0 0.10128166526556015 0.117953084409236908
0 1.58799254894256592 0.146546408534049988
0 2.97600197792053223 0.172178000211715698
0 0.0738499537110328674 0.0590495765209197998
0 1.37206709384918213 0.0967546328902244568
0 0.825759351253509521 0.100067272782325745
0 0.247333705425262451 0.0569230914115905762
0 0.698338329792022705 0.0619250833988189697
0 0.657981455326080322 0.104701854288578033
0 2.46529865264892578 0.171818837523460388
0 2.81502008438110352 0.136782795190811157
0 2.35678577423095703 0.136203348636627197
0 1.72643804550170898 0.112240158021450043
0 1.17470002174377441 0.0961250662803649902
0 1.83367705345153809 0.144251316785812378
0 1.1929851770401001 0.167944341897964478
0 0.770702481269836426 0.113560676574707031
0 0.623457431793212891 0.0579760968685150146
0 1.24631118774414062 0.0930616855621337891
0 3.36944675445556641 0.160834476351737976
0 0.260963022708892822 0.053383171558380127
0 1.93152916431427002 0.136057153344154358
0 0.534437179565429688 0.174992844462394714
0 0.5182952880859375 0.192906156182289124
0 2.9411616325378418 0.141731187701225281
0 0.573146939277648926 0.158155322074890137
0 0.946541488170623779 0.0853407531976699829
0 3.39824604988098145 0.174573495984077454
0 1.07259321212768555 0.0594108998775482178
0 2.64070439338684082 0.180988267064094543
0 0.798170983791351318 0.146291628479957581
0 0.768057405948638916 0.170300841331481934
0 1.61256575584411621 0.136838600039482117
0 0.086535722017288208 0.0437926054000854492
0 1.48982441425323486 0.175859570503234863
0 0.527292907238006592 0.0656379163265228271
0 1.4545440673828125 0.136136144399642944
0 0.319983839988708496 0.076858915388584137
0 3.63238167762756348 0.19572170078754425
0 0.0198532175272703171 0.172116905450820923
0 0.605525076389312744 0.150046125054359436
0 2.26089262962341309 0.11509309709072113
0 1.99739503860473633 0.142324179410934448
0 1.52406632900238037 0.122110925614833832
0 0.52121281623840332 0.0952175259590148926
0 0.0390688888728618622 0.146301358938217163
0 1.59796631336212158 0.127622500061988831
0 1.29078066349029541 0.0606198608875274658
0 1.01008415222167969 0.167988985776901245
0 1.28190171718597412 0.173738971352577209
0 2.93105769157409668 0.175071641802787781
0 0.85354924201965332 0.167578548192977905
0 1.74409377574920654 0.0819982811808586121
0 3.88873553276062012 0.186064183712005615
0 0.0154475169256329536 0.0984852835536003113
0 2.75949335098266602 0.15598587691783905
0 0.617685079574584961 0.113675050437450409
0 2.68066024780273438 0.14462752640247345
0 0.634101986885070801 0.198149219155311584
0 1.80448472499847412 0.149407863616943359
0 2.07548332214355469 0.184624075889587402
0 0.491875678300857544 0.0972592458128929138
0 1.29574275016784668 0.166844099760055542
0 0.922858119010925293 0.0994857698678970337
0 2.91388845443725586 0.159652143716812134
0 1.14466118812561035 0.0912188217043876648
0 2.56889963150024414 0.190902650356292725
0 0.0835224241018295288 0.191385358572006226
0 2.32138919830322266 0.161750733852386475
0 0.926783978939056396 0.0676866918802261353
0 1.72955477237701416 0.0938286706805229187
0 0.953158795833587646 0.171315371990203857
0 2.01609492301940918 0.11468777060508728
0 1.34456908702850342 0.171188965439796448
0 0.834915101528167725 0.172208666801452637
0 2.8877112865447998 0.141517758369445801
0 0.826700389385223389 0.171101361513137817
0 0.693415164947509766 0.166633471846580505
0 0.903728485107421875 0.0587204396724700928
0 1.95779013633728027 0.143411159515380859
0 2.12270736694335938 0.15584428608417511
0 0.592466890811920166 0.161008507013320923
0 0.420820713043212891 0.103303655982017517
0 0.996083498001098633 0.121335901319980621
0 0.0970915704965591431 0.182395666837692261
0 1.51931905746459961 0.150126412510871887
0 0.0382365621626377106 0.142509639263153076
0 2.59353923797607422 0.17915557324886322
0 2.35012602806091309 0.142219424247741699
0 0.72004401683807373 0.0553002804517745972
0 0.884826719760894775 0.187114045023918152
0 3.24386215209960938 0.159100934863090515
0 1.65702128410339355 0.182555407285690308
0 3.19070959091186523 0.198281452059745789
0 0.340384840965270996 0.172299683094024658
0 0.54213249683380127 0.0534845888614654541
0 1.82886815071105957 0.196886569261550903
0 0.151402577757835388 0.195508852601051331
0 0.0916924625635147095 0.0236218571662902832
0 0.654505431652069092 0.0491529405117034912
0 1.59060275554656982 0.163481846451759338
0 3.04220747947692871 0.153397321701049805
0 3.08880472183227539 0.187846124172210693
0 0.454288572072982788 0.196677252650260925
0 0.386302411556243896 0.146621614694595337
0 1.97114670276641846 0.113634586334228516
0 3.00168395042419434 0.148508384823799133
0 1.63998067378997803 0.175176829099655151
0 1.1761167049407959 0.112879954278469086
0 3.07699847221374512 0.188782483339309692
0 0.843015134334564209 0.165276512503623962
0 0.313528478145599365 0.0236932933330535889
0 0.250961065292358398 0.127416014671325684
0 1.68209278583526611 0.161202579736709595
0 0.511156439781188965 0.0651857703924179077
0 2.12683820724487305 0.123069830238819122
0 0.292538553476333618 0.0849887281656265259
0 2.50939083099365234 0.1518678218126297
0 1.46575736999511719 0.136178702116012573
0 2.36369800567626953 0.153316900134086609
0 0.926350235939025879 0.198164194822311401
0 2.19423222541809082 0.133519083261489868
0 0.452210575342178345 0.121531859040260315
0 0.116678304970264435 0.0717960894107818604
0 0.803134500980377197 0.136725723743438721
0 0.818860352039337158 0.0469044893980026245
0 2.30283093452453613 0.18905368447303772
0 2.51978683471679688 0.158523485064506531
0 0.246704697608947754 0.0635835826396942139
0 0.613849282264709473 0.197757899761199951
0 2.5789947509765625 0.168800786137580872
0 0.373650074005126953 0.161037936806678772
0 3.14578509330749512 0.156310230493545532
0 0.832733094692230225 0.14212074875831604
0 2.40405130386352539 0.123844839632511139
0 1.12704050540924072 0.0579640716314315796
0 1.75542247295379639 0.147571757435798645
0 2.72882270812988281 0.192319393157958984
0 2.70827746391296387 0.124895699322223663
0 0.791109085083007812 0.165323793888092041
0 0.847447633743286133 0.0395759642124176025
0 1.98636507987976074 0.147791296243667603
0 2.4761357307434082 0.123211883008480072
0 4.17370223999023438 0.19456268846988678
0 2.15631246566772461 0.195949316024780273
0 0.0248101446777582169 0.180346876382827759
0 3.0767214298248291 0.177911549806594849
0 0.21909739077091217 0.159052044153213501
0 2.09022402763366699 0.172426462173461914
0 4.09642267227172852 0.195896372199058533
0 0.472309112548828125 0.186342507600784302
0 0.400881975889205933 0.0688576996326446533
0 0.229738578200340271 0.0835596546530723572
0 2.26519131660461426 0.189663499593734741
0 0.023882012814283371 0.114425592124462128
0 2.94505739212036133 0.198651149868965149
0 0.625807762145996094 0.0354278981685638428
0 1.73443639278411865 0.1641254723072052
0 2.30089735984802246 0.145067691802978516
0 1.76461195945739746 0.115729443728923798
0 2.97392702102661133 0.183278888463973999
0 3.33206486701965332 0.156749889254570007
0 3.14167094230651855 0.183829754590988159
0 1.0223689079284668 0.133044719696044922
0 0.161195471882820129 0.0294171273708343506
0 0.434178024530410767 0.109314016997814178
0 0.663512587547302246 0.0839583426713943481
0 1.06220376491546631 0.106833301484584808
0 3.65606427192687988 0.188285380601882935
0 1.31851017475128174 0.0793430134654045105
0 1.43760287761688232 0.0742104202508926392
0 2.01113295555114746 0.167680978775024414
0 1.2931971549987793 0.185360223054885864
0 3.59725022315979004 0.190312042832374573
0 2.2205965518951416 0.118394039571285248
0 2.51121830940246582 0.150227174162864685
0 2.73173069953918457 0.127361088991165161
0 0.503498673439025879 0.0579164177179336548
0 0.0578826591372489929 0.0204411149024963379
0 2.16451811790466309 0.142956599593162537
0 0.11020505428314209 0.195137619972229004
0 0.762425541877746582 0.167368605732917786
0 1.32505190372467041 0.192494437098503113
0 0.686718761920928955 0.0841192826628684998
0 1.12824273109436035 0.0661924034357070923
0 1.61754775047302246 0.172130584716796875
0 2.24491977691650391 0.161816805601119995
0 0.147630557417869568 0.125783205032348633
0 0.7815399169921875 0.154630959033966064
0 0.131736859679222107 0.081349693238735199
0 1.16315913200378418 0.0700051486492156982
0 0.128244966268539429 0.126383394002914429
0 0.177306011319160461 0.115679480135440826
0 2.52556633949279785 0.156010225415229797
0 1.21395277976989746 0.111273355782032013
0 3.44010734558105469 0.197135180234909058
0 0.479242205619812012 0.179254472255706787
0 0.013606085442006588 0.171616077423095703
0 1.35293042659759521 0.164453223347663879
0 0.800290226936340332 0.0553917735815048218
0 0.665452241897583008 0.0672710239887237549
0 1.18756341934204102 0.18071281909942627
0 0.887748897075653076 0.140373781323432922
0 3.58495306968688965 0.175054952502250671
0 0.0840445607900619507 0.171020656824111938
0 1.08773648738861084 0.124484702944755554
0 3.76106572151184082 0.179622888565063477
0 1.46137535572052002 0.170391455292701721
0 1.76058471202850342 0.0837428122758865356
0 2.48322582244873047 0.122703008353710175
0 3.64228034019470215 0.169066444039344788
0 1.39037632942199707 0.176517307758331299
0 3.17023563385009766 0.153685539960861206
0 2.26990795135498047 0.144874274730682373
0 1.3756561279296875 0.0824373960494995117
0 1.31120824813842773 0.178620874881744385
0 1.33092999458312988 0.106663011014461517
0 2.62124443054199219 0.141526162624359131
0 0.359548449516296387 0.0863923653960227966
0 1.13548970222473145 0.156552910804748535
0 2.43859696388244629 0.196900680661201477
0 3.51545166969299316 0.187112987041473389
0 2.53609204292297363 0.181858062744140625
0 0.0425730645656585693 0.0362861454486846924
0 1.49289834499359131 0.199761435389518738
0 2.28926920890808105 0.199182316660881042
0 3.24846148490905762 0.197370827198028564
0 0.562815010547637939 0.0676022469997406006
0 0.649342894554138184 0.11065683513879776
0 1.45465874671936035 0.185431018471717834
0 0.0581591054797172546 0.18427702784538269
0 0.59243696928024292 0.0799672231078147888
0 1.18204331398010254 0.108055897057056427
0 0.727326691150665283 0.0534137934446334839
0 2.85073280334472656 0.184333115816116333
0 2.63198018074035645 0.189720243215560913
0 2.64188456535339355 0.188893154263496399
0 2.2619330883026123 0.127642631530761719
0 0.564917325973510742 0.104822926223278046
0 1.29711484909057617 0.176787853240966797
0 0.949487864971160889 0.095254555344581604
0 1.30485653877258301 0.0719445496797561646
0 2.35312438011169434 0.12423175573348999
0 0.464754164218902588 0.13847622275352478
0 2.18722677230834961 0.191142946481704712
0 3.3124845027923584 0.168299600481987
0 0.51958853006362915 0.192125245928764343
0 0.165925964713096619 0.154679551720619202
0 2.20800256729125977 0.144201681017875671
0 2.75133252143859863 0.161149144172668457
0 0.256166219711303711 0.0577006936073303223
0 2.58581089973449707 0.135930150747299194
0 2.1051945686340332 0.15071260929107666
0 0.899266302585601807 0.0798154100775718689
0 2.02759432792663574 0.172434255480766296
0 2.49279880523681641 0.169422298669815063
0 0.0298515930771827698 0.0600268095731735229
0 0.867531299591064453 0.0494522750377655029
0 0.654356420040130615 0.165173798799514771
0 3.07539892196655273 0.17196325957775116
0 3.11993861198425293 0.169839531183242798
0 0.951752185821533203 0.158043175935745239
0 0.932393550872802734 0.113577790558338165
0 0.220713108777999878 0.085928596556186676
0 2.39109563827514648 0.153852283954620361
0 1.68846607208251953 0.169956117868423462
0 1.52325379848480225 0.130790844559669495
0 0.3290233314037323 0.108676962554454803
0 1.47958278656005859 0.110841311514377594
0 1.10469639301300049 0.116809405386447906
0 3.28399133682250977 0.191420406103134155
0 0.485696464776992798 0.19774278998374939
0 3.72022223472595215 0.199174985289573669
0 1.39345741271972656 0.185646906495094299
0 0.101439788937568665 0.139695391058921814
0 0.0276268571615219116 0.0269426256418228149
0 0.422038257122039795 0.151594951748847961
0 0.939856886863708496 0.0921030640602111816
0 1.4695136547088623 0.143158078193664551
0 0.243597239255905151 0.0809496268630027771
0 0.870373547077178955 0.187058597803115845
0 0.837132155895233154 0.185327976942062378
0 1.2335277795791626 0.144945979118347168
0 1.19074141979217529 0.132031440734863281
0 0.054819498211145401 0.0140495598316192627
0 0.435618996620178223 0.190181538462638855
0 0.381349414587020874 0.143999472260475159
0 1.87891173362731934 0.0929979458451271057
0 2.30442380905151367 0.155924245715141296
0 1.23570644855499268 0.151473551988601685
0 3.04198098182678223 0.17984183132648468
0 0.0444684810936450958 0.116743706166744232
0 0.319561421871185303 0.180811107158660889
0 0.531919479370117188 0.0978426262736320496
0 3.8562781810760498 0.177132681012153625
0 0.134907752275466919 0.102389633655548096
0 1.25306022167205811 0.0804719477891921997
0 2.17863893508911133 0.112950287759304047
0 0.703212440013885498 0.0481711477041244507
0 0.600858390331268311 0.104657568037509918
0 2.26020598411560059 0.159803539514541626
0 1.6252899169921875 0.122708968818187714
0 0.389657169580459595 0.195339083671569824
0 0.625508964061737061 0.166697308421134949
0 1.5464094877243042 0.103219412267208099
0 0.349801898002624512 0.129402279853820801
0 0.582788228988647461 0.123396001756191254
0 1.10749685764312744 0.108642354607582092
0 0.859189987182617188 0.16824418306350708
0 2.1185758113861084 0.123217158019542694
0 0.333116233348846436 0.172169521450996399
0 2.40219211578369141 0.140170320868492126
0 1.27881705760955811 0.185167878866195679
0 1.30968618392944336 0.130654498934745789
0 0.948257803916931152 0.137857049703598022
0 1.27846288681030273 0.147925436496734619
0 0.188797622919082642 0.152717173099517822
0 1.72835040092468262 0.117548450827598572
0 3.14146971702575684 0.181787371635437012
0 1.74234914779663086 0.108501076698303223
0 1.2226790189743042 0.190986141562461853
0 3.21317553520202637 0.161230891942977905
0 2.89544892311096191 0.155298471450805664
0 1.09743380546569824 0.13986814022064209
0 0.172586843371391296 0.0660431087017059326
0 3.79503226280212402 0.193473517894744873
0 0.550275802612304688 0.0288107395172119141
0 1.68581211566925049 0.147200167179107666
0 0.194507613778114319 0.047352224588394165
0 1.15503942966461182 0.0717127025127410889
0 0.296777665615081787 0.01419869065284729
0 0.716381549835205078 0.0996483489871025085
0 1.20078575611114502 0.0630567818880081177
0 0.227418869733810425 0.0292933881282806396
0 2.78586077690124512 0.172735109925270081
0 0.00658608460798859596 0.0584673583507537842
0 0.760796606540679932 0.185926064848899841
0 1.40696895122528076 0.0700624734163284302
0 3.39289140701293945 0.194699257612228394
0 2.16613602638244629 0.183166205883026123
0 1.80221807956695557 0.156698957085609436
0 1.0020911693572998 0.154886558651924133
0 2.23646783828735352 0.18006567656993866
0 0.821506917476654053 0.0951129719614982605
0 0.372348099946975708 0.0831780582666397095
0 0.318227767944335938 0.107862360775470734
0 0.845446288585662842 0.0955318957567214966
0 2.32606387138366699 0.185906216502189636
0 1.70158374309539795 0.151222333312034607
0 2.49243974685668945 0.157334238290786743
0 1.78129792213439941 0.178455546498298645
0 3.38619184494018555 0.175566628575325012
0 1.11752855777740479 0.117749392986297607
0 2.43543195724487305 0.155496731400489807
0 0.746031641960144043 0.0772371813654899597
0 2.63884663581848145 0.177845180034637451
0 3.1433403491973877 0.17392556369304657
0 1.78661870956420898 0.150006860494613647
0 0.491171747446060181 0.0584557801485061646
0 2.58481645584106445 0.129721134901046753
0 2.71279025077819824 0.153311759233474731
0 1.55189549922943115 0.0756012126803398132
0 0.465568631887435913 0.101402424275875092
0 2.11295843124389648 0.164435833692550659
0 2.44890022277832031 0.127678841352462769
0 0.138303011655807495 0.0385905206203460693
0 0.549494683742523193 0.0417316257953643799
0 1.95257949829101562 0.125332057476043701
0 1.62687218189239502 0.109284467995166779
0 1.34777867794036865 0.138428032398223877
0 0.389960706233978271 0.0302844345569610596
0 2.01038479804992676 0.0929622873663902283
0 1.00225317478179932 0.181459367275238037
0 3.99010944366455078 0.196951746940612793
0 0.00752545055001974106 0.193399921059608459
0 2.90150141716003418 0.172877863049507141
0 2.23088455200195312 0.184509530663490295
0 0.645971179008483887 0.0605759471654891968
0 3.25348353385925293 0.179225802421569824
0 0.128368660807609558 0.0313858687877655029
0 2.97234463691711426 0.195474132895469666
0 0.661215782165527344 0.100235417485237122
0 2.39692831039428711 0.165399223566055298
0 2.58221864700317383 0.148365408182144165
0 1.1135098934173584 0.16311037540435791
0 1.65963125228881836 0.139686673879623413
0 0.914806544780731201 0.118816941976547241
0 2.9214789867401123 0.167155951261520386
0 3.4398653507232666 0.175176367163658142
0 1.19284927845001221 0.14886493980884552
0 0.874503493309020996 0.0792940780520439148
0 0.129451796412467957 0.034386754035949707
0 2.06800127029418945 0.159148409962654114
0 2.36798381805419922 0.134991422295570374
0 0.683099448680877686 0.126189276576042175
0 2.67153596878051758 0.166838377714157104
0 0.249873235821723938 0.144162297248840332
0 1.40841734409332275 0.0825055241584777832
0 1.97479021549224854 0.197989046573638916
0 0.155785068869590759 0.156664803624153137
0 0.442761063575744629 0.151564732193946838
0 0.64608311653137207 0.0417670905590057373
0 2.16365671157836914 0.117443680763244629
0 0.669679880142211914 0.113661006093025208
0 2.55099749565124512 0.131401807069778442
0 0.763396739959716797 0.082804359495639801
0 1.16033089160919189 0.158234328031539917
0 1.31518185138702393 0.0783323869109153748
0 2.32322168350219727 0.180291995406150818
0 0.805869698524475098 0.0790842771530151367
0 0.279129087924957275 0.0293589383363723755
0 1.82845473289489746 0.19377407431602478
0 2.0452735424041748 0.10443820059299469
0 2.34267830848693848 0.132299184799194336
0 0.283368617296218872 0.168667316436767578
0 1.05488348007202148 0.149266466498374939
0 0.190964236855506897 0.11478983610868454
0 0.325309842824935913 0.0563144981861114502
0 1.29265618324279785 0.132102876901626587
0 1.42256748676300049 0.172450780868530273
0 0.0584317632019519806 0.0821839123964309692
0 2.02051329612731934 0.10975337028503418
0 1.12201881408691406 0.078687720000743866
0 2.79608726501464844 0.142368406057357788
0 2.12356662750244141 0.115177594125270844
0 0.80880814790725708 0.109893463551998138
0 0.605094611644744873 0.170492827892303467
0 0.327596515417098999 0.0252731889486312866
0 2.63856148719787598 0.134165853261947632
0 1.74366724491119385 0.177119821310043335
0 0.0116478390991687775 0.148325532674789429
0 2.15662217140197754 0.163159847259521484
0 0.0703054517507553101 0.0485365092754364014
0 0.744941651821136475 0.114611051976680756
0 1.75147581100463867 0.127113372087478638
0 2.9309685230255127 0.145096763968467712
0 0.300317227840423584 0.0829302594065666199
0 2.16197371482849121 0.152975365519523621
0 0.466907709836959839 0.19285622239112854
0 1.28472065925598145 0.067201957106590271
0 1.18542933464050293 0.16412760317325592
0 0.305494636297225952 0.106757618486881256
0 1.76911520957946777 0.15598943829536438
0 1.4544677734375 0.160023897886276245
0 3.04715514183044434 0.163886457681655884
0 1.24576926231384277 0.145327359437942505
0 0.627407431602478027 0.0992320775985717773
0 0.434907406568527222 0.152193635702133179
0 1.18475031852722168 0.0603567510843276978
0 0.735792279243469238 0.150020897388458252
0 0.0887625515460968018 0.0753633156418800354
0 0.207586288452148438 0.195669546723365784
0 4.11925411224365234 0.194127097725868225
0 1.11931109428405762 0.14572519063949585
0 2.56465888023376465 0.185699939727783203
0 0.548988223075866699 0.100303024053573608
0 0.0347329527139663696 0.147884011268615723
0 2.67270922660827637 0.171445697546005249
0 1.3385162353515625 0.0955655574798583984
0 0.11979549378156662 0.0184282362461090088
0 2.48565578460693359 0.132237270474433899
0 0.747552812099456787 0.0498644113540649414
0 2.04633474349975586 0.138375192880630493
0 1.93262040615081787 0.149691924452781677
0 0.455725401639938354 0.176862597465515137
0 0.814277172088623047 0.0628432184457778931
0 0.33758428692817688 0.163098976016044617
0 0.652462184429168701 0.129364103078842163
0 1.63501667976379395 0.130205497145652771
0 0.487876445055007935 0.0661686360836029053
0 0.831742048263549805 0.141590505838394165
0 0.221615061163902283 0.183240622282028198
0 1.08662915229797363 0.17740766704082489
0 1.43728458881378174 0.113994263112545013
0 2.51206541061401367 0.168557211756706238
0 3.03676104545593262 0.170908272266387939
0 0.357136517763137817 0.0664057284593582153
0 2.11153674125671387 0.182770416140556335
0 3.05159664154052734 0.149013176560401917
0 0.0118163125589489937 0.113972924649715424
0 0.527582347393035889 0.0759016498923301697
0 0.616917014122009277 0.146456629037857056
0 3.71821260452270508 0.191242307424545288
0 0.667206883430480957 0.0443158894777297974
0 0.690772950649261475 0.196927934885025024
0 0.940759897232055664 0.166888758540153503
0 0.203925594687461853 0.0637997686862945557
0 2.65525054931640625 0.181470409035682678
0 1.56458890438079834 0.0774973854422569275
0 3.40900039672851562 0.19583912193775177
0 0.67893826961517334 0.178868904709815979
0 0.102852962911128998 0.0561868250370025635
0 0.0590653680264949799 0.131275862455368042
0 0.169397130608558655 0.159581243991851807
0 1.89698231220245361 0.131331861019134521
0 2.59758925437927246 0.143636599183082581
0 1.16481387615203857 0.118272952735424042
0 1.52156519889831543 0.192751064896583557
0 1.61177992820739746 0.165442436933517456
0 3.16949176788330078 0.152345865964889526
0 1.89510691165924072 0.147754505276679993
0 1.66723835468292236 0.117939397692680359
0 1.6785285472869873 0.14046207070350647
0 0.65183645486831665 0.0935846120119094849
0 0.233209475874900818 0.11614372581243515
0 1.48635184764862061 0.127718105912208557
0 0.363388240337371826 0.175168097019195557
0 2.81449151039123535 0.139479503035545349
0 1.21596968173980713 0.108068808913230896
0 0.293342083692550659 0.183354154229164124
0 0.31391376256942749 0.110369123518466949
0 1.90445077419281006 0.109356686472892761
0 0.556491374969482422 0.0363352596759796143
0 0.570055305957794189 0.144553601741790771
0 1.66940653324127197 0.106590233743190765
0 0.893093526363372803 0.0725723206996917725
0 0.0853295102715492249 0.142324745655059814
0 1.79042279720306396 0.19411391019821167
0 1.665993332862854 0.11481156200170517
0 0.836946785449981689 0.0656868666410446167
0 0.552105128765106201 0.070817410945892334
0 1.61725759506225586 0.0799162313342094421
0 2.83034086227416992 0.16068992018699646
0 0.388027161359786987 0.121388182044029236
0 0.725328505039215088 0.12271185964345932
0 0.391483843326568604 0.0629894137382507324
0 2.38338851928710938 0.163027822971343994
0 1.12039375305175781 0.176919654011726379
0 1.63485872745513916 0.111322954297065735
0 2.54599952697753906 0.17262132465839386
0 1.0669170618057251 0.06331595778465271
0 1.02882957458496094 0.197671785950660706
0 1.06008279323577881 0.154306516051292419
0 1.64175975322723389 0.10213276743888855
0 1.66703426837921143 0.121801026165485382
0 1.69817876815795898 0.139585360884666443
0 4.12694311141967773 0.197680890560150146
0 0.11291377991437912 0.0645625293254852295
0 2.9881432056427002 0.196841880679130554
0 3.49051094055175781 0.172422930598258972
0 2.79337048530578613 0.131814137101173401
0 1.29966962337493896 0.109246321022510529
0 0.462012827396392822 0.10689089447259903
0 2.31234908103942871 0.142123907804489136
0 0.262489676475524902 0.038868829607963562
0 1.44585490226745605 0.0720310509204864502
0 2.08201336860656738 0.1987723708152771
0 0.812965989112854004 0.196762204170227051
0 1.59584474563598633 0.108617775142192841
0 1.30047118663787842 0.119488231837749481
0 0.010222739540040493 0.187876880168914795
0 2.27936792373657227 0.165247648954391479
0 1.98630046844482422 0.165620267391204834
0 0.113675974309444427 0.125490203499794006
0 0.699213624000549316 0.185984998941421509
0 0.502619087696075439 0.130810216069221497
0 2.14065670967102051 0.164376258850097656
0 2.35646748542785645 0.133828341960906982
0 3.2406001091003418 0.177435711026191711
0 0.77654498815536499 0.0624570995569229126
0 1.41152620315551758 0.103388629853725433
0 0.0409667044878005981 0.157171100378036499
0 1.74282991886138916 0.13787040114402771
0 0.168590426445007324 0.02343025803565979
0 1.63097143173217773 0.112578853964805603
0 2.81702613830566406 0.162347793579101562
0 1.77056682109832764 0.140731781721115112
0 2.31113338470458984 0.12270820140838623
0 0.56457817554473877 0.0660350024700164795
0 1.81544101238250732 0.154594734311103821
0 1.3446815013885498 0.173853814601898193
0 1.39652371406555176 0.085015811026096344
0 0.219947561621665955 0.0159460455179214478
0 0.697997868061065674 0.0634795874357223511
0 1.44183468818664551 0.0990984067320823669
0 2.27843356132507324 0.131897091865539551
0 0.0489344745874404907 0.185042604804039001
0 1.91070437431335449 0.113959990441799164
0 2.35844063758850098 0.163631260395050049
0 0.462164461612701416 0.0330462157726287842
0 2.22259235382080078 0.195025518536567688
0 1.06139838695526123 0.100143969058990479
0 3.95953583717346191 0.194231510162353516
0 2.49771714210510254 0.149474397301673889
0 0.0681436061859130859 0.0748846828937530518
0 0.259305298328399658 0.198401018977165222
0 0.55299985408782959 0.16149003803730011
0 2.25273609161376953 0.185826078057289124
0 0.672608852386474609 0.180299535393714905
0 0.501301169395446777 0.147012084722518921
0 1.94146788120269775 0.0976020842790603638
0 0.0266713090240955353 0.179011434316635132
0 0.587110400199890137 0.0345953851938247681
0 1.81559085845947266 0.111591659486293793
0 3.47550821304321289 0.177225217223167419
0 0.334682673215866089 0.0225463658571243286
0 0.960122942924499512 0.0657221972942352295
0 1.52089619636535645 0.0812191292643547058
0 2.00330448150634766 0.140631109476089478
0 1.35021698474884033 0.0667429864406585693
0 1.69082558155059814 0.0827196389436721802
0 1.20082807540893555 0.111591748893260956
0 3.08187317848205566 0.17597392201423645
0 0.977841317653656006 0.117455191910266876
0 1.08434677124023438 0.155087456107139587
0 0.44638979434967041 0.165874451398849487
0 0.703396916389465332 0.13682219386100769
0 3.59526324272155762 0.191942870616912842
0 1.22198522090911865 0.0668981075286865234
0 0.404476374387741089 0.195401698350906372
0 0.938706398010253906 0.133215516805648804
0 0.158017009496688843 0.0556962788105010986
0 0.656992495059967041 0.14582546055316925
0 0.740091681480407715 0.13268202543258667
0 1.78104007244110107 0.102639235556125641
0 1.96420490741729736 0.102237194776535034
0 1.08347821235656738 0.190490096807479858
0 0.912082374095916748 0.127927213907241821
0 0.405907571315765381 0.192327454686164856
0 1.81703364849090576 0.0876897573471069336
0 1.85150015354156494 0.0931672081351280212
0 1.10549056529998779 0.110405683517456055
0 1.53800666332244873 0.126330167055130005
0 1.41521346569061279 0.137757346034049988
0 1.23433089256286621 0.151529565453529358
0 0.15932801365852356 0.15016523003578186
0 0.45937541127204895 0.171398818492889404
0 2.16431212425231934 0.14051094651222229
0 0.0473645627498626709 0.158906698226928711
0 1.58972501754760742 0.159939587116241455
0 2.76540589332580566 0.155574187636375427
0 1.58842957019805908 0.190231934189796448
0 3.14995455741882324 0.159516215324401855
0 2.97803926467895508 0.194938912987709045
0 0.932909190654754639 0.074677005410194397
0 0.142840176820755005 0.00876003503799438477
0 3.05953550338745117 0.193250477313995361
0 0.0221399441361427307 0.0891385078430175781
0 0.978081047534942627 0.097057044506072998
0 0.0570404864847660065 0.139981299638748169
0 1.97832369804382324 0.193889379501342773
0 0.138080358505249023 0.047255396842956543
0 3.70607304573059082 0.197568178176879883
0 1.86666762828826904 0.1394367516040802
0 0.19470822811126709 0.0464587658643722534
0 0.696431636810302734 0.0403555333614349365
0 3.33986425399780273 0.17139965295791626
0 0.836594641208648682 0.0935435891151428223
0 1.61176800727844238 0.142274618148803711
0 0.722877621650695801 0.166664987802505493
0 3.35224747657775879 0.171622753143310547
0 0.0746317431330680847 0.0275492966175079346
0 1.97218859195709229 0.127838596701622009
0 0.454306036233901978 0.0640209764242172241
0 0.650222241878509521 0.0905859395861625671
0 2.22536182403564453 0.142139405012130737
0 0.0243325084447860718 0.146329998970031738
0 1.6359633207321167 0.147570043802261353
0 0.554677128791809082 0.16507604718208313
0 0.532812118530273438 0.175610050559043884
0 0.616358339786529541 0.0716361254453659058
0 1.15740370750427246 0.0914426222443580627
0 3.28402161598205566 0.178973600268363953
0 0.328293114900588989 0.141145527362823486
0 1.33068263530731201 0.0690405666828155518
0 0.63725358247756958 0.144411921501159668
0 1.27084028720855713 0.199980616569519043
0 2.83432221412658691 0.156697571277618408
0 1.25581097602844238 0.124175809323787689
0 1.26239657402038574 0.162125542759895325
0 0.230820596218109131 0.0217936038970947266
0 2.58363437652587891 0.12718336284160614
0 3.76396751403808594 0.193059995770454407
0 0.866756081581115723 0.1704549640417099
0 0.815222978591918945 0.0386243909597396851
0 1.47734904289245605 0.134073257446289062
0 2.69010472297668457 0.196571648120880127
0 1.47346365451812744 0.163051560521125793
0 0.0226006191223859787 0.0590548664331436157
0 1.86099052429199219 0.191796228289604187
0 2.12110781669616699 0.104922257363796234
0 1.48145151138305664 0.16187894344329834
0 1.05223941802978516 0.0860918387770652771
0 0.486282169818878174 0.180022910237312317
0 0.591284513473510742 0.0543787628412246704
0 4.32451629638671875 0.199055299162864685
0 0.914989829063415527 0.186574861407279968
0 0.303718060255050659 0.10870739072561264
0 0.739501595497131348 0.159917384386062622
0 3.46615457534790039 0.196526989340782166
0 0.967415213584899902 0.191015034914016724
0 2.59697842597961426 0.135986477136611938
0 0.587472796440124512 0.0731718242168426514
0 1.59020328521728516 0.0747517645359039307
0 0.636830985546112061 0.0413527190685272217
0 1.09191882610321045 0.190741002559661865
0 0.182954981923103333 0.067038118839263916
0 2.09824061393737793 0.132979214191436768
0 0.56410980224609375 0.139076113700866699
0 0.916978895664215088 0.102660372853279114
0 0.946435451507568359 0.157571271061897278
0 0.845708906650543213 0.0855363234877586365
0 0.348331242799758911 0.0630076378583908081
0 3.26013278961181641 0.151255369186401367
0 2.75827741622924805 0.139300346374511719
0 1.61575698852539062 0.127284377813339233
0 0.574238240718841553 0.143264144659042358
0 0.0943240299820899963 0.0961207523941993713
0 1.21983909606933594 0.145737513899803162
0 1.71883583068847656 0.196245193481445312
0 0.266306519508361816 0.133668750524520874
0 2.14569926261901855 0.199927091598510742
0 0.109706290066242218 0.00664767622947692871
0 0.0472633987665176392 0.120633497834205627
0 1.40983855724334717 0.116753943264484406
0 0.215698003768920898 0.119814105331897736
0 2.56360363960266113 0.167765751481056213
0 0.188011601567268372 0.109756581485271454
0 1.42524313926696777 0.124685987830162048
0 1.61095535755157471 0.140912100672721863
0 2.51274991035461426 0.1457815021276474
0 0.773530840873718262 0.0752356424927711487
0 1.87619078159332275 0.102665044367313385
0 0.0847428441047668457 0.0922298580408096313
0 3.1933436393737793 0.187655270099639893
0 3.20151376724243164 0.169361397624015808
0 0.508157193660736084 0.163620918989181519
0 2.78392791748046875 0.197667405009269714
0 1.80490243434906006 0.0939484238624572754
0 1.53649246692657471 0.087794184684753418
0 1.36245167255401611 0.186734706163406372
0 1.02901721000671387 0.0567476004362106323
0 0.954856038093566895 0.144617915153503418
0 0.881356716156005859 0.0471772849559783936
0 2.18317413330078125 0.183999970555305481
0 0.50661700963973999 0.192618593573570251
0 0.320710688829421997 0.0632365643978118896
0 2.44557905197143555 0.119464270770549774
0 0.69857335090637207 0.141189217567443848
0 1.68541252613067627 0.139125555753707886
0 2.40182328224182129 0.11895916610956192
0 1.4404217004776001 0.0841414257884025574
0 3.33577394485473633 0.161985740065574646
0 1.85383772850036621 0.141169875860214233
0 0.296535253524780273 0.18918195366859436
0 1.77094125747680664 0.177170440554618835
0 1.92770135402679443 0.192346438765525818
0 0.524117231369018555 0.186314195394515991
0 1.13153374195098877 0.153925925493240356
0 1.72284483909606934 0.158719629049301147
0 1.28187870979309082 0.118819050490856171
0 0.394052803516387939 0.169864386320114136
0 0.707932591438293457 0.0731849372386932373
0 0.346297293901443481 0.165318489074707031
0 3.08381390571594238 0.158259153366088867
0 1.98853790760040283 0.175839394330978394
0 2.21892094612121582 0.132569387555122375
0 0.237957283854484558 0.104156099259853363
0 0.349326938390731812 0.160747945308685303
0 1.15654206275939941 0.183746650815010071
0 0.399722576141357422 0.0186041593551635742
0 0.448827236890792847 0.147390618920326233
0 1.90397250652313232 0.123738758265972137
0 1.49385321140289307 0.0969702973961830139
0 2.80810832977294922 0.198486998677253723
0 3.16273188591003418 0.180718421936035156
0 3.35894465446472168 0.157902568578720093
0 0.536472976207733154 0.0678438395261764526
0 0.438314646482467651 0.145971357822418213
0 2.02962350845336914 0.176530450582504272
0 1.94937741756439209 0.113710246980190277
0 0.217505529522895813 0.109525814652442932
0 1.16785156726837158 0.188484013080596924
0 0.31522706151008606 0.0969419628381729126
0 0.706225991249084473 0.118150852620601654
0 0.771368622779846191 0.135349065065383911
0 0.43744736909866333 0.104236550629138947
0 1.10257518291473389 0.0545213073492050171
0 0.639261245727539062 0.114248953759670258
0 1.92002367973327637 0.182063281536102295
0 0.0543767586350440979 0.198980242013931274
0 1.22580313682556152 0.0758237391710281372
0 1.89479660987854004 0.111255906522274017
0 0.23626379668712616 0.156506791710853577
0 2.85613393783569336 0.171879887580871582
0 2.41011404991149902 0.165495127439498901
0 0.612975001335144043 0.194314226508140564
0 0.91899341344833374 0.14556199312210083
0 0.989649295806884766 0.0945026203989982605
0 1.78281545639038086 0.16986633837223053
0 2.19029664993286133 0.145659655332565308
0 2.19974231719970703 0.129197672009468079
0 2.81306362152099609 0.177389293909072876
0 0.0320461355149745941 0.00313553214073181152
0 1.39322757720947266 0.149394631385803223
0 0.899196207523345947 0.166352376341819763
0 2.83298611640930176 0.184877187013626099
0 1.10327315330505371 0.187925085425376892
0 1.71617865562438965 0.19667409360408783
0 2.49092340469360352 0.151954218745231628
0 0.853685736656188965 0.154863730072975159
0 1.95442378520965576 0.184263378381729126
0 0.0224532503634691238 0.105743549764156342
0 0.391464889049530029 0.0253808945417404175
0 2.05464029312133789 0.103290721774101257
0 1.69364595413208008 0.124947771430015564
0 1.62544131278991699 0.0814036503434181213
0 0.954938888549804688 0.103398501873016357
0 2.23261213302612305 0.11495024710893631
0 1.46843314170837402 0.0826461538672447205
0 2.7366180419921875 0.171059399843215942
0 3.70601701736450195 0.175847411155700684
0 1.4496840238571167 0.15171445906162262
0 1.87005758285522461 0.15640297532081604
0 2.74047255516052246 0.143535450100898743
0 3.34347701072692871 0.181480288505554199
0 3.89911127090454102 0.18815295398235321
0 0.658618271350860596 0.145216405391693115
0 1.51250553131103516 0.0985083132982254028
0 0.503851771354675293 0.15377768874168396
0 1.73327469825744629 0.114653542637825012
0 1.60473287105560303 0.184200972318649292
0 2.11963343620300293 0.172228038311004639
0 1.56247591972351074 0.189062416553497314
0 0.914346694946289062 0.126027584075927734
0 1.0471043586730957 0.13557279109954834
0 0.264653682708740234 0.0843239650130271912
0 0.875268101692199707 0.0716403573751449585
0 2.08235859870910645 0.145064786076545715
0 0.394712746143341064 0.168332114815711975
0 0.625596284866333008 0.0662718117237091064
0 2.93495798110961914 0.136002540588378906
0 1.85940372943878174 0.168090373277664185
0 0.0627449005842208862 0.10762360692024231
0 2.19458794593811035 0.163002103567123413
0 0.403955191373825073 0.107918448746204376
0 1.42091786861419678 0.197877898812294006
0 2.45230674743652344 0.180478096008300781
0 0.262205600738525391 0.0775584131479263306
0 0.882391750812530518 0.188541322946548462
0 3.51686882972717285 0.185303583741188049
0 2.98290848731994629 0.144758686423301697
0 0.920618653297424316 0.148195698857307434
0 0.268041431903839111 0.130698829889297485
0 2.01602339744567871 0.179783910512924194
0 0.369097799062728882 0.102828368544578552
0 0.654346048831939697 0.104276478290557861
0 1.33017683029174805 0.0803261548280715942
0 1.93961179256439209 0.0926324501633644104
0 2.02679896354675293 0.140504837036132812
0 1.25856590270996094 0.0841532275080680847
0 0.811745822429656982 0.103756129741668701
0 1.01909828186035156 0.195602461695671082
0 0.214176550507545471 0.0464085638523101807
0 0.0659501999616622925 0.0813987627625465393
0 0.128379732370376587 0.142866343259811401
0 0.420210182666778564 0.163990586996078491
0 1.92956483364105225 0.138263240456581116
0 1.74113297462463379 0.139868319034576416
0 1.27989792823791504 0.0663113594055175781
0 0.0158506967127323151 0.149879530072212219
0 1.84431838989257812 0.161589443683624268
0 1.58284091949462891 0.0825641900300979614
0 0.440222471952438354 0.169190198183059692
0 1.62917196750640869 0.0905150547623634338
0 0.503369510173797607 0.143439069390296936
0 1.25786447525024414 0.125933811068534851
0 0.693957924842834473 0.136125892400741577
0 1.68685519695281982 0.158935576677322388
0 1.31193363666534424 0.147010684013366699
0 1.09327208995819092 0.0672674179077148438
0 0.63284146785736084 0.157434448599815369
0 1.09759640693664551 0.117119289934635162
0 0.451005607843399048 0.152903884649276733
0 3.49696779251098633 0.174060478806495667
0 3.09446501731872559 0.147528946399688721
0 0.649174213409423828 0.159791499376296997
0 3.24030327796936035 0.181924015283584595
0 2.7348027229309082 0.150081276893615723
0 3.02909970283508301 0.19863186776638031
0 2.13246607780456543 0.116211824119091034
0 3.97541999816894531 0.196831479668617249
0 1.06738221645355225 0.0546825975179672241
0 3.51611566543579102 0.161933556199073792
0 0.605006873607635498 0.180391192436218262
0 3.95717096328735352 0.183587834239006042
0 2.50106477737426758 0.176489770412445068
0 2.17393207550048828 0.171531319618225098
0 1.20731878280639648 0.147298455238342285
0 1.30426609516143799 0.109828762710094452
0 1.29576492309570312 0.18251916766166687
0 0.302802681922912598 0.138948783278465271
0 2.9606935977935791 0.169112399220466614
0 0.845339834690093994 0.0684953778982162476
0 2.65825867652893066 0.141534492373466492
0 0.278120547533035278 0.141453206539154053
0 0.854123771190643311 0.0743024498224258423
0 0.155674904584884644 0.0700117498636245728
0 2.04081511497497559 0.108346752822399139
0 1.45805144309997559 0.078632846474647522
0 0.983802914619445801 0.136070221662521362
0 0.844708859920501709 0.133409827947616577
0 4.22078561782836914 0.199287563562393188
0 0.228743299841880798 0.0642963051795959473
0 0.187019914388656616 0.114866882562637329
0 0.0518821477890014648 0.16642405092716217
0 1.39176034927368164 0.129151433706283569
0 3.28785395622253418 0.166131794452667236
0 0.245543360710144043 0.0950574055314064026
0 1.436087965965271 0.0812022238969802856
0 1.82313323020935059 0.0852665305137634277
0 1.11167538166046143 0.120161674916744232
0 3.63578152656555176 0.168002113699913025
0 1.05929720401763916 0.199545145034790039
0 1.25563216209411621 0.0839524641633033752
0 2.40058326721191406 0.114909917116165161
0 0.001905104611068964 0.0984976217150688171
0 0.412680298089981079 0.16344095766544342
0 0.042048133909702301 0.169584497809410095
0 3.66948246955871582 0.169805258512496948
0 2.7159886360168457 0.146830096840858459
0 0.654672086238861084 0.100664742290973663
0 3.25650382041931152 0.171511411666870117
0 0.14326043426990509 0.156520873308181763
0 0.635410606861114502 0.1240810826420784
0 2.62555289268493652 0.150465071201324463
0 1.89897251129150391 0.160285621881484985
0 0.722697556018829346 0.197252854704856873
0 3.22266149520874023 0.191830053925514221
0 0.665802896022796631 0.173845589160919189
0 0.350831091403961182 0.194957107305526733
0 2.29440116882324219 0.125551730394363403
0 2.30487561225891113 0.150397062301635742
0 3.3707888126373291 0.169067010283470154
0 1.70916855335235596 0.146519958972930908
0 0.646635711193084717 0.0323827266693115234
0 0.674732625484466553 0.0933909565210342407
0 0.187554448843002319 0.0849400982260704041
0 2.32335424423217773 0.170828938484191895
0 1.88851511478424072 0.130656182765960693
0 0.761233389377593994 0.186167448759078979
0 2.15491557121276855 0.153563812375068665
0 0.445025384426116943 0.13878360390663147
0 2.59905552864074707 0.199946135282516479
0 2.59870123863220215 0.121226541697978973
0 0.261487811803817749 0.0343661904335021973
0 3.04432892799377441 0.157209038734436035
0 0.58767390251159668 0.112313255667686462
0 3.04125165939331055 0.194697007536888123
0 0.934125721454620361 0.189569428563117981
0 0.511319458484649658 0.0321977436542510986
0 3.48970580101013184 0.183316469192504883
0 2.54606914520263672 0.122363060712814331
0 2.8838508129119873 0.137725397944450378
0 0.114248812198638916 0.146106719970703125
0 1.66027271747589111 0.172507554292678833
0 3.05943441390991211 0.181441858410835266
0 0.198248803615570068 0.0395637601613998413
0 0.126874610781669617 0.081055663526058197
0 1.52322757244110107 0.176057815551757812
0 0.612333178520202637 0.0456946790218353271
0 1.4956657886505127 0.0715516060590744019
0 2.0495913028717041 0.194145053625106812
0 2.44920253753662109 0.196372926235198975
0 2.6511836051940918 0.133516371250152588
