ply
format ascii 1.0
element vertex 705
property float x
property float y
property float z
end_header
-0.0189117193222045898 0.0267858821898698807 0.0179348792880773544
-0.0189117193222045898 0.0272729545831680298 0.0224417597055435181
-0.0189117193222045898 0.0258906930685043335 0.0206100698560476303
-0.0189117193222045898 0.0268762670457363129 0.0158182084560394287
-0.0189117193222045898 0.0264803431928157806 0.0195847824215888977
-0.0189117193222045898 0.0267888661473989487 0.0156527534127235413
-0.0189117193222045898 0.0273798946291208267 0.0194181092083454132
-0.0189117193222045898 0.0257618017494678497 0.00933118909597396851
-0.0189117193222045898 0.0261667016893625259 0.0212519727647304535
-0.0189117193222045898 0.0261324625462293625 0.012640688568353653
-0.0189117193222045898 0.0258853882551193237 0.0111705092713236809
-0.0189117193222045898 0.0262858122587203979 0.015354648232460022
-0.0189117193222045898 0.0263830386102199554 0.0252156630158424377
-0.0189117193222045898 0.025857098400592804 0.0101122269406914711
-0.0189117193222045898 0.0271759312599897385 0.0217543803155422211
-0.0189117193222045898 0.0275968797504901886 0.0225065499544143677
-0.0189117193222045898 0.0254288781434297562 0.00686731841415166855
-0.0189117193222045898 0.0264252293854951859 0.0222750119864940643
-0.0189117193222045898 0.0257478207349777222 0.0144859310239553452
-0.0189117193222045898 0.026348574087023735 0.020146593451499939
-0.0189117193222045898 0.0274692326784133911 0.0204980969429016113
-0.0189117193222045898 0.0262078456580638885 0.0214178003370761871
-0.0189117193222045898 0.0266112107783555984 0.021228644996881485
-0.0189117193222045898 0.0264211259782314301 0.019626883789896965
-0.0189117193222045898 0.0262382924556732178 0.0119110224768519402
-0.0189117193222045898 0.026098182424902916 0.0100871380418539047
-0.0189117193222045898 0.0273411478847265244 0.0241025201976299286
-0.0189117193222045898 0.0265514291822910309 0.0159976370632648468
-0.0189117193222045898 0.0265145823359489441 0.00856601539999246597
-0.0189117193222045898 0.0291087571531534195 0.0205294340848922729
-0.0189117193222045898 0.0264905784279108047 0.0109804514795541763
-0.0189117193222045898 0.0272880867123603821 0.0142262428998947144
-0.0189117193222045898 0.0265888329595327377 0.00883872807025909424
-0.0189117193222045898 0.0264883730560541153 0.00954782683402299881
-0.0189117193222045898 0.0265516471117734909 0.0117671629413962364
-0.0189117193222045898 0.0277261342853307724 0.0196371953934431076
-0.0189117193222045898 0.0266778655350208282 0.0114687681198120117
-0.0189117193222045898 0.0274642910808324814 0.0168783441185951233
-0.0189117193222045898 0.028341466560959816 0.0173422340303659439
-0.0189117193222045898 0.0273932907730340958 0.0127849075943231583
-0.0189117193222045898 0.0273928623646497726 0.0150438137352466583
-0.0189117193222045898 0.0278542954474687576 0.0175765920430421829
-0.0189117193222045898 0.0275559797883033752 0.0184924881905317307
-0.0189117193222045898 0.0276193134486675262 0.0176870450377464294
-0.0189117193222045898 0.0279397405683994293 0.0219342317432165146
-0.0189117193222045898 0.0276784058660268784 0.0146920215338468552
-0.0189117193222045898 0.0275850910693407059 0.0188708286732435226
-0.0189117193222045898 0.0280525088310241699 0.0175856146961450577
-0.0189117193222045898 0.0278309620916843414 0.0143971173092722893
-0.0189117193222045898 0.0272567756474018097 0.0164437480270862579
-0.0189117193222045898 0.027893969789147377 0.0167684704065322876
-0.0189117193222045898 0.0288929678499698639 0.0201256461441516876
-0.0189117193222045898 0.0271825436502695084 0.0159698035567998886
-0.0189117193222045898 0.0290145743638277054 0.0203728340566158295
-0.0189117193222045898 0.0273601971566677094 0.016277216374874115
-0.0189117193222045898 0.0283574331551790237 0.0201134141534566879
-0.0189117193222045898 0.0285462476313114166 0.0219080578535795212
-0.0189117193222045898 0.0282671395689249039 0.0169369056820869446
-0.0189117193222045898 0.0280224345624446869 0.0180056169629096985
-0.0189117193222045898 0.0263196956366300583 0.0104567622765898705
-0.0189117193222045898 0.0285397730767726898 0.0207115411758422852
-0.0189117193222045898 0.028141191229224205 0.020326271653175354
-0.0189117193222045898 0.0262628272175788879 0.0100725181400775909
-0.0189117193222045898 0.0281631462275981903 0.0205415636301040649
-0.0189117193222045898 0.0268121790140867233 0.0118500133976340294
-0.0189117193222045898 0.0266715344041585922 0.0119654769077897072
-0.0189117193222045898 0.0281364023685455322 0.0173663664609193802
-0.0189117193222045898 0.0287651419639587402 0.0182316601276397705
-0.0189117193222045898 0.0278735868632793427 0.0178988147526979446
-0.0189117193222045898 0.0275563597679138184 0.0134619120508432388
-0.0189117193222045898 0.0268320031464099884 0.0126552553847432137
-0.0189117193222045898 0.0280197560787200928 0.0154839744791388512
-0.0189117193222045898 0.0286115072667598724 0.0181489270180463791
-0.0189117193222045898 0.0289880260825157166 0.0210042186081409454
-0.0189117193222045898 0.0278294980525970459 0.0212572365999221802
-0.0189117193222045898 0.026791965588927269 0.0101906005293130875
-0.0189117193222045898 0.0278726667165756226 0.0189180485904216766
-0.0189117193222045898 0.0271928012371063232 0.0119508747011423111
-0.0189117193222045898 0.0264898762106895447 0.0090037267655134201
-0.0189117193222045898 0.02659580297768116 0.00871194526553153992
-0.0189117193222045898 0.0268081482499837875 0.012719043530523777
-0.0189117193222045898 0.0266783535480499268 0.012533901259303093
-0.0189117193222045898 0.0279605817049741745 0.014841652475297451
-0.0189117193222045898 0.0289411302655935287 0.0192501954734325409
-0.0189117193222045898 0.0272229257971048355 0.0163973122835159302
-0.0189117193222045898 0.0275376401841640472 0.0150149138644337654
-0.0189117193222045898 0.0277936700731515884 0.0208747535943984985
-0.0189117193222045898 0.0277603771537542343 0.014184100553393364
-0.0189117193222045898 0.0276638362556695938 0.02022513747215271
-0.0189117193222045898 0.029519546777009964 0.0184187442064285278
-0.0189117193222045898 0.0297732055187225342 0.0178521163761615753
-0.0189117193222045898 0.027375614270567894 0.0106967668980360031
-0.0189117193222045898 0.0269979387521743774 0.00814551301300525665
-0.0189117193222045898 0.0289830192923545837 0.0144603494554758072
-0.0189117193222045898 0.0288520902395248413 0.0141090098768472672
-0.0189117193222045898 0.0275034774094820023 0.0101749831810593605
-0.0189117193222045898 0.0277934093028306961 0.0117113329470157623
-0.0189117193222045898 0.0271374136209487915 0.0104056205600500107
-0.0189117193222045898 0.0279252156615257263 0.0116582699120044708
-0.0189117193222045898 0.0287594329565763474 0.0126657476648688316
-0.0189117193222045898 0.0268435906618833542 0.0088297724723815918
-0.0189117193222045898 0.0288442056626081467 0.0153484437614679337
-0.0189117193222045898 0.027212977409362793 0.00989578571170568466
-0.0189117193222045898 0.027909567579627037 0.0128194503486156464
-0.0189117193222045898 0.0279548410326242447 0.0112579092383384705
-0.0189117193222045898 0.0295298993587493896 0.0171992015093564987
-0.0189117193222045898 0.0257651899009943008 0.00501394970342516899
-0.0189117193222045898 0.0286655426025390625 0.0152941225096583366
-0.0189117193222045898 0.0280029196292161942 0.0126508306711912155
-0.0189117193222045898 0.0300214793533086777 0.0181226134300231934
-0.0189117193222045898 0.0279178190976381302 0.0135380616411566734
-0.0189117193222045898 0.026759730651974678 0.00851796288043260574
-0.0189117193222045898 0.0284668244421482086 0.0134933684021234512
-0.0189117193222045898 0.0275346264243125916 0.0111511191353201866
-0.0189117193222045898 0.0276687424629926682 0.011288519948720932
-0.0189117193222045898 0.0285737551748752594 0.0160044673830270767
-0.0189117193222045898 0.0274416022002696991 0.0100970873609185219
-0.0189117193222045898 0.0294790416955947876 0.0176733080297708511
-0.0189117193222045898 0.0274656116962432861 0.00955101661384105682
-0.0189117193222045898 0.0279580093920230865 0.0113141480833292007
-0.0189117193222045898 0.0285472217947244644 0.0129451006650924683
-0.0189117193222045898 0.028879113495349884 0.0129773467779159546
-0.0189117193222045898 0.0286494828760623932 0.0157858356833457947
-0.0189117193222045898 0.0297975186258554459 0.0178879145532846451
-0.0189117193222045898 0.0268251914530992508 0.00831775087863206863
-0.0189117193222045898 0.025799652561545372 0.00506046321243047714
-0.0189117193222045898 0.029709523543715477 0.0185498669743537903
-0.0189117193222045898 0.0295296311378479004 0.0188460182398557663
-0.0189117193222045898 0.0266142860054969788 0.00852393079549074173
-0.0189117193222045898 0.0277653038501739502 0.0130621790885925293
-0.0189117193222045898 0.0289836637675762177 0.013891216367483139
-0.0189117193222045898 0.0261886641383171082 0.00632456783205270767
-0.0189117193222045898 0.0273634735494852066 0.00801206659525632858
-0.0189117193222045898 0.0259309876710176468 0.00518814520910382271
-0.0189117193222045898 0.0261390917003154755 0.0058382977731525898
-0.0189117193222045898 0.0294528082013130188 0.0116643607616424561
-0.0189117193222045898 0.029714265838265419 0.0137129314243793488
-0.0189117193222045898 0.0292981639504432678 0.0113305365666747093
-0.0189117193222045898 0.0291901621967554092 0.0136552024632692337
-0.0189117193222045898 0.029299633577466011 0.0127344895154237747
-0.0189117193222045898 0.0271377209573984146 0.007917746901512146
-0.0189117193222045898 0.0281458888202905655 0.00967727974057197571
-0.0189117193222045898 0.0297686923295259476 0.0134849613532423973
-0.0189117193222045898 0.0268891919404268265 0.00746954185888171196
-0.0189117193222045898 0.0302822738885879517 0.0138679798692464828
-0.0189117193222045898 0.0299257021397352219 0.0138208316639065742
-0.0189117193222045898 0.0293048415333032608 0.0114615410566329956
-0.0189117193222045898 0.0299621149897575378 0.0138949695974588394
-0.0189117193222045898 0.02984611876308918 0.0140687301754951477
-0.0189117193222045898 0.0299920961260795593 0.0130335669964551926
-0.0189117193222045898 0.0292676426470279694 0.0114502990618348122
-0.0189117193222045898 0.0299713052809238434 0.0149802751839160919
-0.0189117193222045898 0.0283956285566091537 0.0116486651822924614
-0.0189117193222045898 0.0291622951626777649 0.0120930522680282593
-0.0189117193222045898 0.0299246981739997864 0.0142574263736605644
-0.0189117193222045898 0.0267430562525987625 0.00658616796135902405
-0.0189117193222045898 0.029282253235578537 0.0122286528348922729
-0.0189117193222045898 0.0289273113012313843 0.0124481748789548874
-0.0189117193222045898 0.0302361510694026947 0.0130339758470654488
-0.0189117193222045898 0.0265007652342319489 0.00559614086523652077
-0.0189117193222045898 0.0297617018222808838 0.0114631764590740204
-0.0189117193222045898 0.0287321209907531738 0.00954833533614873886
-0.0189117193222045898 0.0289995521306991577 0.00958690699189901352
-0.0189117193222045898 0.0259222276508808136 0.00490316795185208321
-0.0189117193222045898 0.0290107373148202896 0.0105526894330978394
-0.0189117193222045898 0.0276449620723724365 0.00786947645246982574
-0.0189117193222045898 0.0291891731321811676 0.00949006900191307068
-0.0189117193222045898 0.0284036658704280853 0.00896793697029352188
-0.0189117193222045898 0.0300659835338592529 0.0126331951469182968
-0.0189117193222045898 0.0278083588927984238 0.00787995941936969757
-0.0189117193222045898 0.0284618865698575974 0.00910975039005279541
-0.0189117193222045898 0.027730550616979599 0.00732882227748632431
-0.0189117193222045898 0.0264309141784906387 0.00518479524180293083
-0.0189117193222045898 0.0259480606764554977 0.00462528690695762634
-0.0189117193222045898 0.0280748307704925537 0.00762511137872934341
-0.0189117193222045898 0.0276528205722570419 0.00715141277760267258
-0.0189117193222045898 0.024545036256313324 0.00331836636178195477
-0.0189117193222045898 0.0234253071248531342 0.00254025612957775593
-0.0189117193222045898 0.0225657392293214798 0.00229594111442565918
-0.0189117193222045898 0.0217220615595579147 0.00172721408307552338
-0.0189117193222045898 0.0226188246160745621 0.00252595823258161545
-0.0189117193222045898 0.0185708068311214447 0.000584873487241566181
-0.0189117193222045898 0.0173960868269205093 0.000349133741110563278
-0.0189117193222045898 0.0196594204753637314 0.000811907288152724504
-0.0189117193222045898 0.0183900836855173111 0.000801092246547341347
-0.0189117193222045898 0.0199612695723772049 0.00161108747124671936
-0.0189117193222045898 0.0212623775005340576 0.00189007387962192297
-0.0189117193222045898 0.0202653352171182632 0.00142904079984873533
-0.0189117193222045898 0.019427865743637085 0.00102046888787299395
-0.0189117193222045898 0.0200753882527351379 0.00117415422573685646
-0.0189117193222045898 0.0187254808843135834 0.000497579341754317284
-0.0189117193222045898 0.0229691974818706512 0.00276687555015087128
-0.0189117193222045898 0.0223851092159748077 0.00235688593238592148
-0.0189117193222045898 0.0195779390633106232 0.00196068244986236095
-0.0189117193222045898 0.0149522013962268829 0.000975449336692690849
-0.0189117193222045898 0.0142257167026400566 0.000178434071131050587
-0.0189117193222045898 0.0221441593021154404 0.00278709502890706062
-0.0189117193222045898 0.0162258800119161606 0.00138176302425563335
-0.0189117193222045898 0.0165736507624387741 0.000956618692725896835
-0.0189117193222045898 0.0132884103804826736 0.000240185298025608063
-0.0189117193222045898 0.0215818993747234344 0.00250417809002101421
-0.0189117193222045898 0.0145591627806425095 0.000882405787706375122
-0.0189117193222045898 0.0154673215001821518 0.00103328726254403591
-0.0189117193222045898 0.0175130367279052734 0.00111375399865210056
-0.0189117193222045898 0.0154303573071956635 0.000284326786641031504
-0.0189117193222045898 0.0127687323838472366 0.00045298086479306221
-0.0189117193222045898 0.0224642045795917511 0.00297206128016114235
-0.0189117193222045898 0.01869242824614048 0.00141096627339720726
-0.0189117193222045898 0.0224899500608444214 0.00274455198086798191
-0.0189117193222045898 0.0160743463784456253 0.00100114382803440094
-0.0189117193222045898 0.0131673784926533699 0.000246769282966852188
-0.0189117193222045898 0.0178721286356449127 0.000965773826465010643
-0.0189117193222045898 0.0201339274644851685 0.00223843660205602646
-0.0189117193222045898 0.0226208269596099854 0.00311346934176981449
-0.0189117193222045898 0.0144991446286439896 0.000267005991190671921
-0.0189117193222045898 0.0236513521522283554 0.00320689519867300987
-0.0189117193222045898 0.0149778295308351517 0.000756713561713695526
-0.0189117193222045898 0.0152348093688488007 0.00110930623486638069
-0.0189117193222045898 0.0133593883365392685 0.000255980063229799271
-0.0189117193222045898 0.0144303925335407257 0.000577115453779697418
-0.0189117193222045898 0.0142518645152449608 0.00133031944278627634
-0.0189117193222045898 0.0105913532897830009 0.00141872570384293795
-0.0189117193222045898 0.0164434239268302917 0.00214262912049889565
-0.0189117193222045898 0.0202046409249305725 0.00281186145730316639
-0.0189117193222045898 0.0201538242399692535 0.00287070544436573982
-0.0189117193222045898 0.0181331541389226913 0.00205923174507915974
-0.0189117193222045898 0.0175706613808870316 0.00261060008779168129
-0.0189117193222045898 0.0165686514228582382 0.00245115999132394791
-0.0189117193222045898 0.0138931712135672569 0.00212511513382196426
-0.0189117193222045898 0.0139509662985801697 0.00217844359576702118
-0.0189117193222045898 0.0178560540080070496 0.00260423962026834488
-0.0189117193222045898 0.0199632942676544189 0.00300094299018383026
-0.0189117193222045898 0.0199236422777175903 0.00308021227829158306
-0.0189117193222045898 0.0181869883090257645 0.00258825463242828846
-0.0189117193222045898 0.0180252287536859512 0.00264529464766383171
-0.0189117193222045898 0.015898238867521286 0.00205049943178892136
-0.0189117193222045898 0.0127844884991645813 0.00195111380890011787
-0.0189117193222045898 0.0138872368261218071 0.000988051295280456543
-0.0189117193222045898 0.0150279160588979721 0.00194205937441438437
-0.0189117193222045898 0.0142093980684876442 0.00159709062427282333
-0.0189117193222045898 0.0160098318010568619 0.00177434494253247976
-0.0189117193222045898 0.0207168310880661011 0.00294310459867119789
-0.0189117193222045898 0.0183461494743824005 0.00286133214831352234
-0.0189117193222045898 0.010773967020213604 0.00170406000688672066
-0.0189117193222045898 0.0129838576540350914 0.000581829575821757317
-0.0189117193222045898 0.0112588498741388321 0.000742039876058697701
-0.0189117193222045898 0.0178185384720563889 0.00190706853754818439
-0.0189117193222045898 0.0138338729739189148 0.00180689163971692324
-0.0189117193222045898 0.0149540267884731293 0.0015346320578828454
-0.0189117193222045898 0.0143606401979923248 0.00146195408888161182
-0.0189117193222045898 0.0140387862920761108 0.00132542243227362633
-0.0189117193222045898 0.0122739039361476898 0.00124146183952689171
-0.0189117193222045898 0.0104866409674286842 0.0012912793317809701
-0.0189117193222045898 0.02024056576192379 0.00282870093360543251
-0.0189117193222045898 0.0138780931010842323 0.0020781252533197403
-0.0189117193222045898 0.0182180274277925491 0.00240302970632910728
-0.0189117193222045898 0.0128568308427929878 0.00150446838233619928
-0.0189117193222045898 0.0129232816398143768 0.00115067511796951294
-0.0189117193222045898 0.0160134285688400269 0.0021914350800216198
-0.0189117193222045898 0.0174124427139759064 0.00198716972954571247
-0.0189117193222045898 0.0133065534755587578 0.00168609048705548048
-0.0189117193222045898 0.0146634140983223915 0.00116839096881449223
-0.0189117193222045898 0.0202621500939130783 0.00290334178134799004
-0.0189117193222045898 0.0188074521720409393 0.00253511639311909676
-0.0189117193222045898 0.00788450799882411957 0.00227155466563999653
-0.0189117193222045898 0.0100511685013771057 0.00271847844123840332
-0.0189117193222045898 0.0110885351896286011 0.00227325153537094593
-0.0189117193222045898 0.00902853813022375107 0.00293674436397850513
-0.0189117193222045898 0.0132189011201262474 0.00309083983302116394
-0.0189117193222045898 0.0124995177611708641 0.00345970084890723228
-0.0189117193222045898 0.00751185789704322815 0.00265292031690478325
-0.0189117193222045898 0.0173065029084682465 0.00305444374680519104
-0.0189117193222045898 0.0182247757911682129 0.00328590627759695053
-0.0189117193222045898 0.0125699331983923912 0.00295943906530737877
-0.0189117193222045898 0.022036183625459671 0.00343976309522986412
-0.0189117193222045898 0.0138847324997186661 0.00248713977634906769
-0.0189117193222045898 0.0246544647961854935 0.00382636510767042637
-0.0189117193222045898 0.0117727210745215416 0.00348971271887421608
-0.0189117193222045898 0.0188422016799449921 0.00354075036011636257
-0.0189117193222045898 0.011172635480761528 0.00229176483117043972
-0.0189117193222045898 0.0172429978847503662 0.0035191818606108427
-0.0189117193222045898 0.0114815868437290192 0.00256807799451053143
-0.0189117193222045898 0.0157575123012065887 0.00309299933724105358
-0.0189117193222045898 0.00875492766499519348 0.00178166164550930262
-0.0189117193222045898 0.0080208703875541687 0.00232884055003523827
-0.0189117193222045898 0.0145420385524630547 0.00339470407925546169
-0.0189117193222045898 0.0095187108963727951 0.00192977022379636765
-0.0189117193222045898 0.0081929527223110199 0.00189618859440088272
-0.0189117193222045898 0.00874661188572645187 0.00297589274123311043
-0.0189117193222045898 0.0134196970611810684 0.00314163556322455406
-0.0189117193222045898 0.0112013956531882286 0.0031287558376789093
-0.0189117193222045898 0.0146666504442691803 0.00243730982765555382
-0.0189117193222045898 0.0135316569358110428 0.00291824480518698692
-0.0189117193222045898 0.016780683770775795 0.00353668024763464928
-0.0189117193222045898 0.00597807019948959351 0.00328447041101753712
-0.0189117193222045898 0.00908814650028944016 0.00223286915570497513
-0.0189117193222045898 0.00973799638450145721 0.00199194718152284622
-0.0189117193222045898 0.010339176282286644 0.00324902473948895931
-0.0189117193222045898 0.00892676226794719696 0.00321038463152945042
-0.0189117193222045898 0.0131593924015760422 0.00302241649478673935
-0.0189117193222045898 0.0112474402412772179 0.0022641308605670929
-0.0189117193222045898 0.0173651911318302155 0.00313583551906049252
-0.0189117193222045898 0.0212828442454338074 0.00335827004164457321
-0.0189117193222045898 0.0167065709829330444 0.00318923918530344963
-0.0189117193222045898 0.0108760548755526543 0.00190180714707821608
-0.0189117193222045898 0.0108695626258850098 0.00302300602197647095
-0.0189117193222045898 0.00723798014223575592 0.00272457115352153778
-0.0189117193222045898 0.00966226495802402496 0.00274476362392306328
-0.0189117193222045898 0.00938422419130802155 0.00240935455076396465
-0.0189117193222045898 0.0151797495782375336 0.00253664772026240826
-0.0189117193222045898 0.0170628204941749573 0.00301129743456840515
-0.0189117193222045898 0.00785043556243181229 0.00297472276724874973
-0.0189117193222045898 0.00670783035457134247 0.00295726815238595009
-0.0189117193222045898 0.0195647478103637695 0.00344512239098548889
-0.0189117193222045898 0.0183328241109848022 0.00344395404681563377
-0.0189117193222045898 0.02205648273229599 0.00364459236152470112
-0.0189117193222045898 0.0169767830520868301 0.002865947550162673
-0.0189117193222045898 0.0111392559483647346 0.00279100937768816948
-0.0189117193222045898 0.00992627069354057312 0.00211049150675535202
-0.0189117193222045898 0.00887548737227916718 0.00173200620338320732
-0.0189117193222045898 0.0192802418023347855 0.00301056541502475739
-0.0189117193222045898 0.00795889832079410553 0.00337757053785026073
-0.0189117193222045898 0.0226443670690059662 0.00359125738032162189
-0.0189117193222045898 0.00673222169280052185 0.0032256515696644783
-0.0189117193222045898 0.0124722318723797798 0.00335651240311563015
-0.0189117193222045898 0.0183555334806442261 0.00361833185888826847
-0.0189117193222045898 0.00533536262810230255 0.00521215051412582397
-0.0189117193222045898 0.00647023506462574005 0.00548067968338727951
-0.0189117193222045898 0.00837801024317741394 0.0052873208187520504
-0.0189117193222045898 0.0217067990452051163 0.00382069987244904041
-0.0189117193222045898 0.0135589074343442917 0.00378108047880232334
-0.0189117193222045898 0.00979494303464889526 0.0040476163849234581
-0.0189117193222045898 0.00645364634692668915 0.00527539849281311035
-0.0189117193222045898 0.00608483143150806427 0.00449495017528533936
-0.0189117193222045898 0.0123120220378041267 0.00451797619462013245
-0.0189117193222045898 0.0183074101805686951 0.00410730950534343719
-0.0189117193222045898 0.0079013453796505928 0.00478319544345140457
-0.0189117193222045898 0.00598988402634859085 0.00365038332529366016
-0.0189117193222045898 0.00826636888086795807 0.00370478606782853603
-0.0189117193222045898 0.0148652615025639534 0.00452578300610184669
-0.0189117193222045898 0.00902882125228643417 0.00439497176557779312
-0.0189117193222045898 0.020835602656006813 0.003949691541492939
-0.0189117193222045898 0.00574321020394563675 0.0037481389008462429
-0.0189117193222045898 0.00562173314392566681 0.00476208887994289398
-0.0189117193222045898 0.00919473171234130859 0.00434678979218006134
-0.0189117193222045898 0.00678386213257908821 0.00349514419212937355
-0.0189117193222045898 0.0118076838552951813 0.00383231602609157562
-0.0189117193222045898 0.00588383805006742477 0.00466608349233865738
-0.0189117193222045898 0.00713263917714357376 0.0049335649237036705
-0.0189117193222045898 0.00619486207142472267 0.00346082355827093124
-0.0189117193222045898 0.0197588428854942322 0.00405279314145445824
-0.0189117193222045898 0.0108871962875127792 0.00455348566174507141
-0.0189117193222045898 0.0110593736171722412 0.00477384030818939209
-0.0189117193222045898 0.00862019509077072144 0.00534482765942811966
-0.0189117193222045898 0.00424704886972904205 0.00499139260500669479
-0.0189117193222045898 0.0178357493132352829 0.00454748421907424927
-0.0189117193222045898 0.0180004425346851349 0.00452006096020340919
-0.0189117193222045898 0.0135386101901531219 0.00457127625122666359
-0.0189117193222045898 0.0124867428094148636 0.00416594231501221657
-0.0189117193222045898 0.0237750541418790817 0.0040316777303814888
-0.0189117193222045898 0.00939740613102912903 0.00424316013231873512
-0.0189117193222045898 0.00989329256117343903 0.0035672986414283514
-0.0189117193222045898 0.01139837596565485 0.00495677581056952477
-0.0189117193222045898 0.0123298102989792824 0.00502931699156761169
-0.0189117193222045898 0.0127618946135044098 0.00368853285908699036
-0.0189117193222045898 0.00686359452083706856 0.00351473363116383553
-0.0189117193222045898 0.0102479727938771248 0.00446231663227081299
-0.0189117193222045898 0.00568639207631349564 0.00480652321130037308
-0.0189117193222045898 0.010018669068813324 0.00378191564232110977
-0.0189117193222045898 0.0165473464876413345 0.00465646805241703987
-0.0189117193222045898 0.00718211103230714798 0.00417894590646028519
-0.0189117193222045898 0.0187368597835302353 0.00379895069636404514
-0.0189117193222045898 0.00567527767270803452 0.00502861663699150085
-0.0189117193222045898 0.00434126239269971848 0.00491579063236713409
-0.0189117193222045898 0.00616438500583171844 0.00554217537865042686
-0.0189117193222045898 0.00583710800856351852 0.0047175106592476368
-0.0189117193222045898 0.00586522044613957405 0.00381002738140523434
-0.0189117193222045898 0.012280905619263649 0.00384467421099543571
-0.0189117193222045898 0.016168517991900444 0.00375732104294002056
-0.0189117193222045898 0.0121820066124200821 0.00390508957207202911
-0.0189117193222045898 0.00477514788508415222 0.00516916532069444656
-0.0189117193222045898 0.00966350454837083817 0.00512792728841304779
-0.0189117193222045898 0.0129048284143209457 0.00478134211152791977
-0.0189117193222045898 0.0160223245620727539 0.00460467813536524773
-0.0189117193222045898 0.00670754536986351013 0.00523857353255152702
-0.0189117193222045898 0.00587182678282260895 0.005521419458091259
-0.0189117193222045898 0.00770146213471889496 0.00395570648834109306
-0.0189117193222045898 0.00782307423651218414 0.00449916906654834747
-0.0189117193222045898 0.0167746469378471375 0.00370332039892673492
-0.0189117193222045898 0.0127913989126682281 0.00397660955786705017
-0.0189117193222045898 0.00684301741421222687 0.00493355188518762589
-0.0189117193222045898 0.00512761808931827545 0.00426412653177976608
-0.0189117193222045898 0.0144156096503138542 0.00467788288369774818
-0.0189117193222045898 0.0209927912801504135 0.00414352677762508392
-0.0189117193222045898 0.00601534731686115265 0.00497670471668243408
-0.0189117193222045898 0.0150124756619334221 0.00461098644882440567
-0.0189117193222045898 0.0140677047893404961 0.00409673247486352921
-0.0189117193222045898 0.00926396716386079788 0.00439212145283818245
-0.0189117193222045898 0.017590053379535675 0.00424133613705635071
-0.0189117193222045898 0.00626754667609930038 0.00378791149705648422
-0.0189117193222045898 0.0237595774233341217 0.0040358356200158596
-0.0189117193222045898 0.0111996680498123169 0.00416954094544053078
-0.0189117193222045898 0.0137291550636291504 0.00391959352418780327
-0.0189117193222045898 0.0113799292594194412 0.00450345966964960098
-0.0189117193222045898 0.00472648441791534424 0.0056034233421087265
-0.0189117193222045898 0.00965484511107206345 0.00481612281873822212
-0.0189117193222045898 0.0137513652443885803 0.00362570071592926979
-0.0189117193222045898 0.00774807389825582504 0.00713435886427760124
-0.0189117193222045898 0.0159267820417881012 0.00523679330945014954
-0.0189117193222045898 0.00752050336450338364 0.00637937616556882858
-0.0189117193222045898 0.00258106552064418793 0.0082652876153588295
-0.0189117193222045898 0.00585612747818231583 0.00731258559972047806
-0.0189117193222045898 0.0154577465727925301 0.00550279812887310982
-0.0189117193222045898 0.00258236750960350037 0.00809786934405565262
-0.0189117193222045898 0.0138479266315698624 0.00575306033715605736
-0.0189117193222045898 0.0182404052466154099 0.0047412235289812088
-0.0189117193222045898 0.0112200016155838966 0.00600301101803779602
-0.0189117193222045898 0.0106128640472888947 0.00573791284114122391
-0.0189117193222045898 0.00878884084522724152 0.00719760078936815262
-0.0189117193222045898 0.0145849883556365967 0.00547456089407205582
-0.0189117193222045898 0.0096874721348285675 0.00702143320813775063
-0.0189117193222045898 0.016059432178735733 0.00547075644135475159
-0.0189117193222045898 0.00568852201104164124 0.00766041968017816544
-0.0189117193222045898 0.0080955158919095993 0.0073339780792593956
-0.0189117193222045898 0.00326465023681521416 0.00659871427342295647
-0.0189117193222045898 0.0049726925790309906 0.00594520336017012596
-0.0189117193222045898 0.00557698402553796768 0.00567601574584841728
-0.0189117193222045898 0.0099703371524810791 0.00666980212554335594
-0.0189117193222045898 0.00947957299649715424 0.00718147587031126022
-0.0189117193222045898 0.0088128289207816124 0.00552276987582445145
-0.0189117193222045898 0.00472826464101672173 0.00646839849650859833
-0.0189117193222045898 0.00635296665132045746 0.00644902419298887253
-0.0189117193222045898 0.00374791398644447327 0.00626984285190701485
-0.0189117193222045898 0.0220591891556978226 0.00425341678783297539
-0.0189117193222045898 0.0107334190979599953 0.00678079528734087944
-0.0189117193222045898 0.0134599683806300163 0.0060010123997926712
-0.0189117193222045898 0.00482062902301549911 0.00600701617076992989
-0.0189117193222045898 0.0162910036742687225 0.00517783407121896744
-0.0189117193222045898 0.0142622627317905426 0.00609087059274315834
-0.0189117193222045898 0.0111748911440372467 0.00613159965723752975
-0.0189117193222045898 0.00698077119886875153 0.00700571341440081596
-0.0189117193222045898 0.0164246559143066406 0.0047396230511367321
-0.0189117193222045898 0.00891539361327886581 0.00702342577278614044
-0.0189117193222045898 0.00681675272062420845 0.00587656488642096519
-0.0189117193222045898 0.00218556448817253113 0.00765333836898207664
-0.0189117193222045898 0.0151290707290172577 0.00543642463162541389
-0.0189117193222045898 0.00715523585677146912 0.00668653286993503571
-0.0189117193222045898 0.00658384896814823151 0.00676816236227750778
-0.0189117193222045898 0.0152370631694793701 0.00514648016542196274
-0.0189117193222045898 0.00347134843468666077 0.00762042030692100525
-0.0189117193222045898 0.0133729055523872375 0.00581608712673187256
-0.0189117193222045898 0.00507139228284358978 0.00813748128712177277
-0.0189117193222045898 0.014422951266169548 0.00617859046906232834
-0.0189117193222045898 0.00197147391736507416 0.0087609458714723587
-0.0189117193222045898 0.0124398674815893173 0.0050570429302752018
-0.0189117193222045898 0.00877928361296653748 0.00597477797418832779
-0.0189117193222045898 0.00401209108531475067 0.00685046287253499031
-0.0189117193222045898 0.018744179978966713 0.00472508836537599564
-0.0189117193222045898 0.00354071101173758507 0.00625829305499792099
-0.0189117193222045898 0.017735898494720459 0.00480461958795785904
-0.0189117193222045898 0.0193221066147089005 0.00454091280698776245
-0.0189117193222045898 0.0031717400997877121 0.00810081791132688522
-0.0189117193222045898 0.0150522850453853607 0.00551778078079223633
-0.0189117193222045898 0.012973688542842865 0.00570015562698245049
-0.0189117193222045898 0.00950230471789836884 0.00686964578926563263
-0.0189117193222045898 0.0138618042692542076 0.00495165307074785233
-0.0189117193222045898 0.0030635567381978035 0.00713544897735118866
-0.0189117193222045898 0.0119648585096001625 0.00637228693813085556
-0.0189117193222045898 0.00745787378400564194 0.00580771267414093018
-0.0189117193222045898 0.00963817257434129715 0.00638920161873102188
-0.0189117193222045898 0.00743431411683559418 0.00604653498157858849
-0.0189117193222045898 0.0109225176274776459 0.00540031027048826218
-0.0189117193222045898 0.00848035700619220734 0.00703657418489456177
-0.0189117193222045898 0.0101965945214033127 0.00614102790132164955
-0.0189117193222045898 0.00442322669550776482 0.0062435404397547245
-0.0189117193222045898 0.0049094250425696373 0.00748194288462400436
-0.0189117193222045898 0.00313761131837964058 0.00658473791554570198
-0.0189117193222045898 0.0073680216446518898 0.00586070958524942398
-0.0189117193222045898 0.0133995320647954941 0.00566910766065120697
-0.0189117193222045898 0.00244360603392124176 0.00754077546298503876
-0.0189117193222045898 0.0181707832962274551 0.00488837249577045441
-0.0189117193222045898 0.0141260493546724319 0.00594097794964909554
-0.0189117193222045898 0.00423714844509959221 0.00665382342413067818
-0.0189117193222045898 0.0194106213748455048 0.00476933643221855164
-0.0189117193222045898 0.0228135343641042709 0.00414111139252781868
-0.0189117193222045898 0.00832339469343423843 0.00570476800203323364
-0.0189117193222045898 0.00693472288548946381 0.00751422112807631493
-0.0189117193222045898 0.007920045405626297 0.00653957528993487358
-0.0189117193222045898 0.00226975791156291962 0.00854337029159069061
-0.0189117193222045898 0.0110296988859772682 0.00551376072689890862
-0.0189117193222045898 0.0109591791406273842 0.00608666287735104561
-0.0189117193222045898 0.013892563059926033 0.005631991196423769
-0.0189117193222045898 0.0107616456225514412 0.00563316652551293373
-0.0189117193222045898 0.00291913188993930817 0.00795751903206110001
-0.0189117193222045898 0.00483765546232461929 0.00757303182035684586
-0.0189117193222045898 0.00710090994834899902 0.00763728749006986618
-0.0189117193222045898 0.0193286240100860596 0.00459709297865629196
-0.0189117193222045898 0.0141275916248559952 0.00540443044155836105
-0.0189117193222045898 0.0060330340638756752 0.00565310940146446228
-0.0189117193222045898 0.00158449821174144745 0.00858592800796031952
-0.0189117193222045898 0.00415289541706442833 0.00607725977897644043
-0.0189117193222045898 0.0146967601031064987 0.00607882533222436905
-0.0189117193222045898 0.00433052890002727509 0.00606220541521906853
-0.0189117193222045898 0.0136498734354972839 0.00510297110304236412
-0.0189117193222045898 0.00483671762049198151 0.00815064366906881332
-0.0189117193222045898 0.00572450226172804832 0.0065359962172806263
-0.0189117193222045898 0.0167347230017185211 0.00475653260946273804
-0.0189117193222045898 0.00876972731202840805 0.00638798624277114868
-0.0189117193222045898 0.0159233324229717255 0.0062837209552526474
-0.0189117193222045898 0.00456700287759304047 0.0101031586527824402
-0.0189117193222045898 0.0051051061600446701 0.00943387951701879501
-0.0189117193222045898 0.00634228531271219254 0.00829087477177381516
-0.0189117193222045898 0.0222450047731399536 0.00470186304301023483
-0.0189117193222045898 0.00451904954388737679 0.00832238327711820602
-0.0189117193222045898 0.00139169767498970032 0.0108288824558258057
-0.0189117193222045898 0.00878280960023403168 0.00918846949934959412
-0.0189117193222045898 0.0130334384739398956 0.00725821219384670258
-0.0189117193222045898 0.00126398075371980667 0.0094727715477347374
-0.0189117193222045898 0.00848924368619918823 0.00767857534810900688
-0.0189117193222045898 0.00769581599161028862 0.0076010250486433506
-0.0189117193222045898 0.00857332535088062286 0.0074281604029238224
-0.0189117193222045898 0.0132940765470266342 0.00665738852694630623
-0.0189117193222045898 0.000785599462687969208 0.0108311157673597336
-0.0189117193222045898 0.00747457938268780708 0.00835457630455493927
-0.0189117193222045898 0.0161955095827579498 0.00669234432280063629
-0.0189117193222045898 0.00680674239993095398 0.00963124353438615799
-0.0189117193222045898 0.00429691001772880554 0.0101295812055468559
-0.0189117193222045898 0.00677113328129053116 0.00886648334562778473
-0.0189117193222045898 0.0141096888110041618 0.0067070377990603447
-0.0189117193222045898 0.00492358952760696411 0.0103114834055304527
-0.0189117193222045898 0.00862736254930496216 0.00840556062757968903
-0.0189117193222045898 0.00367490854114294052 0.00946676917374134064
-0.0189117193222045898 0.0112898023799061775 0.00810600724071264267
-0.0189117193222045898 0.00690868869423866272 0.00920074246823787689
-0.0189117193222045898 0.00278434529900550842 0.0110607165843248367
-0.0189117193222045898 0.0183796025812625885 0.00552775710821151733
-0.0189117193222045898 0.0162552222609519958 0.00673838891088962555
-0.0189117193222045898 0.016397569328546524 0.00667471066117286682
-0.0189117193222045898 0.000997877679765224457 0.0105372350662946701
-0.0189117193222045898 0.00873736664652824402 0.00872295908629894257
-0.0189117193222045898 0.000859094783663749695 0.0112725198268890381
-0.0189117193222045898 0.00925750564783811569 0.00854686275124549866
-0.0189117193222045898 0.0116973789408802986 0.0069181341677904129
-0.0189117193222045898 0.0126944025978446007 0.00755497347563505173
-0.0189117193222045898 0.00556885451078414917 0.00998326390981674194
-0.0189117193222045898 0.00791755598038434982 0.00862652622163295746
-0.0189117193222045898 0.00783936865627765656 0.00893811136484146118
-0.0189117193222045898 0.00872953794896602631 0.00854076817631721497
-0.0189117193222045898 0.004580656997859478 0.00912595074623823166
-0.0189117193222045898 0.0237484816461801529 0.00441411137580871582
-0.0189117193222045898 0.0125992782413959503 0.00773677323013544083
-0.0189117193222045898 0.0140845850110054016 0.00670326687395572662
-0.0189117193222045898 0.00220598094165325165 0.00931995641440153122
-0.0189117193222045898 0.00311602512374520302 0.00923870224505662918
-0.0189117193222045898 0.00298419222235679626 0.0100714806467294693
-0.0189117193222045898 0.00185076892375946045 0.011139855720102787
-0.0189117193222045898 0.0109620876610279083 0.00769151421263813972
-0.0189117193222045898 0.00217345450073480606 0.00997026264667510986
-0.0189117193222045898 0.00859585404396057129 0.0092825843021273613
-0.0189117193222045898 0.00861639901995658875 0.00808817055076360703
-0.0189117193222045898 0.00242914166301488876 0.00962329749017953873
-0.0189117193222045898 0.00227530859410762787 0.00990793574601411819
-0.0189117193222045898 0.00337051507085561752 0.0100212125107645988
-0.0189117193222045898 0.00474402308464050293 0.0101801371201872826
-0.0189117193222045898 0.0161435641348361969 0.00593560654670000076
-0.0189117193222045898 0.0129506830126047134 0.00722654256969690323
-0.0189117193222045898 0.0191706754267215729 0.00564750609919428825
-0.0189117193222045898 0.00415704026818275452 0.0102669317275285721
-0.0189117193222045898 0.00788954459130764008 0.00766844768077135086
-0.0189117193222045898 0.00488054193556308746 0.00929622165858745575
-0.0189117193222045898 0.00723551306873559952 0.00805061962455511093
-0.0189117193222045898 0.00194286368787288666 0.00989266578108072281
-0.0189117193222045898 0.00169102940708398819 0.0101995524019002914
-0.0189117193222045898 0.00350915733724832535 0.0099382009357213974
-0.0189117193222045898 0.0124581670388579369 0.00801208987832069397
-0.0189117193222045898 0.0116062918677926064 0.00745967309921979904
-0.0189117193222045898 0.00232235155999660492 0.0103725176304578781
-0.0189117193222045898 0.0119401374831795692 0.00804105401039123535
-0.0189117193222045898 0.00196309853345155716 0.00980789586901664734
-0.0189117193222045898 0.00156520865857601166 0.0101078664883971214
-0.0189117193222045898 0.00460402714088559151 0.00829313322901725769
-0.0189117193222045898 0.0120048709213733673 0.00757379643619060516
-0.0189117193222045898 0.00777491554617881775 0.00792235042899847031
-0.0189117193222045898 0.00772798806428909302 0.00759193021804094315
-0.0189117193222045898 0.0112956240773200989 0.00789353623986244202
-0.0189117193222045898 0.00979648623615503311 0.00775106577202677727
-0.0189117193222045898 0.00114167388528585434 0.0106925759464502335
-0.0189117193222045898 0.0022743716835975647 0.0112420041114091873
-0.0189117193222045898 0.00283033121377229691 0.0096345953643321991
-0.0189117193222045898 0.00688473321497440338 0.00954623520374298096
-0.0189117193222045898 0.00435854215174913406 0.00977675057947635651
-0.0189117193222045898 0.00994298793375492096 0.00884370692074298859
-0.0189117193222045898 0.00287911621853709221 0.00880165956914424896
-0.0189117193222045898 0.00279076490551233292 0.00993044953793287277
-0.0189117193222045898 0.00732111372053623199 0.00837663654237985611
-0.0189117193222045898 0.021167876198887825 0.00503520015627145767
-0.0189117193222045898 0.0100676100701093674 0.00810370873659849167
-0.0189117193222045898 0.00985152740031480789 0.00864643789827823639
-0.0189117193222045898 0.0134155824780464172 0.00696624210104346275
-0.0189117193222045898 0.0107893059030175209 0.00732943695038557053
-0.0189117193222045898 0.00127500668168067932 0.00985590647906064987
-0.0189117193222045898 0.00355634046718478203 0.00853858981281518936
-0.0189117193222045898 0.0176865532994270325 0.00593384355306625366
-0.0189117193222045898 0.00788168702274560928 0.00865982472896575928
-0.0189117193222045898 0.00332858087494969368 0.00913784001022577286
-0.0189117193222045898 0.00899251177906990051 0.00890618655830621719
-0.0189117193222045898 0.0123819690197706223 0.00750691816210746765
-0.0189117193222045898 0.0175900105386972427 0.00574783189222216606
-0.0189117193222045898 0.00666168611496686935 0.00874540209770202637
-0.0189117193222045898 0.0138302557170391083 0.00731745921075344086
-0.0189117193222045898 0.00328331813216209412 0.0104897134006023407
-0.0189117193222045898 0.0165750831365585327 0.00589425954967737198
-0.0189117193222045898 0.00139208696782588959 0.00987738464027643204
-0.0189117193222045898 0.0100666983053088188 0.00874183420091867447
-0.0189117193222045898 0.00795126333832740784 0.00816179998219013214
-0.0189117193222045898 0.0104893436655402184 0.00730149354785680771
-0.0189117193222045898 0.00447541289031505585 0.00836258009076118469
-0.0189117193222045898 0.00396566465497016907 0.0129269892349839211
-0.0189117193222045898 0.0057191941887140274 0.0120881237089633942
-0.0189117193222045898 0.00637820549309253693 0.0122755356132984161
-0.0189117193222045898 0.0115812346339225769 0.00928970985114574432
-0.0189117193222045898 0.0185876656323671341 0.00681378692388534546
-0.0189117193222045898 0.0148941632360219955 0.00835549365729093552
-0.0189117193222045898 0.00770906964316964149 0.0104226972907781601
-0.0189117193222045898 0.0136377234011888504 0.0087653137743473053
-0.0189117193222045898 0.014866766519844532 0.0083104502409696579
-0.0189117193222045898 0.00432363152503967285 0.012887454591691494
-0.0189117193222045898 0.00603460147976875305 0.011252235621213913
-0.0189117193222045898 0.0132915861904621124 0.00871489010751247406
-0.0189117193222045898 0.00870439969003200531 0.0108447866514325142
-0.0189117193222045898 0.000589942559599876404 0.0148533638566732407
-0.0189117193222045898 0.00735389441251754761 0.0100631741806864738
-0.0189117193222045898 0.00752322282642126083 0.0105145769193768501
-0.0189117193222045898 0.0100237345322966576 0.00920645985752344131
-0.0189117193222045898 0.0118663441389799118 0.0095862019807100296
-0.0189117193222045898 0.00730097107589244843 0.0110749229788780212
-0.0189117193222045898 0.0061199478805065155 0.0115207526832818985
-0.0189117193222045898 0.00238754414021968842 0.0138136176392436028
-0.0189117193222045898 0.010270383208990097 0.0105256307870149612
-0.0189117193222045898 0.00133237428963184357 0.013919709250330925
-0.0189117193222045898 0.00988591182976961136 0.00958853401243686676
-0.0189117193222045898 0.00597813073545694351 0.0113718518987298012
-0.0189117193222045898 0.0144972428679466248 0.00792380422353744507
-0.0189117193222045898 0.0161398984491825104 0.00743232294917106628
-0.0189117193222045898 0.0123016051948070526 0.00865919888019561768
-0.0189117193222045898 0.0195379257202148438 0.00623098621144890785
-0.0189117193222045898 0.0106651494279503822 0.00872685015201568604
-0.0189117193222045898 0.00495204096660017967 0.0112721174955368042
-0.0189117193222045898 0.0172400940209627151 0.00656971149146556854
-0.0189117193222045898 0.00542944483458995819 0.0117104239761829376
-0.0189117193222045898 0.00573070347309112549 0.0125059708952903748
-0.0189117193222045898 0.0107757989317178726 0.00952970795333385468
-0.0189117193222045898 0.00760614592581987381 0.0110417325049638748
-0.0189117193222045898 0.0129902083426713943 0.00870270095765590668
-0.0189117193222045898 0.00243341829627752304 0.012497803196310997
-0.0189117193222045898 0.00161470333114266396 0.0118970172479748726
-0.0189117193222045898 0.0167604554444551468 0.00669799372553825378
-0.0189117193222045898 0.00307938409969210625 0.0118766762316226959
-0.0189117193222045898 0.0042517390102148056 0.0130232814699411392
-0.0189117193222045898 0.00844168756157159805 0.0107539035379886627
-0.0189117193222045898 0.000358753837645053864 0.0129631217569112778
-0.0189117193222045898 0.00603506108745932579 0.0108322855085134506
-0.0189117193222045898 0.0163588300347328186 0.00787809863686561584
-0.0189117193222045898 0.0213288590312004089 0.00559977628290653229
-0.0189117193222045898 0.00141787063330411911 0.0132602546364068985
-0.0189117193222045898 0.00119191873818635941 0.0128838643431663513
-0.0189117193222045898 0.0217730533331632614 0.00522257806733250618
-0.0189117193222045898 0.00890278909355401993 0.00969433225691318512
-0.0189117193222045898 0.000521510839462280273 0.0148989642038941383
-0.0189117193222045898 0.000971234403550624847 0.0119679644703865051
-0.0189117193222045898 0.00122679024934768677 0.0140478517860174179
-0.0189117193222045898 0.0070490250363945961 0.0102072367444634438
-0.0189117193222045898 0.00458862166851758957 0.0114971240982413292
-0.0189117193222045898 0.00660842424258589745 0.0101057291030883789
-0.0189117193222045898 0.00117351161316037178 0.0124072860926389694
-0.0189117193222045898 0.00151070766150951385 0.0130588635802268982
-0.0189117193222045898 0.00580645957961678505 0.0107711516320705414
-0.0189117193222045898 0.0100913671776652336 0.00932634901255369186
-0.0189117193222045898 0.0142456609755754471 0.00758511153981089592
-0.0189117193222045898 0.00680557452142238617 0.0101251900196075439
-0.0189117193222045898 0.00466050393879413605 0.0118537526577711105
-0.0189117193222045898 0.00976385921239852905 0.0091411937028169632
-0.0189117193222045898 0.00113946571946144104 0.0133708873763680458
-0.0189117193222045898 0.0148587552830576897 0.00834477599710226059
-0.0189117193222045898 0.00243295542895793915 0.0113946832716464996
-0.0189117193222045898 0.0224006064236164093 0.00520225474610924721
-0.0189117193222045898 0.0139436135068535805 0.00895440205931663513
-0.0189117193222045898 0.00268998509272933006 0.0114107066765427589
-0.0189117193222045898 0.00139101408421993256 0.0137797556817531586
-0.0189117193222045898 0.00839494168758392334 0.011048024520277977
-0.0189117193222045898 0.0125902406871318817 0.00860155466943979263
-0.0189117193222045898 0.0109800100326538086 0.00949130021035671234
-0.0189117193222045898 0.000966981053352355957 0.0142179783433675766
-0.0189117193222045898 0.00600562756881117821 0.0106140188872814178
-0.0189117193222045898 0.00278052035719156265 0.0115815922617912292
-0.0189117193222045898 0.0201249867677688599 0.00578812556341290474
-0.0189117193222045898 0.0052625676617026329 0.0107535514980554581
-0.0189117193222045898 0.00245955120772123337 0.0114162834361195564
-0.0189117193222045898 0.00154165364801883698 0.0132613973692059517
-0.0189117193222045898 0.016809564083814621 0.00672091171145439148
-0.0189117193222045898 0.00831457413733005524 0.0105187483131885529
-0.0189117193222045898 0.00891221966594457626 0.0108735505491495132
-0.0189117193222045898 0.0102278180420398712 0.00891871191561222076
-0.0189117193222045898 0.00946756079792976379 0.0100043434649705887
-0.0189117193222045898 0.00941588543355464935 0.00941650662571191788
