ply
format ascii 1.0
element vertex 759
property float x
property float y
property float z
end_header
0.181137576699256897 0.279020607471466064 0.0859426409006118774
0.0532114505767822266 0.33745911717414856 0.171047285199165344
0.125940218567848206 0.321471095085144043 0.101554326713085175
0.264840364456176758 0.128401085734367371 0.167898595333099365
0.139389276504516602 0.258911579847335815 0.161702141165733337
0.0812689885497093201 0.324778437614440918 0.152214527130126953
0.15581861138343811 0.325532793998718262 0.0599863827228546143
0.211883142590522766 0.200561180710792542 0.144379973411560059
0.0220741890370845795 0.351524472236633301 0.191956028342247009
0.323678374290466309 0.0425999462604522705 0.200921565294265747
0.0788386911153793335 0.403926670551300049 0.058254629373550415
0.0374017506837844849 0.370220094919204712 0.150286272168159485
0.0749951452016830444 0.354147911071777344 0.123928308486938477
0.0742467418313026428 0.280417382717132568 0.215145990252494812
0.101862087845802307 0.298080742359161377 0.159691095352172852
0.0957156866788864136 0.345506191253662109 0.109134837985038757
0.261969834566116333 0.139646947383880615 0.157640919089317322
0.192166060209274292 0.23006129264831543 0.132398247718811035
0.0681547299027442932 0.409715205430984497 0.0642502903938293457
0.066319592297077179 0.398741692304611206 0.0799376070499420166
0.107326418161392212 0.398332953453063965 0.030215337872505188
0.249233484268188477 0.165231242775917053 0.141905516386032104
0.171359583735466003 0.240971893072128296 0.144518196582794189
0.072705388069152832 0.334189385175704956 0.151176750659942627
0.0806342661380767822 0.357902884483337402 0.11242290586233139
0.334539592266082764 0.0288268625736236572 0.204487815499305725
0.109030671417713165 0.342619419097900391 0.0963628962635993958
0.13549119234085083 0.223246663808822632 0.210156694054603577
0.221850007772445679 0.159283041954040527 0.182728290557861328
0.152242407202720642 0.278837025165557861 0.121556729078292847
0.160841554403305054 0.305491864681243896 0.0783795565366744995
0.0460557118058204651 0.313619643449783325 0.209008499979972839
0.193302541971206665 0.236047685146331787 0.123674549162387848
0.267549484968185425 0.107119977474212646 0.190644577145576477
0.0925952792167663574 0.416141867637634277 0.0264458358287811279
0.0137702235952019691 0.343530207872390747 0.21191716194152832
0.102186858654022217 0.384682506322860718 0.0532283037900924683
0.167157933115959167 0.207670971751213074 0.190449267625808716
0.219965040683746338 0.213253408670425415 0.118936978280544281
0.0996497124433517456 0.397166222333908081 0.0410462468862533569
0.116528764367103577 0.378813505172729492 0.0428511500358581543
0.211921960115432739 0.198060154914855957 0.147395521402359009
0.158290162682533264 0.272914469242095947 0.121403396129608154
0.299297451972961426 0.056619495153427124 0.213611572980880737
0.0741950124502182007 0.30185893177986145 0.188948914408683777
0.0980606749653816223 0.312264561653137207 0.146975308656692505
0.166550785303115845 0.295148968696594238 0.0840546637773513794
0.0842810571193695068 0.327038943767547607 0.145756974816322327
0.172060027718544006 0.238601520657539368 0.146563410758972168
0.134356990456581116 0.224838510155677795 0.209596216678619385
0.086690463125705719 0.418563425540924072 0.030711933970451355
0.134077444672584534 0.228459924459457397 0.205503255128860474
0.0586913488805294037 0.378624796867370605 0.11391836404800415
0.165627583861351013 0.205596983432769775 0.194863647222518921
0.169173866510391235 0.290755510330200195 0.0862228870391845703
0.093812987208366394 0.425046592950820923 0.014048457145690918
0.180518388748168945 0.191323921084403992 0.194107085466384888
0.0999734774231910706 0.413738489151000977 0.0203529298305511475
0.238207191228866577 0.172492817044258118 0.146516293287277222
0.0615496337413787842 0.303261935710906982 0.202717944979667664
0.0554055795073509216 0.397483319044113159 0.094845697283744812
0.0956155359745025635 0.370290398597717285 0.0789031088352203369
0.0469657331705093384 0.381740361452102661 0.124463476240634918
0.00382275134325027466 0.352983653545379639 0.212522223591804504
0.209771320223808289 0.163412496447563171 0.192464068531990051
0.279688358306884766 0.0994839072227478027 0.185129761695861816
0.116393238306045532 0.335236251354217529 0.0963881388306617737
0.27208024263381958 0.129204273223876953 0.158047884702682495
0.329973936080932617 0.0300493538379669189 0.208582371473312378
0.176626354455947876 0.293473958969116211 0.0737660974264144897
0.0528484098613262177 0.354068785905838013 0.15114930272102356
0.151781022548675537 0.258011370897293091 0.147627919912338257
0.147841408848762512 0.231853440403938293 0.184489712119102478
0.119067370891571045 0.287822246551513672 0.151183068752288818
0.125841408967971802 0.28704380989074707 0.143840000033378601
0.184712246060371399 0.18410155177116394 0.197816222906112671
0.098081931471824646 0.319675236940383911 0.13787311315536499
0.128699690103530884 0.298185169696807861 0.126693993806838989
0.0727166086435317993 0.296056598424911499 0.197865933179855347
0.250287711620330811 0.109594196081161499 0.208755508065223694
0.148369699716567993 0.337391674518585205 0.0545852929353713989
0.0269574299454689026 0.373805224895477295 0.158687025308609009
0.0992989540100097656 0.334677129983901978 0.118009090423583984
0.131539285182952881 0.318111509084701538 0.098811514675617218
0.269225478172302246 0.112083405256271362 0.182512968778610229
0.0697598978877067566 0.314802557229995728 0.178528130054473877
0.0800796300172805786 0.274313211441040039 0.215478241443634033
0.0932874158024787903 0.347704917192459106 0.10941595584154129
0.184554338455200195 0.190816789865493774 0.189785182476043701
0.158341586589813232 0.218714386224746704 0.187721684575080872
0.138834387063980103 0.256093204021453857 0.165833503007888794
0.0930656939744949341 0.298935174942016602 0.169418007135391235
0.201163962483406067 0.208852291107177734 0.147353768348693848
0.259270519018173218 0.11921846866607666 0.185966566205024719
0.210945069789886475 0.220488399267196655 0.121123097836971283
0.152134865522384644 0.256920993328094482 0.148529961705207825
0.205599352717399597 0.193560153245925903 0.160650491714477539
0.0747137218713760376 0.35953289270401001 0.117677725851535797
0.103397108614444733 0.408877521753311157 0.022113308310508728
0.109152860939502716 0.248981386423110962 0.210895955562591553
0.138734251260757446 0.314188361167907715 0.0948043912649154663
0.0516483411192893982 0.322464048862457275 0.191326811909675598
0.146534562110900879 0.211523130536079407 0.210989728569984436
0.0110131381079554558 0.358872801065444946 0.196503132581710815
0.0614330694079399109 0.358958780765533447 0.134646281599998474
0.15867730975151062 0.278659999370574951 0.113892450928688049
0.0717804580926895142 0.282969087362289429 0.215041369199752808
0.121947914361953735 0.350684940814971924 0.0706643611192703247
0.23800639808177948 0.170972809195518494 0.148623868823051453
0.130589723587036133 0.313736081123352051 0.105333276093006134
0.130432575941085815 0.371139168739318848 0.0352216362953186035
0.154064640402793884 0.211075931787490845 0.202315002679824829
0.0977625921368598938 0.268640428781509399 0.200768813490867615
0.184764131903648376 0.19644533097743988 0.182634696364402771
0.233164846897125244 0.176131993532180786 0.148234829306602478
0.153279513120651245 0.255243062973022461 0.149183139204978943
0.127154946327209473 0.248595207929611206 0.189320951700210571
0.135193556547164917 0.348830938339233398 0.0567125380039215088
0.172393918037414551 0.288502305746078491 0.0850387662649154663
0.111558601260185242 0.379543781280517578 0.0480439215898513794
0.181204646825790405 0.259222090244293213 0.110108666121959686
0.0759478509426116943 0.392528831958770752 0.0757546573877334595
0.253775656223297119 0.131486788392066956 0.17767082154750824
0.295052766799926758 0.0593973100185394287 0.215408116579055786
0.194151520729064941 0.177567973732948303 0.194257497787475586
0.109938658773899078 0.313303172588348389 0.131155773997306824
0.243153125047683716 0.148653849959373474 0.169655472040176392
0.105031818151473999 0.252390921115875244 0.21176736056804657
0.229010596871376038 0.145474329590797424 0.190870538353919983
0.193977594375610352 0.229924589395523071 0.130347013473510742
0.0531730242073535919 0.383769810199737549 0.114375516772270203
0.268927037715911865 0.110919266939163208 0.18430425226688385
0.0989241749048233032 0.294322729110717773 0.167891919612884521
0.167861685156822205 0.193391665816307068 0.20707586407661438
0.310719996690750122 0.0643049180507659912 0.19020920991897583
0.235617831349372864 0.176500618457794189 0.144779101014137268
0.282535821199417114 0.0848573446273803711 0.199556142091751099
0.227312713861465454 0.14147736132144928 0.197845280170440674
0.0984302684664726257 0.281175673007965088 0.184598624706268311
0.0900910571217536926 0.276074886322021484 0.20105917751789093
0.152130484580993652 0.315734893083572388 0.0765033364295959473
0.207913130521774292 0.217895388603210449 0.128012239933013916
0.182099416851997375 0.267368555068969727 0.0990354642271995544
0.0686614364385604858 0.392499446868896484 0.0847146213054656982
0.150622159242630005 0.306109994649887085 0.0901386886835098267
0.0811299830675125122 0.43401336669921875 0.0185998529195785522
0.0994875729084014893 0.36679232120513916 0.0784451663494110107
0.191889151930809021 0.183176979422569275 0.190158724784851074
0.227650627493858337 0.168693691492080688 0.164098381996154785
0.180760890245437622 0.246464252471923828 0.126277253031730652
0.10507500171661377 0.25630652904510498 0.206918865442276001
0.241141706705093384 0.163940593600273132 0.153396591544151306
0.152351945638656616 0.285711884498596191 0.113002628087997437
0.0916124060750007629 0.41693413257598877 0.0266792923212051392
0.152170673012733459 0.213716819882392883 0.201400220394134521
0.23919755220413208 0.139660686254501343 0.185514345765113831
0.0613963156938552856 0.397958278656005859 0.086926877498626709
0.0954079926013946533 0.354250669479370117 0.0988019183278083801
0.208459541201591492 0.147964507341384888 0.212990522384643555
0.109461069107055664 0.307290643453598022 0.139104530215263367
0.168542996048927307 0.196571797132492065 0.202346548438072205
0.15025050938129425 0.335032284259796143 0.0551714599132537842
0.224650472402572632 0.153951212763786316 0.185828596353530884
0.0629320219159126282 0.355674296617507935 0.136833131313323975
0.101708471775054932 0.299402445554733276 0.158260509371757507
0.269556224346160889 0.126172736287117004 0.164852023124694824
0.216696441173553467 0.171300739049911499 0.174321502447128296
0.080312289297580719 0.297770917415618896 0.186463594436645508
0.229834467172622681 0.178183659911155701 0.149800956249237061
0.160902142524719238 0.320173561573028564 0.0603240132331848145
0.208374619483947754 0.169216558337211609 0.187066167593002319
0.114977210760116577 0.314961671829223633 0.122953601181507111
0.0930162221193313599 0.371507227420806885 0.0805963575839996338
0.223739162087440491 0.163130655884742737 0.175702214241027832
0.179931268095970154 0.279866904020309448 0.0863836109638214111
0.120496824383735657 0.300476372241973877 0.133934289216995239
0.0823707506060600281 0.300893604755401611 0.180117994546890259
0.187501788139343262 0.241737216711044312 0.123810768127441406
0.0931858867406845093 0.265724331140518188 0.209945604205131531
0.18700920045375824 0.171491369605064392 0.210447296500205994
0.174081683158874512 0.230559274554252625 0.153937101364135742
0.0584299787878990173 0.404435038566589355 0.082627519965171814
0.0777130573987960815 0.37549889087677002 0.0944500342011451721
0.130948752164840698 0.303159773349761963 0.117846883833408356
0.307505011558532715 0.0729711949825286865 0.183532774448394775
0.160108849406242371 0.29264456033706665 0.0950116291642189026
0.0488855540752410889 0.395581305027008057 0.105160564184188843
0.0991043299436569214 0.36464989185333252 0.0815384387969970703
0.192479193210601807 0.213996201753616333 0.151690393686294556
0.114587642252445221 0.24027232825756073 0.214906126260757446
0.318652123212814331 0.0381011962890625 0.212587222456932068
0.228408262133598328 0.162880510091781616 0.170290142297744751
0.038458898663520813 0.347948014736175537 0.17626914381980896
0.120310895144939423 0.257193386554718018 0.187172621488571167
0.117214493453502655 0.324700623750686646 0.108285754919052124
0.216359302401542664 0.185595259070396423 0.157227247953414917
0.0635230839252471924 0.312968552112579346 0.18841281533241272
0.138021066784858704 0.220939576625823975 0.209883838891983032
0.0557313300669193268 0.323353737592697144 0.185236558318138123
0.192085921764373779 0.226804047822952271 0.136485695838928223
0.191880106925964355 0.196515768766403198 0.173833191394805908
0.0700805708765983582 0.290634274482727051 0.207735404372215271
0.0647026896476745605 0.307356029748916626 0.193842023611068726
0.0682797729969024658 0.370164155960083008 0.112537100911140442
0.181614890694618225 0.21447521448135376 0.164409726858139038
0.115069121122360229 0.353624820709228516 0.0754885226488113403
0.200572922825813293 0.228696241974830627 0.123773828148841858
0.0404256805777549744 0.358203887939453125 0.161299526691436768
0.167855337262153625 0.280913889408111572 0.0998912081122398376
0.124135285615921021 0.372868359088897705 0.040816381573677063
0.0850573256611824036 0.327484339475631714 0.144260764122009277
0.0177108515053987503 0.350420385599136353 0.198652207851409912
0.204095780849456787 0.236340001225471497 0.110097602009773254
0.0420828498899936676 0.352330297231674194 0.166463553905487061
0.189845174551010132 0.225647434592247009 0.140646606683731079
0.26631733775138855 0.130855083465576172 0.163084179162979126
0.0792376771569252014 0.287208318710327148 0.200716212391853333
0.0732256025075912476 0.373950481414794922 0.101842425763607025
0.155233651399612427 0.293841302394866943 0.0995168313384056091
0.117654033005237579 0.302405089139938354 0.13505379855632782
0.13787822425365448 0.310850352048873901 0.0999410375952720642
0.117071256041526794 0.284294188022613525 0.157948777079582214
0.0682935789227485657 0.330899626016616821 0.160609215497970581
0.124499626457691193 0.2749214768409729 0.160330101847648621
0.135928943753242493 0.279040485620498657 0.141287356615066528
0.266213148832321167 0.110952377319335938 0.187587499618530273
0.115449443459510803 0.389016270637512207 0.0316772311925888062
0.112912341952323914 0.361182212829589844 0.0688741803169250488
0.153004944324493408 0.273635774850845337 0.126993030309677124
0.12100355327129364 0.387570053339004517 0.0266461223363876343
0.162761270999908447 0.293332099914550781 0.0909210294485092163
0.141727343201637268 0.254576921463012695 0.164147451519966125
0.20037841796875 0.225925728678703308 0.127405211329460144
0.0575365498661994934 0.371713727712631226 0.123796947300434113
0.0770955458283424377 0.318929225206375122 0.164489731192588806
0.289446353912353516 0.0707705318927764893 0.208345293998718262
0.113786809146404266 0.377578467130661011 0.0477219223976135254
0.295345813035964966 0.0843980312347412109 0.184429705142974854
0.213822156190872192 0.202431067824363708 0.139715075492858887
0.21779245138168335 0.187084153294563293 0.153648495674133301
0.211238667368888855 0.165016144514083862 0.188702911138534546
0.211507156491279602 0.166880697011947632 0.186090439558029175
0.0811472535133361816 0.339978516101837158 0.13374742865562439
0.221160009503364563 0.1414041668176651 0.205470427870750427
0.0492754131555557251 0.381904691457748413 0.121433436870574951
0.080622553825378418 0.406974762678146362 0.0523367524147033691
0.269690126180648804 0.0968731045722961426 0.20057263970375061
0.083630293607711792 0.328231751918792725 0.14509311318397522
0.162322193384170532 0.280376195907592773 0.107326477766036987
0.160970523953437805 0.30318140983581543 0.0810513347387313843
0.0857994034886360168 0.290279000997543335 0.188918963074684143
0.108075626194477081 0.349712342023849487 0.0888455808162689209
0.0280871093273162842 0.326298058032989502 0.215487629175186157
0.0568061321973800659 0.348044753074645996 0.153680011630058289
0.0789001211524009705 0.327070713043212891 0.152308344841003418
0.232390537858009338 0.159289300441741943 0.169811174273490906
0.136814206838607788 0.310187041759490967 0.102056525647640228
0.159503012895584106 0.250970184803009033 0.146794110536575317
0.119685187935829163 0.344974815845489502 0.0804291069507598877
0.176810875535011292 0.23824717104434967 0.14117884635925293
0.161933958530426025 0.28560289740562439 0.101400576531887054
0.159668922424316406 0.278922379016876221 0.112356618046760559
0.14753510057926178 0.209473520517349243 0.212274551391601562
0.109895765781402588 0.384304314851760864 0.0442500561475753784
0.110583178699016571 0.318190157413482666 0.124381110072135925
0.289483785629272461 0.0883371531963348389 0.186784744262695312
0.0114271054044365883 0.351849138736724854 0.204598322510719299
0.0230737943202257156 0.346577972173690796 0.196789965033531189
0.0797375664114952087 0.378025412559509277 0.0888761729001998901
0.150492891669273376 0.233300492167472839 0.179470077157020569
0.105780020356178284 0.31371074914932251 0.135749876499176025
0.18557441234588623 0.270387470722198486 0.0910820811986923218
0.134652286767959595 0.363551020622253418 0.0393470674753189087
0.164463073015213013 0.262822329998016357 0.126203417778015137
0.103007003664970398 0.272632092237472534 0.189456984400749207
0.207704916596412659 0.152632847428321838 0.208197221159934998
0.112964004278182983 0.26533973217010498 0.186193466186523438
0.192084252834320068 0.26622048020362854 0.0882126688957214355
0.0974267572164535522 0.294275343418121338 0.169783890247344971
0.128130197525024414 0.263200074434280396 0.170239314436912537
0.228691130876541138 0.156396582722663879 0.17788483202457428
0.19923834502696991 0.24702867865562439 0.102955810725688934
0.0564459711313247681 0.408460617065429688 0.0801271051168441772
0.231499865651130676 0.198480501770973206 0.12290278822183609
0.0581825338304042816 0.322948455810546875 0.182730808854103088
0.229714810848236084 0.204708069562911987 0.117461830377578735
0.0460591912269592285 0.318615227937698364 0.202885925769805908
0.142392486333847046 0.215871691703796387 0.210736840963363647
0.163285195827484131 0.212167844176292419 0.189684852957725525
0.320852845907211304 0.0430268645286560059 0.203859239816665649
0.074989616870880127 0.345843076705932617 0.134106367826461792
0.205938056111335754 0.212183788418769836 0.137426465749740601
0.05343647301197052 0.378141045570373535 0.120946690440177917
0.0755343958735466003 0.300010621547698975 0.189572229981422424
0.296509802341461182 0.0797843039035797119 0.188654795289039612
0.108294352889060974 0.384579122066497803 0.0458747893571853638
0.252907991409301758 0.103867918252944946 0.212559551000595093
0.0564816482365131378 0.388332486152648926 0.104735225439071655
0.0859307050704956055 0.327705651521682739 0.142920061945915222
0.0360323116183280945 0.326920300722122192 0.204994708299636841
0.257356554269790649 0.150462567806243896 0.150044664740562439
0.101429939270019531 0.29268983006477356 0.166822895407676697
0.124527782201766968 0.342256784439086914 0.0778270363807678223
0.273223131895065308 0.0860912203788757324 0.209450632333755493
0.193382054567337036 0.1608685702085495 0.215652421116828918
0.12305866926908493 0.260327458381652832 0.179968848824501038
0.089285731315612793 0.33899804949760437 0.124980688095092773
0.209360286593437195 0.226269632577896118 0.115983538329601288
0.137655884027481079 0.275166451930999756 0.1439170241355896
0.364914089441299438 0.189196318387985229 0.298383414745330811
0.464770406484603882 0.118349999189376831 0.310226678848266602
0.23477664589881897 0.174733251333236694 0.239350497722625732
0.296154201030731201 0.120330318808555603 0.242197871208190918
0.213472962379455566 0.141733318567276001 0.217181146144866943
0.404296696186065674 0.099027678370475769 0.27765008807182312
0.0293359644711017609 0.327529400587081909 0.217858448624610901
0.337888032197952271 0.0770910009741783142 0.241583257913589478
0.0922189950942993164 0.277769595384597778 0.223215997219085693
0.25255119800567627 0.183426231145858765 0.250155806541442871
0.442490667104721069 0.149533554911613464 0.313861668109893799
0.330383777618408203 0.156302466988563538 0.27085760235786438
0.328590601682662964 0.183706387877464294 0.281313151121139526
0.125474646687507629 0.263368368148803711 0.230913281440734863
0.306168228387832642 0.0861877575516700745 0.232347443699836731
0.252575337886810303 0.216187164187431335 0.263540267944335938
0.384460717439651489 0.17545492947101593 0.300753384828567505
0.375021934509277344 0.190506532788276672 0.303044795989990234
0.379559099674224854 0.177327603101730347 0.299516797065734863
0.342365384101867676 0.0819464921951293945 0.245393380522727966
0.15688912570476532 0.270062118768692017 0.246470898389816284
0.290205419063568115 0.111351609230041504 0.236103743314743042
0.245171427726745605 0.160883739590644836 0.237940102815628052
0.152259930968284607 0.249214038252830505 0.236069843173027039
0.0255576781928539276 0.33281978964805603 0.218475759029388428
0.31882786750793457 0.0677778422832489014 0.229999899864196777
0.485824167728424072 0.133998438715934753 0.325210303068161011
0.440211176872253418 0.131108701229095459 0.305409163236618042
0.282831788063049316 0.0713375657796859741 0.216757819056510925
0.158653289079666138 0.245285078883171082 0.237075939774513245
0.378521859645843506 0.135495454072952271 0.282015472650527954
0.375891149044036865 0.209638863801956177 0.311210423707962036
0.452684730291366577 0.114136099815368652 0.303572416305541992
0.197491973638534546 0.164359524846076965 0.219894036650657654
0.183051362633705139 0.282141327857971191 0.262082904577255249
0.315424621105194092 0.145137131214141846 0.260192334651947021
0.0541634634137153625 0.302418380975723267 0.217742711305618286
0.123600691556930542 0.305848956108093262 0.247490867972373962
0.118378520011901855 0.248625099658966064 0.221997380256652832
0.362160325050354004 0.138477504253387451 0.276553332805633545
0.273861289024353027 0.145851314067840576 0.243515729904174805
0.365062206983566284 0.168172448873519897 0.289860904216766357
0.388708233833312988 0.0460377223789691925 0.249653071165084839
0.410539984703063965 0.141887247562408447 0.29769626259803772
0.284733474254608154 0.176487907767295837 0.260461628437042236
0.352267473936080933 0.0155088528990745544 0.222312837839126587
0.348988592624664307 0.193304657936096191 0.293559074401855469
0.292483001947402954 0.229408681392669678 0.285230159759521484
0.267186582088470459 0.132293686270713806 0.235255911946296692
0.328638702630996704 0.162727564573287964 0.272768229246139526
0.417058646678924561 0.167887657880783081 0.310972094535827637
0.141082629561424255 0.240669518709182739 0.228018447756767273
0.275979757308959961 0.219427913427352905 0.274418115615844727
0.246426686644554138 0.113337457180023193 0.219041883945465088
0.188372984528541565 0.275550127029418945 0.26156461238861084
0.420573115348815918 0.108696229755878448 0.288242101669311523
0.311351895332336426 0.229731783270835876 0.293065249919891357
0.347303509712219238 0.201541155576705933 0.296233683824539185
0.386533558368682861 0.0753234848380088806 0.260721147060394287
0.316730409860610962 0.0598830431699752808 0.225920572876930237
0.365390419960021973 0.0312752649188041687 0.234106868505477905
0.324043720960617065 0.164553999900817871 0.271637946367263794
0.147337228059768677 0.269588887691497803 0.242378145456314087
0.24880632758140564 0.255026489496231079 0.277857661247253418
0.166670471429824829 0.260247588157653809 0.246457353234291077
0.400128364562988281 0.14601995050907135 0.295132905244827271
0.279304921627044678 0.105639047920703888 0.229321509599685669
0.281971454620361328 0.196221426129341125 0.267390221357345581
0.275421470403671265 0.101942285895347595 0.226226881146430969
0.384503960609436035 0.121223531663417816 0.278631150722503662
0.224724516272544861 0.202191367745399475 0.246456459164619446
0.468834638595581055 0.154231920838356018 0.326534628868103027
0.0408800877630710602 0.333736658096313477 0.225105434656143188
0.0967646613717079163 0.309157848358154297 0.237885951995849609
0.482502967119216919 0.160650402307510376 0.33473503589630127
0.336777985095977783 0.0185552630573511124 0.217232972383499146
0.28093409538269043 0.137404128909111023 0.242954641580581665
0.433607250452041626 0.171820268034934998 0.319333523511886597
0.369069814682006836 0.0806619524955749512 0.255771011114120483
0.376603662967681885 0.153687730431556702 0.288659334182739258
0.179931148886680603 0.248018622398376465 0.246878549456596375
0.221156895160675049 0.13459247350692749 0.217402860522270203
0.333636879920959473 0.0477547496557235718 0.22787126898765564
0.41042676568031311 0.0876375064253807068 0.275502681732177734
0.316894620656967163 0.176522403955459595 0.273605436086654663
0.35721057653427124 0.148410141468048096 0.278587579727172852
0.189383909106254578 0.22963029146194458 0.243230611085891724
0.17123761773109436 0.28228604793548584 0.257319033145904541
0.237244173884391785 0.257540106773376465 0.274163603782653809
0.211895570158958435 0.176250383257865906 0.230628699064254761
0.136799484491348267 0.255510509014129639 0.232328668236732483
0.33378562331199646 0.191496193408966064 0.286614179611206055
0.213062211871147156 0.160741627216339111 0.224773555994033813
0.379897445440292358 0.128940880298614502 0.27990114688873291
0.378239065408706665 0.185227811336517334 0.302203178405761719
0.357879787683486938 0.114439897239208221 0.264992475509643555
0.168166428804397583 0.225038900971412659 0.232694193720817566
0.132986173033714294 0.301499128341674805 0.249546661972999573
0.340075492858886719 0.19884839653968811 0.292183548212051392
0.119929216802120209 0.298796951770782471 0.243113011121749878
0.373942643404006958 0.0717393830418586731 0.254117697477340698
0.316098988056182861 0.120011508464813232 0.250210165977478027
0.166613936424255371 0.210196599364280701 0.226001039147377014
0.407194226980209351 0.126769289374351501 0.290158450603485107
0.00938057154417037964 0.34476587176322937 0.216748461127281189
0.474764823913574219 0.148588627576828003 0.32665175199508667
0.191486641764640808 0.190922752022743225 0.228286758065223694
0.11950404942035675 0.306313395500183105 0.246008023619651794
0.47816544771194458 0.129802033305168152 0.320370465517044067
0.245483070611953735 0.247622877359390259 0.273478448390960693
0.175871983170509338 0.254441231489181519 0.247843414545059204
0.397547453641891479 0.111643292009830475 0.280045032501220703
0.421663612127304077 0.068825259804725647 0.272410035133361816
0.378165155649185181 0.0768896192312240601 0.257944107055664062
0.265993595123291016 0.159211963415145874 0.245758235454559326
0.150393098592758179 0.213210895657539368 0.220609486103057861
0.406069040298461914 0.0584523826837539673 0.261808842420578003
0.360667109489440918 0.170864224433898926 0.289165526628494263
0.375614732503890991 0.16125863790512085 0.291346430778503418
0.0759876817464828491 0.28703385591506958 0.220371708273887634
0.382453709840774536 0.169671341776847839 0.297572880983352661
0.241719424724578857 0.146975085139274597 0.230852648615837097
0.416903674602508545 0.0940373316407203674 0.280759572982788086
0.253413736820220947 0.255221188068389893 0.279818117618560791
0.241640359163284302 0.230614498257637024 0.264966011047363281
0.381593704223632812 0.198130428791046143 0.308840155601501465
0.335651993751525879 0.10998988151550293 0.254101336002349854
0.0467927306890487671 0.309734165668487549 0.217720270156860352
0.339246451854705811 0.193592861294746399 0.289699524641036987
0.163996219635009766 0.21762259304523468 0.227963998913764954
0.312791049480438232 0.0986822620034217834 0.240152046084403992
0.349606633186340332 0.117627613246440887 0.262916356325149536
0.0982432365417480469 0.303621560335159302 0.236229389905929565
0.27327004075050354 0.088293612003326416 0.219776526093482971
0.370782077312469482 0.113541334867477417 0.269892990589141846
0.348662465810775757 0.162205755710601807 0.280729860067367554
0.261716842651367188 0.225392729043960571 0.271030426025390625
0.452921509742736816 0.15419451892375946 0.320022851228713989
0.309282004833221436 0.182888954877853394 0.273096710443496704
0.341745674610137939 0.183100998401641846 0.286436527967453003
0.420066416263580322 0.180325344204902649 0.317277699708938599
0.383626341819763184 0.125270769000053406 0.279925137758255005
0.13677978515625 0.243531584739685059 0.227430239319801331
0.442375361919403076 0.15217137336730957 0.314891457557678223
0.103657826781272888 0.289942115545272827 0.232855290174484253
0.323914319276809692 0.161903858184814453 0.270503222942352295
0.338272511959075928 0.122630327939987183 0.260331571102142334
0.451578855514526367 0.169200927019119263 0.325601071119308472
0.195566266775131226 0.226205766201019287 0.244356483221054077
0.408057808876037598 0.0758537426590919495 0.269724845886230469
0.26190987229347229 0.239054739475250244 0.276686728000640869
0.273444324731826782 0.123341493308544159 0.234155908226966858
0.37751847505569458 0.081318587064743042 0.259488224983215332
0.264535009860992432 0.156498238444328308 0.244054883718490601
0.254382461309432983 0.12428814172744751 0.226760417222976685
0.276886701583862305 0.0890861451625823975 0.221576571464538574
0.095216505229473114 0.286469072103500366 0.227991268038749695
0.395307779312133789 0.100834012031555176 0.274717807769775391
0.376814067363739014 0.108891882002353668 0.27045738697052002
0.404374897480010986 0.192343875765800476 0.315778195858001709
0.398963510990142822 0.197219088673591614 0.315559327602386475
0.107249908149242401 0.259987533092498779 0.222092851996421814
0.294463425874710083 0.112481988966464996 0.23830355703830719
0.191934257745742798 0.227081313729286194 0.243231162428855896
0.231699705123901367 0.132078424096107483 0.220680579543113708
0.26853024959564209 0.211777746677398682 0.268253684043884277
0.205993518233299255 0.254440188407897949 0.260140061378479004
0.309539884328842163 0.155338481068611145 0.261954575777053833
0.168232321739196777 0.273475289344787598 0.252495169639587402
0.134280458092689514 0.297782659530639648 0.248557820916175842
0.330904126167297363 0.224960878491401672 0.299099713563919067
0.420116186141967773 0.100192569196224213 0.284583926200866699
0.378428876399993896 0.121835589408874512 0.276400893926620483
0.284299165010452271 0.174685478210449219 0.259548485279083252
0.357329845428466797 0.212640523910522461 0.304858207702636719
0.210333049297332764 0.219165757298469543 0.247510939836502075
0.333960175514221191 0.0419601388275623322 0.225637614727020264
0.2204018235206604 0.200426399707794189 0.243971183896064758
0.292196720838546753 0.181584775447845459 0.265589267015457153
0.394976675510406494 0.184600979089736938 0.308780372142791748
0.0346381627023220062 0.339680641889572144 0.22498379647731781
0.0559984482824802399 0.330843657255172729 0.230096414685249329
0.321863412857055664 0.178225696086883545 0.276329308748245239
0.171798259019851685 0.186748728156089783 0.21854497492313385
0.241227596998214722 0.229167670011520386 0.264206856489181519
0.222161486744880676 0.185884013772010803 0.238752663135528564
0.358646035194396973 0.00797233358025550842 0.22184009850025177
0.0401423461735248566 0.321633428335189819 0.219863131642341614
0.391579359769821167 0.142111733555793762 0.290047258138656616
0.343461811542510986 0.0501525253057479858 0.232861161231994629
0.386528670787811279 0.114112429320812225 0.276554644107818604
0.373279094696044922 0.0365004055202007294 0.239460557699203491
0.286535143852233887 0.224496811628341675 0.280796706676483154
0.288347154855728149 0.185636833310127258 0.26567193865776062
0.169297307729721069 0.258343249559402466 0.246752306818962097
0.185665294528007507 0.190923333168029785 0.22591044008731842
0.239245355129241943 0.115058042109012604 0.216812536120414734
0.218352213501930237 0.240607231855392456 0.259538173675537109
0.144505709409713745 0.286740213632583618 0.248224198818206787
0.233962446451187134 0.14668622612953186 0.227567940950393677
0.392699003219604492 0.138704702258110046 0.289113432168960571
0.391844600439071655 0.180086702108383179 0.30565875768661499
0.330275237560272217 0.0490163639187812805 0.227013930678367615
0.0640728473663330078 0.316719353199005127 0.227626532316207886
0.0600605830550193787 0.312480419874191284 0.224258005619049072
0.366054177284240723 0.0511571243405342102 0.242494583129882812
0.264403939247131348 0.226485788822174072 0.272573679685592651
0.334853798151016235 0.0190246943384408951 0.216639071702957153
0.445319145917892456 0.184426650404930115 0.329261422157287598
0.310601502656936646 0.114576078951358795 0.245746806263923645
0.370068669319152832 0.0973889753222465515 0.263007581233978271
0.140237078070640564 0.254049718379974365 0.233135700225830078
0.357244879007339478 0.0850023329257965088 0.252715438604354858
0.273948848247528076 0.0847515836358070374 0.218607619404792786
0.150141254067420959 0.243885427713394165 0.233029499650001526
0.228078737854957581 0.155769065022468567 0.228873983025550842
0.324432492256164551 0.220678359270095825 0.294709354639053345
0.380650788545608521 0.161003023386001587 0.293298006057739258
0.137586385011672974 0.224907681345939636 0.220156356692314148
0.345748484134674072 0.05278802290558815 0.234870627522468567
0.277276039123535156 0.244761452078819275 0.2852897047996521
0.289200127124786377 0.195311382412910461 0.269969791173934937
0.300335943698883057 0.14723379909992218 0.254888355731964111
0.220416784286499023 0.165149867534637451 0.229575708508491516
0.2662544846534729 0.139867767691612244 0.237967491149902344
0.26542741060256958 0.203447580337524414 0.263586193323135376
0.29192429780960083 0.156847864389419556 0.255379259586334229
0.252422541379928589 0.143788665533065796 0.233921334147453308
0.138878479599952698 0.24086444079875946 0.227198183536529541
0.151101157069206238 0.235239818692207336 0.2298918217420578
0.124940104782581329 0.264626443386077881 0.231208652257919312
0.347519099712371826 0.0525247454643249512 0.235486000776290894
0.369960784912109375 0.108787216246128082 0.267616838216781616
0.357447803020477295 0.19830535352230072 0.299054056406021118
0.272263944149017334 0.121461383998394012 0.23290647566318512
0.342379361391067505 0.200752496719360352 0.293901443481445312
0.451618075370788574 0.161422029137611389 0.322441339492797852
0.424535572528839111 0.0898004770278930664 0.28214561939239502
0.244225382804870605 0.186124742031097412 0.247858479619026184
0.364182919263839722 0.0156094711273908615 0.227218374609947205
0.28540414571762085 0.229362696409225464 0.282321453094482422
0.306007355451583862 0.186946511268615723 0.273416370153427124
0.332287251949310303 0.109225146472454071 0.252415448427200317
0.245233356952667236 0.154559195041656494 0.235383406281471252
0.322593867778778076 0.0893707126379013062 0.240352615714073181
0.328172594308853149 0.219594359397888184 0.295793712139129639
0.470166265964508057 0.161037608981132507 0.329856693744659424
0.279301285743713379 0.106230892241001129 0.229561641812324524
0.486260414123535156 0.134309381246566772 0.325515329837799072
0.164338022470474243 0.210068941116333008 0.225019782781600952
0.265165656805038452 0.154680639505386353 0.243570312857627869
0.469733119010925293 0.138205945491790771 0.320358872413635254
0.321861624717712402 0.167540267109870911 0.271966278553009033
0.332408249378204346 0.182739794254302979 0.282477080821990967
0.333934962749481201 0.136274397373199463 0.264130949974060059
0.17260800302028656 0.231822311878204346 0.237276777625083923
0.495332390069961548 0.142570510506629944 0.332591533660888672
0.431582272052764893 0.121972881257534027 0.29815673828125
0.298018693923950195 0.176236465573310852 0.265782624483108521
0.21877540647983551 0.16061536967754364 0.227054417133331299
0.238732114434242249 0.238536804914474487 0.267013013362884521
0.110153615474700928 0.301870644092559814 0.240376979112625122
0.391589164733886719 0.1592741459608078 0.297057777643203735
0.300701558589935303 0.173715204000473022 0.265848636627197266
0.184876307845115662 0.177425488829612732 0.220077872276306152
0.444227874279022217 0.11455109715461731 0.300289332866668701
0.343738973140716553 0.13184221088886261 0.266323983669281006
0.432181656360626221 0.122766613960266113 0.29872545599937439
0.31489187479019165 0.198738306760787964 0.281857430934906006
0.249928683042526245 0.112391412258148193 0.22008533775806427
0.278215885162353516 0.107323087751865387 0.22956441342830658
0.311369657516479492 0.145492464303970337 0.258681952953338623
0.226290538907051086 0.18664202094078064 0.240747794508934021
0.253996074199676514 0.256460905075073242 0.280561953783035278
0.449804097414016724 0.159478083252906799 0.320907175540924072
0.38593059778213501 0.144114315509796143 0.288558721542358398
0.294284403324127197 0.151184320449829102 0.254030615091323853
0.274460434913635254 0.0825359150767326355 0.21791192889213562
0.4272746741771698 0.16942894458770752 0.315771996974945068
0.384037822484970093 0.136244848370552063 0.284573286771774292
0.0736961588263511658 0.303625017404556274 0.226209491491317749
0.328684329986572266 0.0873302817344665527 0.242006033658981323
0.378573238849639893 0.0496233738958835602 0.246979326009750366
0.231547713279724121 0.163737595081329346 0.233543336391448975
0.361860603094100952 0.0458745881915092468 0.238625973463058472
0.269288480281829834 0.217242598533630371 0.270794272422790527
0.368848323822021484 0.0402947105467319489 0.23920072615146637
0.191802829504013062 0.210521608591079712 0.236417040228843689
0.0484277494251728058 0.332854717969894409 0.227826699614524841
0.165159136056900024 0.246695131063461304 0.240307584404945374
0.173009037971496582 0.205380856990814209 0.226645812392234802
0.163641929626464844 0.227043032646179199 0.231665238738059998
0.0785212814807891846 0.302263319492340088 0.227623447775840759
0.379227995872497559 0.0890824422240257263 0.263355731964111328
0.354100197553634644 0.00486912578344345093 0.218717396259307861
0.180729806423187256 0.212084472179412842 0.232534527778625488
0.281408309936523438 0.126350164413452148 0.238635480403900146
0.118346191942691803 0.266307979822158813 0.229203179478645325
0.185957297682762146 0.174831986427307129 0.219460397958755493
0.160405069589614868 0.229383766651153564 0.231299400329589844
0.244704976677894592 0.186926901340484619 0.248381763696670532
0.353323996067047119 0.205320417881011963 0.300234407186508179
0.352444648742675781 0.173048719763755798 0.286700546741485596
0.360446572303771973 0.0737118422985076904 0.249413222074508667
0.267016291618347168 0.159986913204193115 0.246492102742195129
0.393278300762176514 0.154014438390731812 0.29560011625289917
0.439256846904754639 0.178091689944267273 0.324200272560119629
0.422693073749542236 0.192605793476104736 0.32336348295211792
0.1517924964427948 0.241263359785079956 0.232633158564567566
0.34163212776184082 0.167316257953643799 0.279946088790893555
0.173880577087402344 0.275579214096069336 0.255659967660903931
0.414343684911727905 0.126756042242050171 0.29307180643081665
0.413492649793624878 0.152851417660713196 0.303377777338027954
0.142571553587913513 0.216416999697685242 0.218725249171257019
0.295937299728393555 0.206641048192977905 0.277345508337020874
0.20139630138874054 0.192522302269935608 0.232985377311706543
0.205848634243011475 0.222286075353622437 0.246954038739204407
0.158622398972511292 0.196891769766807556 0.217306837439537048
0.0959684178233146667 0.285351842641830444 0.227842122316360474
0.264231890439987183 0.119501695036888123 0.228827372193336487
0.427902251482009888 0.190685227513313293 0.324706047773361206
0.1775980144739151 0.277888327836990356 0.258120298385620117
0.269598901271820068 0.151001781225204468 0.243878290057182312
0.182234972715377808 0.182914316654205322 0.22124035656452179
0.302218258380889893 0.122986622154712677 0.245757952332496643
0.415497720241546631 0.185709908604621887 0.317610740661621094
0.389503002166748047 0.0532898195087909698 0.252938181161880493
0.353090673685073853 0.0696204081177711487 0.24473986029624939
0.301723092794418335 0.234879538416862488 0.291235893964767456
0.217038556933403015 0.206989094614982605 0.245277345180511475
0.0480665341019630432 0.331823140382766724 0.227258086204528809
0.0892167389392852783 0.271843820810317993 0.219571128487586975
0.438884854316711426 0.0871163755655288696 0.286907881498336792
0.108757175505161285 0.308945655822753906 0.242695242166519165
0.15253525972366333 0.209654122591018677 0.220031976699829102
0.472589820623397827 0.119524255394935608 0.313898324966430664
0.159616261720657349 0.283920615911483765 0.253241956233978271
0.338371008634567261 0.0635029077529907227 0.236233115196228027
0.365369707345962524 0.212058469653129578 0.30790284276008606
0.477358818054199219 0.153886139392852783 0.329873442649841309
0.320229172706604004 0.210576578974723816 0.288869321346282959
0.353258401155471802 0.179531827569007874 0.289679467678070068
0.257783621549606323 0.200570225715637207 0.259290963411331177
0.391999155282974243 0.144165799021720886 0.291057199239730835
0.0866370499134063721 0.283320367336273193 0.223203271627426147
0.137500956654548645 0.244263157248497009 0.228023320436477661
0.293531656265258789 0.237100154161453247 0.288798332214355469
0.140184760093688965 0.266652345657348633 0.23825933039188385
0.463740170001983643 0.174933314323425293 0.332906126976013184
0.277167767286300659 0.161196440458297729 0.251130223274230957
0.225095674395561218 0.243683084845542908 0.263546884059906006
0.190127119421958923 0.228413313627243042 0.243037208914756775
0.389031887054443359 0.18259584903717041 0.305534809827804565
0.262837797403335571 0.233241766691207886 0.274692416191101074
0.2604256272315979 0.193209528923034668 0.257364571094512939
0.217615097761154175 0.178603783249855042 0.233924463391304016
0.236614987254142761 0.253112375736236572 0.272099137306213379
0.339418351650238037 0.0587282516062259674 0.234711453318595886
0.383896857500076294 0.147087246179580688 0.288942128419876099
0.217892765998840332 0.209386289119720459 0.246604740619659424
0.469080924987792969 0.14464879035949707 0.322722882032394409
0.157942965626716614 0.220124602317810059 0.226514220237731934
0.319875031709671021 0.0941056609153747559 0.24117569625377655
0.407712817192077637 0.145341619849205017 0.297952324151992798
0.184744283556938171 0.197555601596832275 0.228242054581642151
0.419975221157073975 0.0796209424734115601 0.276128053665161133
0.226633161306381226 0.257258236408233643 0.269716620445251465
0.407709419727325439 0.141443580389022827 0.296359539031982422
0.408477365970611572 0.0889689624309539795 0.275250375270843506
0.475593835115432739 0.128425508737564087 0.318758666515350342
0.348289549350738525 0.207289263606071472 0.298982858657836914
0.380268216133117676 0.164928823709487915 0.294744551181793213
0.307207763195037842 0.14272230863571167 0.255851954221725464
0.0797398537397384644 0.278248250484466553 0.218316823244094849
0.362038671970367432 0.148308485746383667 0.280517131090164185
0.272332370281219482 0.205249756574630737 0.267140865325927734
0.114974662661552429 0.286750972270965576 0.236172586679458618
0.357410728931427002 0.170644909143447876 0.287746578454971313
0.272935807704925537 0.157439976930618286 0.247868955135345459
0.243299037218093872 0.123260125517845154 0.221815928816795349
0.268697619438171387 0.163985267281532288 0.248810827732086182
0.146643608808517456 0.266903191804885864 0.240998566150665283
0.232989251613616943 0.126798555254936218 0.219051539897918701
0.459531784057617188 0.135529592633247375 0.315101563930511475
0.245336562395095825 0.201562955975532532 0.254614740610122681
0.419690728187561035 0.0694458931684494019 0.271857976913452148
0.358483493328094482 0.120277427136898041 0.267622113227844238
0.139048323035240173 0.216943159699440002 0.217501699924468994
0.242126837372779846 0.200542747974395752 0.252887874841690063
0.31751173734664917 0.0486363507807254791 0.221648111939430237
0.179549276828765869 0.234295308589935303 0.241120114922523499
0.103552602231502533 0.292556703090667725 0.233879730105400085
0.35705074667930603 0.114522263407707214 0.264687657356262207
0.427757203578948975 0.120859406888484955 0.296140581369400024
0.293299674987792969 0.0917536765336990356 0.229366153478622437
0.248465210199356079 0.152335941791534424 0.235795170068740845
0.268927335739135742 0.145683065056800842 0.24143277108669281
0.164777547121047974 0.247336715459823608 0.24041372537612915
0.245172277092933655 0.220022782683372498 0.262083858251571655
0.320404857397079468 0.0394280776381492615 0.219069972634315491
0.301693767309188843 0.228498384356498718 0.288618803024291992
0.234429016709327698 0.209451824426651001 0.253382354974746704
0.143002793192863464 0.275039196014404297 0.242833718657493591
0.114577576518058777 0.249481707811355591 0.220795363187789917
0.373798906803131104 0.184670612215995789 0.300163000822067261
0.409484744071960449 0.16303098201751709 0.305897355079650879
0.139393940567970276 0.273099184036254883 0.240568399429321289
0.343277275562286377 0.105590134859085083 0.255418121814727783
0.307938456535339355 0.145376294851303101 0.257233768701553345
0.346810042858123779 0.220233410596847534 0.303663313388824463
0.220363333821296692 0.170978069305419922 0.231933251023292542
0.306525886058807373 0.120096981525421143 0.246336847543716431
0.180615037679672241 0.245896369218826294 0.246291324496269226
0.329310804605484009 0.143990069627761841 0.265393048524856567
0.222860008478164673 0.180018812417984009 0.236643373966217041
0.17905879020690918 0.181491181254386902 0.219362691044807434
0.208129420876502991 0.162930220365524292 0.223653256893157959
0.108624808490276337 0.254045754671096802 0.220228418707847595
0.175094842910766602 0.231286108493804932 0.238073110580444336
0.332670360803604126 0.223278969526290894 0.299134135246276855
0.28371131420135498 0.130318373441696167 0.241195693612098694
0.195335313677787781 0.193283185362815857 0.230821624398231506
0.296287357807159424 0.119595065712928772 0.241952061653137207
0.192546620965003967 0.258256435394287109 0.256208360195159912
0.390037685632705688 0.159389689564704895 0.296471565961837769
0.276778459548950195 0.124852672219276428 0.236134007573127747
0.244359254837036133 0.123202137649059296 0.222225099802017212
0.31239926815032959 0.220404163002967834 0.289684861898422241
0.364710688591003418 0.0540858469903469086 0.24314175546169281
0.319716602563858032 0.183579385280609131 0.277638494968414307
0.250595599412918091 0.107331752777099609 0.218292012810707092
0.360023200511932373 0.106849446892738342 0.262768745422363281
0.203374609351158142 0.269645333290100098 0.265278369188308716
0.298821389675140381 0.103129394352436066 0.236264497041702271
0.339043080806732178 0.198048397898674011 0.291435480117797852
0.284450232982635498 0.121071316301822662 0.237722247838973999
0.344031095504760742 0.176206812262535095 0.284555017948150635
0.358194917440414429 0.0326164141297340393 0.231716841459274292
0.34775272011756897 0.195639342069625854 0.294007658958435059
0.279713928699493408 0.109074950218200684 0.230891183018684387
0.053623683750629425 0.308859139680862427 0.220151782035827637
0.32729804515838623 0.184268996119499207 0.281015157699584961
0.320612639188766479 0.148399949073791504 0.263642370700836182
0.304523050785064697 0.198631227016448975 0.27758064866065979
0.372501641511917114 0.208479776978492737 0.309353440999984741
0.255719691514968872 0.120980851352214813 0.225956127047538757
0.311188042163848877 0.175355628132820129 0.270799398422241211
0.177378192543983459 0.184859886765480042 0.220051854848861694
0.431805253028869629 0.109852619469165802 0.293299674987792969
0.462139636278152466 0.152430355548858643 0.32306593656539917
