ply
format ascii 1.0
element vertex 782
property float x
property float y
property float z
end_header
11.8224315643310547 0.60000002384185791 0.202321156859397888
5.70662927627563477 0.60000002384185791 0.029607921838760376
10.1283092498779297 0.60000002384185791 0.0551262423396110535
11.3169021606445312 0.60000002384185791 0.0813789516687393188
9.50185298919677734 0.60000002384185791 0.000600650906562805176
12.9205198287963867 0.60000002384185791 0.143159821629524231
12.9595727920532227 0.60000002384185791 0.240897953510284424
9.62991714477539062 0.60000002384185791 0.0762662962079048157
10.1677436828613281 0.60000002384185791 0.11566171795129776
6.97776126861572266 0.60000002384185791 0.0331306010484695435
7.71718883514404297 0.60000002384185791 0.00548979640007019043
10.2532920837402344 0.60000002384185791 0.0234812051057815552
3.16865730285644531 0.60000002384185791 0.0328533202409744263
8.10736656188964844 0.60000002384185791 0.0654250010848045349
11.3557882308959961 0.60000002384185791 0.045365065336227417
6.72993326187133789 0.60000002384185791 0.104766890406608582
5.82475042343139648 0.60000002384185791 0.124369651079177856
11.4008493423461914 0.60000002384185791 0.102261677384376526
1.31427574157714844 0.60000002384185791 0.0110211372375488281
5.86737060546875 0.60000002384185791 0.00890041887760162354
8.92831611633300781 0.60000002384185791 0.0889281406998634338
8.46613025665283203 0.60000002384185791 0.154838025569915771
12.0525903701782227 0.60000002384185791 0.227940663695335388
12.9780054092407227 0.60000002384185791 0.264775007963180542
11.1588153839111328 0.60000002384185791 0.0898418277502059937
2.28057479858398438 0.60000002384185791 0.0322397500276565552
8.91040229797363281 0.60000002384185791 0.0113178864121437073
11.6288299560546875 0.60000002384185791 0.189119666814804077
10.3065786361694336 0.60000002384185791 0.0551849380135536194
11.1762847900390625 0.60000002384185791 0.0722223967313766479
8.53898715972900391 0.60000002384185791 0.147913992404937744
10.2401065826416016 0.60000002384185791 0.136083006858825684
2.54812335968017578 0.60000002384185791 0.00179493427276611328
2.88607501983642578 0.60000002384185791 0.0304370373487472534
8.01490592956542969 0.60000002384185791 0.0531992688775062561
4.19291782379150391 0.60000002384185791 0.0558332502841949463
9.24325752258300781 0.60000002384185791 0.169862300157546997
12.8834228515625 0.60000002384185791 0.0920238196849822998
12.7795705795288086 0.60000002384185791 0.134275257587432861
6.86199665069580078 0.60000002384185791 0.034363672137260437
13.3530464172363281 0.60000002384185791 0.000413120724260807037
4.35660934448242188 0.60000002384185791 0.00654546916484832764
9.63450813293457031 0.60000002384185791 0.0270290076732635498
8.35648536682128906 0.60000002384185791 0.117826439440250397
3.56634235382080078 0.60000002384185791 0.0165459662675857544
10.6312885284423828 0.60000002384185791 0.21076318621635437
12.3308191299438477 0.60000002384185791 0.0976500287652015686
12.0474271774291992 0.60000002384185791 0.129243522882461548
7.41191387176513672 0.60000002384185791 0.0648731440305709839
11.7619695663452148 0.60000002384185791 0.126589596271514893
6.57745885848999023 0.60000002384185791 0.0988447070121765137
10.1631336212158203 0.60000002384185791 0.130084916949272156
2.85562801361083984 0.60000002384185791 0.00738821923732757568
1.84515285491943359 0.60000002384185791 0.00318062305450439453
7.38471031188964844 0.60000002384185791 0.044352412223815918
13.1444025039672852 0.60000002384185791 0.0658161863684654236
9.786285400390625 0.60000002384185791 0.0682885795831680298
7.93741846084594727 0.60000002384185791 0.150483176112174988
6.23663473129272461 0.60000002384185791 0.0352778583765029907
6.70053243637084961 0.60000002384185791 0.0948916822671890259
12.0593547821044922 0.60000002384185791 0.0115248486399650574
11.2643594741821289 0.60000002384185791 0.139040127396583557
10.5842771530151367 0.60000002384185791 0.107556678354740143
4.42601203918457031 0.60000002384185791 0.0277792811393737793
11.1290760040283203 0.60000002384185791 0.0583157949149608612
11.119044303894043 0.60000002384185791 0.237677872180938721
3.51753520965576172 0.60000002384185791 0.0621004700660705566
11.6728086471557617 0.60000002384185791 0.143308892846107483
4.66132450103759766 0.60000002384185791 0.0672159641981124878
11.9041385650634766 0.60000002384185791 0.199463352560997009
11.8936185836791992 0.60000002384185791 0.0125010907649993896
7.16630840301513672 0.60000002384185791 0.00718419253826141357
10.8202018737792969 0.60000002384185791 0.00326236337423324585
10.9566936492919922 0.60000002384185791 0.233243688941001892
11.4916305541992188 0.60000002384185791 0.241680547595024109
6.26269435882568359 0.60000002384185791 0.0863628089427947998
12.2104043960571289 0.60000002384185791 0.0726846903562545776
9.74714851379394531 0.60000002384185791 0.1999245285987854
7.67633342742919922 0.60000002384185791 0.0500010550022125244
11.1242542266845703 0.60000002384185791 0.201084554195404053
12.18218994140625 0.60000002384185791 0.109457820653915405
7.80219793319702148 0.60000002384185791 0.170079216361045837
11.4417896270751953 0.60000002384185791 0.185922607779502869
11.4382305145263672 0.60000002384185791 0.202714294195175171
4.49654960632324219 0.60000002384185791 0.0528209507465362549
2.76134967803955078 0.60000002384185791 0.0409621298313140869
9.96352386474609375 0.60000002384185791 0.0447161197662353516
1.40500736236572266 0.60000002384185791 0.00452935695648193359
6.94336891174316406 0.60000002384185791 0.0457962453365325928
8.40484046936035156 0.60000002384185791 0.113224796950817108
11.9396934509277344 0.60000002384185791 0.261540442705154419
8.04498958587646484 0.60000002384185791 0.148941248655319214
6.54342460632324219 0.60000002384185791 0.100304931402206421
4.18961715698242188 0.60000002384185791 0.0452992469072341919
12.7098979949951172 0.60000002384185791 0.0438779667019844055
11.9845809936523438 0.60000002384185791 0.0321780703961849213
8.96099281311035156 0.60000002384185791 0.012597106397151947
10.05963134765625 0.60000002384185791 0.0389356091618537903
9.41751480102539062 0.60000002384185791 0.0566021054983139038
13.4854907989501953 0.60000002384185791 0.213423669338226318
7.63748598098754883 0.60000002384185791 0.0549870282411575317
7.35079145431518555 0.60000002384185791 0.0611312240362167358
6.26758813858032227 0.60000002384185791 0.00835889577865600586
9.98474597930908203 0.60000002384185791 0.0304344594478607178
5.52106189727783203 0.60000002384185791 0.0325210839509963989
4.32732963562011719 0.60000002384185791 0.0722661018371582031
9.69482994079589844 0.60000002384185791 0.132030665874481201
6.40609121322631836 0.60000002384185791 0.092170417308807373
10.5582447052001953 0.60000002384185791 0.224649488925933838
2.75811862945556641 0.60000002384185791 0.028663143515586853
10.3605632781982422 0.60000002384185791 0.220576658844947815
11.1259613037109375 0.60000002384185791 0.202576309442520142
10.9939985275268555 0.60000002384185791 0.141019716858863831
7.36729097366333008 0.60000002384185791 0.028895154595375061
7.9733428955078125 0.60000002384185791 0.0092169344425201416
9.60845947265625 0.60000002384185791 0.188376009464263916
12.2968788146972656 0.60000002384185791 0.165396317839622498
12.4081020355224609 0.60000002384185791 0.180586695671081543
12.8597049713134766 0.60000002384185791 0.0702355951070785522
12.1986627578735352 0.60000002384185791 0.0500029288232326508
8.98436355590820312 0.60000002384185791 0.0780213102698326111
12.5121803283691406 0.60000002384185791 0.213550865650177002
11.7951698303222656 0.60000002384185791 0.075862586498260498
13.1694259643554688 0.60000002384185791 0.228599652647972107
11.608428955078125 0.60000002384185791 0.229147210717201233
12.1780385971069336 0.60000002384185791 0.0707337185740470886
10.1406946182250977 0.60000002384185791 0.173531651496887207
6.40094137191772461 0.60000002384185791 0.0528850704431533813
12.1834554672241211 0.60000002384185791 0.0720092877745628357
4.77570247650146484 0.60000002384185791 0.0247860252857208252
9.14754676818847656 0.60000002384185791 0.121073193848133087
9.13883590698242188 0.60000002384185791 0.0240747630596160889
8.51467609405517578 0.60000002384185791 0.093356497585773468
8.01821708679199219 0.60000002384185791 0.075922645628452301
11.6043128967285156 0.60000002384185791 0.0565058253705501556
11.9544239044189453 0.60000002384185791 0.189420431852340698
10.6180267333984375 0.60000002384185791 0.164834678173065186
9.04858970642089844 0.60000002384185791 0.0443527773022651672
10.9440097808837891 0.60000002384185791 0.162868469953536987
10.6875448226928711 0.60000002384185791 0.037679523229598999
6.63275909423828125 0.60000002384185791 0.0234689116477966309
11.6288881301879883 0.60000002384185791 0.0102864615619182587
5.20748805999755859 0.60000002384185791 0.00144280493259429932
9.51335334777832031 0.60000002384185791 0.139706969261169434
11.9312524795532227 0.60000002384185791 0.0899989306926727295
7.17178583145141602 0.60000002384185791 0.0396028310060501099
4.80973148345947266 0.60000002384185791 0.0659963786602020264
2.63030052185058594 0.60000002384185791 0.0337477177381515503
6.03535890579223633 0.60000002384185791 0.0748779028654098511
10.3053073883056641 0.60000002384185791 0.212831482291221619
6.32620811462402344 0.60000002384185791 0.0684682726860046387
8.98297691345214844 0.60000002384185791 0.0497346669435501099
9.57036399841308594 0.60000002384185791 0.0457159429788589478
11.3781318664550781 0.60000002384185791 0.105220213532447815
12.4579563140869141 0.60000002384185791 0.00358190573751926422
9.78682518005371094 0.60000002384185791 0.115382976830005646
5.07591056823730469 0.60000002384185791 0.029658585786819458
9.90720367431640625 0.60000002384185791 0.21559944748878479
10.844818115234375 0.60000002384185791 0.0906691998243331909
2.35104560852050781 0.60000002384185791 0.00560143589973449707
7.46646642684936523 0.60000002384185791 0.0368726402521133423
7.79693984985351562 0.60000002384185791 0.0350248366594314575
6.28385829925537109 0.60000002384185791 0.0256625711917877197
10.9352827072143555 0.60000002384185791 0.038750283420085907
7.13082504272460938 0.60000002384185791 0.00114688277244567871
6.8299098014831543 0.60000002384185791 0.130930036306381226
10.0118589401245117 0.60000002384185791 0.106316223740577698
10.9780454635620117 0.60000002384185791 0.0151924826204776764
11.3648872375488281 0.60000002384185791 0.0467738844454288483
9.75049304962158203 0.60000002384185791 0.113482199609279633
10.2135963439941406 0.60000002384185791 0.203856855630874634
12.7356281280517578 0.60000002384185791 0.233651235699653625
9.19344520568847656 0.60000002384185791 0.0482590347528457642
12.3034706115722656 0.60000002384185791 0.0892482176423072815
2.64525604248046875 0.60000002384185791 0.0219889432191848755
8.56125068664550781 0.60000002384185791 0.0100745931267738342
10.4645595550537109 0.60000002384185791 0.10228341817855835
9.23389053344726562 0.60000002384185791 0.0288656428456306458
3.71734333038330078 0.60000002384185791 0.00830119848251342773
12.4012355804443359 0.60000002384185791 0.227408856153488159
13.5226755142211914 0.60000002384185791 0.269405215978622437
12.7342205047607422 0.60000002384185791 0.270691126585006714
11.8127269744873047 0.60000002384185791 0.15936751663684845
6.13989543914794922 0.60000002384185791 0.100739672780036926
9.08549213409423828 0.60000002384185791 0.0211380273103713989
11.4191579818725586 0.60000002384185791 0.0822363346815109253
7.51815176010131836 0.60000002384185791 0.0811414718627929688
8.94141292572021484 0.60000002384185791 0.0308970510959625244
9.65976047515869141 0.60000002384185791 0.0795386284589767456
7.88571643829345703 0.60000002384185791 0.108226731419563293
7.01743650436401367 0.60000002384185791 0.139350622892379761
10.5922527313232422 0.60000002384185791 0.227683082222938538
13.1840877532958984 0.60000002384185791 0.277942359447479248
11.6492700576782227 0.60000002384185791 0.252703934907913208
8.25915145874023438 0.60000002384185791 0.000534668564796447754
3.75376510620117188 0.60000002384185791 0.0812830179929733276
13.3155202865600586 0.60000002384185791 0.201316341757774353
10.3999109268188477 0.60000002384185791 0.213411241769790649
4.89410972595214844 0.60000002384185791 0.0305054187774658203
12.8339223861694336 0.60000002384185791 0.23334464430809021
7.6368865966796875 0.60000002384185791 0.138531237840652466
13.2631349563598633 0.60000002384185791 0.164890527725219727
12.2259912490844727 0.60000002384185791 0.160325944423675537
11.0738515853881836 0.60000002384185791 0.198231592774391174
4.70698165893554688 0.60000002384185791 3.26037406921386719e-05
2.75181102752685547 0.60000002384185791 0.0197297930717468262
6.66669702529907227 0.60000002384185791 0.0113769620656967163
11.7828464508056641 0.60000002384185791 0.253227561712265015
11.6748809814453125 0.60000002384185791 0.181759059429168701
10.7721099853515625 0.60000002384185791 0.0859138593077659607
10.1303348541259766 0.60000002384185791 0.206376060843467712
11.7175178527832031 0.60000002384185791 0.0181348994374275208
11.443781852722168 0.60000002384185791 0.0380030274391174316
9.38274478912353516 0.60000002384185791 0.00323639810085296631
9.79057788848876953 0.60000002384185791 0.0592618286609649658
12.3662939071655273 0.60000002384185791 0.0401145070791244507
11.7447071075439453 0.60000002384185791 0.145142123103141785
1.12214803695678711 0.60000002384185791 0.281693100929260254
8.79672527313232422 0.60000002384185791 0.246599987149238586
1.5268409252166748 0.60000002384185791 0.0585057437419891357
5.56586313247680664 0.60000002384185791 0.262307524681091309
6.73324298858642578 0.60000002384185791 0.23897726833820343
2.58949851989746094 0.60000002384185791 0.220713227987289429
2.08117341995239258 0.60000002384185791 0.0878362357616424561
3.07628679275512695 0.60000002384185791 0.257572412490844727
3.26614284515380859 0.60000002384185791 0.196864783763885498
8.45825958251953125 0.60000002384185791 0.223471805453300476
5.22745943069458008 0.60000002384185791 0.159186378121376038
0.109608814120292664 0.60000002384185791 0.275161772966384888
6.46755695343017578 0.60000002384185791 0.279641002416610718
9.16037750244140625 0.60000002384185791 0.282705485820770264
8.32083702087402344 0.60000002384185791 0.294380903244018555
11.0064210891723633 0.60000002384185791 0.262441396713256836
9.00274276733398438 0.60000002384185791 0.204652220010757446
4.69525432586669922 0.60000002384185791 0.26197659969329834
0.767491519451141357 0.60000002384185791 0.295519739389419556
6.07375812530517578 0.60000002384185791 0.208759278059005737
5.22617816925048828 0.60000002384185791 0.176714450120925903
0.591571807861328125 0.60000002384185791 0.13749164342880249
0.146248593926429749 0.60000002384185791 0.0807008892297744751
2.80499768257141113 0.60000002384185791 0.151534348726272583
2.1747126579284668 0.60000002384185791 0.202351003885269165
1.25872159004211426 0.60000002384185791 0.159463614225387573
6.31098175048828125 0.60000002384185791 0.253036797046661377
5.68999671936035156 0.60000002384185791 0.259332865476608276
6.26817464828491211 0.60000002384185791 0.235746860504150391
0.424311518669128418 0.60000002384185791 0.0382768809795379639
6.41952848434448242 0.60000002384185791 0.141902327537536621
0.487345963716506958 0.60000002384185791 0.0212414562702178955
6.60872125625610352 0.60000002384185791 0.159614428877830505
4.0843052864074707 0.60000002384185791 0.276378333568572998
7.86079311370849609 0.60000002384185791 0.253254055976867676
0.129242375493049622 0.60000002384185791 0.102723389863967896
10.7373437881469727 0.60000002384185791 0.278035938739776611
1.61087632179260254 0.60000002384185791 0.0699169635772705078
8.99653530120849609 0.60000002384185791 0.276512682437896729
0.727362513542175293 0.60000002384185791 0.263616234064102173
3.09373211860656738 0.60000002384185791 0.17356717586517334
0.782985210418701172 0.60000002384185791 0.228479892015457153
11.3790454864501953 0.60000002384185791 0.284058541059494019
7.72183895111083984 0.60000002384185791 0.275626152753829956
10.9368057250976562 0.60000002384185791 0.24762311577796936
3.10983848571777344 0.60000002384185791 0.139192864298820496
2.14114856719970703 0.60000002384185791 0.103636935353279114
7.56827020645141602 0.60000002384185791 0.181465521454811096
4.51785469055175781 0.60000002384185791 0.216321885585784912
4.07500410079956055 0.60000002384185791 0.103691965341567993
4.64226388931274414 0.60000002384185791 0.131263673305511475
8.48335647583007812 0.60000002384185791 0.297815054655075073
0.0835259780287742615 0.60000002384185791 0.214613646268844604
8.67731666564941406 0.60000002384185791 0.291318118572235107
2.73463797569274902 0.60000002384185791 0.0975747108459472656
2.29096627235412598 0.60000002384185791 0.0610877275466918945
3.43336653709411621 0.60000002384185791 0.139779910445213318
10.6050539016723633 0.60000002384185791 0.250106126070022583
8.87164497375488281 0.60000002384185791 0.255893349647521973
6.47646665573120117 0.60000002384185791 0.238581284880638123
5.886688232421875 0.60000002384185791 0.2143746018409729
1.15758049488067627 0.60000002384185791 0.0855339914560317993
2.62224102020263672 0.60000002384185791 0.288859754800796509
5.13299226760864258 0.60000002384185791 0.169835522770881653
3.22751140594482422 0.60000002384185791 0.296498954296112061
12.3607301712036133 0.60000002384185791 0.298474162817001343
4.47094202041625977 0.60000002384185791 0.232961773872375488
4.84911918640136719 0.60000002384185791 0.15326179563999176
7.13784694671630859 0.60000002384185791 0.191728368401527405
0.872834146022796631 0.60000002384185791 0.0715623050928115845
6.10275793075561523 0.60000002384185791 0.267149955034255981
2.46282768249511719 0.60000002384185791 0.145679622888565063
0.924158155918121338 0.60000002384185791 0.24400840699672699
2.92860841751098633 0.60000002384185791 0.0735085755586624146
0.941631674766540527 0.60000002384185791 0.0548917800188064575
2.47930622100830078 0.60000002384185791 0.294390648603439331
1.60568952560424805 0.60000002384185791 0.143823385238647461
5.43023538589477539 0.60000002384185791 0.218380331993103027
3.65260910987854004 0.60000002384185791 0.231617793440818787
3.62429404258728027 0.60000002384185791 0.285777121782302856
2.58122515678405762 0.60000002384185791 0.0970990806818008423
1.92682993412017822 0.60000002384185791 0.218412294983863831
9.4733123779296875 0.60000002384185791 0.237833023071289062
0.417102634906768799 0.60000002384185791 0.0713056474924087524
7.61011600494384766 0.60000002384185791 0.240302801132202148
5.4873499870300293 0.60000002384185791 0.281829386949539185
12.4135103225708008 0.60000002384185791 0.2987804114818573
5.13020467758178711 0.60000002384185791 0.119275122880935669
6.71231985092163086 0.60000002384185791 0.297387272119522095
0.0801658928394317627 0.60000002384185791 0.0477965474128723145
1.88449978828430176 0.60000002384185791 0.101842284202575684
5.36106157302856445 0.60000002384185791 0.17554163932800293
3.86928486824035645 0.60000002384185791 0.285345494747161865
1.90273213386535645 0.60000002384185791 0.207464694976806641
6.30839681625366211 0.60000002384185791 0.214373931288719177
0.957309901714324951 0.60000002384185791 0.227149248123168945
1.34653556346893311 0.60000002384185791 0.20979723334312439
6.03711557388305664 0.60000002384185791 0.200462818145751953
1.95340168476104736 0.60000002384185791 0.209715038537979126
5.48663425445556641 0.60000002384185791 0.278574585914611816
3.78558635711669922 0.60000002384185791 0.175395548343658447
3.30430960655212402 0.60000002384185791 0.171660616993904114
0.863589763641357422 0.60000002384185791 0.114578500390052795
1.37279093265533447 0.60000002384185791 0.22219046950340271
0.0356097742915153503 0.60000002384185791 0.203345775604248047
0.183631792664527893 0.60000002384185791 0.119199305772781372
8.1175537109375 0.60000002384185791 0.283659458160400391
2.34305906295776367 0.60000002384185791 0.290607154369354248
0.405767202377319336 0.60000002384185791 0.216883435845375061
6.0334477424621582 0.60000002384185791 0.253312468528747559
6.256866455078125 0.60000002384185791 0.257737666368484497
8.71459770202636719 0.60000002384185791 0.28855249285697937
4.39971017837524414 0.60000002384185791 0.258951932191848755
2.00457000732421875 0.60000002384185791 0.0718704760074615479
8.34230136871337891 0.60000002384185791 0.192772597074508667
7.35073471069335938 0.60000002384185791 0.185888737440109253
9.63806438446044922 0.60000002384185791 0.285345584154129028
5.29813385009765625 0.60000002384185791 0.158430904150009155
3.51284098625183105 0.60000002384185791 0.162618786096572876
0.582103908061981201 0.60000002384185791 0.0510868579149246216
5.62676668167114258 0.60000002384185791 0.194718986749649048
0.764179050922393799 0.60000002384185791 0.279702991247177124
5.30731058120727539 0.60000002384185791 0.124414578080177307
8.03431034088134766 0.60000002384185791 0.185593098402023315
10.6205158233642578 0.60000002384185791 0.288680583238601685
6.93802213668823242 0.60000002384185791 0.278468072414398193
7.98650264739990234 0.60000002384185791 0.187106847763061523
1.0610041618347168 0.60000002384185791 0.13978971540927887
1.18479108810424805 0.60000002384185791 0.121288329362869263
8.13805198669433594 0.60000002384185791 0.256590306758880615
6.84573841094970703 0.60000002384185791 0.163256734609603882
9.07507896423339844 0.60000002384185791 0.279017418622970581
0.749777674674987793 0.60000002384185791 0.0385000109672546387
9.65340232849121094 0.60000002384185791 0.272057086229324341
3.8832404613494873 0.60000002384185791 0.265016913414001465
2.73431158065795898 0.60000002384185791 0.152901917695999146
4.66565990447998047 0.60000002384185791 0.13059370219707489
5.95250082015991211 0.60000002384185791 0.166863903403282166
0.751125097274780273 0.60000002384185791 0.17940172553062439
6.78971195220947266 0.60000002384185791 0.191380828619003296
2.35679745674133301 0.60000002384185791 0.177804142236709595
4.86647319793701172 0.60000002384185791 0.164860233664512634
3.95391178131103516 0.60000002384185791 0.146574586629867554
5.44082975387573242 0.60000002384185791 0.222901791334152222
7.2545933723449707 0.60000002384185791 0.222952455282211304
4.06753158569335938 0.60000002384185791 0.158170461654663086
4.31709051132202148 0.60000002384185791 0.288277804851531982
4.86183691024780273 0.60000002384185791 0.191939026117324829
1.49481010437011719 0.60000002384185791 0.219866693019866943
9.59955406188964844 0.60000002384185791 0.293752402067184448
1.51867091655731201 0.60000002384185791 0.0603631138801574707
4.05849695205688477 0.60000002384185791 0.145777434110641479
0.927447199821472168 0.60000002384185791 0.0705076754093170166
7.70662689208984375 0.60000002384185791 0.276941806077957153
1.08038175106048584 0.60000002384185791 0.239532485604286194
0.977708756923675537 0.60000002384185791 0.230544716119766235
8.75373744964599609 0.60000002384185791 0.208829477429389954
6.54211950302124023 0.60000002384185791 0.233824491500854492
4.39376592636108398 0.60000002384185791 0.121748179197311401
3.30500316619873047 0.60000002384185791 0.12749132513999939
0.60391998291015625 0.60000002384185791 0.287595450878143311
11.4575386047363281 0.60000002384185791 0.265688776969909668
3.33292150497436523 0.60000002384185791 0.0818482339382171631
9.74378490447998047 0.60000002384185791 0.247770890593528748
2.8780825138092041 0.60000002384185791 0.0964711755514144897
0.158170878887176514 0.60000002384185791 0.0244747400283813477
7.35653209686279297 0.60000002384185791 0.205958545207977295
1.22181367874145508 0.60000002384185791 0.206302270293235779
1.16630887985229492 0.60000002384185791 0.29991564154624939
6.26357173919677734 0.60000002384185791 0.173761680722236633
9.02324008941650391 0.60000002384185791 0.281010210514068604
1.20775687694549561 0.60000002384185791 0.0972473174333572388
4.24078035354614258 0.60000002384185791 0.227715998888015747
4.85595035552978516 0.60000002384185791 0.235185742378234863
3.79246401786804199 0.60000002384185791 0.280877351760864258
3.71892881393432617 0.60000002384185791 0.181101769208908081
5.65628242492675781 0.60000002384185791 0.136850029230117798
8.15595436096191406 0.60000002384185791 0.240233853459358215
6.80619621276855469 0.60000002384185791 0.156717896461486816
9.42193126678466797 0.60000002384185791 0.228787094354629517
11.522639274597168 0.60000002384185791 0.292427986860275269
6.95123434066772461 0.60000002384185791 0.225518390536308289
4.72279071807861328 0.60000002384185791 0.138023838400840759
9.45349597930908203 0.60000002384185791 0.218249455094337463
2.46116781234741211 0.60000002384185791 0.248509868979454041
0.489635944366455078 0.60000002384185791 0.231025785207748413
7.1464686393737793 0.60000002384185791 0.248379930853843689
0.655192434787750244 0.60000002384185791 0.0157790184020996094
2.17227029800415039 0.60000002384185791 0.1135721355676651
6.07142066955566406 0.60000002384185791 0.146375358104705811
2.77936244010925293 0.60000002384185791 0.117233619093894958
1.43076777458190918 0.60000002384185791 0.0554464459419250488
12.3744955062866211 0.60000002384185791 0.27262386679649353
7.73575592041015625 0.60000002384185791 0.200038552284240723
11.0857563018798828 0.60000002384185791 0.266080737113952637
2.9468235969543457 0.60000002384185791 0.280577361583709717
5.27716398239135742 0.60000002384185791 0.21457335352897644
2.13300776481628418 0.60000002384185791 0.223703846335411072
8.65991878509521484 0.60000002384185791 0.208250939846038818
1.10971713066101074 0.60000002384185791 0.05152931809425354
2.60833430290222168 0.60000002384185791 0.210892438888549805
10.5920143127441406 0.60000002384185791 0.283517956733703613
2.04305458068847656 0.60000002384185791 0.271522253751754761
3.2806401252746582 0.60000002384185791 0.196604877710342407
5.75936174392700195 0.60000002384185791 0.171934232115745544
7.33545827865600586 0.60000002384185791 0.217182785272598267
3.52569341659545898 0.60000002384185791 0.10458354651927948
1.67031824588775635 0.60000002384185791 0.14236663281917572
1.26780498027801514 0.60000002384185791 0.180426314473152161
5.81164121627807617 0.60000002384185791 0.150158986449241638
0.696321249008178711 0.60000002384185791 0.262352049350738525
4.06885480880737305 0.60000002384185791 0.170090198516845703
0.0576430708169937134 0.60000002384185791 0.110990345478057861
0.334061235189437866 0.60000002384185791 0.232656717300415039
0.430598080158233643 0.60000002384185791 0.234749168157577515
3.37570524215698242 0.60000002384185791 0.255075395107269287
0.937476217746734619 0.60000002384185791 0.0567974597215652466
4.1854853630065918 0.60000002384185791 0.11374644935131073
2.66260623931884766 0.60000002384185791 0.226725861430168152
2.80693173408508301 0.60000002384185791 0.0711015015840530396
5.93256902694702148 0.60000002384185791 0.197256267070770264
8.16411685943603516 0.60000002384185791 0.220765531063079834
0.149813950061798096 0.60000002384185791 0.0853014886379241943
0.300756365060806274 0.60000002384185791 0.0251538753509521484
0.131150633096694946 0.60000002384185791 0.0944465547800064087
6.80544137954711914 0.60000002384185791 0.282092630863189697
3.08180475234985352 0.60000002384185791 0.135404020547866821
7.68823528289794922 0.60000002384185791 0.295339733362197876
2.74672627449035645 0.60000002384185791 0.0856054872274398804
1.46439158916473389 0.60000002384185791 0.086832091212272644
8.62484169006347656 0.60000002384185791 0.293756157159805298
6.45159339904785156 0.60000002384185791 0.260887175798416138
2.83189916610717773 0.60000002384185791 0.0703394114971160889
5.61942529678344727 0.60000002384185791 0.178750783205032349
9.53339576721191406 0.60000002384185791 0.287183135747909546
1.0241628885269165 0.60000002384185791 0.211751163005828857
12.3962869644165039 0.60000002384185791 0.291704177856445312
0.0178884044289588928 0.60000002384185791 0.222462311387062073
0.655847489833831787 0.60000002384185791 0.13832758367061615
6.27813959121704102 0.60000002384185791 0.224090665578842163
4.50784111022949219 0.60000002384185791 0.236432909965515137
12.6097726821899414 0.60000002384185791 0.286355823278427124
6.16330528259277344 0.60000002384185791 0.195337146520614624
10.8403520584106445 0.60000002384185791 0.283893167972564697
8.59904098510742188 0.60000002384185791 0.234986692667007446
1.79858696460723877 0.60000002384185791 0.0561932176351547241
1.43370437622070312 0.60000002384185791 0.273225486278533936
0.592863619327545166 0.60000002384185791 0.279342085123062134
0.400476723909378052 0.60000002384185791 0.201696574687957764
4.10605764389038086 0.60000002384185791 0.0950984358787536621
6.57629823684692383 0.60000002384185791 0.276544004678726196
6.19452714920043945 0.60000002384185791 0.190077334642410278
0.396714717149734497 0.60000002384185791 0.115139544010162354
5.04468488693237305 0.60000002384185791 0.188571229577064514
3.48802995681762695 0.60000002384185791 0.146802723407745361
5.02508211135864258 0.60000002384185791 0.110747694969177246
5.79524898529052734 0.60000002384185791 0.15439431369304657
2.05070137977600098 0.60000002384185791 0.110685795545578003
5.24722814559936523 0.60000002384185791 0.239786624908447266
11.2167806625366211 0.60000002384185791 0.264295667409896851
1.33713638782501221 0.60000002384185791 0.186078399419784546
4.1794281005859375 0.60000002384185791 0.19835132360458374
3.8258519172668457 0.60000002384185791 0.111096426844596863
3.00133800506591797 0.60000002384185791 0.289881378412246704
12.3693428039550781 0.60000002384185791 0.279487520456314087
0.566464841365814209 0.60000002384185791 0.142125755548477173
4.49075651168823242 0.60000002384185791 0.268129616975784302
10.7508697509765625 0.60000002384185791 0.283565342426300049
5.26446533203125 0.60000002384185791 0.161163419485092163
5.73262262344360352 0.60000002384185791 0.2537270188331604
8.52311515808105469 0.60000002384185791 0.24367956817150116
0.845597982406616211 0.60000002384185791 0.165689587593078613
6.08440685272216797 0.60000002384185791 0.240372776985168457
1.03019607067108154 0.60000002384185791 0.276727855205535889
4.50880527496337891 0.60000002384185791 0.164073288440704346
10.0656108856201172 0.60000002384185791 0.258723855018615723
2.49232602119445801 0.60000002384185791 0.0732566267251968384
0.66969454288482666 0.60000002384185791 0.211390674114227295
2.58394408226013184 0.60000002384185791 0.087037011981010437
1.31076323986053467 0.60000002384185791 0.119746118783950806
4.74676227569580078 0.60000002384185791 0.230383962392807007
3.28604531288146973 0.60000002384185791 0.163475394248962402
0.779266238212585449 0.60000002384185791 0.226895898580551147
7.61943960189819336 0.60000002384185791 0.241860628128051758
2.58066701889038086 0.60000002384185791 0.0716384202241897583
7.23105430603027344 0.60000002384185791 0.233839720487594604
6.22124290466308594 0.60000002384185791 0.189399302005767822
3.47089171409606934 0.60000002384185791 0.150710493326187134
3.50969052314758301 0.60000002384185791 0.246112138032913208
5.80704975128173828 0.60000002384185791 0.297474056482315063
8.27268791198730469 0.60000002384185791 0.280277609825134277
4.89240169525146484 0.60000002384185791 0.173584297299385071
0.223230794072151184 0.60000002384185791 0.205827996134757996
2.00463557243347168 0.60000002384185791 0.289336562156677246
1.16127943992614746 0.60000002384185791 0.0314689576625823975
12.924041748046875 0.60000002384185791 0.298896133899688721
0.426888585090637207 0.60000002384185791 0.0342263877391815186
1.85107052326202393 0.60000002384185791 0.238989531993865967
6.57574272155761719 0.60000002384185791 0.151362016797065735
6.39210414886474609 0.60000002384185791 0.19466128945350647
1.91919088363647461 0.60000002384185791 0.266581952571868896
7.55419063568115234 0.60000002384185791 0.254014134407043457
9.90384674072265625 0.60000002384185791 0.261752665042877197
5.2527613639831543 0.60000002384185791 0.201779454946517944
4.87336158752441406 0.60000002384185791 0.297549009323120117
2.84927678108215332 0.60000002384185791 0.231375604867935181
10.2329854965209961 0.60000002384185791 0.281459212303161621
1.37175357341766357 0.60000002384185791 0.0677618682384490967
2.68598556518554688 0.60000002384185791 0.17112770676612854
6.73426103591918945 0.60000002384185791 0.168107271194458008
3.62170219421386719 0.60000002384185791 0.29206472635269165
4.63341093063354492 0.60000002384185791 0.123686552047729492
1.64531922340393066 0.60000002384185791 0.278457939624786377
4.01769351959228516 0.60000002384185791 0.19034084677696228
0.446912109851837158 0.60000002384185791 0.0594250112771987915
7.79898786544799805 0.60000002384185791 0.275188684463500977
8.63679027557373047 0.60000002384185791 0.236615702509880066
1.3975447416305542 0.60000002384185791 0.291908562183380127
11.7524318695068359 0.60000002384185791 0.283886879682540894
0.654669821262359619 0.60000002384185791 0.0786096006631851196
10.4234962463378906 0.60000002384185791 0.265325039625167847
2.63695716857910156 0.60000002384185791 0.267510443925857544
0.561366796493530273 0.60000002384185791 0.0837619751691818237
4.40174245834350586 0.60000002384185791 0.109753131866455078
1.82922995090484619 0.60000002384185791 0.191722720861434937
12.516209602355957 0.60000002384185791 0.286387979984283447
0.776442468166351318 0.60000002384185791 0.281606405973434448
0.517037034034729004 0.60000002384185791 0.280995815992355347
0.139856144785881042 0.60000002384185791 0.126380905508995056
9.98443889617919922 0.60000002384185791 0.296996653079986572
2.20366859436035156 0.60000002384185791 0.212377652525901794
5.74419021606445312 0.60000002384185791 0.177626132965087891
2.57111907005310059 0.60000002384185791 0.155841246247291565
2.73278331756591797 0.60000002384185791 0.210360199213027954
1.40140438079833984 0.60000002384185791 0.0709968805313110352
2.35461616516113281 0.60000002384185791 0.16685129702091217
0.888177156448364258 0.60000002384185791 0.0330942869186401367
4.13959980010986328 0.60000002384185791 0.158936485648155212
1.40212321281433105 0.60000002384185791 0.246702998876571655
8.95757961273193359 0.60000002384185791 0.211645781993865967
4.43000650405883789 0.60000002384185791 0.282982140779495239
7.71280145645141602 0.60000002384185791 0.265614330768585205
0.194507956504821777 0.60000002384185791 0.128776133060455322
3.8611750602722168 0.60000002384185791 0.244269847869873047
10.2442617416381836 0.60000002384185791 0.261593282222747803
5.49596071243286133 0.60000002384185791 0.194284409284591675
3.30485820770263672 0.60000002384185791 0.234941661357879639
3.56483840942382812 0.60000002384185791 0.184951454401016235
0.49258992075920105 0.60000002384185791 0.111568734049797058
5.45481300354003906 0.60000002384185791 0.228786170482635498
1.51391732692718506 0.60000002384185791 0.0936614573001861572
1.35310637950897217 0.60000002384185791 0.21342507004737854
3.54189372062683105 0.60000002384185791 0.10321258008480072
1.1408684253692627 0.60000002384185791 0.0921161472797393799
1.64858102798461914 0.60000002384185791 0.19651205837726593
7.16958045959472656 0.60000002384185791 0.271399259567260742
7.18063259124755859 0.60000002384185791 0.203173637390136719
8.99925613403320312 0.60000002384185791 0.276593983173370361
5.76383876800537109 0.60000002384185791 0.150745987892150879
0.569551467895507812 0.60000002384185791 0.259626537561416626
6.0446782112121582 0.60000002384185791 0.255662024021148682
6.3258519172668457 0.60000002384185791 0.174503281712532043
1.7427603006362915 0.60000002384185791 0.229729056358337402
12.029052734375 0.60000002384185791 0.295836448669433594
0.329368054866790771 0.60000002384185791 0.0467605292797088623
11.0610637664794922 0.60000002384185791 0.272435486316680908
4.25800991058349609 0.60000002384185791 0.170604512095451355
0.351002514362335205 0.60000002384185791 0.0191413164138793945
0.288011848926544189 0.60000002384185791 0.265295714139938354
0.892933368682861328 0.60000002384185791 0.237602189183235168
5.1853795051574707 0.60000002384185791 0.297673225402832031
0.642614126205444336 0.60000002384185791 0.268820077180862427
4.64151191711425781 0.60000002384185791 0.275639474391937256
1.34139370918273926 0.60000002384185791 0.105016425251960754
3.58506488800048828 0.60000002384185791 0.130311936140060425
4.01524972915649414 0.60000002384185791 0.149885371327400208
0.356454014778137207 0.60000002384185791 0.237763896584510803
9.55196571350097656 0.60000002384185791 0.28091856837272644
7.4363102912902832 0.60000002384185791 0.170201122760772705
2.46048307418823242 0.60000002384185791 0.161831751465797424
0.19437815248966217 0.60000002384185791 0.0231041908264160156
12.465785026550293 0.60000002384185791 0.292023897171020508
1.37927937507629395 0.60000002384185791 0.142103120684623718
4.53635454177856445 0.60000002384185791 0.237720280885696411
2.56367945671081543 0.60000002384185791 0.280379295349121094
2.58440828323364258 0.60000002384185791 0.151680514216423035
3.7079308032989502 0.60000002384185791 0.118909269571304321
10.7127113342285156 0.60000002384185791 0.256955385208129883
6.50995063781738281 0.60000002384185791 0.179422900080680847
0.424536377191543579 0.60000002384185791 0.297437936067581177
2.82318592071533203 0.60000002384185791 0.213159859180450439
2.09480834007263184 0.60000002384185791 0.0520760715007781982
5.63398075103759766 0.60000002384185791 0.233629405498504639
5.91281366348266602 0.60000002384185791 0.205633729696273804
9.93904972076416016 0.60000002384185791 0.232408702373504639
3.08529877662658691 0.60000002384185791 0.144174858927726746
2.97133350372314453 0.60000002384185791 0.265452176332473755
3.66688776016235352 0.60000002384185791 0.272847384214401245
6.63495016098022461 0.60000002384185791 0.19809412956237793
2.14477849006652832 0.60000002384185791 0.243972063064575195
0.727733433246612549 0.60000002384185791 0.283857464790344238
3.03372383117675781 0.60000002384185791 0.0682591795921325684
7.7260894775390625 0.60000002384185791 0.210963070392608643
3.99968481063842773 0.60000002384185791 0.16038396954536438
1.11452937126159668 0.60000002384185791 0.032527536153793335
1.94476521015167236 0.60000002384185791 0.180925428867340088
0.62363123893737793 0.60000002384185791 0.290898621082305908
0.569162249565124512 0.60000002384185791 0.223063677549362183
10.1532297134399414 0.60000002384185791 0.22654394805431366
1.43843758106231689 0.60000002384185791 0.262445926666259766
2.9791257381439209 0.60000002384185791 0.13011699914932251
4.8412785530090332 0.60000002384185791 0.282913625240325928
2.72465133666992188 0.60000002384185791 0.0897361785173416138
10.3759841918945312 0.60000002384185791 0.250128984451293945
0.268860965967178345 0.60000002384185791 0.0106184482574462891
4.93819761276245117 0.60000002384185791 0.28702118992805481
11.6724824905395508 0.60000002384185791 0.263234943151473999
4.09254837036132812 0.60000002384185791 0.125592157244682312
9.28131484985351562 0.60000002384185791 0.226132288575172424
5.92153835296630859 0.60000002384185791 0.175178796052932739
9.67358779907226562 0.60000002384185791 0.251590728759765625
2.07208919525146484 0.60000002384185791 0.120930582284927368
0.944992423057556152 0.60000002384185791 0.0842344611883163452
0.572732150554656982 0.60000002384185791 0.0137234926223754883
7.45445966720581055 0.60000002384185791 0.205284833908081055
3.61985111236572266 0.60000002384185791 0.124669745564460754
3.80920791625976562 0.60000002384185791 0.21504230797290802
8.51014232635498047 0.60000002384185791 0.290487945079803467
1.0755690336227417 0.60000002384185791 0.0487981736660003662
6.50433635711669922 0.60000002384185791 0.264125287532806396
7.81407880783081055 0.60000002384185791 0.261569440364837646
0.828902363777160645 0.60000002384185791 0.234600543975830078
5.99599504470825195 0.60000002384185791 0.219987690448760986
8.84949111938476562 0.60000002384185791 0.196772366762161255
10.6271247863769531 0.60000002384185791 0.290653049945831299
8.24258136749267578 0.60000002384185791 0.266875743865966797
7.05835866928100586 0.60000002384185791 0.173900380730628967
4.13501977920532227 0.60000002384185791 0.111127942800521851
2.99383831024169922 0.60000002384185791 0.200368449091911316
8.96772098541259766 0.60000002384185791 0.296317070722579956
6.73929691314697266 0.60000002384185791 0.28881034255027771
2.53677535057067871 0.60000002384185791 0.0725368112325668335
7.96058940887451172 0.60000002384185791 0.257742404937744141
0.230500310659408569 0.60000002384185791 0.0813838988542556763
6.07831716537475586 0.60000002384185791 0.205002278089523315
1.05758106708526611 0.60000002384185791 0.250115126371383667
7.86062002182006836 0.60000002384185791 0.262574374675750732
3.62369823455810547 0.60000002384185791 0.181582063436508179
1.44890081882476807 0.60000002384185791 0.0442286431789398193
2.67457962036132812 0.60000002384185791 0.290744155645370483
5.50389480590820312 0.60000002384185791 0.20059695839881897
5.12142276763916016 0.60000002384185791 0.157815709710121155
3.94556546211242676 0.60000002384185791 0.242207527160644531
3.66997599601745605 0.60000002384185791 0.208997279405593872
8.15860176086425781 0.60000002384185791 0.271925628185272217
2.30035066604614258 0.60000002384185791 0.234423443675041199
6.54242467880249023 0.60000002384185791 0.237965583801269531
9.20526313781738281 0.60000002384185791 0.228669166564941406
0.0690751075744628906 0.60000002384185791 0.205751299858093262
5.18142366409301758 0.60000002384185791 0.240195959806442261
5.3165745735168457 0.60000002384185791 0.233089625835418701
2.91934895515441895 0.60000002384185791 0.1117066890001297
5.62914514541625977 0.60000002384185791 0.153289034962654114
10.3457937240600586 0.60000002384185791 0.291816174983978271
0.982205986976623535 0.60000002384185791 0.133640706539154053
3.09374594688415527 0.60000002384185791 0.203881621360778809
8.55487251281738281 0.60000002384185791 0.270267874002456665
0.16077461838722229 0.60000002384185791 0.131839275360107422
6.75600385665893555 0.60000002384185791 0.274248063564300537
11.1900768280029297 0.60000002384185791 0.256468653678894043
7.49959707260131836 0.60000002384185791 0.242651954293251038
1.95010757446289062 0.60000002384185791 0.2617226243019104
12.2740669250488281 0.60000002384185791 0.269935667514801025
6.45868682861328125 0.60000002384185791 0.202539265155792236
6.21724939346313477 0.60000002384185791 0.179444804787635803
7.68098688125610352 0.60000002384185791 0.284492373466491699
4.68692350387573242 0.60000002384185791 0.222597122192382812
3.35530185699462891 0.60000002384185791 0.116854190826416016
5.95837259292602539 0.60000002384185791 0.275410741567611694
1.3749011754989624 0.60000002384185791 0.156425788998603821
9.37513828277587891 0.60000002384185791 0.240183204412460327
7.00602197647094727 0.60000002384185791 0.287519156932830811
9.14055538177490234 0.60000002384185791 0.223215952515602112
2.75003433227539062 0.60000002384185791 0.126041695475578308
10.0581607818603516 0.60000002384185791 0.250073224306106567
7.02185869216918945 0.60000002384185791 0.214087903499603271
0.0500965118408203125 0.60000002384185791 0.0124624371528625488
3.60098481178283691 0.60000002384185791 0.126231953501701355
7.42367887496948242 0.60000002384185791 0.272764444351196289
3.25801920890808105 0.60000002384185791 0.203366905450820923
5.73601388931274414 0.60000002384185791 0.196176141500473022
0.113730266690254211 0.60000002384185791 0.274241477251052856
3.8053889274597168 0.60000002384185791 0.118605628609657288
6.81957864761352539 0.60000002384185791 0.235778898000717163
1.29824471473693848 0.60000002384185791 0.242074340581893921
10.7406368255615234 0.60000002384185791 0.29123222827911377
5.73643684387207031 0.60000002384185791 0.206419870257377625
6.07647562026977539 0.60000002384185791 0.15595400333404541
9.7013092041015625 0.60000002384185791 0.239819079637527466
1.84967124462127686 0.60000002384185791 0.115325510501861572
3.73423337936401367 0.60000002384185791 0.0914574265480041504
1.83918964862823486 0.60000002384185791 0.129885971546173096
5.2866826057434082 0.60000002384185791 0.186557173728942871
1.69810903072357178 0.60000002384185791 0.148375943303108215
5.98411893844604492 0.60000002384185791 0.168519780039787292
9.27319526672363281 0.60000002384185791 0.258605509996414185
5.55017280578613281 0.60000002384185791 0.195289552211761475
6.66391611099243164 0.60000002384185791 0.272706806659698486
4.1765131950378418 0.60000002384185791 0.163891792297363281
5.72790431976318359 0.60000002384185791 0.166992023587226868
0.674333870410919189 0.60000002384185791 0.0765111744403839111
2.8549044132232666 0.60000002384185791 0.142507344484329224
2.86557936668395996 0.60000002384185791 0.173169881105422974
0.652860581874847412 0.60000002384185791 0.0306423306465148926
0.418169498443603516 0.60000002384185791 0.266913533210754395
5.68775701522827148 0.60000002384185791 0.236569792032241821
1.69278037548065186 0.60000002384185791 0.251027584075927734
12.1400833129882812 0.60000002384185791 0.297559857368469238
2.26844167709350586 0.60000002384185791 0.253788024187088013
0.701505839824676514 0.60000002384185791 0.0306338071823120117
3.38033533096313477 0.60000002384185791 0.121461451053619385
9.27642440795898438 0.60000002384185791 0.250665873289108276
10.408879280090332 0.60000002384185791 0.229940414428710938
2.38079977035522461 0.60000002384185791 0.120085060596466064
9.33714199066162109 0.60000002384185791 0.263251304626464844
4.12180757522583008 0.60000002384185791 0.226870074868202209
5.69969320297241211 0.60000002384185791 0.204511240124702454
0.670891106128692627 0.60000002384185791 0.193871945142745972
0.756003677845001221 0.60000002384185791 0.098059922456741333
1.17262983322143555 0.60000002384185791 0.0715903639793395996
4.65605640411376953 0.60000002384185791 0.24933663010597229
7.20139884948730469 0.60000002384185791 0.176006168127059937
9.33715915679931641 0.60000002384185791 0.261756181716918945
4.02231884002685547 0.60000002384185791 0.286751806735992432
2.98359322547912598 0.60000002384185791 0.181080713868141174
1.65634000301361084 0.60000002384185791 0.224540039896965027
3.57502627372741699 0.60000002384185791 0.220848768949508667
2.90500664710998535 0.60000002384185791 0.224214911460876465
6.17599868774414062 0.60000002384185791 0.297002255916595459
4.64768600463867188 0.60000002384185791 0.148647606372833252
7.34352731704711914 0.60000002384185791 0.272322714328765869
12.9796600341796875 0.60000002384185791 0.291356772184371948
9.00218868255615234 0.60000002384185791 0.25933384895324707
5.62445735931396484 0.60000002384185791 0.276376426219940186
0.280162692070007324 0.60000002384185791 0.117512762546539307
12.131495475769043 0.60000002384185791 0.268039882183074951
2.40524697303771973 0.60000002384185791 0.277931332588195801
0.34033811092376709 0.60000002384185791 0.219366177916526794
6.37872552871704102 0.60000002384185791 0.232346653938293457
1.32887840270996094 0.60000002384185791 0.137303784489631653
4.91576433181762695 0.60000002384185791 0.111017033457756042
0.408882677555084229 0.60000002384185791 0.19054335355758667
0.0779116898775100708 0.60000002384185791 0.198279619216918945
11.6780452728271484 0.60000002384185791 0.270452409982681274
9.85974502563476562 0.60000002384185791 0.246478378772735596
0.692548573017120361 0.60000002384185791 0.0830564051866531372
0.772590100765228271 0.60000002384185791 0.0865696370601654053
5.57800197601318359 0.60000002384185791 0.290928363800048828
0.322296321392059326 0.60000002384185791 0.0326755940914154053
0.991854310035705566 0.60000002384185791 0.0726424455642700195
11.0804824829101562 0.60000002384185791 0.289986789226531982
4.55914402008056641 0.60000002384185791 0.283019751310348511
8.97140121459960938 0.60000002384185791 0.293940037488937378
6.16926813125610352 0.60000002384185791 0.141741141676902771
6.00816440582275391 0.60000002384185791 0.186453893780708313
