ply
format ascii 1.0
element vertex 852
property float x
property float y
property float z
end_header
5.10702591327572009e-15 0.950976848602294922 0.132061198353767395
5.10702591327572009e-15 0.186747342348098755 0.0768634676933288574
5.10702591327572009e-15 0.458241581916809082 0.0374312400817871094
5.10702591327572009e-15 0.0679708123207092285 0.108332082629203796
5.10702591327572009e-15 0.544587790966033936 0.0710604563355445862
5.10702591327572009e-15 0.901815474033355713 0.0819936096668243408
5.10702591327572009e-15 0.014782012440264225 0.117624029517173767
5.10702591327572009e-15 0.205967798829078674 0.0480447113513946533
5.10702591327572009e-15 1.75903213024139404 0.14774148166179657
5.10702591327572009e-15 0.963434159755706787 0.0733411982655525208
5.10702591327572009e-15 1.15142858028411865 0.102445341646671295
5.10702591327572009e-15 0.797944426536560059 0.139064520597457886
5.10702591327572009e-15 1.09456086158752441 0.140322253108024597
5.10702591327572009e-15 0.830107986927032471 0.0788337215781211853
5.10702591327572009e-15 1.86967062950134277 0.130083516240119934
5.10702591327572009e-15 0.674282252788543701 0.0862674117088317871
5.10702591327572009e-15 1.21146035194396973 0.142501607537269592
5.10702591327572009e-15 0.131780549883842468 0.12605634331703186
5.10702591327572009e-15 0.49073222279548645 0.0359761565923690796
5.10702591327572009e-15 0.330548733472824097 0.0880818963050842285
5.10702591327572009e-15 0.904933631420135498 0.0824650153517723083
5.10702591327572009e-15 0.115641191601753235 0.0772396102547645569
5.10702591327572009e-15 0.26807636022567749 0.110677182674407959
5.10702591327572009e-15 0.648758411407470703 0.108900859951972961
5.10702591327572009e-15 0.526513040065765381 0.0796738117933273315
5.10702591327572009e-15 0.104278407990932465 0.0597794875502586365
5.10702591327572009e-15 1.42377400398254395 0.122585348784923553
5.10702591327572009e-15 1.07596814632415771 0.1190013587474823
5.10702591327572009e-15 0.621551632881164551 0.147532105445861816
5.10702591327572009e-15 0.267959624528884888 0.0440193265676498413
5.10702591327572009e-15 0.857172310352325439 0.10293569415807724
5.10702591327572009e-15 0.0575605407357215881 0.0820417702198028564
5.10702591327572009e-15 0.0177940614521503448 0.121102578938007355
5.10702591327572009e-15 0.236548706889152527 0.131207048892974854
5.10702591327572009e-15 0.6212615966796875 0.117035232484340668
5.10702591327572009e-15 1.51067757606506348 0.10534745454788208
5.10702591327572009e-15 0.0411140322685241699 0.0640679597854614258
5.10702591327572009e-15 0.521050691604614258 0.0642995536327362061
5.10702591327572009e-15 1.00317239761352539 0.0957885533571243286
5.10702591327572009e-15 0.717149019241333008 0.0941116362810134888
5.10702591327572009e-15 2.04501914978027344 0.141770809888839722
5.10702591327572009e-15 0.189408689737319946 0.0816778242588043213
0.295879274606704712 0 0.0420698784291744232
0.519437968730926514 0 0.0246688835322856903
0.511539280414581299 0 0.0237787812948226929
0.068256378173828125 0 0.0312402918934822083
0.707950949668884277 0 0.0451751276850700378
0.0694761276245117188 0 0.0732921957969665527
0.378509044647216797 0 0.101369068026542664
0.690906941890716553 0 0.0581244975328445435
0.665196001529693604 0 0.0138035789132118225
0.224507778882980347 0 0.0577550828456878662
0.883884131908416748 0 0.0471312031149864197
1.11379122734069824 0 0.00169878453016281128
0.0769417211413383484 0 0.0725195258855819702
0.0477736331522464752 0 0.00120933819562196732
0.135407805442810059 0 0.00821882393211126328
0.0653805285692214966 0 0.109889820218086243
0.0624804385006427765 0 0.0266791041940450668
0.765940010547637939 0 0.00155160576105117798
0.588956773281097412 0 0.038125552237033844
1.05283677577972412 0 0.0347576290369033813
0.650828123092651367 0 0.0400116369128227234
0.365238994359970093 0 0.0198892280459403992
0.152833282947540283 0 0.0978132858872413635
0.81139296293258667 0 0.0481077283620834351
0.83935391902923584 0 0.0465516820549964905
0.116217799484729767 0 0.0236286241561174393
0.581113159656524658 0 0.0253749005496501923
0.728897273540496826 0 0.058150365948677063
0.456755489110946655 0 0.05258164182305336
0.0414252877235412598 0 0.04959879070520401
0.151391789317131042 0 0.0424962006509304047
0.341721117496490479 0 0.0792571082711219788
0.71474534273147583 0 0.069703228771686554
0.495486348867416382 0 0.00927965715527534485
0.0376437194645404816 0 0.0590420104563236237
0.402471810579299927 0 0.0357291214168071747
0.376263231039047241 0 0.0455928295850753784
0.157719880342483521 0 0.0429840311408042908
0.0944985225796699524 0 0.0701475068926811218
0.417344987392425537 0 0.0778729170560836792
0.0543933622539043427 0 0.0972335934638977051
1.21034300327301025 0 0.0199766457080841064
1.24259710311889648 0 0.00804305076599121094
0.0535006187856197357 0 0.102542988955974579
0.0587129443883895874 0 0.0372831001877784729
0.905096292495727539 0 0.00949723273515701294
0.0378124527633190155 0 0.111201740801334381
0.163019254803657532 0 0.00667958147823810577
0.485388308763504028 0 0.0726338401436805725
0.662176668643951416 0 0.0227051153779029846
0.896552860736846924 0 0.0118961706757545471
0.13605181872844696 0 0.0398468710482120514
0.329259306192398071 0 0.071842491626739502
0.279357701539993286 0 0.0294109638780355453
0.290842980146408081 0 0.0185259710997343063
0.398780912160873413 0 0.0676627755165100098
0.394034832715988159 0 0.0140398368239402771
0.0932114720344543457 0 0.0658993199467658997
1.05263650417327881 0 0.0103502720594406128
0.481745153665542603 0 0.059217553585767746
1.11578583717346191 0 0.0163978710770606995
0.222742348909378052 0 0.102058172225952148
0.270429641008377075 0 0.040869295597076416
0.214430078864097595 0 0.0640727430582046509
0.140595629811286926 0 0.12590453028678894
0.0661168769001960754 0 0.0587711408734321594
0.760629117488861084 0 0.0167270451784133911
0.408078163862228394 0 0.0794097781181335449
0.546118617057800293 0 0.0558772943913936615
0.549204111099243164 0 0.0246867239475250244
0.535068809986114502 0 0.0732990950345993042
1.21602082252502441 0 0.00850991904735565186
1.0155407190322876 0 0.00918884575366973877
0.497372448444366455 0 0.0239375494420528412
0.365545690059661865 0 0.0579143278300762177
0.0182327833026647568 0 0.0431901067495346069
0.326784878969192505 0 0.0360765568912029266
0.0925108790397644043 0 0.103162214159965515
0.362980097532272339 0 0.00984494388103485107
0.54407966136932373 0 0.0137544572353363037
0.777254998683929443 0 0.0137193575501441956
0.770965337753295898 0 0.000567175447940826416
0.586780726909637451 0 0.0398311689496040344
0.661908805370330811 0 0.0408838167786598206
0.187371626496315002 0 0.0298832319676876068
0.526838719844818115 0 0.0860842540860176086
0.645428597927093506 0 0.070338323712348938
1.36737740039825439 0 0.00163537263870239258
0.234262809157371521 0 0.00588408298790454865
0.477688759565353394 0 0.0584120787680149078
0.0382195524871349335 0 0.019230743870139122
0.77177739143371582 0 0.0523699298501014709
0.259373664855957031 0 0.10511896014213562
0.447025150060653687 0 0.098374977707862854
0.933601200580596924 0 0.00113336741924285889
0.81040722131729126 0 0.0139998346567153931
0.534305870532989502 0 0.0812528878450393677
1.12816739082336426 0 0.00109846144914627075
0.473422884941101074 0 0.0167169980704784393
0.111107297241687775 0 0.0570315681397914886
1.123313307762146 0 0.0206590518355369568
0.402246445417404175 0 0.0190840400755405426
0.793103277683258057 0 0.0214957818388938904
0.839763343334197998 0 0.0468879714608192444
0.177272036671638489 0 0.0796442478895187378
0.172981545329093933 0 0.0503186360001564026
0.677010834217071533 0 0.033020511269569397
0.632406532764434814 0 0.0521003082394599915
0.076309598982334137 0 0.0491595342755317688
0.441454052925109863 0 0.0934319347143173218
0.0550943426787853241 0 0.00594013463705778122
0.077963024377822876 0 0.117457129061222076
0.485242486000061035 0 0.072864241898059845
0.563408195972442627 0 0.0630879104137420654
0.271502107381820679 0 0.0660130679607391357
0.500252962112426758 0 0.0805191546678543091
0.642726659774780273 0 0.052260860800743103
0.775465250015258789 0 0.0354065895080566406
0.156066149473190308 0 0.113582216203212738
0.0200740545988082886 0 0.14184868335723877
0.286799967288970947 0 0.0475003719329833984
0.0380442999303340912 0 0.0198206380009651184
0.0642357617616653442 0 0.138191714882850647
0.55760502815246582 0 0.0827903822064399719
0.936853289604187012 0 0.0361590683460235596
0.0702068880200386047 0 0.0795477330684661865
0.100782237946987152 0 0.0482578575611114502
0.174584031105041504 0 0.0643096491694450378
0.090667724609375 0 0.127627164125442505
0.830662846565246582 0 0.00232101976871490479
0.683114111423492432 0 0.06877126544713974
0.586535274982452393 0 0.00818578898906707764
0.0160408280789852142 0 0.0240358728915452957
0.294213533401489258 0 0.0452342517673969269
0.495089173316955566 0 0.0578918904066085815
0.426650285720825195 0 0.0598073527216911316
1.00103962421417236 0 0.0327718034386634827
0.10789838433265686 0 0.0306047536432743073
0.493487417697906494 0 0.0800517797470092773
0.872376322746276855 0 0.0350331142544746399
0.570655763149261475 0 0.0202952511608600616
1.10282754898071289 0 0.013988196849822998
0.942246913909912109 0 0.0470149889588356018
0.446665972471237183 0 0.0444038547575473785
0.501640558242797852 0 0.00936550647020339966
0.596410572528839111 0 0.039743177592754364
0.214217051863670349 0 0.0836895108222961426
0.885069906711578369 0 0.13976229727268219
1.31424343585968018 0 0.0816837102174758911
1.15907835960388184 0 0.0645883306860923767
1.35531735420227051 0 0.0104324519634246826
0.794093608856201172 0 0.0737041682004928589
0.888066112995147705 0 0.107708781957626343
0.990064024925231934 0 0.0527663677930831909
1.28182923793792725 0 0.137809917330741882
0.154741764068603516 0 0.142368897795677185
0.696485042572021484 0 0.148401930928230286
1.01697361469268799 0 0.131284236907958984
0.946220993995666504 0 0.109491929411888123
0.841286778450012207 0 0.093915008008480072
0.995841026306152344 0 0.0712923780083656311
1.39623045921325684 0 0.0921671241521835327
1.2936786413192749 0 0.0809259563684463501
0.49089658260345459 0 0.0989841371774673462
0.437971115112304688 0 0.103354275226593018
0.547904491424560547 0 0.133700326085090637
1.2200779914855957 0 0.0993915200233459473
0.526437103748321533 0 0.11162528395652771
0.921307861804962158 0 0.127112105488777161
0.977707326412200928 0 0.118259608745574951
1.16901612281799316 0 0.128207772970199585
0.699490964412689209 0 0.11764998733997345
0.263844728469848633 0 0.14645250141620636
0.730262517929077148 0 0.0982840508222579956
1.3419569730758667 0 0.148270696401596069
1.26594781875610352 0 0.0299429148435592651
0.876587569713592529 0 0.123465076088905334
0.883973181247711182 0 0.0831604748964309692
0.629062473773956299 0 0.145780459046363831
0.21864473819732666 0 0.132911428809165955
0.588644981384277344 0 0.143944874405860901
1.21671509742736816 0 0.0530212149024009705
1.16958630084991455 0 0.131977424025535583
1.01970028877258301 0 0.0589660778641700745
1.23945343494415283 0 0.0966591686010360718
0.400722026824951172 0 0.134629875421524048
0.800631403923034668 0 0.0664807111024856567
0.57561790943145752 0 0.129888638854026794
1.00547730922698975 0 0.103784531354904175
1.16195809841156006 0 0.143657565116882324
1.00926744937896729 0 0.140470698475837708
1.2489241361618042 0 0.0466713234782218933
0.514103293418884277 0 0.140371695160865784
1.09538233280181885 0 0.123614460229873657
1.16372811794281006 0 0.0289397686719894409
1.25947809219360352 0 0.0253550410270690918
1.19914615154266357 0 0.064704403281211853
0.649471402168273926 0 0.124627247452735901
0.969371914863586426 0 0.0768303126096725464
1.27869164943695068 0 0.0257159247994422913
0.365172028541564941 0 0.133122071623802185
1.22719621658325195 0 0.149713411927223206
0.941759586334228516 0 0.0981123000383377075
1.36833369731903076 0 0.11054655909538269
0.955002903938293457 0 0.144148841500282288
1.20502805709838867 0 0.0379170402884483337
0.598415791988372803 0 0.116983667016029358
0.845625162124633789 0 0.0990263074636459351
1.38835787773132324 0 0.110449045896530151
0.852061688899993896 0 0.135558515787124634
0.863014280796051025 0 0.0805471464991569519
1.22419571876525879 0 0.0896288901567459106
0.794476091861724854 0 0.135425776243209839
0.575530171394348145 0 0.112633161246776581
1.29669463634490967 0 0.0561941862106323242
0.313129901885986328 0 0.14662759006023407
0.825765907764434814 0 0.0890367180109024048
0.594166219234466553 0 0.145373746752738953
0.822001874446868896 0 0.135629713535308838
1.06498253345489502 0 0.118067972362041473
0.32939457893371582 0 0.121713101863861084
0.24829399585723877 0 0.128466218709945679
0.755127012729644775 0 0.0823485702276229858
1.11562347412109375 0 0.081526629626750946
0.954488992691040039 0 0.0641403794288635254
0.990647554397583008 0 0.138642340898513794
1.15084671974182129 0 0.0449331030249595642
0.948296546936035156 0 0.0693926140666007996
0.59017181396484375 0 0.146304398775100708
0.589465558528900146 0 0.0952940434217453003
0.720739126205444336 0 0.116417229175567627
0.193047523498535156 0 0.130263999104499817
0.678711116313934326 0 0.0802685171365737915
0.798882901668548584 0 0.0688171461224555969
1.23792171478271484 0 0.137372598052024841
0.214225292205810547 0 0.132540374994277954
0.884158015251159668 0 0.0873491466045379639
1.02957892417907715 0 0.118624255061149597
1.07782340049743652 0 0.120832465589046478
0.916723489761352539 0 0.0803754553198814392
1.1635822057723999 0 0.10726628452539444
1.35269904136657715 0 0.012981712818145752
0.831496238708496094 0 0.109609946608543396
0.362652301788330078 0 0.131535559892654419
1.39505958557128906 0 0.106173507869243622
0.867540895938873291 0 0.137899294495582581
1.31095755100250244 0 0.0975677967071533203
0.625192224979400635 0 0.11995667964220047
0.820243775844573975 0 0.0908573418855667114
1.27859258651733398 0 0.116486072540283203
1.35883557796478271 0 0.0156134814023971558
0.714319288730621338 0 0.1386566162109375
1.18170428276062012 0 0.0499419346451759338
0.91726994514465332 0 0.141189888119697571
0.898401200771331787 0 0.144103556871414185
1.18898546695709229 0 0.111785359680652618
0.365892171859741211 0 0.148888438940048218
0.680007874965667725 0 0.149264514446258545
1.08168518543243408 0 0.123897738754749298
1.098152756690979 0 0.0721733719110488892
0.305133700370788574 0 0.130531847476959229
1.19169449806213379 0 0.124687694013118744
0.525351941585540771 0 0.129772678017616272
1.19194352626800537 0 0.0668875202536582947
1.17917716503143311 0 0.0324636548757553101
0.390027165412902832 0 0.112096160650253296
0.926807999610900879 0 0.117634132504463196
1.22057771682739258 0 0.0217220783233642578
1.25498294830322266 0 0.0939707756042480469
1.16727995872497559 0 0.110323004424571991
1.39141380786895752 0 0.103646963834762573
0.943682372570037842 0 0.0495187938213348389
1.143332839012146 0 0.0839772224426269531
0.850910186767578125 0 0.10932527482509613
1.38959455490112305 0 0.119047209620475769
0.275035619735717773 0 0.146075412631034851
1.13236534595489502 0 0.0858347192406654358
0.872548520565032959 0 0.0875102579593658447
0.48696601390838623 0 0.105809785425662994
1.15473783016204834 0 0.0684102326631546021
1.00277650356292725 0 0.0694897249341011047
0.867842376232147217 0 0.139899671077728271
1.33775651454925537 0 0.111161604523658752
0.794801831245422363 0 0.127414494752883911
0.989289700984954834 0 0.129501491785049438
0.965709805488586426 0 0.0825981125235557556
0.787583112716674805 0 0.0934767276048660278
1.29348421096801758 0 0.10530988872051239
1.29930126667022705 0 0.119021907448768616
0.12849879264831543 0 0.14056868851184845
1.34238886833190918 0 0.0885253697633743286
0.884856283664703369 0 0.0712301656603813171
1.19385850429534912 0 0.0908910557627677917
1.06914138793945312 0 0.0704023838043212891
1.39999997615814209 0.821346938610076904 0.0141669921576976776
1.39999997615814209 0.615863144397735596 0.0800115466117858887
1.39999997615814209 0.507298767566680908 0.105094604194164276
1.39999997615814209 1.12921714782714844 0.052483975887298584
1.39999997615814209 0.0136163113638758659 0.0154909295961260796
1.39999997615814209 1.76289725303649902 0.0260156318545341492
1.39999997615814209 0.809074699878692627 0.0396843254566192627
1.39999997615814209 0.0446024201810359955 0.0372905544936656952
1.39999997615814209 0.616323411464691162 0.0100470781326293945
1.39999997615814209 0.0670421198010444641 0.105715759098529816
1.39999997615814209 0.786582231521606445 0.0271952711045742035
1.39999997615814209 0.418854624032974243 0.0435994565486907959
1.39999997615814209 0.33280026912689209 0.07762928307056427
1.39999997615814209 0.819123446941375732 0.0566896423697471619
1.39999997615814209 1.11492264270782471 0.0431095883250236511
1.39999997615814209 1.17809426784515381 0.0209928005933761597
1.39999997615814209 2.06776833534240723 0.00616461038589477539
1.39999997615814209 0.952779650688171387 0.0712441429495811462
1.39999997615814209 0.376138806343078613 0.024735303595662117
1.39999997615814209 0.806298971176147461 0.00132079795002937317
1.39999997615814209 0.11174020916223526 0.0552150532603263855
1.39999997615814209 1.11765897274017334 0.0592262297868728638
1.39999997615814209 0.918743550777435303 0.0532231852412223816
1.39999997615814209 0.258974224328994751 0.0532334595918655396
1.39999997615814209 0.374485105276107788 0.11542375385761261
1.39999997615814209 0.353026121854782104 0.0339096635580062866
1.39999997615814209 0.424086660146713257 0.0879771560430526733
1.39999997615814209 1.00948560237884521 0.063658691942691803
1.39999997615814209 0.793441414833068848 0.0599717497825622559
1.39999997615814209 0.4947509765625 0.0567910186946392059
1.39999997615814209 0.150493919849395752 0.00484493188560009003
1.39999997615814209 0.816995799541473389 0.00821092352271080017
1.39999997615814209 0.946865081787109375 0.0679584294557571411
1.39999997615814209 0.65617978572845459 0.0543072894215583801
1.39999997615814209 1.96654629707336426 0.00122873485088348389
1.39999997615814209 0.0777690410614013672 0.13434135913848877
1.39999997615814209 0.71020430326461792 0.00532463565468788147
1.39999997615814209 0.354500651359558105 0.0928913801908493042
1.39999997615814209 0.344360083341598511 0.0121093671768903732
1.39999997615814209 0.350106000900268555 0.10152551531791687
1.39999997615814209 0.0100143486633896828 0.140164986252784729
1.39999997615814209 0.23001408576965332 0.0834065601229667664
1.39999997615814209 0.568140864372253418 0.0505700185894966125
1.39999997615814209 0.96998220682144165 0.0638395026326179504
1.39999997615814209 1.03172910213470459 0.00092557072639465332
1.39999997615814209 0.208868369460105896 0.0525845251977443695
1.39999997615814209 0.733161330223083496 0.0191573202610015869
1.39999997615814209 0.183489635586738586 0.095750853419303894
1.39999997615814209 0.785810112953186035 0.00593435019254684448
1.39999997615814209 0.189840763807296753 0.0958443358540534973
1.39999997615814209 0.772085011005401611 0.000696580857038497925
1.39999997615814209 1.54535651206970215 0.0386429950594902039
1.39999997615814209 0.50174868106842041 0.0578369311988353729
1.39999997615814209 1.11921882629394531 0.0718148276209831238
1.39999997615814209 1.52474784851074219 0.0147191882133483887
1.39999997615814209 0.843286216259002686 0.0486640147864818573
1.39999997615814209 0.707911670207977295 0.0974797755479812622
1.39999997615814209 0.0537083782255649567 0.0602348446846008301
1.39999997615814209 0.193521231412887573 0.0212396308779716492
1.39999997615814209 0.263502538204193115 0.0257169734686613083
1.39999997615814209 0.0784291848540306091 0.0684985071420669556
1.39999997615814209 0.577912688255310059 0.0966687127947807312
1.39999997615814209 0.72121274471282959 0.0178556963801383972
1.39999997615814209 0.159174233675003052 0.0450184047222137451
1.39999997615814209 0.99318850040435791 0.0443686544895172119
1.39999997615814209 0.835942983627319336 0.0311636589467525482
1.39999997615814209 0.537047028541564941 0.0289577245712280273
1.39999997615814209 0.580090522766113281 0.00249646231532096863
1.39999997615814209 1.80000782012939453 0.00381512194871902466
1.39999997615814209 0.471377730369567871 0.0133213549852371216
1.39999997615814209 0.769902884960174561 0.0874176621437072754
1.39999997615814209 0.39167475700378418 0.0653428584337234497
1.39999997615814209 1.37790775299072266 0.0421967357397079468
1.39999997615814209 0.0207096748054027557 0.0576028414070606232
1.39999997615814209 0.571778535842895508 0.066617138683795929
1.39999997615814209 0.80951458215713501 0.0748952329158782959
1.39999997615814209 0.313969612121582031 0.0496758483350276947
1.39999997615814209 0.0917572453618049622 0.137616291642189026
1.39999997615814209 1.70332610607147217 0.00515341758728027344
1.39999997615814209 0.758636593818664551 0.093616291880607605
1.39999997615814209 0.497349530458450317 0.0747952312231063843
1.39999997615814209 1.00718367099761963 0.0502280443906784058
1.39999997615814209 1.11848270893096924 0.0518856048583984375
1.39999997615814209 0.846090078353881836 0.0579653270542621613
1.39999997615814209 0.803017318248748779 0.0460073649883270264
1.39999997615814209 0.542267084121704102 0.0580906346440315247
1.39999997615814209 0.591348111629486084 0.030702345073223114
1.39999997615814209 0.427377253770828247 0.0966614484786987305
1.39999997615814209 0.232200756669044495 0.0692989230155944824
1.39999997615814209 0.161534115672111511 0.0406010262668132782
1.39999997615814209 0.0105277653783559799 0.129478707909584045
1.39999997615814209 0.306740880012512207 0.00420799292623996735
1.39999997615814209 0.576707363128662109 0.0471089743077754974
1.39999997615814209 1.31341564655303955 0.047480262815952301
1.39999997615814209 0.31183326244354248 0.037414107471704483
1.39999997615814209 0.484264492988586426 0.108401134610176086
1.39999997615814209 0.00749824941158294678 0.100998163223266602
1.39999997615814209 0.157353103160858154 0.120302602648735046
1.39999997615814209 0.423568308353424072 0.118527814745903015
1.39999997615814209 1.34085524082183838 0.0289628729224205017
1.39999997615814209 0.438862144947052002 0.037631697952747345
1.39999997615814209 0.642641782760620117 0.0545155256986618042
1.39999997615814209 1.37286472320556641 0.00342679768800735474
1.39999997615814209 1.1513742208480835 0.0485467314720153809
1.39999997615814209 0.869766712188720703 0.0832785367965698242
1.39999997615814209 0.393613755702972412 0.121586620807647705
1.39999997615814209 0.314945906400680542 0.0707624331116676331
1.39999997615814209 0.522939026355743408 0.00366900116205215454
1.39999997615814209 0.223962187767028809 0.0478359125554561615
1.39999997615814209 1.10814285278320312 0.0663740262389183044
1.39999997615814209 0.400026649236679077 0.0880545154213905334
1.39999997615814209 1.35818147659301758 0.0309183523058891296
1.39999997615814209 1.50555050373077393 0.00575706362724304199
1.39999997615814209 0.296118468046188354 0.0621944889426231384
1.39999997615814209 0.0118226846680045128 0.133501783013343811
1.39999997615814209 0.408010780811309814 0.107119500637054443
1.39999997615814209 0.299774080514907837 0.00800416059792041779
1.39999997615814209 1.30775201320648193 0.0538878142833709717
1.39999997615814209 0.301336854696273804 0.0549627840518951416
1.39999997615814209 0.51809239387512207 0.0909802168607711792
1.39999997615814209 0.899941682815551758 0.0210128612816333771
1.39999997615814209 0.925696671009063721 0.0256751105189323425
1.39999997615814209 1.74405336380004883 0.0179789438843727112
1.39999997615814209 0.0811104923486709595 0.0806886479258537292
1.39999997615814209 1.642830491065979 0.0288252383470535278
1.39999997615814209 0.224040061235427856 0.0364427119493484497
1.39999997615814209 0.507788121700286865 0.100584812462329865
1.39999997615814209 1.16144394874572754 0.0565452054142951965
1.39999997615814209 0.441288024187088013 0.0381757020950317383
1.39999997615814209 1.56618452072143555 0.0365160480141639709
1.39999997615814209 0.0846735909581184387 0.0106655042618513107
1.39999997615814209 0.624039828777313232 0.0416023582220077515
1.39999997615814209 1.60722172260284424 0.00827220827341079712
1.39999997615814209 0.188738763332366943 0.0861100181937217712
1.39999997615814209 0.804057002067565918 0.0668908506631851196
1.39999997615814209 1.66236042976379395 0.0130654796957969666
1.39999997615814209 0.189154654741287231 0.12896372377872467
1.39999997615814209 0.919134020805358887 0.0536398217082023621
1.39999997615814209 0.0805892720818519592 0.0719936639070510864
1.39999997615814209 0.506169497966766357 0.103400528430938721
1.39999997615814209 0.175978273153305054 0.0734112411737442017
1.39999997615814209 1.1360321044921875 0.0649030134081840515
1.39999997615814209 0.298977553844451904 0.0633974149823188782
1.39999997615814209 0.0554328933358192444 0.057288631796836853
1.39999997615814209 0.0110524492338299751 0.0978562384843826294
1.39999997615814209 0.516509413719177246 0.0151254646480083466
1.39999997615814209 0.477011889219284058 0.0101407133042812347
1.39999997615814209 1.00230252742767334 0.0237142890691757202
1.39999997615814209 0.662260949611663818 0.0261600837111473083
1.39999997615814209 0.445039123296737671 0.0502580851316452026
1.39999997615814209 0.883669614791870117 0.0141131915152072906
1.39999997615814209 0.653578579425811768 0.0732820332050323486
1.39999997615814209 1.23708903789520264 0.0625035539269447327
1.39999997615814209 0.402445703744888306 0.09294930100440979
1.39999997615814209 1.11539578437805176 0.0126122608780860901
1.39999997615814209 2.0691978931427002 0.0055942237377166748
1.39999997615814209 0.707796931266784668 0.0302578918635845184
1.39999997615814209 1.1979142427444458 0.0459446832537651062
1.39999997615814209 0.513578176498413086 0.0510704778134822845
1.39999997615814209 0.0279497373849153519 0.0229950528591871262
1.39999997615814209 0.94149017333984375 0.0485183596611022949
1.39999997615814209 0.0478298291563987732 0.118626818060874939
1.39999997615814209 0.808047056198120117 0.0680704712867736816
1.39999997615814209 0.601460933685302734 0.0337452404201030731
1.39999997615814209 0.42254263162612915 7.84210860729217529e-05
1.39999997615814209 1.13488447666168213 0.0560724064707756042
1.39999997615814209 0.655028998851776123 0.0689825192093849182
1.39999997615814209 1.05657684803009033 0.0632558390498161316
1.39999997615814209 0.757187426090240479 0.0275703035295009613
1.39999997615814209 0.874405503273010254 0.0267483927309513092
1.39999997615814209 0.292215615510940552 0.0519171133637428284
1.39999997615814209 1.77479434013366699 0.0240314379334449768
1.39999997615814209 0.75510329008102417 0.0411796644330024719
1.39999997615814209 0.310786277055740356 0.0860084295272827148
1.39999997615814209 0.0752027258276939392 0.0481043606996536255
1.39999997615814209 0.6694793701171875 0.0544846393167972565
1.39999997615814209 0.769573628902435303 0.00586905702948570251
1.39999997615814209 0.361573755741119385 0.105106770992279053
1.39999997615814209 0.285574972629547119 0.0853205025196075439
1.39999997615814209 0.529811978340148926 0.0900956839323043823
1.39999997615814209 1.16899406909942627 0.0449735969305038452
1.39999997615814209 0.470046967267990112 0.0724855437874794006
1.39999997615814209 0.0504665039479732513 0.0183461606502532959
1.39999997615814209 0.888300299644470215 0.0191208235919475555
1.39999997615814209 1.23803067207336426 0.0369480252265930176
1.39999997615814209 0.220124632120132446 0.00763923767954111099
1.39999997615814209 0.0198912788182497025 0.136495962738990784
1.39999997615814209 0.0580860935151576996 0.0797826722264289856
1.39999997615814209 1.61470425128936768 0.00398118048906326294
1.39999997615814209 0.121884807944297791 0.0423553138971328735
1.39999997615814209 0.281525135040283203 0.0558216124773025513
1.39999997615814209 1.05247211456298828 0.00994555652141571045
1.39999997615814209 0.479976385831832886 0.013579297810792923
1.39999997615814209 0.724446475505828857 0.0228681601583957672
1.39999997615814209 0.663536667823791504 0.0981742590665817261
1.39999997615814209 0.758045196533203125 0.0748416781425476074
1.39999997615814209 1.37121820449829102 0.0525175556540489197
1.39999997615814209 0.493231683969497681 0.00821671634912490845
1.39999997615814209 0.809458911418914795 0.045434076339006424
1.39999997615814209 0.368634790182113647 0.0212569963186979294
1.39999997615814209 1.54166948795318604 0.0109451562166213989
1.39999997615814209 0.330435127019882202 0.0935705527663230896
1.39999997615814209 0.901392638683319092 0.0348669849336147308
1.39999997615814209 1.39599514007568359 0.0358371064066886902
1.39999997615814209 1.83272659778594971 0.0156509876251220703
1.39999997615814209 1.14078664779663086 0.0415210872888565063
1.39999997615814209 0.275214999914169312 0.0202903393656015396
1.39999997615814209 0.223828315734863281 0.0418668352067470551
1.39999997615814209 0.0391045212745666504 0.0268572792410850525
1.39999997615814209 0.394819885492324829 0.0686454102396965027
1.39999997615814209 0.553631722927093506 0.0831681042909622192
1.39999997615814209 1.50688469409942627 0.0386133268475532532
1.39999997615814209 0.285231500864028931 0.123708188533782959
1.39999997615814209 0.371722936630249023 0.10329592227935791
1.39999997615814209 0.747057974338531494 0.0933126211166381836
1.39999997615814209 0.654127418994903564 0.000701159238815307617
1.39999997615814209 0.126960381865501404 0.0962338894605636597
1.39999997615814209 0.679180741310119629 0.0750459954142570496
1.39999997615814209 1.44108414649963379 0.0427522733807563782
1.39999997615814209 0.185955807566642761 0.00193836353719234467
1.39999997615814209 0.383699297904968262 0.0974164754152297974
1.39999997615814209 0.0658881738781929016 0.08312978595495224
1.39999997615814209 1.45754313468933105 0.0468307286500930786
1.39999997615814209 0.7241363525390625 0.0567566007375717163
1.39999997615814209 0.339348286390304565 0.100433170795440674
1.39999997615814209 0.0171826295554637909 0.0938148871064186096
1.39999997615814209 0.353159278631210327 0.0375102199614048004
1.39999997615814209 1.58134782314300537 0.12239934504032135
1.39999997615814209 0.937158107757568359 0.11926925927400589
1.39999997615814209 2.01992893218994141 0.0334511473774909973
1.39999997615814209 1.25847482681274414 0.126096561551094055
1.39999997615814209 1.90037167072296143 0.0406067073345184326
1.39999997615814209 1.43590402603149414 0.0823102667927742004
1.39999997615814209 1.0995934009552002 0.096265450119972229
1.39999997615814209 1.50903332233428955 0.0873101875185966492
1.39999997615814209 1.70778799057006836 0.109640195965766907
1.39999997615814209 0.714728832244873047 0.131357520818710327
1.39999997615814209 1.63070476055145264 0.0794943198561668396
1.39999997615814209 1.13973629474639893 0.146167382597923279
1.39999997615814209 1.72559487819671631 0.0505827590823173523
1.39999997615814209 1.99354255199432373 0.0683573707938194275
1.39999997615814209 1.1904679536819458 0.107540763914585114
1.39999997615814209 1.18624663352966309 0.109687641263008118
1.39999997615814209 1.94031500816345215 0.0901655703783035278
1.39999997615814209 0.824033498764038086 0.118968106806278229
1.39999997615814209 1.13041234016418457 0.0825779438018798828
1.39999997615814209 0.47611534595489502 0.125941827893257141
1.39999997615814209 1.04243338108062744 0.109726123511791229
1.39999997615814209 1.96497571468353271 0.0740440934896469116
1.39999997615814209 1.0051727294921875 0.106769204139709473
1.39999997615814209 0.953685879707336426 0.119458861649036407
1.39999997615814209 1.14470803737640381 0.105072684586048126
1.39999997615814209 1.56743144989013672 0.142437070608139038
1.39999997615814209 2.09110593795776367 0.00954864919185638428
1.39999997615814209 0.38806617259979248 0.128343135118484497
1.39999997615814209 1.04961693286895752 0.108118996024131775
1.39999997615814209 1.93035411834716797 0.111781299114227295
1.39999997615814209 2.10441780090332031 0.138232603669166565
1.39999997615814209 0.790265679359436035 0.122039616107940674
1.39999997615814209 1.89447307586669922 0.103098586201667786
1.39999997615814209 1.95197486877441406 0.0877033919095993042
1.39999997615814209 2.05018329620361328 0.135906815528869629
1.39999997615814209 1.07891178131103516 0.131158098578453064
1.39999997615814209 0.951437711715698242 0.0897219553589820862
1.39999997615814209 1.74900579452514648 0.0965722948312759399
1.39999997615814209 0.853063106536865234 0.118525899946689606
1.39999997615814209 1.50182199478149414 0.119932316243648529
1.39999997615814209 1.79340386390686035 0.0291463136672973633
1.39999997615814209 1.03906047344207764 0.128479570150375366
1.39999997615814209 0.975089907646179199 0.0900465995073318481
1.39999997615814209 2.1258242130279541 0.0924952030181884766
1.39999997615814209 0.903932809829711914 0.108060240745544434
1.39999997615814209 2.08423948287963867 0.0992722064256668091
1.39999997615814209 1.60114002227783203 0.118976861238479614
1.39999997615814209 1.59079265594482422 0.0545684024691581726
1.39999997615814209 1.7173081636428833 0.0697426199913024902
1.39999997615814209 2.13667106628417969 0.12861265242099762
1.39999997615814209 0.602097749710083008 0.147869706153869629
1.39999997615814209 1.46726369857788086 0.119514793157577515
1.39999997615814209 1.27347111701965332 0.111301936209201813
1.39999997615814209 1.53860950469970703 0.0936756134033203125
1.39999997615814209 0.914538741111755371 0.128108128905296326
1.39999997615814209 0.881323575973510742 0.111960738897323608
1.39999997615814209 1.37285590171813965 0.11240677535533905
1.39999997615814209 0.900100469589233398 0.125269800424575806
1.39999997615814209 1.89850294589996338 0.0376459136605262756
1.39999997615814209 1.7327110767364502 0.129343047738075256
1.39999997615814209 1.12549269199371338 0.123237244784832001
1.39999997615814209 0.970401287078857422 0.140037357807159424
1.39999997615814209 0.713983535766601562 0.105989530682563782
1.39999997615814209 2.02923750877380371 0.138899162411689758
1.39999997615814209 0.598640561103820801 0.126160949468612671
1.39999997615814209 1.91724276542663574 0.105755135416984558
1.39999997615814209 1.50810599327087402 0.130976080894470215
1.39999997615814209 1.6413344144821167 0.074243009090423584
1.39999997615814209 1.84014618396759033 0.0374941378831863403
1.39999997615814209 1.99995970726013184 0.0323914140462875366
1.39999997615814209 0.523023128509521484 0.136025294661521912
1.39999997615814209 1.92669272422790527 0.0169742405414581299
1.39999997615814209 1.821602463722229 0.05219992995262146
1.39999997615814209 1.37061572074890137 0.063675999641418457
1.39999997615814209 2.05033183097839355 0.135317951440811157
1.39999997615814209 0.667905807495117188 0.124632932245731354
1.39999997615814209 2.00194454193115234 0.0243598073720932007
1.39999997615814209 1.17855405807495117 0.112884439527988434
1.39999997615814209 1.48246955871582031 0.0599020794034004211
1.39999997615814209 0.158004522323608398 0.147518143057823181
1.39999997615814209 1.06248199939727783 0.0796129480004310608
1.39999997615814209 1.98252618312835693 0.0821133479475975037
1.39999997615814209 1.54801368713378906 0.0714613646268844604
1.39999997615814209 1.17412495613098145 0.121454223990440369
1.39999997615814209 0.462808966636657715 0.125549882650375366
1.39999997615814209 1.37397634983062744 0.0917491614818572998
1.39999997615814209 0.955580711364746094 0.085307583212852478
1.39999997615814209 1.24692010879516602 0.13504423201084137
1.39999997615814209 2.1566927433013916 0.0683497488498687744
1.39999997615814209 1.97247016429901123 0.0941736400127410889
1.39999997615814209 1.93167281150817871 0.0973607897758483887
1.39999997615814209 1.89290165901184082 0.0600010082125663757
1.39999997615814209 0.965162515640258789 0.118319660425186157
1.39999997615814209 0.412099480628967285 0.145637035369873047
1.39999997615814209 0.648910641670227051 0.126879692077636719
1.39999997615814209 1.63635611534118652 0.146820709109306335
1.39999997615814209 2.01456236839294434 0.122575566172599792
1.39999997615814209 1.92863225936889648 0.126894325017929077
1.39999997615814209 1.91939365863800049 0.117468863725662231
1.39999997615814209 1.25003600120544434 0.0771244168281555176
1.39999997615814209 0.164909124374389648 0.147562369704246521
1.39999997615814209 1.78831708431243896 0.105556443333625793
1.39999997615814209 1.8701775074005127 0.0237247496843338013
1.39999997615814209 1.04197168350219727 0.147309780120849609
1.39999997615814209 1.88166952133178711 0.074976801872253418
1.39999997615814209 1.80822873115539551 0.0284897759556770325
1.39999997615814209 1.22081112861633301 0.133176758885383606
1.39999997615814209 1.01584362983703613 0.133279025554656982
1.39999997615814209 0.444159030914306641 0.14934849739074707
1.39999997615814209 1.874664306640625 0.0700137913227081299
1.39999997615814209 1.59215521812438965 0.093831278383731842
1.39999997615814209 1.67065572738647461 0.117782518267631531
1.39999997615814209 1.67132043838500977 0.0847276747226715088
1.39999997615814209 1.44211506843566895 0.0943276360630989075
1.39999997615814209 1.58675539493560791 0.0990107730031013489
1.39999997615814209 1.57378935813903809 0.046500571072101593
1.39999997615814209 0.437360405921936035 0.132509142160415649
1.39999997615814209 1.59696245193481445 0.0872686579823493958
1.39999997615814209 1.85069060325622559 0.0731460154056549072
1.39999997615814209 1.11275827884674072 0.0866957381367683411
1.39999997615814209 1.48076856136322021 0.144919082522392273
1.39999997615814209 0.723116278648376465 0.129112184047698975
1.39999997615814209 2.05509400367736816 0.147028043866157532
1.39999997615814209 1.22904491424560547 0.0671159178018569946
1.39999997615814209 1.93522334098815918 0.0410289838910102844
1.39999997615814209 1.05485999584197998 0.133338212966918945
1.39999997615814209 1.84893155097961426 0.129576995968818665
1.39999997615814209 2.1575615406036377 0.0529297366738319397
1.39999997615814209 1.42696213722229004 0.137957111001014709
1.39999997615814209 1.45051586627960205 0.0851050838828086853
1.39999997615814209 1.43335270881652832 0.088724970817565918
1.39999997615814209 0.915513038635253906 0.0885301828384399414
1.39999997615814209 1.88266670703887939 0.138331621885299683
1.39999997615814209 1.92703163623809814 0.0873302295804023743
1.39999997615814209 1.03667020797729492 0.148720249533653259
1.39999997615814209 2.0873720645904541 0.00739148259162902832
1.39999997615814209 0.629296422004699707 0.13413982093334198
1.39999997615814209 1.31179594993591309 0.116787225008010864
1.39999997615814209 1.01639997959136963 0.108345687389373779
1.39999997615814209 1.32605266571044922 0.128173723816871643
1.39999997615814209 1.32070708274841309 0.0630804747343063354
1.39999997615814209 0.493658304214477539 0.133452415466308594
1.39999997615814209 2.0907590389251709 0.108643993735313416
1.39999997615814209 1.12561655044555664 0.147974073886871338
1.39999997615814209 1.86707115173339844 0.123480573296546936
1.39999997615814209 1.33598196506500244 0.0981909856200218201
1.39999997615814209 2.13610172271728516 0.0221337974071502686
1.39999997615814209 2.0919642448425293 0.113892450928688049
1.39999997615814209 1.88576412200927734 0.0553338825702667236
1.39999997615814209 1.71513521671295166 0.0718796253204345703
1.39999997615814209 1.24075865745544434 0.0682944431900978088
1.39999997615814209 1.37933635711669922 0.13791947066783905
1.39999997615814209 1.14739489555358887 0.0742730274796485901
1.39999997615814209 1.01708734035491943 0.082169756293296814
1.39999997615814209 1.49103260040283203 0.106910906732082367
1.39999997615814209 1.69509100914001465 0.129715323448181152
1.39999997615814209 1.53946042060852051 0.0597007721662521362
1.39999997615814209 0.922576546669006348 0.107972003519535065
1.39999997615814209 1.63514876365661621 0.126372799277305603
1.39999997615814209 1.41903221607208252 0.0735812857747077942
1.39999997615814209 1.84665322303771973 0.0666888654232025146
1.39999997615814209 1.528076171875 0.14142155647277832
1.39999997615814209 1.09261083602905273 0.148840516805648804
1.39999997615814209 1.94111084938049316 0.0347949638962745667
1.39999997615814209 1.48085212707519531 0.122299760580062866
1.39999997615814209 2.11356592178344727 0.0625753402709960938
1.39999997615814209 1.16706573963165283 0.135389938950538635
1.39999997615814209 1.75920760631561279 0.134896785020828247
1.39999997615814209 1.11684441566467285 0.148013278841972351
1.39999997615814209 1.08336305618286133 0.0763905644416809082
1.39999997615814209 1.10053372383117676 0.135714203119277954
1.39999997615814209 2.13474631309509277 0.0362801700830459595
1.39999997615814209 0.901031255722045898 0.131493091583251953
1.39999997615814209 1.33384919166564941 0.133146211504936218
1.39999997615814209 1.30930829048156738 0.126036599278450012
1.39999997615814209 0.683788776397705078 0.128820657730102539
1.39999997615814209 2.04133272171020508 0.015919119119644165
1.39999997615814209 0.958807945251464844 0.106697127223014832
1.39999997615814209 0.414136409759521484 0.13602110743522644
1.39999997615814209 1.94726705551147461 0.146724298596382141
1.39999997615814209 2.15540838241577148 0.0981986373662948608
1.39999997615814209 2.17057394981384277 0.0771583840250968933
1.39999997615814209 2.04442262649536133 0.0651083365082740784
1.39999997615814209 1.84789049625396729 0.0703892707824707031
1.39999997615814209 1.11429774761199951 0.089120328426361084
1.39999997615814209 0.993992090225219727 0.119492478668689728
1.39999997615814209 1.35969161987304688 0.0575419589877128601
1.39999997615814209 1.32288718223571777 0.076025053858757019
1.39999997615814209 1.20711064338684082 0.0994107276201248169
1.39999997615814209 2.14455699920654297 0.0144614577293395996
1.39999997615814209 2.07861590385437012 0.0680564269423484802
1.39999997615814209 1.73812627792358398 0.0797577500343322754
1.39999997615814209 0.779907822608947754 0.110012471675872803
1.39999997615814209 0.454911589622497559 0.124759696424007416
1.39999997615814209 0.530249714851379395 0.146480828523635864
1.39999997615814209 0.959283590316772461 0.122737482190132141
1.39999997615814209 1.52342629432678223 0.100604847073554993
1.39999997615814209 0.652956604957580566 0.134463474154472351
1.39999997615814209 1.53567862510681152 0.0898353010416030884
1.39999997615814209 1.04988813400268555 0.137416675686836243
1.39999997615814209 1.99552059173583984 0.0381569340825080872
1.39999997615814209 1.627838134765625 0.116513408720493317
1.39999997615814209 2.13012552261352539 0.0186940133571624756
1.39999997615814209 1.14222609996795654 0.0778418630361557007
1.39999997615814209 1.64337646961212158 0.110482931137084961
1.39999997615814209 1.88871800899505615 0.0484357178211212158
1.39999997615814209 1.57072269916534424 0.0571869909763336182
1.39999997615814209 1.64821648597717285 0.13021087646484375
1.39999997615814209 1.68150496482849121 0.126673415303230286
1.39999997615814209 1.42945981025695801 0.0889037474989891052
1.39999997615814209 0.368735909461975098 0.138383165001869202
1.39999997615814209 0.120774269104003906 0.145687699317932129
1.39999997615814209 2.03234171867370605 0.0531084910035133362
1.39999997615814209 2.12288284301757812 0.118234038352966309
1.39999997615814209 1.51281523704528809 0.110837846994400024
1.39999997615814209 1.37923336029052734 0.0782474055886268616
1.39999997615814209 1.9849468469619751 0.107275709509849548
1.39999997615814209 1.67721152305603027 0.111152932047843933
1.39999997615814209 1.92294442653656006 0.0749747157096862793
1.39999997615814209 1.83845150470733643 0.136073976755142212
1.39999997615814209 1.82521593570709229 0.134432047605514526
1.39999997615814209 1.52613174915313721 0.111556246876716614
1.39999997615814209 0.837012648582458496 0.1131916344165802
1.39999997615814209 1.77000772953033447 0.11732415109872818
1.39999997615814209 1.90705454349517822 0.136997967958450317
1.39999997615814209 0.700072884559631348 0.144824057817459106
1.39999997615814209 0.331847786903381348 0.137668296694755554
0.510554730892181396 2.17202353477478027 0.0482435375452041626
0.190141081809997559 2.17202353477478027 0.0146681815385818481
0.992713630199432373 2.17202353477478027 0.0690927803516387939
0.990501880645751953 2.17202353477478027 0.0866075530648231506
0.929793298244476318 2.17202353477478027 0.0101071521639823914
1.18394780158996582 2.17202353477478027 0.0102010201662778854
0.884138345718383789 2.17202353477478027 0.059092056006193161
0.875606298446655273 2.17202353477478027 0.0721740126609802246
0.29877471923828125 2.17202353477478027 0.0108752027153968811
1.39519953727722168 2.17202353477478027 0.0391370728611946106
1.01044726371765137 2.17202353477478027 0.0225206315517425537
1.07193112373352051 2.17202353477478027 0.0244921557605266571
1.25966048240661621 2.17202353477478027 0.0878725200891494751
0.155008792877197266 2.17202353477478027 0.00495699048042297363
0.961967110633850098 2.17202353477478027 0.0109474882483482361
0.612490713596343994 2.17202353477478027 0.0245432928204536438
0.597412109375 2.17202353477478027 0.0308990031480789185
0.540650367736816406 2.17202353477478027 0.0258629247546195984
0.00395965576171875 2.17202353477478027 0.00012658536434173584
1.3175499439239502 2.17202353477478027 0.00199577491730451584
1.38880205154418945 2.17202353477478027 0.0462797880172729492
0.860159933567047119 2.17202353477478027 0.0741060227155685425
0.755889058113098145 2.17202353477478027 0.0446765497326850891
0.992921113967895508 2.17202353477478027 0.0291496291756629944
0.308112144470214844 2.17202353477478027 0.00116274505853652954
0.653264880180358887 2.17202353477478027 0.00516293942928314209
0.34622037410736084 2.17202353477478027 0.0203372091054916382
0.622483372688293457 2.17202353477478027 0.0255068466067314148
0.9887198805809021 2.17202353477478027 0.0858194082975387573
0.652486562728881836 2.17202353477478027 0.0558086931705474854
0.727208077907562256 2.17202353477478027 0.0239991918206214905
1.09716665744781494 2.17202353477478027 0.0271369405090808868
0.306093335151672363 2.17202353477478027 0.0180850625038146973
1.25269770622253418 2.17202353477478027 0.126624047756195068
0.559606313705444336 2.17202353477478027 0.000605106353759765625
1.04275286197662354 2.17202353477478027 0.0771790742874145508
1.27666759490966797 2.17202353477478027 0.0646119341254234314
0.630698740482330322 2.17202353477478027 0.000264704227447509766
0.413310587406158447 2.17202353477478027 0.0167762488126754761
1.26641309261322021 2.17202353477478027 0.0548777580261230469
1.18218326568603516 2.17202353477478027 0.101884476840496063
1.03590083122253418 2.17202353477478027 0.0831352770328521729
0.936540842056274414 2.17202353477478027 0.0847330987453460693
1.36283040046691895 2.17202353477478027 0.10123153030872345
1.26957452297210693 2.17202353477478027 0.0616748183965682983
0.332555294036865234 2.17202353477478027 0.0319846346974372864
0.322351574897766113 2.17202353477478027 0.00393859297037124634
1.17478251457214355 2.17202353477478027 0.0665241852402687073
0.609012424945831299 2.17202353477478027 0.00898230075836181641
0.450141489505767822 2.17202353477478027 0.00774983316659927368
0.849582493305206299 2.17202353477478027 0.0616964288055896759
0.621142148971557617 2.17202353477478027 0.0041279718279838562
1.38776087760925293 2.17202353477478027 0.107363477349281311
1.20669257640838623 2.17202353477478027 0.03167005255818367
1.07094359397888184 2.17202353477478027 0.00627482309937477112
0.569156289100646973 2.17202353477478027 4.0531158447265625e-05
1.16799342632293701 2.17202353477478027 0.00608112476766109467
1.16282236576080322 2.17202353477478027 0.0489276275038719177
1.29394936561584473 2.17202353477478027 0.0264974460005760193
1.21954166889190674 2.17202353477478027 0.123970426619052887
0.716374456882476807 2.17202353477478027 0.0472634583711624146
1.00430881977081299 2.17202353477478027 0.0981150418519973755
