ply
format ascii 1.0
element vertex 695
property float x
property float y
property float z
end_header
-0.0204260069876909256 0.0262097921222448349 -0.0144543927162885666
-0.0370379090309143066 0.0237543024122714996 -0.018011782318353653
-0.00440758466720581055 0.0264682509005069733 -0.014079950749874115
-0.0334807261824607849 0.026459667831659317 -0.014092382974922657
-0.025289047509431839 0.0254511050879955292 -0.0155535405501723289
-0.0387711226940155029 0.0234697498381137848 -0.0184240285307168961
-0.0482696555554866791 0.022782493382692337 -0.0194196905940771103
-0.0444012992084026337 0.0243230089545249939 -0.0171878691762685776
-0.0355896949768066406 0.0249260775744915009 -0.0163141731172800064
-0.0413235127925872803 0.0236938204616308212 -0.0180994048714637756
-0.0287775378674268723 0.0265619438141584396 -0.0139442132785916328
-0.048005368560552597 0.0251330006867647171 -0.0160143952816724777
-0.0486340411007404327 0.0263219866901636124 -0.0142918499186635017
-0.0394525863230228424 0.0259287040680646896 -0.0148616181686520576
-0.0433389171957969666 0.0253002345561981201 -0.0157721154391765594
-0.0328826978802680969 0.0252426136285066605 -0.0158555898815393448
-0.0115619637072086334 0.0189677365124225616 -0.0229834113270044327
-0.000904399901628494263 0.0191804897040128708 -0.0227949284017086029
-0.00727786868810653687 0.0208588410168886185 -0.0213080383837223053
-0.0265099983662366867 0.0173676926642656326 -0.0244009271264076233
-0.0219257622957229614 0.0175061319023370743 -0.0242782793939113617
-0.00972237158566713333 0.0212273597717285156 -0.0209815576672554016
-0.00939341913908720016 0.0199670605361461639 -0.0220980867743492126
-0.013226289302110672 0.0199633091688156128 -0.0221014097332954407
-0.0131712891161441803 0.0189752895385026932 -0.0229767207056283951
-0.0091800987720489502 0.017079303041100502 -0.0246564168483018875
-0.0317766107618808746 0.0182112716138362885 -0.0236535817384719849
-0.011341514065861702 0.0183022916316986084 -0.0235729441046714783
-0.00161650124937295914 0.020679747685790062 -0.0214667022228240967
-0.00717684440314769745 0.0183134414255619049 -0.0235630664974451065
-0.0121564138680696487 0.018231881782412529 -0.0236353222280740738
-0.0173462145030498505 0.0171832535415887833 -0.0245643258094787598
-1.09598040580749512e-05 0.0177904125303030014 -0.0240264274179935455
-0.0137863336130976677 0.0201202556490898132 -0.0219623669981956482
-0.0171600524336099625 0.0203992798924446106 -0.0217151753604412079
-0.00208231247961521149 0.0191852375864982605 -0.0227907225489616394
-0.00607720110565423965 0.0202446691691875458 -0.0218521468341350555
-0.00978726893663406372 0.0171795319765806198 -0.0245676226913928986
-0.0208175871521234512 0.0177909433841705322 -0.0240259580314159393
-0.00296607986092567444 0.0179452784359455109 -0.0238892305642366409
-0.00116213783621788025 0.0177106019109487534 -0.0240971352905035019
-0.00329703465104103088 0.0207450594753026962 -0.021408839151263237
-0.00587845221161842346 0.0171188917011022568 -0.0246213432401418686
-0.0098839588463306427 0.0182971730828285217 -0.0235774796456098557
-0.0288663841784000397 0.0178226064890623093 -0.0239979065954685211
-0.0189871937036514282 0.0196307338774204254 -0.0223960466682910919
-0.0181918032467365265 0.0198892205953598022 -0.0221670474857091904
-0.00460366345942020416 0.021489407867193222 -0.0207494050264358521
-0.000546367373317480087 0.0215539224445819855 -0.0206922497600317001
-0.00960923824459314346 0.020756525918841362 -0.0213986821472644806
-0.0229276809841394424 0.0177594143897294998 -0.0240538902580738068
-0.0123567786067724228 0.0206462275236845016 -0.0214963965117931366
-0.0265763793140649796 0.019432850182056427 -0.0225713551044464111
-0.00490850582718849182 0.0174780227243900299 -0.0243031829595565796
-0.0433387160301208496 0.0176075771450996399 -0.024188406765460968
-0.00747156888246536255 0.0181456655263900757 -0.0237117018550634384
-0.0056032128632068634 0.0192382149398326874 -0.0227437876164913177
-0.0462621673941612244 0.0188721772283315659 -0.0230680666863918304
-0.0480482056736946106 0.0192256178706884384 -0.0227549467235803604
-0.0479662194848060608 0.0187373962253332138 -0.0231874752789735794
-0.0282443705946207047 0.0200043562799692154 -0.0220650471746921539
-0.0188234560191631317 0.02196490578353405 -0.020328151062130928
-0.0364822261035442352 0.0204674564301967621 -0.0216547735035419464
-0.0282867103815078735 0.0193665735423564911 -0.0226300712674856186
-0.0409794114530086517 0.0189103484153747559 -0.0230342540889978409
-0.0415016338229179382 0.0181055888533592224 -0.0237472075968980789
-0.0469764582812786102 0.0219590924680233002 -0.0203332994133234024
-0.0167684070765972137 0.0214234516024589539 -0.0208078362047672272
-0.0487431958317756653 0.0179327409714460373 -0.0239003375172615051
-0.0316792502999305725 0.0195392128080129623 -0.0224771276116371155
-0.043832782655954361 0.0194045398384332657 -0.0225964374840259552
-0.00184566527605056763 0.0224332548677921295 -0.0199132300913333893
-0.0352246090769767761 0.0211275834590196609 -0.0210699532181024551
-0.0452551580965518951 0.0205634701997041702 -0.0215697139501571655
-0.0283966865390539169 0.0215805955231189728 -0.020668618381023407
-0.0392565801739692688 0.0221007876098155975 -0.0202077683061361313
-0.0182356797158718109 0.0213502813130617142 -0.0208726618438959122
-0.0163865052163600922 0.0219466742128133774 -0.0203443020582199097
-0.0487999320030212402 0.0177926681935787201 -0.0240244287997484207
-0.0202608164399862289 0.0205808002501726151 -0.0215543601661920547
-0.0411789342761039734 0.0222667809575796127 -0.0200607143342494965
-0.0343447253108024597 0.021252928301692009 -0.0209589079022407532
-0.0357134416699409485 0.0217828303575515747 -0.0204894561320543289
-0.0329694375395774841 0.0209949016571044922 -0.0211874991655349731
-0.0472095347940921783 0.0216826051473617554 -0.0205782484263181686
-0.0449204109609127045 0.0189276784658432007 -0.0230189003050327301
-0.0469634793698787689 0.0217768605798482895 -0.0204947423189878464
-0.0477942563593387604 0.0177004076540470123 -0.0241061653941869736
-0.0352634191513061523 0.0213994663208723068 -0.0208290852606296539
-0.0148032195866107941 0.0214381981641054153 -0.0207947716116905212
-0.0444844886660575867 0.0221485588699579239 -0.0201654490083456039
-0.0426570847630500793 0.0197059772908687592 -0.0223293863236904144
-0.0271640997380018234 0.0211923364549875259 -0.0210125874727964401
-0.0422844216227531433 0.0194506421685218811 -0.0225555915385484695
-0.0348498225212097168 0.0217195134609937668 -0.0205455496907234192
-0.0138555318117141724 0.0216463450342416763 -0.0206103697419166565
-0.0466199293732643127 0.0175917856395244598 -0.0242023970931768417
-0.0399169251322746277 0.0221091154962778091 -0.0202003940939903259
-0.0142753962427377701 0.0147637045010924339 -0.0258852280676364899
-0.0271410197019577026 0.0131336376070976257 -0.0267407521605491638
-0.00925465021282434464 0.0138584580272436142 -0.0263603366911411285
-0.0391838029026985168 0.0115825608372688293 -0.0275548212230205536
-0.0457532592117786407 0.0108007844537496567 -0.0279651284217834473
-0.00911527499556541443 0.0128288762643933296 -0.026900704950094223
-0.0178540237247943878 0.0144697278738021851 -0.026039518415927887
-0.0125213880091905594 0.0150091573596000671 -0.0257564038038253784
-0.0215810332447290421 0.0139496251940727234 -0.0263124890625476837
-0.0074695684015750885 0.0114680314436554909 -0.0276149306446313858
-0.0141611546277999878 0.0125125851482152939 -0.0270667057484388351
-0.0148280840367078781 0.0143513195216655731 -0.0261016637086868286
-0.0125475767999887466 0.0148941520601511002 -0.0258167628198862076
-0.0224573872983455658 0.0138066746294498444 -0.0263875164091587067
-0.0138963684439659119 0.0108375288546085358 -0.0279458444565534592
-0.0193130765110254288 0.0123358629643917084 -0.0271594580262899399
-0.0220946464687585831 0.0113228848204016685 -0.0276911091059446335
-0.0446160994470119476 0.0107778916135430336 -0.0279771443456411362
-0.0113352220505475998 0.0124528994783759117 -0.0270980317145586014
-0.00411298498511314392 0.0139762302860617638 -0.0262985266745090485
-0.0296895503997802734 0.0116203222423791885 -0.0275350026786327362
-0.00895326118916273117 0.0156478080898523331 -0.0254212133586406708
-0.0295785423368215561 0.0123222153633832932 -0.0271666198968887329
-0.0254549980163574219 0.010851697064936161 -0.0279384087771177292
-0.0216453224420547485 0.0117076057940721512 -0.02748919278383255
-0.00597329996526241302 0.0124791748821735382 -0.0270842406898736954
-0.0357119366526603699 0.0118753453716635704 -0.0274011567234992981
-0.00546394847333431244 0.0134569620713591576 -0.0265710595995187759
-0.00535734277218580246 0.016076480969786644 -0.0251962300390005112
-0.0264065731316804886 0.0129739055410027504 -0.0268245860934257507
-0.018502427265048027 0.0130447624251246452 -0.0267873983830213547
-0.0269986167550086975 0.0116780074313282967 -0.0275047272443771362
-0.0163367372006177902 0.0144812604412436485 -0.0260334648191928864
-0.0206210892647504807 0.013499121181666851 -0.0265489332377910614
-0.00607811659574508667 0.0138635504990816116 -0.0263576656579971313
-0.0384880602359771729 0.0109140230342745781 -0.0279056970030069351
-0.00394610501825809479 0.0138807408511638641 -0.0263486430048942566
-0.0223204661160707474 0.0117444582283496857 -0.0274698510766029358
-0.0453643538057804108 0.0107815107330679893 -0.0279752444475889206
-0.000257775187492370605 0.0149077177047729492 -0.0258096437901258469
-0.0301797501742839813 0.0124458232894539833 -0.0271017458289861679
-0.0316051468253135681 0.0157988425344228745 -0.0253419447690248489
-0.0453064218163490295 0.0130275916308164597 -0.026796409860253334
-0.0413846932351589203 0.0143603542819619179 -0.0260969232767820358
-0.0487101189792156219 0.0155224557965993881 -0.0254870038479566574
-0.023062046617269516 0.016095506027340889 -0.025186244398355484
-0.019383477047085762 0.0169556122273206711 -0.0247348248958587646
-0.0400786623358726501 0.0134674431756138802 -0.0265655573457479477
-0.038129270076751709 0.0136026432737708092 -0.0264945998787879944
-0.0252180583775043488 0.0166485011577606201 -0.0248960088938474655
-0.0251415763050317764 0.0151339443400502205 -0.0256909113377332687
-0.0210638381540775299 0.0144424829632043839 -0.0260538160800933838
-0.0445814244449138641 0.0116570787504315376 -0.0275157112628221512
-0.0412086285650730133 0.0128977950662374496 -0.0268645323812961578
-0.0475184917449951172 0.0152455838397145271 -0.0256323181092739105
-0.0448609814047813416 0.0167620591819286346 -0.0248364098370075226
-0.030606534332036972 0.013643188402056694 -0.0264733210206031799
-0.0378663763403892517 0.0123622603714466095 -0.0271456018090248108
-0.015503760427236557 0.0151123153045773506 -0.0257022641599178314
-0.0395787395536899567 0.0121589628979563713 -0.0272523015737533569
-0.0045053437352180481 0.0166472177952528 -0.0248966850340366364
-0.00792395323514938354 0.0164896957576274872 -0.0249793585389852524
-0.0408086217939853668 0.0158996805548667908 -0.0252890195697546005
-0.0135638676583766937 0.0156891755759716034 -0.0253995023667812347
-0.0422014780342578888 0.0160241071134805679 -0.0252237170934677124
-0.0421449095010757446 0.0146587230265140533 -0.0259403269737958908
-0.0101201571524143219 0.0168159902095794678 -0.024808105081319809
-0.0260583646595478058 0.0161364451050758362 -0.0251647569239139557
-0.0459078960120677948 0.0113634876906871796 -0.0276697985827922821
-0.0219932124018669128 0.0156164634972810745 -0.0254376642405986786
-0.0357252135872840881 0.0153459524735808372 -0.0255796406418085098
-0.0181023329496383667 0.0166229307651519775 -0.0249094311147928238
-0.0413160324096679688 0.0119824381545186043 -0.0273449495434761047
-0.0173219777643680573 0.0151073932647705078 -0.0257048457860946655
-0.0102996788918972015 0.0162358283996582031 -0.0251125972718000412
-0.0183790363371372223 0.014932854101061821 -0.0257964525371789932
-0.0252955015748739243 0.0154273621737957001 -0.0255369134247303009
-0.0154895558953285217 0.0169153101742267609 -0.0247559789568185806
-0.0401722416281700134 0.0156544186174869537 -0.0254177451133728027
-0.0367510206997394562 0.0123069342225790024 -0.0271746404469013214
-0.0390421226620674133 0.0146763548254966736 -0.0259310733526945114
-0.0044022807851433754 0.00858295336365699768 -0.0285570472478866577
-0.012964397668838501 0.00471720844507217407 -0.0295098684728145599
-0.00489713437855243683 0.00716131599619984627 -0.0289074499160051346
-0.0225901193916797638 0.00364480237476527691 -0.0297741927206516266
-0.0184977147728204727 0.00543766934424638748 -0.0293322913348674774
-0.00873087160289287567 0.00677876779809594154 -0.0290017388761043549
-0.0179553180932998657 0.00481709372252225876 -0.0294852480292320251
-0.0177610889077186584 0.00682523567229509354 -0.0289902854710817337
-0.0105690648779273033 0.00885380618274211884 -0.028490288183093071
-0.0183026716113090515 0.00628692470490932465 -0.0291229672729969025
-0.01376327034085989 0.00698860269039869308 -0.0289500206708908081
-0.0140496809035539627 0.00612520193681120872 -0.0291628297418355942
-0.00965882092714309692 0.00469197891652584076 -0.0295160859823226929
-0.00206113047897815704 0.00700498558580875397 -0.0289459824562072754
-0.0395606867969036102 0.00362146808765828609 -0.0297799445688724518
-0.0358627736568450928 0.00447856076061725616 -0.0295686889439821243
-0.0387229621410369873 0.0038125340361148119 -0.0297328513115644455
-0.0302314944565296173 0.00517734978348016739 -0.0293964538723230362
-0.0231982003897428513 0.00387620204128324986 -0.0297171585261821747
-0.0113618969917297363 0.00568271148949861526 -0.0292718932032585144
-0.0364563018083572388 0.00484722061082720757 -0.0294778235256671906
-0.0297723487019538879 0.00433712126687169075 -0.0296035520732402802
-0.0130741195753216743 0.00656229350715875626 -0.0290550962090492249
-0.0134090650826692581 0.00779642444103956223 -0.0287509094923734665
-0.00425410643219947815 0.00537505466490983963 -0.0293477233499288559
-0.0375515073537826538 0.00420594029128551483 -0.0296358838677406311
-0.0133350575342774391 0.00754854176193475723 -0.0288120079785585403
-0.0284144263714551926 0.00552086671814322472 -0.0293117836117744446
-0.0122770294547080994 0.00871975347399711609 -0.0285233296453952789
-0.0107527691870927811 0.0065622720867395401 -0.0290550999343395233
-0.0108775636181235313 0.00762576889246702194 -0.0287929717451334
-0.0166698116809129715 0.00413068756461143494 -0.029654432088136673
-0.0166800953447818756 0.00613516196608543396 -0.0291603747755289078
-0.0128495246171951294 0.00815740879625082016 -0.0286619346588850021
-0.0149035714566707611 0.00765025801956653595 -0.0287869367748498917
-0.0198056474328041077 0.00630732625722885132 -0.0291179399937391281
-0.00223303027451038361 0.00844589527696371078 -0.0285908300429582596
-0.0355818718671798706 0.00486330548301339149 -0.0294738579541444778
-0.0176664311438798904 0.00435387762263417244 -0.0295994207262992859
-0.0442638881504535675 0.00387426698580384254 -0.0297176353633403778
-0.0473348312079906464 0.00852964166551828384 -0.0285701882094144821
-0.0475825630128383636 0.00690276548266410828 -0.0289711765944957733
-0.0382559970021247864 0.00965575315058231354 -0.0282926261425018311
-0.00933783501386642456 0.0104314107447862625 -0.0281014442443847656
-0.0253049544990062714 0.00994271785020828247 -0.0282218959182500839
-0.0421490520238876343 0.00630840752273797989 -0.0291176736354827881
-0.031330551952123642 0.0062619699165225029 -0.0291291195899248123
-0.0464158803224563599 0.00992660224437713623 -0.0282258670777082443
-0.0450482144951820374 0.00926937256008386612 -0.0283878613263368607
-0.0367378555238246918 0.0063681798055768013 -0.0291029401123523712
-0.0168025009334087372 0.00896551460027694702 -0.028462754562497139
-0.0056906379759311676 0.0105695277452468872 -0.0280674025416374207
-0.0317859426140785217 0.00736105348914861679 -0.0288582183420658112
-0.0418444685637950897 0.00510743912309408188 -0.0294136852025985718
-0.021414855495095253 0.0102295055985450745 -0.0281512103974819183
-0.03359193354845047 0.00598538853228092194 -0.0291972886770963669
-0.0461388155817985535 0.00772933708503842354 -0.0287674441933631897
-0.0390748865902423859 0.00737561564892530441 -0.0288546290248632431
-0.0488455444574356079 0.0088794361799955368 -0.0284839700907468796
-0.0453430600464344025 0.00678434362635016441 -0.0290003642439842224
-0.0303813572973012924 0.0104099679738283157 -0.0281067285686731339
-0.0354325659573078156 0.00712240766733884811 -0.0289170406758785248
-0.0471687503159046173 0.00692181475460529327 -0.0289664808660745621
-0.0258783083409070969 0.00697754556313157082 -0.028952745720744133
-0.0447632484138011932 0.00846196617931127548 -0.0285868681967258453
-0.0297514181584119797 0.00917771272361278534 -0.0284104514867067337
-0.0291088782250881195 0.00693582184612751007 -0.0289630275219678879
-0.0184087716042995453 0.00907508097589015961 -0.0284357480704784393
-0.0180287975817918777 0.00838292203843593597 -0.0286063514649868011
-0.0275325421243906021 0.00990954693406820297 -0.0282300729304552078
-0.0214994605630636215 0.0084687303751707077 -0.0285852011293172836
-0.0396990068256855011 0.00790049601346254349 -0.028725259006023407
-0.0328741706907749176 0.00895646587014198303 -0.0284649841487407684
-0.0308085158467292786 0.00808171741664409637 -0.0286805909126996994
-0.0452436245977878571 0.00652107642963528633 -0.0290652532130479813
-0.0440148711204528809 0.00834923330694437027 -0.0286146532744169235
-0.0191041752696037292 0.00915499404072761536 -0.0284160524606704712
-0.0367592647671699524 0.0082158166915178299 -0.0286475382745265961
-0.03745318204164505 0.00662819109857082367 -0.0290388539433479309
-0.0162611305713653564 0.00890919007360935211 -0.0284766387194395065
-0.0464911721646785736 0.0103380456566810608 -0.0281244553625583649
-0.0180771537125110626 0.000521127833053469658 -0.0297812670469284058
-0.0370286740362644196 -0.00287105771712958813 -0.0297812670469284058
-0.0235738437622785568 -0.00333367800340056419 -0.0297812670469284058
-0.0273068416863679886 -0.00183263677172362804 -0.0297812670469284058
-0.0313329584896564484 -0.00210197269916534424 -0.0297812670469284058
-0.0153784416615962982 -0.00078872055746614933 -0.0297812670469284058
-0.00220846012234687805 -0.00174056796822696924 -0.0297812670469284058
-0.0113815814256668091 -0.00158287049271166325 -0.0297812670469284058
-0.00019187387079000473 0.00129703921265900135 -0.0297812670469284058
-0.0178355220705270767 9.20935999602079391e-05 -0.0297812670469284058
-0.0300108995288610458 -0.00343833328224718571 -0.0297812670469284058
-0.0219341330230236053 -0.00201846123673021793 -0.0297812670469284058
-0.0223288871347904205 -0.00274964328855276108 -0.0297812670469284058
-0.00599835626780986786 -0.00183421350084245205 -0.0297812670469284058
-0.0295393653213977814 -0.00170765980146825314 -0.0297812670469284058
-0.00340910442173480988 0.00196389877237379551 -0.0297812670469284058
-0.00408096238970756531 0.00261866091750562191 -0.0297812670469284058
-0.00624178070574998856 0.0021393864881247282 -0.0297812670469284058
-0.0366691946983337402 -0.00188116577919572592 -0.0297812670469284058
-0.0275940559804439545 -0.00259594060480594635 -0.0297812670469284058
-0.0234728921204805374 -0.0020966122392565012 -0.0297812670469284058
-0.00147330458275973797 0.00289298384450376034 -0.0297812670469284058
-0.00327041745185852051 -0.00358410901390016079 -0.0297812670469284058
-0.00907899066805839539 0.0013476863969117403 -0.0297812670469284058
-0.0375007838010787964 -0.00342918746173381805 -0.0297812670469284058
-0.0135954348370432854 -0.000613319454714655876 -0.0297812670469284058
-0.0223319847136735916 -0.000277932267636060715 -0.0297812670469284058
-0.00372903980314731598 -0.000153903849422931671 -0.0297812670469284058
-0.00433920323848724365 -0.00201544119045138359 -0.0297812670469284058
-0.00479407608509063721 -0.00191303063184022903 -0.0297812670469284058
-0.00408831611275672913 0.00247543281875550747 -0.0297812670469284058
-0.00893658120185136795 0.000745311146602034569 -0.0297812670469284058
-0.000475324690341949463 -0.0028547174297273159 -0.0297812670469284058
-0.0360254682600498199 -0.00335248513147234917 -0.0297812670469284058
-0.0228414870798587799 -0.000364377396181225777 -0.0297812670469284058
-0.0139732109382748604 -0.000101326964795589447 -0.0297812670469284058
-0.0155081357806921005 -0.00263091432861983776 -0.0297812670469284058
-0.0229579135775566101 -0.00120545807294547558 -0.0297812670469284058
-0.0215848125517368317 -0.0023577716201543808 -0.0297812670469284058
-0.0104885101318359375 -0.000984301790595054626 -0.0297812670469284058
-0.0133769810199737549 0.000254249665886163712 -0.0297812670469284058
-0.0131868235766887665 0.00292366417124867439 -0.0297812670469284058
-0.0197581276297569275 0.0030099283903837204 -0.0297812670469284058
-0.0405153743922710419 0.000329950242303311825 -0.0297812670469284058
-0.0221538599580526352 0.00171887455508112907 -0.0297812670469284058
-0.0481822527945041656 0.00062720797723159194 -0.0297812670469284058
-0.0457058027386665344 -0.000922508479561656713 -0.0297812670469284058
-0.0453328900039196014 -0.00117814820259809494 -0.0297812670469284058
-0.0339715443551540375 0.00343511556275188923 -0.0297812670469284058
-0.00712247192859649658 0.0027823254931718111 -0.0297812670469284058
-0.00861125439405441284 0.00268605444580316544 -0.0297812670469284058
-0.0359549000859260559 0.000134078203700482845 -0.0297812670469284058
-0.0171135999262332916 0.00354001601226627827 -0.0297812670469284058
-0.0428572967648506165 0.00147919519804418087 -0.0297812670469284058
-0.0318830162286758423 0.000130951404571533203 -0.0297812670469284058
-0.0355116166174411774 0.00138776376843452454 -0.0297812670469284058
-0.0458758100867271423 -0.00107528874650597572 -0.0297812670469284058
-0.0372243449091911316 -0.000690980581566691399 -0.0297812670469284058
-0.0328590050339698792 0.00117014534771442413 -0.0297812670469284058
-0.0334873683750629425 -0.00108004338108003139 -0.0297812670469284058
-0.0190939698368310928 0.00126210320740938187 -0.0297812670469284058
-0.0225445665419101715 0.00261532142758369446 -0.0297812670469284058
-0.0474256314337253571 -0.00205813837237656116 -0.0297812670469284058
-0.0408993437886238098 0.00361546478234231472 -0.0297812670469284058
-0.0299722440540790558 0.000447007594630122185 -0.0297812670469284058
-0.0284529775381088257 0.00090765184722840786 -0.0297812670469284058
-0.00522020831704139709 0.00316215306520462036 -0.0297812670469284058
-0.0417919456958770752 7.95419327914714813e-06 -0.0297812670469284058
-0.0438577942550182343 -0.0013382218312472105 -0.0297812670469284058
-0.0352678783237934113 0.00131630315445363522 -0.0297812670469284058
-0.00712454691529273987 0.00335464207455515862 -0.0297812670469284058
-0.0301813129335641861 -0.000560323009267449379 -0.0297812670469284058
-0.0216302555054426193 0.00352746830321848392 -0.0297812670469284058
-0.0342812910676002502 0.00309701031073927879 -0.0297812670469284058
-0.0146543458104133606 0.00316878315061330795 -0.0297812670469284058
-0.0433208867907524109 -0.000998898758552968502 -0.0297812670469284058
-0.0295431390404701233 -3.75905074179172516e-06 -0.0297812670469284058
-0.0394445732235908508 -0.00213599996641278267 -0.0297812670469284058
-0.0186333227902650833 0.00253280368633568287 -0.0297812670469284058
-0.0384525135159492493 0.00116646767128258944 -0.0297812670469284058
-0.0475331805646419525 7.91468628449365497e-05 -0.0297812670469284058
-0.0386151708662509918 -0.00928229279816150665 -0.0283846762031316757
-0.0062343105673789978 -0.0086042601615190506 -0.0285517964512109756
-0.00691234692931175232 -0.00953961256891489029 -0.0283212512731552124
-0.0182958357036113739 -0.00651828525587916374 -0.0290659423917531967
-0.0115400124341249466 -0.00668304180726408958 -0.0290253330022096634
-0.0313528254628181458 -0.00984807778149843216 -0.0282452218234539032
-0.0031877872534096241 -0.00465784920379519463 -0.0295244995504617691
-0.0422351248562335968 -0.00992582086473703384 -0.0282260607928037643
-0.028084680438041687 -0.0104777049273252487 -0.0280900336802005768
-0.00598071375861763954 -0.00554664433002471924 -0.0293054301291704178
-0.0343988984823226929 -0.00924788415431976318 -0.0283931568264961243
-0.0028615584596991539 -0.00429550418630242348 -0.029613809660077095
-0.000258371233940124512 -0.00995637662708759308 -0.0282185301184654236
-0.0156366396695375443 -0.00594047689810395241 -0.0292083602398633957
-0.0172184519469738007 -0.00911202188581228256 -0.0284266434609889984
-0.00934164226055145264 -0.00824903324246406555 -0.028639351949095726
-0.0220545586198568344 -0.00905400887131690979 -0.0284409429877996445
-0.0403754226863384247 -0.00968177337199449539 -0.0282862130552530289
-0.0291963014751672745 -0.00927359703928232193 -0.0283868201076984406
-0.0293116644024848938 -0.00861984677612781525 -0.0285479538142681122
-0.0209099631756544113 -0.00808446947485208511 -0.0286799129098653793
-0.00516274012625217438 -0.00628909235820174217 -0.0291224345564842224
-0.022864215075969696 -0.00802903901785612106 -0.0286935754120349884
-0.0176325384527444839 -0.00726146809756755829 -0.0288827642798423767
-0.0397578291594982147 -0.0102492216974496841 -0.0281463488936424255
-0.00320811942219734192 -0.00806946307420730591 -0.028683612123131752
-0.010005660355091095 -0.00775190535932779312 -0.0287618823349475861
-0.00427719950675964355 -0.00531641533598303795 -0.0293621774762868881
-0.0270504709333181381 -0.0100251054391264915 -0.028201589360833168
-0.012980559840798378 -0.00735397078096866608 -0.0288599655032157898
-0.0262338221073150635 -0.00909086409956216812 -0.0284318588674068451
-0.0188224185258150101 -0.00681878486648201942 -0.0289918761700391769
-0.0146639812737703323 -0.00855508726090192795 -0.0285639166831970215
-0.0142516046762466431 -0.0102320797741413116 -0.0281505752354860306
-0.0034791845828294754 -0.00686168158426880836 -0.028981303796172142
-0.0054074656218290329 -0.00686835916712880135 -0.0289796572178602219
-0.00695980247110128403 -0.00531101366505026817 -0.0293635092675685883
-0.0190151780843734741 -0.00763898156583309174 -0.0287897158414125443
-0.0305583737790584564 -0.0084318406879901886 -0.0285942927002906799
-0.00951876305043697357 -0.00926599465310573578 -0.0283886939287185669
-0.0445415303111076355 -0.00719620659947395325 -0.0288988500833511353
-0.0177843701094388962 -0.00455281650647521019 -0.0295503865927457809
-0.0450411438941955566 -0.00826745945960283279 -0.0286348089575767517
-0.0224440675228834152 -0.00580611312761902809 -0.0292414780706167221
-0.0485142245888710022 -0.00664563663303852081 -0.0290345530956983566
-0.0473668947815895081 -0.00534726819023489952 -0.0293545722961425781
-0.00651741400361061096 -0.00438735214993357658 -0.029591171070933342
-0.0347119979560375214 -0.00786150246858596802 -0.0287348702549934387
-0.0415330454707145691 -0.00879080314189195633 -0.0285058170557022095
-0.0464687645435333252 -0.00854271743446588516 -0.0285669658333063126
-0.039486229419708252 -0.00498016318306326866 -0.0294450558722019196
-0.00920376554131507874 -0.00413529900833964348 -0.0296532958745956421
-0.0326952636241912842 -0.00757643859833478928 -0.0288051310926675797
-0.0488739162683486938 -0.00454551540315151215 -0.029552185907959938
-0.0366629958152770996 -0.00365427392534911633 -0.029771856963634491
-0.0138210244476795197 -0.00460065482184290886 -0.029538596048951149
-0.0346294008195400238 -0.00574693270027637482 -0.0292560644447803497
-0.0453061237931251526 -0.00838313717395067215 -0.0286062974482774734
-0.0108311101794242859 -0.0036451900377869606 -0.0297740977257490158
-0.043415069580078125 -0.0064940229058265686 -0.0290719233453273773
-0.0142836049199104309 -0.00537005346268415451 -0.0293489564210176468
-0.048165149986743927 -0.00931638199836015701 -0.0283762738108634949
-0.0191927757114171982 -0.00508235907182097435 -0.0294198654592037201
-0.0329171717166900635 -0.00593293830752372742 -0.0292102191597223282
-0.0477218367159366608 -0.00816721748560667038 -0.0286595169454813004
-0.0222504530102014542 -0.00562647543847560883 -0.029285753145813942
-0.0208962578326463699 -0.00495671341195702553 -0.0294508356600999832
-0.0246612932533025742 -0.00456312345340847969 -0.0295478478074073792
-0.0225629173219203949 -0.00554634444415569305 -0.029305504634976387
-0.0342667698860168457 -0.00522985635325312614 -0.0293835122138261795
-0.00989789143204689026 -0.00445060385391116142 -0.0295755807310342789
-0.0485614724457263947 -0.00635985191911458969 -0.0291049927473068237
-0.0481935814023017883 -0.00977475568652153015 -0.0282632932066917419
-0.012378990650177002 -0.00365615217015147209 -0.0297713950276374817
-0.0400837771594524384 -0.0086737610399723053 -0.0285346657037734985
-0.00999813899397850037 -0.00421195151284337044 -0.0296344030648469925
-0.0390811637043952942 -0.00578559050336480141 -0.0292465351521968842
-0.0482979342341423035 -0.00867836643010377884 -0.0285335294902324677
-0.0310083571821451187 -0.00527445971965789795 -0.0293725188821554184
-0.0470554307103157043 -0.00493390671908855438 -0.0294564571231603622
-0.018965400755405426 -0.00493649812415242195 -0.029455818235874176
-0.0371706895530223846 -0.0169829204678535461 -0.0247204918414354324
-0.0208313539624214172 -0.0165109578520059586 -0.0249681975692510605
-0.017384406179189682 -0.014722803607583046 -0.0259066950529813766
-0.0201913565397262573 -0.013823244720697403 -0.0263788197189569473
-0.00773587822914123535 -0.0142403664067387581 -0.0261598974466323853
-0.02259821817278862 -0.0147330202162265778 -0.0259013324975967407
-0.00784054026007652283 -0.0129990354180335999 -0.0268113985657691956
-0.000563469366170465946 -0.0109393317252397537 -0.0278924144804477692
-0.0095464903861284256 -0.0127305388450622559 -0.0269523151218891144
-4.8507004976272583e-05 -0.0166906826198101044 -0.0248738713562488556
-0.0314317271113395691 -0.0165787674486637115 -0.0249326098710298538
-0.0117126051336526871 -0.0135024432092905045 -0.0265471898019313812
-0.0119166523218154907 -0.0144981872290372849 -0.0260245818644762039
-0.0141965961083769798 -0.0144242225214838982 -0.0260634012520313263
-0.00101822521537542343 -0.0111825186759233475 -0.0277647804468870163
-0.00242846459150314331 -0.0159799754619598389 -0.0252468790858983994
-0.00821096450090408325 -0.0124299768358469009 -0.0271100625395774841
-0.0230823606252670288 -0.0152001595124602318 -0.0256561581045389175
-0.0300200153142213821 -0.0163221973925828934 -0.0250672679394483566
-0.0166567042469978333 -0.0138873178511857986 -0.0263451896607875824
-0.0271531715989112854 -0.0166513025760650635 -0.0248945392668247223
-0.017946319654583931 -0.0153213152661919594 -0.0255925711244344711
-0.0339033119380474091 -0.0151718845590949059 -0.0256709977984428406
-0.00883983634412288666 -0.0150526696816086769 -0.0257335677742958069
-0.0313452780246734619 -0.0161917023360729218 -0.0251357555389404297
-0.0126772504299879074 -0.016212141141295433 -0.0251250285655260086
-0.0147979222238063812 -0.0169854741543531418 -0.0247191525995731354
-0.00728443637490272522 -0.0167745146900415421 -0.0248298738151788712
-0.0372258611023426056 -0.016208818182349205 -0.025126773864030838
-0.0204762425273656845 -0.0160989146679639816 -0.0251844543963670731
-0.0148712228983640671 -0.012884926050901413 -0.0268712863326072693
-0.0101298941299319267 -0.0131368357688188553 -0.0267390739172697067
-0.00785702280700206757 -0.0119664687663316727 -0.0273533295840024948
-0.0297792479395866394 -0.0163234993815422058 -0.0250665843486785889
-0.0104028359055519104 -0.0148096252232789993 -0.0258611273020505905
-0.0287059508264064789 -0.0156869329512119293 -0.0254006795585155487
-0.0216440465301275253 -0.0157591290771961212 -0.0253627896308898926
-0.0139103028923273087 -0.0141069414094090462 -0.0262299235910177231
-0.0264114066958427429 -0.0154638336971402168 -0.0255177710205316544
-0.0142312329262495041 -0.0125445164740085602 -0.0270499475300312042
-0.042818758636713028 -0.0119958315044641495 -0.0273379199206829071
-0.0443952493369579315 -0.015081494115293026 -0.0257184375077486038
-0.0143826790153980255 -0.0118129570037126541 -0.0274339001625776291
-0.0358771719038486481 -0.0130353653803467751 -0.0267923306673765182
-0.0178352035582065582 -0.0115596484392881393 -0.0275668464601039886
-0.0347042419016361237 -0.0134640289470553398 -0.0265673492103815079
-0.0368559136986732483 -0.0148854879662394524 -0.0258213113993406296
-0.0471883155405521393 -0.0152618279680609703 -0.0256237927824258804
-0.0369263514876365662 -0.0117842201143503189 -0.0274489820003509521
-0.0441524982452392578 -0.0149755552411079407 -0.0257740411907434464
-0.0352080762386322021 -0.0147851435467600822 -0.0258739758282899857
-0.0278295986354351044 -0.013402019627392292 -0.0265998952090740204
-0.0481815673410892487 -0.0156854297965764999 -0.0254014693200588226
-0.0489666014909744263 -0.0139711219817399979 -0.0263012070208787918
-0.0476811379194259644 -0.0106512336060404778 -0.0280436202883720398
-0.0449074655771255493 -0.0131751606240868568 -0.0267189592123031616
-0.0152496024966239929 -0.0108198001980781555 -0.027955150231719017
-0.0379277914762496948 -0.0132994009181857109 -0.0266537535935640335
-0.00833981484174728394 -0.0113381575793027878 -0.0276830922812223434
-0.0239716172218322754 -0.0107560381293296814 -0.0279886126518249512
-0.0374019704759120941 -0.0121702123433351517 -0.0272463969886302948
-0.0459329411387443542 -0.0163425207138061523 -0.0250566005706787109
-0.00669637322425842285 -0.0115125356242060661 -0.0275915712118148804
-0.0350068286061286926 -0.0150744318962097168 -0.0257221460342407227
-0.0487148277461528778 -0.0120076751336455345 -0.0273317042738199234
-0.0259333215653896332 -0.0124833611771464348 -0.0270820427685976028
-0.0175821706652641296 -0.0116379167884588242 -0.0275257676839828491
-0.0213129837065935135 -0.0131282191723585129 -0.0267435982823371887
-0.0386126264929771423 -0.0113632595166563988 -0.0276699177920818329
-0.0334891639649868011 -0.0119086531922221184 -0.0273836739361286163
-0.0296754948794841766 -0.0127330031245946884 -0.0269510224461555481
-0.0468166694045066833 -0.0123122036457061768 -0.0271718744188547134
-0.00846953317523002625 -0.0116701070219278336 -0.0275088734924793243
-0.037671014666557312 -0.0144884055480360985 -0.0260297153145074844
-0.0443892739713191986 -0.013238959014415741 -0.0266854744404554367
-0.0467559248208999634 -0.0153307048603892326 -0.025587642565369606
-0.0220619384199380875 -0.0127077056095004082 -0.0269642993807792664
-0.0370736382901668549 -0.0107030309736728668 -0.0280164331197738647
-0.0484612844884395599 -0.0122275501489639282 -0.0272163040935993195
-0.0410651266574859619 -0.0129822036251425743 -0.0268202312290668488
-0.0227045118808746338 -0.011880035512149334 -0.0273986943066120148
-0.0238250531256198883 -0.0213708449155092239 -0.0208544433116912842
-0.0330291315913200378 -0.0222278330475091934 -0.0200952179729938507
-0.0272417515516281128 -0.0216875225305557251 -0.0205738916993141174
-0.0335781648755073547 -0.0216995496302843094 -0.0205632355064153671
-0.0187722668051719666 -0.0204246304929256439 -0.021692715585231781
-0.00835572928190231323 -0.0185814201831817627 -0.0233256574720144272
-0.00257314369082450867 -0.0222460366785526276 -0.0200790911912918091
-0.0118047166615724564 -0.0202051158994436264 -0.0218871887773275375
-0.00488844141364097595 -0.021414928138256073 -0.0208153892308473587
-0.00852035358548164368 -0.0204090625047683716 -0.021706506609916687
-0.00503370165824890137 -0.0214152578264474869 -0.0208150967955589294
-0.0120820533484220505 -0.0211806353181600571 -0.0210229530930519104
-0.0164345875382423401 -0.0221183989197015762 -0.020192168653011322
-0.00790899619460105896 -0.0212792158126831055 -0.0209356192499399185
-0.0224353764206171036 -0.0203058905899524689 -0.0217979103326797485
-0.0138612855225801468 -0.0197750665247440338 -0.0222681798040866852
-0.00376177020370960236 -0.0204342231154441833 -0.0216842163354158401
-0.0182310435920953751 -0.020279986783862114 -0.0218208581209182739
-0.00554682221263647079 -0.0188073534518480301 -0.0231254976242780685
-0.0140676824375987053 -0.0202787332236766815 -0.0218219682574272156
-0.00928672589361667633 -0.0189064014703035355 -0.0230377484112977982
-0.0345649830996990204 -0.0212443433701992035 -0.0209665130823850632
-0.0131568517535924911 -0.0209327936172485352 -0.0212425217032432556
-0.0147717054933309555 -0.0212043840438127518 -0.0210019145160913467
-0.0415051914751529694 -0.0221457891166210175 -0.0201679021120071411
-0.0129310991615056992 -0.0191861763596534729 -0.0227898899465799332
-0.0204516034573316574 -0.0221121031790971756 -0.0201977454125881195
-0.0202659424394369125 -0.020497417077422142 -0.0216282326728105545
-0.015993090346455574 -0.0206137001514434814 -0.0215252134948968887
-0.0122366733849048615 -0.0203598067164421082 -0.0217501446604728699
-0.0191690884530544281 -0.0222568865865468979 -0.0200694780796766281
-0.0177351664751768112 -0.0205803308635950089 -0.0215547773987054825
-0.0040534287691116333 -0.0187601428478956223 -0.0231673233211040497
-0.0150581067427992821 -0.0203468687832355499 -0.021761605516076088
-0.0210189744830131531 -0.0203361939638853073 -0.0217710640281438828
-0.00214355858042836189 -0.0178770646452903748 -0.0239496622234582901
-0.0177452452480792999 -0.0201049670577049255 -0.0219759140163660049
-0.0167076457291841507 -0.0217941608279943466 -0.0204794183373451233
-0.0169855281710624695 -0.0207846406847238541 -0.0213737748563289642
-0.0340998172760009766 -0.0217255596071481705 -0.020540192723274231
-0.0323730483651161194 -0.0200445950031280518 -0.0220293980091810226
-0.0421455837786197662 -0.0186866968870162964 -0.0232323911041021347
-0.0327262803912162781 -0.0181794688105583191 -0.0236817542463541031
-0.0269269421696662903 -0.0189565103501081467 -0.022993357852101326
-0.0197372008115053177 -0.0184044912457466125 -0.0234824027866125107
-0.0314578115940093994 -0.0204597637057304382 -0.0216615907847881317
-0.0172848589718341827 -0.0175562016665935516 -0.0242339223623275757
-0.0346841737627983093 -0.0194592401385307312 -0.0225479770451784134
-0.0353578813374042511 -0.0192778315395116806 -0.0227086897939443588
-0.0254246611148118973 -0.0175168290734291077 -0.0242688003927469254
-0.0196762122213840485 -0.0186167750507593155 -0.0232943352311849594
-0.0438220426440238953 -0.0185807086527347565 -0.0233262889087200165
-0.00969054549932479858 -0.0171746332198381424 -0.0245719607919454575
-0.0393576212227344513 -0.0176057666540145874 -0.0241900105029344559
-0.0365493036806583405 -0.019509442150592804 -0.0225035026669502258
-0.0187930576503276825 -0.0189372021704912186 -0.0230104606598615646
-0.0361909791827201843 -0.0193444006145000458 -0.0226497147232294083
-0.0205383468419313431 -0.0178376771509647369 -0.0239845570176839828
-0.0452850013971328735 -0.0181784573942422867 -0.0236826520413160324
-0.0291607845574617386 -0.0182720273733139038 -0.0235997550189495087
-0.0291229058057069778 -0.0192405898123979568 -0.022741684690117836
-0.0489955209195613861 -0.0176071710884571075 -0.0241887662559747696
-0.0479864329099655151 -0.0176551789045333862 -0.0241462346166372299
-0.0411667823791503906 -0.0191417858004570007 -0.0228292178362607956
-0.0470603741705417633 -0.018797772005200386 -0.023133985698223114
-0.0378680676221847534 -0.0191139671951532364 -0.0228538606315851212
-0.0335696861147880554 -0.0188471153378486633 -0.0230902731418609619
-0.040346093475818634 -0.0213023237884044647 -0.0209151487797498703
-0.00473354756832122803 -0.0174348466098308563 -0.0243414342403411865
-0.0260071959346532822 -0.0192404165863990784 -0.0227418374270200729
-0.0392203405499458313 -0.0185317322611808777 -0.0233696755021810532
-0.0383106768131256104 -0.0201972648501396179 -0.0218941438943147659
-0.041418805718421936 -0.0175757203251123428 -0.0242166314274072647
-0.0283908732235431671 -0.0174779929220676422 -0.0243032071739435196
-0.0252531189471483231 -0.0185360386967658997 -0.0233658608049154282
-0.0299977380782365799 -0.0200425069779157639 -0.022031247615814209
-0.0120185576379299164 -0.0175860896706581116 -0.0242074429988861084
-0.0225799344480037689 -0.0186200831085443497 -0.0232914052903652191
-0.0403046831488609314 -0.0214820951223373413 -0.0207558833062648773
-0.0320035293698310852 -0.0181566253304481506 -0.0237019918859004974
-0.00172929838299751282 -0.0252123381942510605 -0.0158994533121585846
-0.00970791187137365341 -0.0233554132282733917 -0.0185896717011928558
-0.00410963175818324089 -0.0232090242207050323 -0.0188017543405294418
-0.00224371254444122314 -0.0257128197699785233 -0.01517438143491745
-0.0368398465216159821 -0.0258023831993341446 -0.0150446267798542976
-0.00443753600120544434 -0.02581833116710186 -0.0150215206667780876
-0.00330372527241706848 -0.0262098051607608795 -0.014454372227191925
-0.0328772403299808502 -0.0265333168208599091 -0.0139856860041618347
-0.00835594721138477325 -0.0249769594520330429 -0.0162404589354991913
-0.00280896946787834167 -0.0248432084918022156 -0.0164342280477285385
-0.0310220085084438324 -0.026158064603805542 -0.0145293325185775757
-0.0151055194437503815 -0.0262750964611768723 -0.014359782449901104
-0.0158908665180206299 -0.0253414865583181381 -0.015712350606918335
-0.00660884939134120941 -0.0254090074449777603 -0.0156145282089710236
-0.00160496681928634644 -0.0252381674945354462 -0.0158620346337556839
-0.0236434601247310638 -0.0263047125190496445 -0.0143168773502111435
-0.0144561761990189552 -0.023922555148601532 -0.0177680272608995438
-0.0149993672966957092 -0.0264266449958086014 -0.0141402259469032288
-0.0334994047880172729 -0.0257887467741966248 -0.0150643819943070412
-0.015324154868721962 -0.024904375895857811 -0.0163456127047538757
-0.035309918224811554 -0.0256376210600137711 -0.0152833256870508194
-0.0250396132469177246 -0.0259259846061468124 -0.0148655585944652557
-0.0124786766245961189 -0.0246116276830434799 -0.016769731417298317
-0.0139161273837089539 -0.0236266367137432098 -0.0181967355310916901
-0.0239550136029720306 -0.0245264358818531036 -0.0168931540101766586
-0.00871218740940093994 -0.0239338595420122147 -0.017751649022102356
-0.00497706327587366104 -0.0240396168082952499 -0.0175984334200620651
-0.00496376678347587585 -0.0250914953649044037 -0.0160745233297348022
-0.00325704365968704224 -0.025383632630109787 -0.015651291236281395
-0.0217845607548952103 -0.0257358495146036148 -0.0151410168036818504
-0.0302454419434070587 -0.0261840000748634338 -0.0144917583093047142
-0.0115329697728157043 -0.0256011839956045151 -0.0153361130505800247
-0.0202371254563331604 -0.025982273742556572 -0.0147840091958642006
-0.0163537152111530304 -0.0251103583723306656 -0.0160471964627504349
-0.00123741105198860168 -0.0250826142728328705 -0.0160873904824256897
-0.0420433841645717621 -0.0259944591671228409 -0.0147663559764623642
-0.0141665870323777199 -0.0237975344061851501 -0.0179491490125656128
-0.0193382613360881805 -0.0262193102389574051 -0.0144406035542488098
-0.0101646017283201218 -0.0253155939280986786 -0.015749860554933548
-0.00605901144444942474 -0.0240031499415636063 -0.0176512636244297028
-0.0173193365335464478 -0.0224900729954242706 -0.0198433324694633484
-0.0256061572581529617 -0.0234701596200466156 -0.0184234324842691422
-0.0239345375448465347 -0.0225610174238681793 -0.0197405535727739334
-0.0469382517039775848 -0.0247022323310375214 -0.0166384689509868622
-0.0361887291073799133 -0.0249994434416294098 -0.0162078849971294403
-0.0434984788298606873 -0.0251174457371234894 -0.0160369295626878738
-0.0183200910687446594 -0.0232263244688510895 -0.0187766868621110916
-0.0392629951238632202 -0.0226426050066947937 -0.0196223538368940353
-0.0418161265552043915 -0.0249280333518981934 -0.0163113400340080261
-0.0279747378081083298 -0.0246938411146402359 -0.0166506245732307434
-0.0290278084576129913 -0.0248409714549779892 -0.0164374709129333496
-0.0431554690003395081 -0.0227777138352394104 -0.0194266140460968018
-0.0260688457638025284 -0.0233811140060424805 -0.0185524392873048782
-0.0360556356608867645 -0.0232919640839099884 -0.018681596964597702
-0.0374963581562042236 -0.0248659439384937286 -0.0164012890309095383
-0.0154954344034194946 -0.023561304435133934 -0.0182913877069950104
-0.016115337610244751 -0.0236115697771310806 -0.0182185657322406769
-0.036542404443025589 -0.0247011110186576843 -0.0166400931775569916
-0.0319088846445083618 -0.0251104850322008133 -0.016047012060880661
-0.0196259617805480957 -0.0231999345123767853 -0.0188149213790893555
-0.0465142726898193359 -0.0240456853061914444 -0.017589641734957695
-0.0324347987771034241 -0.0251516588032245636 -0.0159873608499765396
-0.0398471876978874207 -0.0232140030711889267 -0.0187945384532213211
-0.0375903323292732239 -0.022559143602848053 -0.0197432655841112137
-0.0301664210855960846 -0.0231471192091703415 -0.0188914388418197632
-0.0475448183715343475 -0.0264288634061813354 -0.0141370110213756561
-0.0246043223887681961 -0.0230360999703407288 -0.0190522782504558563
-0.0363068319857120514 -0.022942759096622467 -0.0191875044256448746
-0.0201478693634271622 -0.0231559965759515762 -0.0188785772770643234
-0.0452203750610351562 -0.0227896645665168762 -0.0194093007594347
-0.0481827445328235626 -0.026364518329501152 -0.0142302326858043671
-0.0486688651144504547 -0.0256337914615869522 -0.0152888726443052292
-0.0465192534029483795 -0.0224648155272006989 -0.0198799241334199905
-0.0123907700181007385 -0.0234703719615936279 -0.018423125147819519
-0.00468499958515167236 -0.0225841663777828217 -0.0197070147842168808
-0.0209753531962633133 -0.0235449075698852539 -0.018315143883228302
-0.0452288500964641571 -0.0257022511214017868 -0.015189693309366703
-0.0471369810402393341 -0.0235030706971883774 -0.0183757524937391281
-0.00804738700389862061 -0.0226064138114452362 -0.0196747854351997375
-0.0441166050732135773 -0.0244465731084346771 -0.0170088578015565872
-0.0328697748482227325 -0.0231868866831064224 -0.0188338272273540497
-0.0113746970891952515 -0.0280278809368610382 -0.0100809205323457718
-0.010435882955789566 -0.0290519464761018753 -0.00738067738711833954
-0.0103144040331244469 -0.0275460816919803619 -0.0113513162359595299
-0.0216219909489154816 -0.0283076819032430649 -0.00934314355254173279
-0.0443700700998306274 -0.0290461406111717224 -0.00739598972722887993
-0.01509113609790802 -0.0274988468736410141 -0.0114758685231208801
-0.00115611124783754349 -0.0272499062120914459 -0.0121322683990001678
-0.00642242375761270523 -0.0274586305022239685 -0.0115819107741117477
-0.0191018059849739075 -0.0283648520708084106 -0.00919240061193704605
-0.0376683436334133148 -0.0288600865751504898 -0.00788657087832689285
-0.000180464237928390503 -0.0286797713488340378 -0.00836202502250671387
-0.0152145884931087494 -0.028488675132393837 -0.00886590499430894852
-0.00324418209493160248 -0.0270124766975641251 -0.0127583201974630356
-0.0346623174846172333 -0.028802206739783287 -0.00803918857127428055
-0.0190787985920906067 -0.0276609435677528381 -0.0110484519973397255
-0.0267775785177946091 -0.028928777202963829 -0.00770545192062854767
-0.0339410267770290375 -0.0288942866027355194 -0.00779639557003974915
-0.0365561768412590027 -0.028934994712471962 -0.00768905412405729294
-0.00079110264778137207 -0.0287215914577245712 -0.00825175642967224121
-0.00441695284098386765 -0.0272107943892478943 -0.0122353993356227875
-0.0224786307662725449 -0.0290489364415407181 -0.00738861784338951111
-0.0357418954372406006 -0.0285967271775007248 -0.00858099386096000671
-0.0159695558249950409 -0.0276050828397274017 -0.0111957453191280365
-0.00599267520010471344 -0.0269814170897006989 -0.0128402188420295715
-0.0180571991950273514 -0.0280347559601068497 -0.0100627914071083069
-0.000218332745134830475 -0.0273140091449022293 -0.0119632445275783539
-0.0103313755244016647 -0.0277963150292634964 -0.0106915058568120003
-0.0370512828230857849 -0.0287596974521875381 -0.00815127510577440262
-0.00128914415836334229 -0.0271728076040744781 -0.0123355649411678314
-0.0156005136668682098 -0.0285324025899171829 -0.00875060632824897766
-0.0150170288980007172 -0.0277347415685653687 -0.010853862389922142
