ply
format ascii 1.0
element vertex 756
property float x
property float y
property float z
end_header
0.63062751293182373 0.306245714426040649 0.0518800392746925354
0.285916596651077271 0.072076164186000824 0.166793912649154663
0.870014607906341553 0.468866556882858276 0.0547548532485961914
0.577083170413970947 0.269871920347213745 0.0602526664733886719
0.692762553691864014 0.348455429077148438 0.141981586813926697
0.313679516315460205 0.0909361317753791809 0.201012358069419861
0.672152280807495117 0.334454387426376343 0.102647513151168823
0.197735577821731567 0.0121729001402854919 0.102714024484157562
0.453407704830169678 0.18585650622844696 0.0366836190223693848
0.323397696018218994 0.0975378751754760742 0.0754235982894897461
0.374691247940063477 0.132382720708847046 0.2262917160987854
0.212212309241294861 0.0220072567462921143 0.27644839882850647
0.750101149082183838 0.387406736612319946 0.167994916439056396
0.580296456813812256 0.272054761648178101 0.0173085182905197144
0.313736319541931152 0.0909747183322906494 0.244899600744247437
0.585742712020874023 0.27575451135635376 0.159323394298553467
0.784325718879699707 0.410656243562698364 0.0995626300573348999
0.241963654756546021 0.0422179847955703735 0.165980219841003418
0.443761885166168213 0.179303884506225586 0.0482853055000305176
0.886506021022796631 0.480069518089294434 0.125837713479995728
0.449960410594940186 0.183514684438705444 0.23466801643371582
0.921802520751953125 0.504047214984893799 0.0868601351976394653
0.230397626757621765 0.0343609340488910675 0.165875554084777832
0.924486458301544189 0.505870461463928223 0.0500712096691131592
0.447793841361999512 0.182042881846427917 0.231369495391845703
0.642036914825439453 0.313996404409408569 0.111295364797115326
0.613112151622772217 0.294347167015075684 0.202981352806091309
0.229973673820495605 0.0340729281306266785 0.150268718600273132
0.784572064876556396 0.410823613405227661 0.014765515923500061
0.579742670059204102 0.271678566932678223 0.0985647737979888916
0.339593857526779175 0.108540289103984833 0.127529516816139221
0.241983726620674133 0.0422316193580627441 0.200042411684989929
0.480902433395385742 0.204534247517585754 0.0513309165835380554
0.418242573738098145 0.161968052387237549 0.0136832296848297119
1.07934629917144775 0.611070096492767334 0.0575267821550369263
0.733461976051330566 0.376103401184082031 0.0156935751438140869
0.412139594554901123 0.157822161912918091 0.036051090806722641
0.499320507049560547 0.217046067118644714 0.0721760392189025879
0.545115053653717041 0.248155280947685242 0.136293724179267883
0.716903269290924072 0.364854723215103149 0.150325104594230652
1.01571404933929443 0.567843317985534668 0.0256261825561523438
0.953515589237213135 0.525590598583221436 0.0606709718704223633
0.998459100723266602 0.556121647357940674 0.0198343992233276367
1.1590876579284668 0.665240108966827393 0.0489784777164459229
0.255626440048217773 0.0514994040131568909 0.279056370258331299
0.184128701686859131 0.00292945071123540401 0.292276978492736816
0.862756550312042236 0.463936001062393188 0.104278311133384705
0.540471792221069336 0.24500100314617157 0.204447388648986816
0.275816977024078369 0.0652152672410011292 0.0939259976148605347
0.395297229290008545 0.146380782127380371 0.0184035561978816986
1.28125083446502686 0.748228192329406738 0.0150754153728485107
0.964859366416931152 0.533296644687652588 0.0545891523361206055
0.823340058326721191 0.437159538269042969 0.0103786289691925049
0.924693286418914795 0.506011009216308594 0.0319392532110214233
0.743514299392700195 0.382932186126708984 0.0385619550943374634
0.457371890544891357 0.188549458980560303 0.00151745975017547607
0.724930703639984131 0.370307952165603638 0.0888477563858032227
1.22924315929412842 0.712898313999176025 0.0342613160610198975
1.13284635543823242 0.647413849830627441 0.0164822190999984741
0.995839238166809082 0.554341912269592285 0.0918603241443634033
0.665674030780792236 0.330053597688674927 0.00111831724643707275
1.17936408519744873 0.679014325141906738 0.0400404930114746094
0.520581722259521484 0.231489270925521851 0.0696475878357887268
0.569248437881469727 0.264549612998962402 0.138757824897766113
0.989751219749450684 0.550206243991851807 0.0724565386772155762
0.996746361255645752 0.554958164691925049 0.0871839672327041626
0.302255779504776001 0.0831757336854934692 0.121924787759780884
0.78897249698638916 0.413812905550003052 0.0795563757419586182
0.469960033893585205 0.197100833058357239 0.21031343936920166
0.85254514217376709 0.45699918270111084 0.136635527014732361
0.884815692901611328 0.478921264410018921 0.10152609646320343
0.68989717960357666 0.346508920192718506 0.0857652872800827026
0.337109774351119995 0.106852799654006958 0.0779632329940795898
0.846283495426177979 0.452745497226715088 0.13419438898563385
0.412085920572280884 0.157785713672637939 0.120376572012901306
0.689844965934753418 0.346473455429077148 0.118903592228889465
0.188894703984260559 0.00616709841415286064 0.228590518236160278
0.86673128604888916 0.466636121273040771 0.0708113759756088257
0.591375470161437988 0.279580980539321899 0.173593759536743164
0.583339214324951172 0.274121761322021484 0.16102445125579834
0.960013747215270996 0.530004918575286865 0.0749955177307128906
0.341056704521179199 0.109534040093421936 0.0660102441906929016
0.409283101558685303 0.155881687998771667 0.233803004026412964
1.1807858943939209 0.679980218410491943 0.0548754632472991943
0.274771749973297119 0.0645052269101142883 0.163767367601394653
0.905984282493591309 0.493301510810852051 0.0935365557670593262
0.523135721683502197 0.233224242925643921 0.123609170317649841
0.682508766651153564 0.341489821672439575 0.0818106979131698608
0.754716813564300537 0.390542298555374146 0.13873271644115448
0.615853190422058105 0.296209216117858887 0.0801779031753540039
0.589737832546234131 0.278468519449234009 0.0331401899456977844
0.202763497829437256 0.0155884679406881332 0.103310316801071167
0.953934133052825928 0.525874912738800049 0.057376667857170105
0.77213209867477417 0.402372866868972778 0.158291295170783997
0.686446189880371094 0.344164550304412842 0.146359562873840332
0.643344283103942871 0.31488451361656189 0.151870429515838623
0.616023004055023193 0.296324580907821655 0.204835057258605957
0.294694423675537109 0.0780391469597816467 0.234940186142921448
0.618858218193054199 0.29825061559677124 0.0395501777529716492
0.318155467510223389 0.093976728618144989 0.122570142149925232
0.347185432910919189 0.113697409629821777 0.25310555100440979
0.885935842990875244 0.479682207107543945 0.0708330422639846802
0.790573716163635254 0.414900630712509155 0.00423184037208557129
0.309029847383499146 0.0877774953842163086 0.00685748457908630371
0.46151202917098999 0.191361919045448303 0.186155140399932861
0.563647747039794922 0.260744929313659668 0.189851492643356323
0.960862219333648682 0.530581295490264893 0.0212404876947402954
0.331077933311462402 0.102755226194858551 0.27506294846534729
0.275005578994750977 0.0646640881896018982 0.170003980398178101
1.06174540519714355 0.599113404750823975 0.00503186881542205811
0.303317934274673462 0.0838972702622413635 0.0312028303742408752
0.727412283420562744 0.371993750333786011 0.0879438817501068115
0.292864233255386353 0.0767958536744117737 0.0977880135178565979
0.456338942050933838 0.187847748398780823 0.109491109848022461
1.1555168628692627 0.66281437873840332 0.0409808456897735596
0.222384601831436157 0.0289175081998109818 0.0110894255340099335
0.358070343732833862 0.121091768145561218 0.238974407315254211
0.886408984661102295 0.480003625154495239 0.129069268703460693
0.279827266931533813 0.0679395571351051331 0.13584601879119873
0.390542477369308472 0.143150776624679565 0.0511823967099189758
0.852720975875854492 0.457118630409240723 0.0704098641872406006
0.399993389844894409 0.149571001529693604 0.156630069017410278
0.96604079008102417 0.534099221229553223 0.0117950290441513062
0.570704519748687744 0.265538722276687622 0.16029725968837738
0.954176008701324463 0.526039242744445801 0.0207587182521820068
0.423258066177368164 0.165375187993049622 0.00153527408838272095
0.838524997234344482 0.447475016117095947 0.0361876934766769409
0.250538915395736694 0.0480433404445648193 0.245651915669441223
0.666611850261688232 0.330690652132034302 0.0198093801736831665
0.290847361087799072 0.0754257366061210632 0.0511574074625968933
0.388269722461700439 0.141606852412223816 0.0588973723351955414
1.10842370986938477 0.630822956562042236 0.0537357032299041748
0.532136976718902588 0.239338979125022888 0.222125887870788574
0.927879571914672852 0.508175492286682129 0.0323916971683502197
0.412640273571014404 0.158162295818328857 0.166395246982574463
0.316678225994110107 0.0929732024669647217 0.230752378702163696
0.560201108455657959 0.258403539657592773 0.216358006000518799
0.288026928901672363 0.0735097602009773254 0.185682818293571472
0.863580882549285889 0.464495986700057983 0.0984200239181518555
0.973643302917480469 0.539263784885406494 0.0506337136030197144
0.220190644264221191 0.0274271070957183838 0.0350571312010288239
0.189944297075271606 0.00688011478632688522 0.0133531671017408371
0.189588621258735657 0.00663849152624607086 0.273280918598175049
1.38369321823120117 0.817819535732269287 0.00184151530265808105
1.00835120677947998 0.562841594219207764 0.0966307222843170166
0.196760073304176331 0.0115102203562855721 0.0831947550177574158
0.583489418029785156 0.274223804473876953 0.192222043871879578
0.534190356731414795 0.240733891725540161 0.0828945189714431763
0.402523696422576904 0.151289880275726318 0.0630599707365036011
0.73282390832901001 0.375669986009597778 0.140633866190910339
0.386782258749008179 0.140596389770507812 0.08073454350233078
1.28290879726409912 0.74935448169708252 0.0204865336418151855
0.292116403579711914 0.0762878283858299255 0.128612518310546875
0.636040151119232178 0.309922635555267334 0.189456582069396973
1.21127176284790039 0.700689911842346191 0.0109750330448150635
0.632283627986907959 0.307370781898498535 0.0876865237951278687
0.461280584335327148 0.191204726696014404 0.0453138276934623718
1.16910052299499512 0.67204207181930542 0.0179717540740966797
0.226799085736274719 0.0319163650274276733 0.11842481791973114
0.752780437469482422 0.389226853847503662 0.0938101410865783691
0.192414373159408569 0.00855808425694704056 0.303773224353790283
0.701039433479309082 0.354078084230422974 0.0489008426666259766
0.341067075729370117 0.109541073441505432 0.0454031527042388916
0.274356961250305176 0.0642234534025192261 0.134083867073059082
1.01181662082672119 0.565195679664611816 0.0300606489181518555
0.906432092189788818 0.493605732917785645 0.1172618567943573
1.37474846839904785 0.811743199825286865 0.00188621878623962402
1.10883069038391113 0.631099462509155273 0.0177937746047973633
0.35719144344329834 0.120494700968265533 0.169183999300003052
0.853007912635803223 0.457313567399978638 0.0622092634439468384
0.413233906030654907 0.158565565943717957 0.22709248960018158
0.556496858596801758 0.25588718056678772 0.0658210143446922302
0.801153004169464111 0.422087401151657104 0.122507870197296143
0.464118897914886475 0.193132862448692322 0.115462176501750946
0.935782074928283691 0.513543844223022461 0.0697182267904281616
0.311560869216918945 0.0894968733191490173 0.129341989755630493
0.590520143508911133 0.278999924659729004 0.209487736225128174
0.377415508031845093 0.134233355522155762 0.16297447681427002
0.683572888374328613 0.342212677001953125 0.0651398301124572754
0.435334503650665283 0.173578992486000061 0.243997856974601746
1.0261225700378418 0.574914038181304932 0.00653390586376190186
0.335866034030914307 0.106007903814315796 0.0468864105641841888
0.410365432500839233 0.156616941094398499 0.0755316168069839478
0.684726953506469727 0.342996656894683838 0.1202821284532547
0.228739351034164429 0.0332344286143779755 0.0345900878310203552
0.589638173580169678 0.278400808572769165 0.013630397617816925
0.639756143093109131 0.312447011470794678 0.00858335942029953003
0.235473930835723877 0.0378093719482421875 0.00892867613583803177
0.771929144859313965 0.4022350013256073 0.0816470086574554443
0.932385921478271484 0.511236786842346191 0.0234816372394561768
0.471864759922027588 0.198394760489463806 0.0208537355065345764
0.644007444381713867 0.315335005521774292 0.118571363389492035
0.896899759769439697 0.487130224704742432 0.0256565064191818237
0.868924975395202637 0.468126356601715088 0.0983619540929794312
1.03716039657592773 0.582412302494049072 0.0231811255216598511
0.188549041748046875 0.00593228964135050774 0.158155113458633423
0.480903506278991699 0.204534977674484253 0.188774049282073975
0.204781830310821533 0.0169595722109079361 0.025604642927646637
0.912563860416412354 0.497771203517913818 0.0991372019052505493
0.898758888244628906 0.488393157720565796 0.119325593113899231
0.657805860042572021 0.32470858097076416 0.148136883974075317
0.839600086212158203 0.448205322027206421 0.101595237851142883
0.563479840755462646 0.260630875825881958 0.210085451602935791
0.615732789039611816 0.296127408742904663 0.172873347997665405
0.741889417171478271 0.381828367710113525 0.0477955490350723267
0.282171964645385742 0.0695323646068572998 0.0338953062891960144
0.322785437107086182 0.0971219539642333984 0.118244066834449768
0.799337387084960938 0.420854002237319946 0.0727564245462417603
0.378276228904724121 0.134818047285079956 0.0479675531387329102
1.13665163516998291 0.649998843669891357 0.0138693451881408691
1.11385035514831543 0.634509444236755371 0.0159959942102432251
0.546757102012634277 0.249270766973495483 0.211287155747413635
0.280175119638442993 0.0681758597493171692 0.146777212619781494
0.417902290821075439 0.161736905574798584 0.0406432598829269409
0.273727953433990479 0.0637961626052856445 0.0559173896908760071
0.762705802917480469 0.395969390869140625 0.0707902014255523682
0.73834526538848877 0.379420727491378784 0.0104631334543228149
0.37916216254234314 0.135419890284538269 0.099639400839805603
0.775461733341217041 0.404634743928909302 0.00788137316703796387
1.19037961959838867 0.68649744987487793 0.000740945339202880859
0.713461995124816895 0.362516999244689941 0.0128524750471115112
0.19361664354801178 0.00937481410801410675 0.288244932889938354
1.20215761661529541 0.69449847936630249 0.0316711068153381348
0.422240793704986572 0.164684146642684937 0.210141181945800781
0.705265223979949951 0.356948733329772949 0.0547498911619186401
0.372390925884246826 0.130820050835609436 0.0203183144330978394
0.546904325485229492 0.249370753765106201 0.00054635852575302124
0.387201786041259766 0.140881389379501343 0.110514372587203979
0.345849543809890747 0.112789914011955261 0.230548903346061707
0.395223557949066162 0.146330758929252625 0.10159967839717865
0.222511798143386841 0.0290039200335741043 0.186278313398361206
0.773817002773284912 0.403517425060272217 0.0668177306652069092
0.71996152400970459 0.366932272911071777 0.0430582314729690552
0.884256243705749512 0.478541195392608643 0.0647410601377487183
0.482771933078765869 0.205804228782653809 0.174775689840316772
0.481794595718383789 0.20514032244682312 0.0340795442461967468
1.01738011837005615 0.568975090980529785 0.0266458392143249512
0.439625203609466553 0.176493749022483826 0.200176134705543518
0.199403524398803711 0.0133059695363044739 0.0614986643195152283
1.1371312141418457 0.650324583053588867 0.0509608089923858643
0.591784656047821045 0.279858916997909546 0.102059461176395416
0.62184518575668335 0.300279706716537476 0.0692902430891990662
0.63172614574432373 0.306992083787918091 0.0490906983613967896
0.278741687536239624 0.0672020986676216125 0.189980804920196533
1.05311501026153564 0.593250572681427002 0.0671061426401138306
0.641353189945220947 0.31353190541267395 0.181164458394050598
0.90657275915145874 0.493701279163360596 0.124181389808654785
0.279990702867507935 0.0680505856871604919 0.205697804689407349
0.728131115436553955 0.372482031583786011 0.0950316488742828369
0.948200404644012451 0.521979868412017822 0.0751622617244720459
0.461010336875915527 0.191021129488945007 0.106546968221664429
1.11630034446716309 0.636173725128173828 0.0244937092065811157
0.379872739315032959 0.135902583599090576 0.0871274471282958984
1.0423961877822876 0.585969090461730957 0.0439520776271820068
0.781122565269470215 0.408480256795883179 0.0180950164794921875
0.339691013097763062 0.108606286346912384 0.213259413838386536
0.310221821069717407 0.0885872319340705872 0.163118034601211548
0.88168942928314209 0.476797521114349365 0.0849594771862030029
0.725891649723052979 0.370960742235183716 0.0818695574998855591
1.08860588073730469 0.617360353469848633 0.0422861427068710327
0.909764647483825684 0.495869636535644531 0.102211743593215942
0.3404102623462677 0.109094895422458649 0.129011332988739014
0.462621629238128662 0.192115709185600281 0.028133489191532135
0.899364829063415527 0.488804787397384644 0.0400491952896118164
1.04867303371429443 0.590233087539672852 0.0909369289875030518
0.550897300243377686 0.252083301544189453 0.178638637065887451
0.452179133892059326 0.185021892189979553 0.0326067656278610229
0.597662270069122314 0.283851742744445801 0.173799261450767517
1.27581393718719482 0.744534790515899658 0.0221513807773590088
0.425759434700012207 0.167074427008628845 0.0891649499535560608
0.36466670036315918 0.125572800636291504 0.0326634123921394348
0.329487830400466919 0.101675048470497131 0.275719523429870605
0.852299273014068604 0.456832140684127808 0.106102243065834045
0.441522896289825439 0.177782908082008362 0.0812364742159843445
0.380189627408981323 0.136117875576019287 0.242359906435012817
0.560371577739715576 0.258519351482391357 0.127322480082511902
0.41374284029006958 0.158911287784576416 0.249427959322929382
0.933666110038757324 0.512106418609619141 0.101862400770187378
0.298055887222290039 0.0803226456046104431 0.0411359071731567383
0.617511153221130371 0.297335505485534668 0.0859922692179679871
0.724568784236907959 0.370062053203582764 0.167108073830604553
1.05912947654724121 0.597336411476135254 0.0553465783596038818
0.253638267517089844 0.0501488000154495239 0.200506851077079773
0.718500137329101562 0.365939497947692871 0.125942796468734741
0.284538626670837402 0.0711400732398033142 0.131056219339370728
0.614404618740081787 0.295225203037261963 0.161949872970581055
0.45541912317276001 0.187222898006439209 0.114436112344264984
1.1470038890838623 0.657031357288360596 0.0133214592933654785
0.59673541784286499 0.283222109079360962 0.0785691887140274048
0.74621891975402832 0.384769469499588013 0.0725381970405578613
1.1107642650604248 0.632413029670715332 0.0643008053302764893
0.281248599290847778 0.0689050927758216858 0.12046707421541214
0.658091306686401367 0.324902474880218506 0.0505156964063644409
0.628731966018676758 0.304958045482635498 0.194989562034606934
0.622302055358886719 0.300590097904205322 0.202653452754020691
0.391752004623413086 0.143972456455230713 0.241225719451904297
0.75038677453994751 0.387600809335708618 0.0913995355367660522
0.194744482636451721 0.0101409852504730225 0.145194217562675476
0.654644668102264404 0.322561085224151611 0.174830406904220581
0.543232083320617676 0.246876135468482971 0.202236175537109375
0.370061933994293213 0.129237905144691467 0.109038293361663818
0.729931950569152832 0.373705387115478516 0.0297371894121170044
0.579032063484191895 0.271195858716964722 0.190969258546829224
1.18608725070953369 0.683581531047821045 0.0146490037441253662
0.528109192848205566 0.236602827906608582 0.0565799996256828308
0.473005115985870361 0.199169427156448364 0.216518551111221313
0.973471999168395996 0.539147436618804932 0.0483306944370269775
0.426139235496520996 0.167332425713539124 0.193114876747131348
1.14357149600982666 0.654699623584747314 0.0343781709671020508
0.444608211517333984 0.17987881600856781 0.0635293349623680115
0.766505539417266846 0.398550629615783691 0.0252511948347091675
0.807625889778137207 0.426484555006027222 0.0647952407598495483
0.753347814083099365 0.389612317085266113 0.0480737388134002686
0.202742666006088257 0.0155743174254894257 0.0782387480139732361
0.68252253532409668 0.341499149799346924 0.0926805734634399414
0.774165689945220947 0.403754323720932007 0.159822672605514526
0.288663476705551147 0.0739421844482421875 0.156135588884353638
0.265178680419921875 0.0579884573817253113 0.211748838424682617
0.370596170425415039 0.129600822925567627 0.210632026195526123
0.248602479696273804 0.0467278845608234406 0.162817925214767456
0.748199164867401123 0.386114686727523804 0.0489698648452758789
0.95956498384475708 0.529700040817260742 0.0776893645524978638
0.209131628274917603 0.019914478063583374 0.0048002973198890686
1.30864453315734863 0.76683729887008667 0.0237480998039245605
1.11766362190246582 0.637099921703338623 0.00169050693511962891
0.744844913482666016 0.383836090564727783 0.155269250273704529
0.667461395263671875 0.331267774105072021 0.0174686461687088013
0.269411712884902954 0.0608640387654304504 0.152680099010467529
0.651364684104919434 0.320332944393157959 0.134391695261001587
0.686552524566650391 0.344236820936203003 0.140760749578475952
0.33579254150390625 0.105957977473735809 0.103342518210411072
0.429102331399917603 0.16934533417224884 0.0127338990569114685
0.33602219820022583 0.1061139777302742 0.258632659912109375
0.717164576053619385 0.36503225564956665 0.122391238808631897
0.989781558513641357 0.550226807594299316 0.0962896049022674561
0.447878241539001465 0.182100191712379456 0.0814769864082336426
1.26018083095550537 0.73391491174697876 0.00411310791969299316
0.909320831298828125 0.495568126440048218 0.0408308804035186768
0.93320620059967041 0.511793971061706543 0.0307975858449935913
0.990125536918640137 0.550460517406463623 0.0969508439302444458
0.73158562183380127 0.374828755855560303 0.0146188437938690186
0.610212743282318115 0.2923775315284729 0.124637149274349213
0.203439295291900635 0.016047552227973938 0.0165441408753395081
0.237222790718078613 0.0389974117279052734 0.18758787214756012
0.610744833946228027 0.292739033699035645 0.111206799745559692
0.562750756740570068 0.26013559103012085 0.0832343250513076782
0.595785975456237793 0.28257712721824646 0.165930390357971191
0.314652979373931885 0.0915974080562591553 0.0226222872734069824
0.229395657777786255 0.0336802788078784943 0.188592880964279175
0.604913890361785889 0.288777917623519897 0.0219959914684295654
1.02914273738861084 0.576965689659118652 0.0608894824981689453
0.205015793442726135 0.0171185098588466644 0.0650355890393257141
0.308207958936691284 0.0872191712260246277 0.0104763172566890717
0.625060379505157471 0.30246385931968689 0.00344201177358627319
0.428084343671798706 0.168653786182403564 0.0176836401224136353
0.431409239768981934 0.170912459492683411 0.201972648501396179
0.832371652126312256 0.443294882774353027 0.139687031507492065
0.862746834754943848 0.46392938494682312 0.0171637237071990967
0.197328746318817139 0.0118965236470103264 0.285732686519622803
0.180298954248428345 0.000327825400745496154 0.0356937684118747711
0.671994388103485107 0.334347158670425415 0.16380678117275238
0.439680039882659912 0.176531001925468445 0.169391453266143799
0.504717111587524414 0.220712080597877502 0.214220374822616577
0.695344448089599609 0.350209355354309082 0.1738242506980896
0.324171692132949829 0.0980636775493621826 0.19293840229511261
0.405522316694259644 0.153326913714408875 0.160595789551734924
1.19796967506408691 0.691653549671173096 0.00893029570579528809
0.246731370687484741 0.0454568043351173401 0.117305539548397064
1.28165113925933838 0.74850010871887207 0.00329825282096862793
0.717563867568969727 0.365303456783294678 0.100607380270957947
0.62540966272354126 0.30270114541053772 0.0684858039021492004
0.356643825769424438 0.120122693479061127 0.0442015938460826874
0.496415078639984131 0.215072333812713623 0.216012686491012573
1.12195587158203125 0.640015721321105957 0.0148649215698242188
0.547455310821533203 0.24974505603313446 0.198396980762481689
0.873560249805450439 0.471275180578231812 0.119306251406669617
0.389426082372665405 0.142392396926879883 0.040012013167142868
0.20096898078918457 0.0143694207072257996 0.143572866916656494
0.799577236175537109 0.421016931533813477 0.0092700272798538208
0.907403826713562012 0.494265854358673096 0.0510873347520828247
0.183433413505554199 0.00245712697505950928 0.104530945420265198
0.380356937646865845 0.136231526732444763 0.0950048118829727173
0.512739598751068115 0.226161912083625793 0.0751632750034332275
0.387918740510940552 0.141368433833122253 0.249810144305229187
1.08942866325378418 0.617919206619262695 0.0482590198516845703
0.275772988796234131 0.0651853904128074646 0.0244762208312749863
0.648697614669799805 0.318521112203598022 0.150348648428916931
0.755808353424072266 0.391283780336380005 0.0136747807264328003
0.539931952953338623 0.244634270668029785 0.0983426794409751892
0.618715882301330566 0.298153907060623169 0.0728535950183868408
0.81093442440032959 0.428732126951217651 0.153092160820960999
0.654445469379425049 0.322425782680511475 0.117989793419837952
0.775887489318847656 0.404923975467681885 0.119909808039665222
0.680732369422912598 0.340283066034317017 0.0293226838111877441
0.641116440296173096 0.313371092081069946 0.0091093406081199646
0.278623253107070923 0.0671216398477554321 0.0481156110763549805
0.238566190004348755 0.0399100184440612793 0.0860919877886772156
0.235011830925941467 0.0374954566359519958 0.0911801531910896301
0.556364476680755615 0.255797237157821655 0.0485654100775718689
0.815197587013244629 0.431628167629241943 0.0835349857807159424
0.360012233257293701 0.122410938143730164 0.0920389890670776367
0.853893399238586426 0.45791509747505188 0.139339208602905273
0.191112488508224487 0.00767369521781802177 0.125420704483985901
0.232037752866744995 0.0354751013219356537 0.0973465293645858765
0.441233515739440918 0.17758631706237793 0.0633681565523147583
0.548326075077056885 0.250336617231369019 0.145415365695953369
0.247667819261550903 0.0460929498076438904 0.041377723217010498
0.253422707319259644 0.0500023588538169861 0.170156955718994141
0.408374607563018799 0.155264526605606079 0.111553534865379333
0.614429295063018799 0.295241951942443848 0.00610926002264022827
0.798629999160766602 0.420373469591140747 0.0322146415710449219
0.435376942157745361 0.173607826232910156 0.172101110219955444
0.61200261116027832 0.293593406677246094 0.0285859555006027222
0.895726025104522705 0.486332863569259644 0.0769297778606414795
0.535251855850219727 0.241455003619194031 0.0698292925953865051
1.10249912738800049 0.626798331737518311 0.0233571678400039673
0.274291694164276123 0.0641791149973869324 0.0838697031140327454
0.59115135669708252 0.279428750276565552 0.0824825465679168701
0.420091211795806885 0.163223877549171448 0.0864223465323448181
0.298386216163635254 0.0805470570921897888 0.0126026961952447891
0.588505864143371582 0.277631610631942749 0.0494758933782577515
0.181898802518844604 0.00141463708132505417 0.219239130616188049
0.573578298091888428 0.267490983009338379 0.0960186868906021118
0.328660666942596436 0.101113148033618927 0.127498209476470947
1.30369853973388672 0.763477444648742676 0.0199874043464660645
0.369856059551239014 0.129098057746887207 0.137231111526489258
0.742051303386688232 0.381938338279724121 0.115358248353004456
0.236264973878860474 0.0383467450737953186 0.176691845059394836
0.429148286581039429 0.169376552104949951 0.0864679962396621704
0.425843715667724609 0.167131692171096802 0.0456524193286895752
0.426252424716949463 0.167409330606460571 0.0436672195792198181
0.224524348974227905 0.0303710848093032837 0.167897924780845642
0.190735682845115662 0.00741771608591079712 0.0103355785831809044
0.220046728849411011 0.0273293480277061462 0.303818970918655396
0.914007306098937988 0.498751729726791382 0.0118539333343505859
1.13996124267578125 0.652247071266174316 0.0430905520915985107
0.906780123710632324 0.493842184543609619 0.0402886271476745605
0.684165656566619873 0.342615365982055664 0.127898722887039185
0.478304684162139893 0.202769532799720764 0.103172719478607178
0.932777881622314453 0.511502981185913086 0.0905014872550964355
0.616135239601135254 0.29640081524848938 0.0116910040378570557
0.795899748802185059 0.418518751859664917 0.0851729512214660645
1.11837077140808105 0.637580275535583496 0.0589407831430435181
0.628260493278503418 0.304637759923934937 0.0797813087701797485
0.482281148433685303 0.205470860004425049 0.074930630624294281
0.420206636190414429 0.163302287459373474 0.140256315469741821
0.570909202098846436 0.265677779912948608 0.0442394465208053589
0.994584858417510986 0.553489804267883301 0.100449606776237488
0.452353954315185547 0.185140654444694519 0.240315645933151245
0.466702878475189209 0.194888174533843994 0.187160328030586243
0.447151422500610352 0.181606471538543701 0.199484243988990784
0.637995481491088867 0.311250925064086914 0.0271756201982498169
0.204152688384056091 0.0165321826934814453 0.242340445518493652
0.851638972759246826 0.456383615732192993 0.0840290188789367676
0.834290623664855957 0.444598466157913208 0.0967853665351867676
0.927103519439697266 0.507648289203643799 0.0247130244970321655
0.57218247652053833 0.266542732715606689 0.171285003423690796
0.971998512744903564 0.538146436214447021 0.0188448280096054077
0.497024178504943848 0.215486124157905579 0.224476084113121033
0.804782569408416748 0.424553036689758301 0.0785047560930252075
0.675182998180389404 0.336513251066207886 0.0137337446212768555
0.414815992116928101 0.159640312194824219 0.0637735351920127869
0.673745691776275635 0.335536867380142212 0.179693177342414856
0.684089839458465576 0.342563867568969727 0.0951564759016036987
0.629492700099945068 0.305474847555160522 0.195593208074569702
0.975737452507019043 0.540686368942260742 0.0835248827934265137
1.03406155109405518 0.580307185649871826 0.0490592867136001587
0.25514337420463562 0.0511712543666362762 0.0118058323860168457
0.408034265041351318 0.155033335089683533 0.147794023156166077
0.675746798515319824 0.336896210908889771 0.178461223840713501
0.390847742557525635 0.143358156085014343 0.255280256271362305
0.274617493152618408 0.0644004419445991516 0.182930216193199158
0.282561600208282471 0.0697970539331436157 0.117088235914707184
1.00958704948425293 0.563681125640869141 0.074183046817779541
0.312294423580169678 0.0899951905012130737 0.0138874128460884094
0.622809469699859619 0.300934761762619019 0.0449347272515296936
0.29473385214805603 0.078065924346446991 0.185040920972824097
1.06270086765289307 0.599762499332427979 0.0181491971015930176
0.353454917669296265 0.117956407368183136 0.0396029539406299591
0.321830451488494873 0.0964732319116592407 0.190657734870910645
1.04226803779602051 0.585882008075714111 0.00015519559383392334
0.679854512214660645 0.339686721563339233 0.155668407678604126
0.320664525032043457 0.0956811830401420593 0.188728928565979004
0.619969964027404785 0.299005836248397827 0.117642447352409363
0.966956138610839844 0.534721016883850098 0.0213706791400909424
0.350868403911590576 0.11619933694601059 0.0714341998100280762
0.690264105796813965 0.346758157014846802 0.0969192534685134888
0.883062243461608887 0.477730125188827515 0.0809393972158432007
0.627886176109313965 0.304383516311645508 0.097196824848651886
0.435175299644470215 0.173470839858055115 0.176481395959854126
0.664260804653167725 0.32909354567527771 0.1834687739610672
1.00356066226959229 0.559587299823760986 0.0971995294094085693
0.186469525098800659 0.00451962091028690338 0.131912246346473694
0.539118587970733643 0.244081750512123108 0.191979467868804932
1.3048776388168335 0.764278411865234375 0.00440526008605957031
0.458802223205566406 0.189521104097366333 0.0575444400310516357
0.380949676036834717 0.136634185910224915 0.00682719051837921143
0.182938471436500549 0.00212090299464762211 0.156581670045852661
1.05071592330932617 0.591620802879333496 0.0287114828824996948
0.488254427909851074 0.209528639912605286 0.12873193621635437
0.391624152660369873 0.143885582685470581 0.193465501070022583
0.896638095378875732 0.486952483654022217 0.110839381814002991
0.627424359321594238 0.304069757461547852 0.197209924459457397
1.23441398143768311 0.716410934925079346 0.0147638618946075439
0.74349367618560791 0.38291814923286438 0.102051764726638794
0.211252957582473755 0.0213555488735437393 0.147391289472579956
0.211664497852325439 0.0216351095587015152 0.203215152025222778
0.654839277267456055 0.322693288326263428 0.159615516662597656
0.766698002815246582 0.398681342601776123 0.0813311189413070679
1.04892969131469727 0.590407371520996094 0.0309818834066390991
0.670544743537902832 0.333362370729446411 0.00878994166851043701
0.322163820266723633 0.0966996923089027405 0.246496856212615967
0.953869760036468506 0.525831162929534912 0.0542581081390380859
0.346944987773895264 0.113534055650234222 0.238006576895713806
0.369056522846221924 0.12855491042137146 0.204475060105323792
0.451600611209869385 0.184628888964653015 0.123732887208461761
0.51178276538848877 0.225511923432350159 0.107047274708747864
0.200601398944854736 0.014119710773229599 0.200498193502426147
1.30284953117370605 0.762900650501251221 0.0250299572944641113
1.08960604667663574 0.618039727210998535 0.0384409725666046143
0.809204339981079102 0.427556842565536499 0.11615520715713501
1.07922220230102539 0.610985815525054932 0.00112301111221313477
0.21079544723033905 0.0210447534918785095 0.274339348077774048
0.213238328695297241 0.0227042492479085922 0.00959457457065582275
0.409878402948379517 0.156286090612411499 0.125832438468933105
1.03100526332855225 0.578230917453765869 0.0285857319831848145
0.234124854207038879 0.0368929207324981689 0.0439412891864776611
0.6412811279296875 0.313482969999313354 0.0846837013959884644
0.20720982551574707 0.0186089631170034409 0.296701788902282715
0.535051226615905762 0.241318687796592712 0.142804846167564392
0.514609217643737793 0.227431997656822205 0.0922570526599884033
0.585765480995178223 0.275769978761672974 0.0619369223713874817
0.443438529968261719 0.179084241390228271 0.0153696388006210327
0.988929510116577148 0.549648046493530273 0.068965226411819458
0.446025967597961426 0.180841922760009766 0.0310856550931930542
0.479022860527038574 0.203257426619529724 0.177679091691970825
0.482097148895263672 0.205345824360847473 0.00428488850593566895
1.18851971626281738 0.685233950614929199 0.0279792249202728271
0.799802541732788086 0.42116999626159668 0.154324501752853394
0.397981226444244385 0.14820408821105957 0.0963197946548461914
0.433458805084228516 0.172304794192314148 0.10512959212064743
0.712038040161132812 0.361549675464630127 0.0941372811794281006
0.639559388160705566 0.312313377857208252 0.0789932161569595337
0.934887945652008057 0.512936413288116455 0.00559042394161224365
0.817304611206054688 0.433059513568878174 0.132113426923751831
0.226919263601303101 0.0319980010390281677 0.102124482393264771
0.673061549663543701 0.335072070360183716 0.114542141556739807
0.56540226936340332 0.261936813592910767 0.172367408871650696
0.361909002065658569 0.123699449002742767 0.19485841691493988
0.465879976749420166 0.194329187273979187 0.116218887269496918
0.319220840930938721 0.0947004556655883789 0.0633191466331481934
0.510367810726165771 0.224550724029541016 0.176598519086837769
0.966838419437408447 0.534641087055206299 0.0742419064044952393
0.532136619091033936 0.239338725805282593 0.138084918260574341
0.310471415519714355 0.0887567847967147827 0.281711339950561523
0.238569021224975586 0.0399119406938552856 0.244699522852897644
0.511960923671722412 0.225632965564727783 0.0316006392240524292
0.422141999006271362 0.164617016911506653 0.00692781060934066772
0.83234935998916626 0.443279772996902466 0.052610352635383606
0.586361229419708252 0.276174724102020264 0.0102110579609870911
0.837139427661895752 0.446533739566802979 0.0228683948516845703
1.13372302055358887 0.648009300231933594 0.0389609932899475098
0.333422541618347168 0.104347981512546539 0.241888582706451416
0.798483192920684814 0.420273721218109131 0.0449727624654769897
0.762168228626251221 0.395604193210601807 0.116008728742599487
0.395940005779266357 0.146817430853843689 0.0568421855568885803
0.531751751899719238 0.239077314734458923 0.052857518196105957
1.13265132904052734 0.647281348705291748 0.0331242084503173828
0.290059924125671387 0.0748908147215843201 0.152973547577857971
0.7991599440574646 0.420733481645584106 0.136178046464920044
0.236794397234916687 0.0387063995003700256 0.28646048903465271
0.346431314945220947 0.113185115158557892 0.182902783155441284
0.655554533004760742 0.323179185390472412 0.00790071487426757812
0.586214423179626465 0.276074975728988647 0.0614701434969902039
0.196910277009010315 0.0116122541949152946 0.194245889782905579
0.891865432262420654 0.483710318803787231 0.119554445147514343
0.444191694259643555 0.179595857858657837 0.237662658095359802
0.349548429250717163 0.115302637219429016 0.118287369608879089
0.233537465333938599 0.0364938937127590179 0.0784739032387733459
0.43742823600769043 0.175001293420791626 0.0867537632584571838
0.417244881391525269 0.161290302872657776 0.0393416322767734528
0.317734479904174805 0.0936907380819320679 0.0834064334630966187
0.800032138824462891 0.421325951814651489 0.0670296400785446167
1.04688572883605957 0.589018881320953369 0.0853775143623352051
0.664821326732635498 0.329474329948425293 0.125232502818107605
0.280567258596420288 0.0684422552585601807 0.250076383352279663
0.751227200031280518 0.388171732425689697 0.0107796043157577515
0.764909863471984863 0.397466659545898438 0.149257391691207886
0.626215100288391113 0.303248286247253418 0.0469268932938575745
1.25961923599243164 0.733533382415771484 0.0225454866886138916
0.980592191219329834 0.543984293937683105 0.0155103951692581177
0.242009401321411133 0.0422490648925304413 0.0152915306389331818
1.14197862148284912 0.653617560863494873 0.0037816464900970459
1.21788763999938965 0.705184280872344971 0.0225447416305541992
0.45271223783493042 0.185384050011634827 0.112293004989624023
0.866046547889709473 0.466170996427536011 0.0851553678512573242
1.20258724689483643 0.694790363311767578 0.0480464398860931396
0.197730213403701782 0.012169254943728447 0.102810889482498169
0.233847737312316895 0.0367046631872653961 0.298771172761917114
0.32585442066192627 0.0992067977786064148 0.109220176935195923
0.415638089179992676 0.160198777914047241 0.108526170253753662
0.521495163440704346 0.232109770178794861 0.0949392989277839661
0.733581185340881348 0.376184403896331787 0.0233053863048553467
0.695727825164794922 0.350469797849655151 0.0814977586269378662
0.453043460845947266 0.185609057545661926 0.0257110297679901123
0.720115721225738525 0.367036998271942139 0.0568307638168334961
0.834868490695953369 0.444991022348403931 0.0633336156606674194
0.799413084983825684 0.420905441045761108 0.120609462261199951
0.565403103828430176 0.261937379837036133 0.147133827209472656
0.669067859649658203 0.332359105348587036 0.189207300543785095
0.270559012889862061 0.0616434253752231598 0.235868275165557861
0.709496080875396729 0.359822869300842285 0.117844954133033752
0.650548577308654785 0.319778561592102051 0.116264998912811279
0.568911850452423096 0.264320939779281616 0.187014713883399963
0.337501108646392822 0.107118651270866394 0.230219140648841858
0.993669331073760986 0.552867889404296875 0.0040241628885269165
0.572331488132476807 0.266644001007080078 0.193160831928253174
0.618284881114959717 0.29786112904548645 0.0138436555862426758
0.681929171085357666 0.341096043586730957 0.0479469001293182373
0.226785019040107727 0.0319068096578121185 0.00172510091215372086
0.375293701887130737 0.132791966199874878 0.134668201208114624
0.743918120861053467 0.383206486701965332 0.0769909918308258057
0.285632193088531494 0.0718829557299613953 0.0165151488035917282
0.979440510272979736 0.543201923370361328 0.0455954223871231079
0.312680363655090332 0.0902573838829994202 0.172601327300071716
0.639992117881774902 0.312607318162918091 0.0763439089059829712
0.322885632514953613 0.0971900224685668945 0.264325827360153198
0.22010117769241333 0.0273663382977247238 0.0385188274085521698
0.791947007179260254 0.415833562612533569 0.0766913294792175293
0.430516421794891357 0.170305967330932617 0.207471683621406555
0.623933613300323486 0.301698446273803711 0.170251190662384033
0.667055189609527588 0.330991834402084351 0.175592362880706787
0.616031885147094727 0.29633060097694397 0.0353761911392211914
0.264283806085586548 0.0573805496096611023 0.00191841274499893188
0.839688301086425781 0.448265254497528076 0.0753314793109893799
0.201928600668907166 0.0150213083252310753 0.0495543479919433594
0.354659914970397949 0.118775002658367157 0.01725788414478302
1.28640472888946533 0.751729369163513184 0.00874930620193481445
0.307011246681213379 0.0864062309265136719 0.0518624559044837952
1.16353070735931396 0.668258368968963623 0.0431287586688995361
0.567198216915130615 0.26315683126449585 0.172525495290756226
0.577534496784210205 0.270178496837615967 0.170167848467826843
0.208008602261543274 0.0191515833139419556 0.165837451815605164
0.624558568000793457 0.302122980356216431 0.168614655733108521
0.213176369667053223 0.0226621609181165695 0.234098613262176514
0.352917641401290894 0.117591418325901031 0.169528260827064514
0.191755443811416626 0.0081104617565870285 0.0423780716955661774
0.566904664039611816 0.26295742392539978 0.185001775622367859
0.793427646160125732 0.416839390993118286 0.0230259746313095093
0.239052504301071167 0.0402403809130191803 0.28045046329498291
0.247026711702346802 0.045657426118850708 0.196933925151824951
0.514903247356414795 0.227631747722625732 0.0209200605750083923
0.288636147975921631 0.0739236250519752502 0.129595175385475159
0.519704699516296387 0.23089347779750824 0.105010062456130981
0.421087741851806641 0.163900852203369141 0.226505279541015625
0.246815308928489685 0.0455138161778450012 0.241776779294013977
1.20271766185760498 0.694878935813903809 0.0215479731559753418
0.233553484082221985 0.0365047752857208252 0.139673575758934021
1.00297629833221436 0.559190332889556885 0.239606082439422607
1.03494751453399658 0.580909073352813721 0.282013237476348877
1.04734158515930176 0.589328587055206299 0.273669600486755371
0.74210810661315918 0.381976932287216187 0.280170679092407227
0.928962409496307373 0.508911073207855225 0.269222855567932129
1.33876824378967285 0.787301063537597656 0.133126392960548401
1.25816035270690918 0.732542335987091064 0.148215219378471375
1.33045566082000732 0.781654119491577148 0.280178040266036987
0.678407609462738037 0.338703781366348267 0.228011250495910645
1.30165493488311768 0.762089133262634277 0.277413815259933472
0.653471767902374268 0.321764290332794189 0.196817904710769653
0.9436606764793396 0.518895924091339111 0.247461944818496704
1.27056121826171875 0.740966498851776123 0.210875749588012695
1.07770681381225586 0.609956324100494385 0.221039250493049622
1.14486157894134521 0.655576050281524658 0.0996894687414169312
1.21755766868591309 0.704960107803344727 0.153190344572067261
0.854119539260864258 0.458068728446960449 0.243537381291389465
0.673433899879455566 0.335325032472610474 0.225714802742004395
0.349370002746582031 0.115181446075439453 0.296869546175003052
1.11624467372894287 0.63613593578338623 0.16804853081703186
1.00464141368865967 0.560321450233459473 0.149076074361801147
1.08237373828887939 0.613126695156097412 0.23424239456653595
0.718619227409362793 0.366020411252975464 0.251501560211181641
1.39608907699584961 0.826240301132202148 0.0229439437389373779
1.02678596973419189 0.57536470890045166 0.226032957434654236
0.838068485260009766 0.447164863348007202 0.177207425236701965
1.07254278659820557 0.606448352336883545 0.208417505025863647
0.922287464141845703 0.504376649856567383 0.165616437792778015
0.890508890151977539 0.482788771390914917 0.300186336040496826
1.00919830799102783 0.56341707706451416 0.298056036233901978
0.681605756282806396 0.340876370668411255 0.255999952554702759
1.34127438068389893 0.789003491401672363 0.0689431428909301758
1.39500153064727783 0.825501501560211182 0.0340977609157562256
0.612885057926177979 0.294192910194396973 0.277874469757080078
1.308799147605896 0.766942381858825684 0.300945967435836792
1.2971121072769165 0.759003162384033203 0.250793755054473877
0.881490826606750488 0.476662606000900269 0.232040047645568848
1.18288254737854004 0.681404531002044678 0.30642545223236084
1.2874138355255127 0.752414822578430176 0.250360667705535889
0.478743970394134521 0.203068017959594727 0.307058364152908325
0.80907738208770752 0.427470594644546509 0.273384004831314087
1.28557050228118896 0.751162707805633545 0.0603492259979248047
1.3968513011932373 0.826758086681365967 0.27571907639503479
1.19970941543579102 0.692835390567779541 0.296284884214401245
0.817262709140777588 0.433031052350997925 0.241643995046615601
0.882173776626586914 0.477126568555831909 0.22710716724395752
0.821380198001861572 0.435828149318695068 0.304625928401947021
1.34806346893310547 0.793615520000457764 0.135417789220809937
1.09385788440704346 0.620928168296813965 0.15124058723449707
0.850849926471710205 0.455847561359405518 0.204128623008728027
1.20390474796295166 0.695685386657714844 0.198441237211227417
0.963452458381652832 0.532340884208679199 0.262851506471633911
0.569114506244659424 0.264458596706390381 0.295073807239532471
1.32395124435424805 0.777235507965087891 0.153608456254005432
1.30756592750549316 0.766104638576507568 0.173967659473419189
0.929510354995727539 0.509283304214477539 0.292264670133590698
1.10994327068328857 0.631855309009552002 0.313551783561706543
1.34635484218597412 0.792454719543457031 0.208050549030303955
1.31769931316375732 0.772988438606262207 0.177088931202888489
0.645115554332733154 0.316087782382965088 0.265922784805297852
0.980644106864929199 0.544019579887390137 0.212685391306877136
1.27781355381011963 0.745893180370330811 0.262405812740325928
1.2067265510559082 0.697602272033691406 0.134329870343208313
0.90973210334777832 0.495847523212432861 0.133035644888877869
1.21048617362976074 0.700156211853027344 0.177046403288841248
1.25704371929168701 0.731783807277679443 0.308130651712417603
1.15320348739624023 0.661242842674255371 0.317866504192352295
0.807660222053527832 0.426507860422134399 0.232677429914474487
0.945353388786315918 0.520045876502990723 0.175413399934768677
0.877010464668273926 0.473618984222412109 0.222473561763763428
1.13773524761199951 0.650734961032867432 0.2910194993019104
1.35581576824188232 0.798881828784942627 0.0116693377494812012
0.51025843620300293 0.224476456642150879 0.24660143256187439
1.19129657745361328 0.687120318412780762 0.257859408855438232
1.24234914779663086 0.721801400184631348 0.277337640523910522
1.085213303565979 0.615055680274963379 0.187612131237983704
1.364493727684021 0.804776847362518311 0.217560678720474243
1.14581060409545898 0.656220793724060059 0.289312899112701416
0.384920120239257812 0.139331400394439697 0.302205264568328857
1.13734555244445801 0.650470256805419922 0.245622038841247559
1.3673851490020752 0.806741118431091309 0.318337023258209229
1.0229027271270752 0.572726726531982422 0.232383683323860168
1.24232780933380127 0.721786975860595703 0.177884414792060852
0.264719247817993164 0.0576763153076171875 0.298047482967376709
0.607157766819000244 0.290302276611328125 0.211607888340950012
1.30348443984985352 0.763332009315490723 0.226330786943435669
1.02040565013885498 0.57103043794631958 0.273760288953781128
1.00470471382141113 0.560364484786987305 0.25452578067779541
1.02086400985717773 0.571341872215270996 0.124228954315185547
1.2053070068359375 0.696637988090515137 0.0955368727445602417
0.686224758625030518 0.344014137983322144 0.26518172025680542
1.17694664001464844 0.677372157573699951 0.146783173084259033
1.26700723171234131 0.738552212715148926 0.18212774395942688
1.26714181900024414 0.738643646240234375 0.286911427974700928
0.672378242015838623 0.334607899188995361 0.211420252919197083
1.33046376705169678 0.781659603118896484 0.154414311051368713
1.11315536499023438 0.634037375450134277 0.183118134737014771
1.09891009330749512 0.624360203742980957 0.130394071340560913
