ply
format ascii 1.0
element vertex 743
property float x
property float y
property float z
end_header
0.0104168429970741272 0.0333786197006702423 0.136535108089447021
0.195515543222427368 0.0333786197006702423 0.180795922875404358
0.0665418356657028198 0.0333786197006702423 0.103318452835083008
0.0832697376608848572 0.0333786197006702423 0.122036412358283997
0.0197641476988792419 0.0333786197006702423 0.0700474679470062256
0.125946223735809326 0.0333786197006702423 0.133007645606994629
0.104816913604736328 0.0333786197006702423 0.24623262882232666
0.102259635925292969 0.0333786197006702423 0.232124567031860352
0.131577387452125549 0.0333786197006702423 0.108943745493888855
0.0174175463616847992 0.0333786197006702423 0.0776125937700271606
0.104573845863342285 0.0333786197006702423 0.237401291728019714
0.153233721852302551 0.0333786197006702423 0.215071916580200195
0.0881816446781158447 0.0333786197006702423 0.228845342993736267
0.0711699202656745911 0.0333786197006702423 0.140146225690841675
0.168291151523590088 0.0333786197006702423 0.165115416049957275
0.00315553252585232258 0.0333786197006702423 0.231505274772644043
0.0656360238790512085 0.0333786197006702423 0.156217187643051147
0.223972201347351074 0.0333786197006702423 0.160403996706008911
0.202240213751792908 0.0333786197006702423 0.242619529366493225
0.170755013823509216 0.0333786197006702423 0.165843039751052856
0.133079484105110168 0.0333786197006702423 0.119474992156028748
0.122277639806270599 0.0333786197006702423 0.189774364233016968
0.234641909599304199 0.0333786197006702423 0.158293634653091431
0.341233134269714355 0.0333786197006702423 0.215734615921974182
0.0591307356953620911 0.0333786197006702423 0.136798784136772156
0.00387169118039309978 0.0333786197006702423 0.132490724325180054
0.0479415394365787506 0.0333786197006702423 0.139910787343978882
0.280377477407455444 0.0333786197006702423 0.246287211775779724
0.267129689455032349 0.0333786197006702423 0.177333980798721313
0.250975757837295532 0.0333786197006702423 0.219087943434715271
0.340111702680587769 0.0333786197006702423 0.246544629335403442
0.206000670790672302 0.0333786197006702423 0.215954750776290894
0.00486729433760046959 0.0333786197006702423 0.0306036770343780518
0.242091566324234009 0.0333786197006702423 0.194205120205879211
0.0675076469779014587 0.0333786197006702423 0.181988462805747986
0.153622895479202271 0.0333786197006702423 0.0988902151584625244
0.111084602773189545 0.0333786197006702423 0.185159340500831604
0.100817859172821045 0.0333786197006702423 0.23315681517124176
0.207927659153938293 0.0333786197006702423 0.207755863666534424
0.130331560969352722 0.0333786197006702423 0.185515731573104858
0.255114823579788208 0.0333786197006702423 0.195712387561798096
0.214834451675415039 0.0333786197006702423 0.209280073642730713
0.0973573401570320129 0.0333786197006702423 0.0757601559162139893
0.0942754149436950684 0.0333786197006702423 0.178903788328170776
0.248407959938049316 0.0333786197006702423 0.212157055735588074
0.171480670571327209 0.0333786197006702423 0.218911394476890564
0.223732829093933105 0.0333786197006702423 0.237913891673088074
0.321704119443893433 0.0333786197006702423 0.231635987758636475
0.0662465766072273254 0.0333786197006702423 0.131278425455093384
0.22191639244556427 0.0333786197006702423 0.206262543797492981
0.187855854630470276 0.0333786197006702423 0.16220623254776001
0.180732682347297668 0.0333786197006702423 0.24729512631893158
0.0446959845721721649 0.0333786197006702423 0.120004624128341675
0.135736793279647827 0.0333786197006702423 0.213978588581085205
0.25792241096496582 0.0333786197006702423 0.237642616033554077
0.292847633361816406 0.0333786197006702423 0.243075147271156311
0.0651061460375785828 0.0333786197006702423 0.0777034908533096313
0.128419622778892517 0.0333786197006702423 0.158101752400398254
0.0897107869386672974 0.0333786197006702423 0.0771298408508300781
0.122140251100063324 0.0333786197006702423 0.16425381600856781
0.135348781943321228 0.0333786197006702423 0.239144101738929749
0.0266536083072423935 0.0333786197006702423 0.0582170635461807251
0.204749777913093567 0.0333786197006702423 0.170748606324195862
0.256924301385879517 0.0333786197006702423 0.243716955184936523
0.195739224553108215 0.0333786197006702423 0.145052120089530945
0.274766266345977783 0.0333786197006702423 0.215172827243804932
0.184277579188346863 0.0333786197006702423 0.241984590888023376
0.0114834336563944817 0.0333786197006702423 0.0293186455965042114
0.220036104321479797 0.0333786197006702423 0.153366073966026306
0.153841257095336914 0.0333786197006702423 0.163452953100204468
0.17703227698802948 0.0333786197006702423 0.160363808274269104
0.116919875144958496 0.0333786197006702423 0.233354941010475159
0.0131802959367632866 0.0333786197006702423 0.173915117979049683
0.00779252452775835991 0.0333786197006702423 0.222050935029983521
0.029916742816567421 0.0333786197006702423 0.216933757066726685
0.107365570962429047 0.0333786197006702423 0.155297800898551941
0.224724635481834412 0.0333786197006702423 0.168051198124885559
0.117948494851589203 0.0333786197006702423 0.11331687867641449
0.013773980550467968 0.0333786197006702423 0.191224753856658936
0.276916027069091797 0.0333786197006702423 0.197337746620178223
0.174876540899276733 0.0333786197006702423 0.215719819068908691
0.207867339253425598 0.0333786197006702423 0.227654442191123962
0.108329847455024719 0.0333786197006702423 0.241285786032676697
0.0112697659060359001 0.0333786197006702423 0.0339729189872741699
0.0844932794570922852 0.0333786197006702423 0.234692171216011047
0.069629572331905365 0.0333786197006702423 0.21550963819026947
0.171126320958137512 0.0333786197006702423 0.245489418506622314
0.217035159468650818 0.0333786197006702423 0.230469644069671631
0.122405700385570526 0.0333786197006702423 0.236160770058631897
0.174384087324142456 0.0333786197006702423 0.233096599578857422
0.164588943123817444 0.0333786197006702423 0.107555419206619263
0.135537296533584595 0.0333786197006702423 0.178079858422279358
0.165284022688865662 0.0333786197006702423 0.154966041445732117
0.00213247211650013924 0.0333786197006702423 0.0778059661388397217
0.17492268979549408 0.0333786197006702423 0.135130047798156738
0.0342144928872585297 0.0333786197006702423 0.2339964359998703
0.0119526851922273636 0.0333786197006702423 0.096291959285736084
0.244882971048355103 0.0333786197006702423 0.212099835276603699
0.016055157408118248 0.0333786197006702423 0.0467963963747024536
0.139676332473754883 0.0333786197006702423 0.221201151609420776
0.0304915998131036758 0.0333786197006702423 0.0506377071142196655
0.0636462345719337463 0.0333786197006702423 0.242867141962051392
0.00906794052571058273 0.0333786197006702423 0.0572361946105957031
0.000699450785759836435 0.0333786197006702423 0.0498700886964797974
0.00411338824778795242 0.0333786197006702423 0.0659764409065246582
0.0775540396571159363 0.0333786197006702423 0.22420838475227356
0.11713101714849472 0.0333786197006702423 0.174635142087936401
0.0598314516246318817 0.0333786197006702423 0.157186314463615417
0.166439011693000793 0.0333786197006702423 0.207664921879768372
0.155611619353294373 0.0333786197006702423 0.182388573884963989
0.239140376448631287 0.0333786197006702423 0.151464492082595825
0.0328837670385837555 0.0333786197006702423 0.153259456157684326
0.0708395987749099731 0.0333786197006702423 0.21180194616317749
0.103054225444793701 0.0333786197006702423 0.107724085450172424
0.0385382324457168579 0.0333786197006702423 0.193868160247802734
0.185823202133178711 0.0333786197006702423 0.141937762498855591
0.206975847482681274 0.0333786197006702423 0.143109023571014404
0.269069522619247437 0.0333786197006702423 0.223627135157585144
0.0837109610438346863 0.0333786197006702423 0.13373158872127533
0.163819193840026855 0.0333786197006702423 0.171933859586715698
0.0646206960082054138 0.0333786197006702423 0.149645373225212097
0.210150882601737976 0.0333786197006702423 0.220446616411209106
0.169739291071891785 0.0333786197006702423 0.212267309427261353
0.22459566593170166 0.0333786197006702423 0.17912563681602478
0.149361282587051392 0.0333786197006702423 0.130963057279586792
0.210075303912162781 0.0333786197006702423 0.237175241112709045
0.0378950014710426331 0.0333786197006702423 0.054123416543006897
0.0571391656994819641 0.0333786197006702423 0.112187847495079041
0.269854873418807983 0.0333786197006702423 0.199947953224182129
0.175038129091262817 0.0333786197006702423 0.238557338714599609
0.0894886627793312073 0.0333786197006702423 0.231333822011947632
0.150644674897193909 0.0333786197006702423 0.19991438090801239
0.0728285536170005798 0.0333786197006702423 0.0465726852416992188
0.114621460437774658 0.0333786197006702423 0.209831193089485168
0.0989995449781417847 0.0333786197006702423 0.146668940782546997
0.0141307832673192024 0.0333786197006702423 0.0491022318601608276
0.0872209072113037109 0.0333786197006702423 0.242214441299438477
0.0908750444650650024 0.0333786197006702423 0.0892644971609115601
0.056234557181596756 0.0333786197006702423 0.0692766010761260986
0.0297582782804965973 0.0333786197006702423 0.174351662397384644
0.251131564378738403 0.0333786197006702423 0.222728729248046875
0.10208149254322052 0.0333786197006702423 0.116765707731246948
0.287289232015609741 0.0333786197006702423 0.225087344646453857
0.278195768594741821 0.0333786197006702423 0.244270607829093933
0.116157464683055878 0.0333786197006702423 0.189180359244346619
0.198541358113288879 0.0333786197006702423 0.172996193170547485
0.0279196929186582565 0.0333786197006702423 0.200260579586029053
0.12936834990978241 0.0333786197006702423 0.112787827849388123
0.295185506343841553 0.0333786197006702423 0.186269626021385193
0.128717318177223206 0.0333786197006702423 0.123010516166687012
0.123518876731395721 0.0333786197006702423 0.237297698855400085
0.0585116036236286163 0.0333786197006702423 0.14644092321395874
0.20058286190032959 0.0333786197006702423 0.150576293468475342
0.0555243492126464844 0.0333786197006702423 0.216428846120834351
0.223665386438369751 0.0333786197006702423 0.180773258209228516
0.0406585074961185455 0.0333786197006702423 0.120376542210578918
0.00356222502887248993 0.0333786197006702423 0.0836737900972366333
0.198880702257156372 0.0333786197006702423 0.1478843092918396
0.193193688988685608 0.0333786197006702423 0.173028767108917236
0.310515850782394409 0.0333786197006702423 0.229260712862014771
0.262636095285415649 0.0333786197006702423 0.200076714158058167
0.142392948269844055 0.0333786197006702423 0.0993956923484802246
0.318718761205673218 0.0333786197006702423 0.221320778131484985
0.299555927515029907 0.0333786197006702423 0.229856610298156738
0.246443435549736023 0.0333786197006702423 0.224620714783668518
0.0718759894371032715 0.0333786197006702423 0.178492456674575806
0.0729923024773597717 0.0333786197006702423 0.0948572903871536255
0.251595884561538696 0.0333786197006702423 0.176170945167541504
0.147291511297225952 0.0333786197006702423 0.136558488011360168
0.216215893626213074 0.0333786197006702423 0.20195828378200531
0.0976908132433891296 0.0333786197006702423 0.106889396905899048
0.0355271734297275543 0.0333786197006702423 0.0635050088167190552
0.018186323344707489 0.0333786197006702423 0.060812339186668396
0.283631622791290283 0.0333786197006702423 0.185433775186538696
0.313092797994613647 0.0333786197006702423 0.212126761674880981
0.114352740347385406 0.0333786197006702423 0.13505709171295166
0.285802870988845825 0.0333786197006702423 0.2161521315574646
0.344816714525222778 0.0333786197006702423 0.240888714790344238
0.323231548070907593 0.0333786197006702423 0.207234784960746765
0.182410076260566711 0.0333786197006702423 0.227345794439315796
0.0647550597786903381 0.0333786197006702423 0.0898326188325881958
0.137101307511329651 0.0333786197006702423 0.120348215103149414
0.265739768743515015 0.0333786197006702423 0.187221169471740723
0.0804565772414207458 0.0333786197006702423 0.106076151132583618
0.160970404744148254 0.0333786197006702423 0.127820387482643127
0.0728512853384017944 0.0333786197006702423 0.145156294107437134
0.0245451312512159348 0.0333786197006702423 0.0293115824460983276
0.257047414779663086 0.0333786197006702423 0.187179714441299438
0.272804468870162964 0.0333786197006702423 0.22281801700592041
0.254780888557434082 0.0333786197006702423 0.194351315498352051
0.100481048226356506 0.0333786197006702423 0.152047663927078247
0.216849848628044128 0.0333786197006702423 0.238336458802223206
0.189435988664627075 0.0333786197006702423 0.187812685966491699
0.386269450187683105 0.0333786197006702423 0.2432747483253479
0.266041785478591919 0.0333786197006702423 0.168345034122467041
0.0227397512644529343 0.0333786197006702423 0.217511162161827087
0.0334675870835781097 0.0333786197006702423 0.0898956507444381714
0.182627096772193909 0.0333786197006702423 0.186554014682769775
0.0659023374319076538 0.0333786197006702423 0.19680631160736084
0.241148993372917175 0.0333786197006702423 0.161584958434104919
0.0671284943819046021 0.0333786197006702423 0.109175518155097961
0.109910905361175537 0.0333786197006702423 0.155033469200134277
0.238149479031562805 0.0333786197006702423 0.243978559970855713
0.051899351179599762 0.0333786197006702423 0.205003634095191956
0.248459815979003906 0.0333786197006702423 0.184655502438545227
0.101389303803443909 0.0333786197006702423 0.0748753994703292847
0.171799585223197937 0.0333786197006702423 0.235567927360534668
0.0724546834826469421 0.0333786197006702423 0.245335280895233154
0.109006181359291077 0.0333786197006702423 0.222526073455810547
0.079325549304485321 0.0333786197006702423 0.139525905251502991
0.065639890730381012 0.0333786197006702423 0.128931477665901184
0.00947104860097169876 0.0333786197006702423 0.0995884984731674194
0.207790449261665344 0.0333786197006702423 0.135885655879974365
0.267981141805648804 0.0333786197006702423 0.212716549634933472
0.0618179105222225189 0.0333786197006702423 0.124504387378692627
0.233212307095527649 0.0333786197006702423 0.147677585482597351
0.102513633668422699 0.0333786197006702423 0.172989353537559509
0.199310719966888428 0.0333786197006702423 0.189580336213111877
0.068966008722782135 0.0333786197006702423 0.205474227666854858
0.176535069942474365 0.0333786197006702423 0.239863157272338867
0.11895231157541275 0.0333786197006702423 0.0988182723522186279
0.0276393052190542221 0.0333786197006702423 0.061391875147819519
0.0284524913877248764 0.0333786197006702423 0.120333671569824219
0.0191491376608610153 0.0333786197006702423 0.0837547481060028076
0.0969737693667411804 0.0333786197006702423 0.236125454306602478
0.298630952835083008 0.0333786197006702423 0.225541621446609497
0.198164328932762146 0.0333786197006702423 0.150160655379295349
0.129561811685562134 0.0333786197006702423 0.144261062145233154
0.0107014169916510582 0.0333786197006702423 0.219496548175811768
0.0628355592489242554 0.0333786197006702423 0.0930168777704238892
0.0478155836462974548 0.0333786197006702423 0.073328852653503418
0.228492617607116699 0.0333786197006702423 0.174326986074447632
0.181583210825920105 0.0333786197006702423 0.203986212611198425
0.0181746110320091248 0.0333786197006702423 0.051067739725112915
0.262353122234344482 0.0333786197006702423 0.184905678033828735
0.130596652626991272 0.0333786197006702423 0.112372741103172302
0.254052728414535522 0.0333786197006702423 0.198232889175415039
0.152520701289176941 0.0333786197006702423 0.226774558424949646
0.136245712637901306 0.0333786197006702423 0.118088021874427795
0.00857737846672534943 0.0333786197006702423 0.0206586271524429321
0.196839302778244019 0.0333786197006702423 0.145297318696975708
0.0745724737644195557 0.0333786197006702423 0.0584937632083892822
0.0922198072075843811 0.0333786197006702423 0.230831220746040344
0.209763720631599426 0.0333786197006702423 0.235844343900680542
0.00572692183777689934 0.0333786197006702423 0.0892223268747329712
0.0552542321383953094 0.0333786197006702423 0.146788313984870911
0.166501834988594055 0.0333786197006702423 0.110300958156585693
0.274100810289382935 0.0333786197006702423 0.246579661965370178
0.0490064807236194611 0.0333786197006702423 0.0682320296764373779
0.147077709436416626 0.0333786197006702423 0.106788411736488342
0.0186917632818222046 0.0333786197006702423 0.229362010955810547
0.0781132206320762634 0.0333786197006702423 0.133273094892501831
0.149615809321403503 0.0333786197006702423 0.2204703688621521
0.145743653178215027 0.0333786197006702423 0.2364206463098526
0.275043666362762451 0.0333786197006702423 0.17381654679775238
0.0143393427133560181 0.0333786197006702423 0.155971497297286987
0.279907673597335815 0.0333786197006702423 0.210132762789726257
0.0144683113321661949 0.0333786197006702423 0.0572292953729629517
0.144734308123588562 0.0333786197006702423 0.140678763389587402
0.299474507570266724 0.0333786197006702423 0.249809116125106812
0.0985787957906723022 0.0333786197006702423 0.106690838932991028
0.0133137898519635201 0.0333786197006702423 0.0447944849729537964
0.102209173142910004 0.0333786197006702423 0.120496079325675964
0.238293007016181946 0.0333786197006702423 0.160985007882118225
0.0773217976093292236 0.0333786197006702423 0.0697699040174484253
0.00549369817599654198 0.0333786197006702423 0.0863406509160995483
0.129495128989219666 0.0333786197006702423 0.198109477758407593
0.0583990998566150665 0.0333786197006702423 0.0862780511379241943
0.0841710641980171204 0.0333786197006702423 0.0668757706880569458
0.0624399855732917786 0.0333786197006702423 0.0468426644802093506
0.164237365126609802 0.0333786197006702423 0.177908957004547119
0.299094676971435547 0.0333786197006702423 0.205728843808174133
0.187350213527679443 0.0333786197006702423 0.22255292534828186
0.134234964847564697 0.0333786197006702423 0.114751487970352173
0.208932593464851379 0.0333786197006702423 0.140809178352355957
0.293851345777511597 0.0333786197006702423 0.232034996151924133
0.295244038105010986 0.0333786197006702423 0.198169082403182983
0.185334622859954834 0.0333786197006702423 0.134121626615524292
0.130624815821647644 0.0333786197006702423 0.081663861870765686
0.222097381949424744 0.0333786197006702423 0.142397120594978333
0.167739763855934143 0.0333786197006702423 0.18170282244682312
0.106616117060184479 0.0333786197006702423 0.187212169170379639
0.00345490849576890469 0.0333786197006702423 0.0664801448583602905
0.290858834981918335 0.0333786197006702423 0.213945463299751282
0.116152502596378326 0.0333786197006702423 0.159029185771942139
0.221578553318977356 0.0333786197006702423 0.147818773984909058
0.0487453974783420563 0.0333786197006702423 0.108668714761734009
0.172490909695625305 0.0333786197006702423 0.208920657634735107
0.134170427918434143 0.0333786197006702423 0.127103537321090698
0.341077864170074463 0.0333786197006702423 0.213857740163803101
0.0537301190197467804 0.0333786197006702423 0.0896039307117462158
0.148983016610145569 0.0333786197006702423 0.108648106455802917
0.0361199267208576202 0.0333786197006702423 0.0563460290431976318
0.138071075081825256 0.0333786197006702423 0.210660994052886963
0.0580113232135772705 0.0333786197006702423 0.212238699197769165
0.0536050982773303986 0.0333786197006702423 0.0394296348094940186
0.0101301493123173714 0.0333786197006702423 0.110955595970153809
0.0764077529311180115 0.0333786197006702423 0.0704054087400436401
0.0843690335750579834 0.0333786197006702423 0.122348055243492126
0.0606808364391326904 0.0333786197006702423 0.0449427217245101929
0.000333107862388715148 0.0333786197006702423 0.0934723764657974243
0.0839645564556121826 0.0333786197006702423 0.187152266502380371
0.0707861930131912231 0.0333786197006702423 0.105533257126808167
0.0568851344287395477 0.0333786197006702423 0.0895799845457077026
0.11366560310125351 0.0333786197006702423 0.206510305404663086
0.165932446718215942 0.0333786197006702423 0.11086718738079071
0.0116398585960268974 0.0333786197006702423 0.210536956787109375
0.318373650312423706 0.0333786197006702423 0.218329444527626038
0.188397958874702454 0.0333786197006702423 0.195566087961196899
0.182976529002189636 0.0333786197006702423 0.244503512978553772
0.295900911092758179 0.0333786197006702423 0.206962212920188904
0.144115105271339417 0.0333786197006702423 0.10026240348815918
0.0812292397022247314 0.0333786197006702423 0.158825546503067017
0.0722645297646522522 0.0333786197006702423 0.150106608867645264
0.0720575451850891113 0.0333786197006702423 0.0648621320724487305
0.281229764223098755 0.0333786197006702423 0.239526882767677307
0.363277465105056763 0.0333786197006702423 0.231572210788726807
0.155012473464012146 0.0333786197006702423 0.15166240930557251
0.0115668913349509239 0.0333786197006702423 0.124964088201522827
0.0490362942218780518 0.0333786197006702423 0.202136874198913574
0.117430806159973145 0.0333786197006702423 0.0759322047233581543
0.140394166111946106 0.0333786197006702423 0.0936560779809951782
0.106506526470184326 0.0333786197006702423 0.244472548365592957
0.360620558261871338 0.0333786197006702423 0.246182277798652649
0.260448664426803589 0.0333786197006702423 0.220524176955223083
0.206866815686225891 0.0333786197006702423 0.195476189255714417
0.12433161586523056 0.0333786197006702423 0.140154242515563965
0.121811799705028534 0.0333786197006702423 0.192818701267242432
0.140944346785545349 0.0333786197006702423 0.223666787147521973
0.0900414586067199707 0.0333786197006702423 0.20029546320438385
0.213354825973510742 0.0333786197006702423 0.16329057514667511
0.0998645946383476257 0.0333786197006702423 0.141625672578811646
0.217408344149589539 0.0333786197006702423 0.162700951099395752
0.217963099479675293 0.0333786197006702423 0.182367533445358276
0.0258005354553461075 0.0333786197006702423 0.246361702680587769
0.217670664191246033 0.0333786197006702423 0.230530411005020142
0.0393195375800132751 0.0333786197006702423 0.174950450658798218
0.372003704309463501 0.0333786197006702423 0.247058674693107605
0.115491978824138641 0.0333786197006702423 0.239835545420646667
0.142089024186134338 0.0333786197006702423 0.182014137506484985
0.238554954528808594 0.0333786197006702423 0.15069463849067688
0.115507796406745911 0.0333786197006702423 0.168948590755462646
0.0834273844957351685 0.0333786197006702423 0.098524048924446106
0.346519798040390015 0.0333786197006702423 0.229628652334213257
0.0191086046397686005 0.0333786197006702423 0.130470842123031616
0.0760997459292411804 0.0333786197006702423 0.205128490924835205
0.0411489233374595642 0.0333786197006702423 0.032571643590927124
0.127446457743644714 0.0333786197006702423 0.176203370094299316
0.124204628169536591 0.0333786197006702423 0.0835444927215576172
0.0783262625336647034 0.0333786197006702423 0.18225407600402832
0.296572893857955933 0.0333786197006702423 0.240737289190292358
0.100326895713806152 0.0333786197006702423 0.0991921126842498779
0.0333094261586666107 0.0333786197006702423 0.119619041681289673
0.189256206154823303 0.0333786197006702423 0.223040282726287842
0.0539168715476989746 0.0333786197006702423 0.150604933500289917
0.106699585914611816 0.0333786197006702423 0.21653217077255249
0.143480122089385986 0.0333786197006702423 0.230565816164016724
0.316954702138900757 0.0333786197006702423 0.201654180884361267
0.0669009387493133545 0.0333786197006702423 0.13919985294342041
0.144666209816932678 0.0333786197006702423 0.216493606567382812
0.105537019670009613 0.0333786197006702423 0.246142730116844177
0.106426574289798737 0.0333786197006702423 0.124650895595550537
0.0715600475668907166 0.0333786197006702423 0.0845470726490020752
0.153499290347099304 0.0333786197006702423 0.108105748891830444
0.236796259880065918 0.0333786197006702423 0.154305204749107361
0.0547860823571681976 0.0333786197006702423 0.0749909877777099609
0.0129738915711641312 0.0333786197006702423 0.0917333811521530151
0.0208100955933332443 0.0333786197006702423 0.198421746492385864
0.153174370527267456 0.0333786197006702423 0.185233831405639648
0.0700438544154167175 0.0333786197006702423 0.0935619324445724487
0.178860768675804138 0.0333786197006702423 0.159474015235900879
0.00369897298514842987 0.0333786197006702423 0.00693294405937194824
0.189230784773826599 0.0333786197006702423 0.246001541614532471
0.0262840390205383301 0.0333786197006702423 0.0450294464826583862
0.174696445465087891 0.0333786197006702423 0.243506968021392822
0.262172967195510864 0.0333786197006702423 0.200011745095252991
0.176448151469230652 0.0333786197006702423 0.197633564472198486
0.086667962372303009 0.0333786197006702423 0.117608070373535156
0.0409709997475147247 0.0333786197006702423 0.245984211564064026
0.151160165667533875 0.0333786197006702423 0.217131391167640686
0.276890307664871216 0.0333786197006702423 0.233497798442840576
0.29511985182762146 0.0333786197006702423 0.219363629817962646
0.188963145017623901 0.0333786197006702423 0.201661348342895508
0.148152798414230347 0.0333786197006702423 0.103918313980102539
0.031442694365978241 0.0333786197006702423 0.216854482889175415
0.0523977763950824738 0.0333786197006702423 0.124267026782035828
0.320325940847396851 0.0333786197006702423 0.241588830947875977
0.0670473650097846985 0.0333786197006702423 0.158231228590011597
0.282679349184036255 0.0333786197006702423 0.201237469911575317
0.101845480501651764 0.0333786197006702423 0.100953370332717896
0.0782184377312660217 0.0333786197006702423 0.226069554686546326
0.0116096688434481621 0.0333786197006702423 0.0645391345024108887
0.00775357475504279137 0.0333786197006702423 0.144495248794555664
0.12445995956659317 0.0333786197006702423 0.17206999659538269
0.0060212588869035244 0.0333786197006702423 0.0895260423421859741
0.0427406579256057739 0.0333786197006702423 0.112281545996665955
0.0084522683173418045 0.0333786197006702423 0.103838875889778137
0.157555937767028809 0.0333786197006702423 0.195602685213088989
0.0538326092064380646 0.0333786197006702423 0.107779234647750854
0.290782570838928223 0.0333786197006702423 0.209101825952529907
0.0106040267273783684 0.0333786197006702423 0.0202218145132064819
0.171354711055755615 0.0333786197006702423 0.115740597248077393
0.176222145557403564 0.0333786197006702423 0.222983077168464661
0.120090901851654053 0.0333786197006702423 0.198587357997894287
0.208519458770751953 0.0333786197006702423 0.151274397969245911
0.137498244643211365 0.0333786197006702423 0.22439129650592804
0.289092719554901123 0.0333786197006702423 0.19498288631439209
0.0804543867707252502 0.0333786197006702423 0.0639198869466781616
0.243173792958259583 0.0333786197006702423 0.242941886186599731
0.0971118584275245667 0.0333786197006702423 0.217080563306808472
0.112076960504055023 0.0333786197006702423 0.0968038290739059448
0.162654772400856018 0.0333786197006702423 0.115889802575111389
0.0796952769160270691 0.0333786197006702423 0.0908112376928329468
0.113699831068515778 0.0333786197006702423 0.240690633654594421
0.211527809500694275 0.0333786197006702423 0.233236804604530334
0.213783383369445801 0.0333786197006702423 0.209250986576080322
0.238400742411613464 0.0333786197006702423 0.200790733098983765
0.0151131227612495422 0.0333786197006702423 0.247959136962890625
0.0322355814278125763 0.0333786197006702423 0.175047263503074646
0.211138591170310974 0.0333786197006702423 0.187997445464134216
0.149607852101325989 0.0333786197006702423 0.162466824054718018
0.15187641978263855 0.0333786197006702423 0.129510655999183655
0.0257318373769521713 0.0333786197006702423 0.113697141408920288
0.313608735799789429 0.0333786197006702423 0.23237985372543335
0.0503387749195098877 0.0333786197006702423 0.0925356298685073853
0.103667676448822021 0.0333786197006702423 0.165070444345474243
0.102468624711036682 0.0333786197006702423 0.0994249135255813599
0.243341311812400818 0.0333786197006702423 0.166187554597854614
0.0406184457242488861 0.0333786197006702423 0.041729167103767395
0.0807473734021186829 0.0333786197006702423 0.146993651986122131
0.181421145796775818 0.0333786197006702423 0.233590260148048401
0.0109246391803026199 0.0333786197006702423 0.13539588451385498
0.383558124303817749 0.0333786197006702423 0.248537778854370117
0.00958142895251512527 0.0333786197006702423 0.196384400129318237
0.0803235769271850586 0.0333786197006702423 0.22458977997303009
0.0726140066981315613 0.0333786197006702423 0.0537924766540527344
0.0550855100154876709 0.0333786197006702423 0.223852425813674927
0.351510167121887207 0.0333786197006702423 0.248483911156654358
0.211640700697898865 0.0333786197006702423 0.234225481748580933
0.0776038244366645813 0.0333786197006702423 0.203743651509284973
0.21008630096912384 0.0333786197006702423 0.192701563239097595
0.218389376997947693 0.0333786197006702423 0.202703148126602173
0.046534370630979538 0.0333786197006702423 0.0544969290494918823
0.187956705689430237 0.0333786197006702423 0.176856964826583862
0.0665521100163459778 0.0333786197006702423 0.182983532547950745
0.177131161093711853 0.0333786197006702423 0.198316276073455811
0.178946018218994141 0.0333786197006702423 0.212050944566726685
0.164680972695350647 0.0333786197006702423 0.23894403874874115
0.0566855780780315399 0.0333786197006702423 0.0834801644086837769
0.17559419572353363 0.0333786197006702423 0.173942625522613525
0.00761749967932701111 0.0333786197006702423 0.125733047723770142
0.358256906270980835 0.0333786197006702423 0.226469442248344421
0.10967264324426651 0.0333786197006702423 0.243208557367324829
0.0556394457817077637 0.0333786197006702423 0.221291258931159973
0.0677709802985191345 0.0333786197006702423 0.162514954805374146
0.0902912840247154236 0.0333786197006702423 0.227119460701942444
0.0562164559960365295 0.0333786197006702423 0.224856644868850708
0.304039329290390015 0.0333786197006702423 0.203323826193809509
0.248080119490623474 0.0333786197006702423 0.230444252490997314
0.084347359836101532 0.0333786197006702423 0.237366467714309692
0.20833723247051239 0.0333786197006702423 0.208235427737236023
0.277359664440155029 0.0333786197006702423 0.213510215282440186
0.0183617398142814636 0.0333786197006702423 0.0192027091979980469
0.0508960075676441193 0.0333786197006702423 0.0571305453777313232
0.224664598703384399 0.0333786197006702423 0.202026054263114929
0.0301073882728815079 0.0333786197006702423 0.185666590929031372
0.172272384166717529 0.0333786197006702423 0.236928731203079224
0.10037616640329361 0.0333786197006702423 0.21902523934841156
0.105247914791107178 0.0333786197006702423 0.214309856295585632
0.241350755095481873 0.0333786197006702423 0.187737748026847839
0.235559210181236267 0.0333786197006702423 0.170454487204551697
0.0448186434805393219 0.0333786197006702423 0.104366034269332886
0.0813623964786529541 0.0333786197006702423 0.141305580735206604
0.161487996578216553 0.0333786197006702423 0.106141209602355957
0.0573786161839962006 0.0333786197006702423 0.0732683390378952026
0.0197178386151790619 0.0333786197006702423 0.212666735053062439
0.192404285073280334 0.0333786197006702423 0.14585229754447937
0.336826145648956299 0.0333786197006702423 0.238286420702934265
0.0871584117412567139 0.0333786197006702423 0.0667384862899780273
0.154135942459106445 0.0333786197006702423 0.233135953545570374
0.21410737931728363 0.0333786197006702423 0.171023279428482056
0.282570570707321167 0.0333786197006702423 0.22742857038974762
0.172314271330833435 0.0333786197006702423 0.213053718209266663
0.00796150509268045425 0.0333786197006702423 0.18291965126991272
0.175590947270393372 0.0333786197006702423 0.145049065351486206
0.31856989860534668 0.0333786197006702423 0.209495320916175842
0.177011951804161072 0.0333786197006702423 0.203237235546112061
0.024451177567243576 0.0333786197006702423 0.188498884439468384
0.174222156405448914 0.0333786197006702423 0.122207775712013245
0.12066427618265152 0.0333786197006702423 0.103843793272972107
0.126566633582115173 0.0333786197006702423 0.215663284063339233
0.22271302342414856 0.0333786197006702423 0.211456745862960815
0.0115861315280199051 0.0333786197006702423 0.0852698385715484619
0.167121022939682007 0.0333786197006702423 0.210434600710868835
0.0496766194701194763 0.0333786197006702423 0.118885472416877747
0.227779656648635864 0.0333786197006702423 0.242982342839241028
0.140137240290641785 0.0333786197006702423 0.166441276669502258
0.328553259372711182 0.0333786197006702423 0.232229992747306824
0.278380006551742554 0.0333786197006702423 0.206086814403533936
0.171512320637702942 0.0333786197006702423 0.170001000165939331
0.0758063718676567078 0.0333786197006702423 0.0749661475419998169
0.0423583798110485077 0.0333786197006702423 0.183378934860229492
0.0733597204089164734 0.0333786197006702423 0.143754690885543823
0.0894977450370788574 0.0333786197006702423 0.109911739826202393
0.0110749108716845512 0.0333786197006702423 0.121313124895095825
0.189624711871147156 0.0333786197006702423 0.124702617526054382
0.0561766624450683594 0.0333786197006702423 0.104862779378890991
0.122568465769290924 0.0333786197006702423 0.0988370180130004883
0.0206537004560232162 0.0333786197006702423 0.142741337418556213
0.093876175582408905 0.0333786197006702423 0.10569724440574646
0.167692586779594421 0.0333786197006702423 0.170951664447784424
0.166439414024353027 0.0333786197006702423 0.170888274908065796
0.0539560131728649139 0.0333786197006702423 0.0811469107866287231
0.169346556067466736 0.0333786197006702423 0.125264853239059448
0.263363420963287354 0.0333786197006702423 0.166477829217910767
0.0544224269688129425 0.0333786197006702423 0.10317113995552063
0.0683003664016723633 0.0333786197006702423 0.0994905531406402588
0.110292948782444 0.0333786197006702423 0.116455435752868652
0.1021384596824646 0.0333786197006702423 0.200848698616027832
0.279293924570083618 0.0333786197006702423 0.209509745240211487
0.0538635514676570892 0.0333786197006702423 0.195133283734321594
0.262253761291503906 0.0333786197006702423 0.240017026662826538
0.19549676775932312 0.0333786197006702423 0.138869106769561768
0.31906425952911377 0.0333786197006702423 0.23919464647769928
0.210019588470458984 0.0333786197006702423 0.247950464487075806
0.0285121556371450424 0.0333786197006702423 0.16328786313533783
0.144530802965164185 0.0333786197006702423 0.164718866348266602
0.0522411763668060303 0.0333786197006702423 0.156873166561126709
0.0454903170466423035 0.0333786197006702423 0.190044745802879333
0.187040135264396667 0.0333786197006702423 0.142622768878936768
0.0179313570261001587 0.0333786197006702423 0.1382179856300354
0.128370910882949829 0.0333786197006702423 0.112777799367904663
0.0642554610967636108 0.0333786197006702423 0.0992160290479660034
0.229984208941459656 0.0333786197006702423 0.188495665788650513
0.0651038363575935364 0.0333786197006702423 0.126378968358039856
0.171529516577720642 0.0333786197006702423 0.222001969814300537
0.135709717869758606 0.0333786197006702423 0.248511075973510742
0.0813768506050109863 0.0333786197006702423 0.190837830305099487
0.0217864997684955597 0.0333786197006702423 0.24318791925907135
0.0128232510760426521 0.0333786197006702423 0.182024091482162476
0.0350550189614295959 0.0333786197006702423 0.0852172225713729858
0.154213115572929382 0.0333786197006702423 0.117515265941619873
0.0796408876776695251 0.0333786197006702423 0.0924160480499267578
0.013339996337890625 0.0333786197006702423 0.0103707313537597656
0.131171807646751404 0.0333786197006702423 0.190727353096008301
0.158625930547714233 0.0333786197006702423 0.102063551545143127
0.374922692775726318 0.0333786197006702423 0.234679564833641052
0.129137247800827026 0.0333786197006702423 0.0822018980979919434
0.0335924550890922546 0.0333786197006702423 0.0458823889493942261
0.11477816104888916 0.0333786197006702423 0.0874010771512985229
0.256994336843490601 0.0333786197006702423 0.208832293748855591
0.252052396535873413 0.0333786197006702423 0.193565696477890015
0.175632074475288391 0.0333786197006702423 0.218531638383865356
0.0873291864991188049 0.0333786197006702423 0.0851073563098907471
0.360695689916610718 0.0333786197006702423 0.243325591087341309
0.21637117862701416 0.0333786197006702423 0.216922938823699951
0.0488306097686290741 0.0333786197006702423 0.230607792735099792
0.141228899359703064 0.0333786197006702423 0.151458963751792908
0.17435203492641449 0.0333786197006702423 0.140927910804748535
0.0204811524599790573 0.0333786197006702423 0.0834294408559799194
0.139633923768997192 0.0333786197006702423 0.0926877111196517944
0.0895603746175765991 0.0333786197006702423 0.0789506286382675171
0.215953513979911804 0.0333786197006702423 0.208294004201889038
0.0241184346377849579 0.0333786197006702423 0.176423996686935425
0.0621511116623878479 0.0333786197006702423 0.245927795767784119
0.3669871985912323 0.0333786197006702423 0.235946044325828552
0.314635187387466431 0.0333786197006702423 0.225208401679992676
0.051808234304189682 0.0333786197006702423 0.21863420307636261
0.333396345376968384 0.0333786197006702423 0.224072322249412537
0.00612866831943392754 0.0333786197006702423 0.0151204317808151245
0.133822306990623474 0.0333786197006702423 0.116804659366607666
0.00456608273088932037 0.0333786197006702423 0.208627387881278992
0.0770066007971763611 0.0333786197006702423 0.201814919710159302
0.360840886831283569 0.0333786197006702423 0.238833889365196228
0.0713422372937202454 0.0333786197006702423 0.0824973136186599731
0.0834019184112548828 0.0333786197006702423 0.247410088777542114
0.142255499958992004 0.0333786197006702423 0.191013321280479431
0.0859433189034461975 0.0333786197006702423 0.100673496723175049
0.108982741832733154 0.0333786197006702423 0.219188675284385681
0.118006668984889984 0.0333786197006702423 0.227343112230300903
0.0277320723980665207 0.0333786197006702423 0.230871766805648804
0.152650371193885803 0.0333786197006702423 0.163783952593803406
0.244731947779655457 0.0333786197006702423 0.198514252901077271
0.203948125243186951 0.0333786197006702423 0.249929845333099365
0.0608473382890224457 0.0333786197006702423 0.145557403564453125
0.0340833216905593872 0.0333786197006702423 0.0572512894868850708
0.252240359783172607 0.0333786197006702423 0.19945797324180603
0.156837686896324158 0.0333786197006702423 0.231893450021743774
0.0305636171251535416 0.0333786197006702423 0.159135490655899048
0.146429672837257385 0.0333786197006702423 0.0960492193698883057
0.0365394912660121918 0.0333786197006702423 0.233587741851806641
0.0277686920017004013 0.0333786197006702423 0.169454395771026611
0.15623752772808075 0.0333786197006702423 0.211680516600608826
0.0394710935652256012 0.0333786197006702423 0.101477101445198059
0.155438825488090515 0.0333786197006702423 0.224166989326477051
0.0437371544539928436 0.0333786197006702423 0.157009676098823547
0.373739093542098999 0.0333786197006702423 0.238980591297149658
0.220458984375 0.0333786197006702423 0.168036341667175293
0.296227574348449707 0.0333786197006702423 0.19204065203666687
0.10718979686498642 0.0333786197006702423 0.133616596460342407
0.0508493296802043915 0.0333786197006702423 0.1452980637550354
0.120227538049221039 0.0333786197006702423 0.240354612469673157
0.252727746963500977 0.0333786197006702423 0.183568298816680908
0.258674889802932739 0.0333786197006702423 0.202576622366905212
0.196447223424911499 0.0333786197006702423 0.122950688004493713
0.337616056203842163 0.0333786197006702423 0.238700762391090393
0.170912176370620728 0.0333786197006702423 0.111127942800521851
0.216767311096191406 0.0333786197006702423 0.19410473108291626
0.0874056145548820496 0.0333786197006702423 0.192490994930267334
0.170373633503913879 0.0333786197006702423 0.226411342620849609
0.0491195134818553925 0.0333786197006702423 0.151132732629776001
0.050917845219373703 0.0333786197006702423 0.231698185205459595
0.0964387133717536926 0.0333786197006702423 0.130531594157218933
0.00451668212190270424 0.0333786197006702423 0.183779329061508179
0.197787746787071228 0.0333786197006702423 0.225266128778457642
0.0145440297201275826 0.0333786197006702423 0.199798017740249634
0.0190895479172468185 0.0333786197006702423 0.163353860378265381
0.0460088104009628296 0.0333786197006702423 0.204358518123626709
0.227046996355056763 0.0333786197006702423 0.198013335466384888
0.248436570167541504 0.0333786197006702423 0.238504230976104736
0.186477124691009521 0.0333786197006702423 0.172731921076774597
0.318355798721313477 0.0333786197006702423 0.208488777279853821
0.156936094164848328 0.0333786197006702423 0.164822101593017578
0.240443632006645203 0.0333786197006702423 0.203217595815658569
0.0152672706171870232 0.0333786197006702423 0.193477943539619446
0.30126798152923584 0.0333786197006702423 0.243068352341651917
0.0765951797366142273 0.0333786197006702423 0.142986804246902466
0.177436932921409607 0.0333786197006702423 0.210730135440826416
0.0279978103935718536 0.0333786197006702423 0.0188436955213546753
0.218526840209960938 0.0333786197006702423 0.196756169199943542
0.0035285737831145525 0.0333786197006702423 0.114545166492462158
0.2130584716796875 0.0333786197006702423 0.177794367074966431
0.068377174437046051 0.0333786197006702423 0.0542097538709640503
0.134399518370628357 0.0333786197006702423 0.221313551068305969
0.0346190854907035828 0.0333786197006702423 0.133109435439109802
0.0246196705847978592 0.0333786197006702423 0.0942391455173492432
0.00929621979594230652 0.0333786197006702423 0.0570717602968215942
0.186131894588470459 0.0333786197006702423 0.126762479543685913
0.00299719860777258873 0.0333786197006702423 0.0377718508243560791
0.0286272652447223663 0.0333786197006702423 0.0423785895109176636
0.0262331049889326096 0.0333786197006702423 0.200343579053878784
0.103833071887493134 0.0333786197006702423 0.181153863668441772
0.0332586728036403656 0.0333786197006702423 0.0313082635402679443
0.154636785387992859 0.0333786197006702423 0.116500884294509888
0.0930269360542297363 0.0333786197006702423 0.134164199233055115
0.205502539873123169 0.0333786197006702423 0.229239091277122498
0.116017654538154602 0.0333786197006702423 0.108504533767700195
0.210466668009757996 0.0333786197006702423 0.21255965530872345
0.340562820434570312 0.0333786197006702423 0.229971319437026978
0.0974875316023826599 0.0333786197006702423 0.239808470010757446
0.254333913326263428 0.0333786197006702423 0.187827274203300476
0.00747532909736037254 0.0333786197006702423 0.0665919780731201172
0.175959944725036621 0.0333786197006702423 0.139839708805084229
0.0059885871596634388 0.0333786197006702423 0.115820184350013733
0.293655067682266235 0.0333786197006702423 0.192902475595474243
0.0922218114137649536 0.0333786197006702423 0.108610600233078003
0.105012610554695129 0.0333786197006702423 0.237077474594116211
0.045968964695930481 0.0333786197006702423 0.150851696729660034
0.307521551847457886 0.0333786197006702423 0.2154836505651474
0.188201248645782471 0.0333786197006702423 0.232332333922386169
0.134027659893035889 0.0333786197006702423 0.0943154692649841309
0.0720253512263298035 0.0333786197006702423 0.199612423777580261
0.181998595595359802 0.0333786197006702423 0.227697357535362244
0.135090857744216919 0.0333786197006702423 0.154567539691925049
0.295331090688705444 0.0333786197006702423 0.233047932386398315
0.027159838005900383 0.0333786197006702423 0.0291577428579330444
0.0817945152521133423 0.0333786197006702423 0.223901957273483276
0.113098107278347015 0.0333786197006702423 0.230878233909606934
0.200570344924926758 0.0333786197006702423 0.209782868623733521
0.0269453655928373337 0.0333786197006702423 0.228580847382545471
0.0504662059247493744 0.0333786197006702423 0.0430844277143478394
0.0206520464271306992 0.0333786197006702423 0.209237620234489441
0.0212449356913566589 0.0333786197006702423 0.100382983684539795
0.122799158096313477 0.0333786197006702423 0.131924271583557129
0.0519867241382598877 0.0333786197006702423 0.108997955918312073
0.13864859938621521 0.0333786197006702423 0.170562773942947388
0.00143093196675181389 0.0333786197006702423 0.17131456732749939
0.268325060606002808 0.0333786197006702423 0.168731629848480225
0.216137170791625977 0.0333786197006702423 0.245765239000320435
0.00641301367431879044 0.0333786197006702423 0.123963594436645508
0.0211917124688625336 0.0333786197006702423 0.12662959098815918
0.0201256182044744492 0.0333786197006702423 0.158477962017059326
0.284277528524398804 0.0333786197006702423 0.214203491806983948
0.0602554939687252045 0.0333786197006702423 0.051258385181427002
0.0459711030125617981 0.0333786197006702423 0.15241105854511261
0.24681130051612854 0.0333786197006702423 0.213846281170845032
0.0609912984073162079 0.0333786197006702423 0.143655955791473389
0.0841647684574127197 0.0333786197006702423 0.0701705664396286011
0.155076310038566589 0.0333786197006702423 0.185207724571228027
0.00684374291449785233 0.0333786197006702423 0.148222938179969788
0.0534091293811798096 0.0333786197006702423 0.167132571339607239
0.336599975824356079 0.0333786197006702423 0.214028462767601013
0.144089475274085999 0.0333786197006702423 0.119230061769485474
0.138109311461448669 0.0333786197006702423 0.154440581798553467
0.130240112543106079 0.0333786197006702423 0.190270692110061646
0.0546525381505489349 0.0333786197006702423 0.16156238317489624
0.170813471078872681 0.0333786197006702423 0.147400826215744019
0.165833353996276855 0.0333786197006702423 0.195359274744987488
0.136009961366653442 0.0333786197006702423 0.0981239080429077148
0.00457018567249178886 0.0333786197006702423 0.00799521803855895996
0.335710734128952026 0.0333786197006702423 0.230859845876693726
0.211654052138328552 0.0333786197006702423 0.150651514530181885
0.0886908248066902161 0.0333786197006702423 0.218896776437759399
0.0990232154726982117 0.0333786197006702423 0.192984253168106079
0.250414222478866577 0.0333786197006702423 0.238827094435691833
0.167388200759887695 0.0333786197006702423 0.169141143560409546
0.120799936354160309 0.0333786197006702423 0.190786868333816528
0.00496543245390057564 0.0333786197006702423 0.180747628211975098
0.092622712254524231 0.0333786197006702423 0.213373437523841858
0.0693350434303283691 0.0333786197006702423 0.232607737183570862
0.168698772788047791 0.0333786197006702423 0.185156822204589844
0.263449281454086304 0.0333786197006702423 0.165497392416000366
0.158574521541595459 0.0333786197006702423 0.153492450714111328
0.282221704721450806 0.0333786197006702423 0.225361555814743042
0.169568419456481934 0.0333786197006702423 0.143290251493453979
0.0577925108373165131 0.0333786197006702423 0.159454047679901123
0.118895187973976135 0.0333786197006702423 0.180147141218185425
0.178141802549362183 0.0333786197006702423 0.208117365837097168
0.00847994722425937653 0.0333786197006702423 0.175136536359786987
0.0255763810127973557 0.0333786197006702423 0.117802828550338745
0.03074672631919384 0.0333786197006702423 0.214288726449012756
0.319603085517883301 0.0333786197006702423 0.217990845441818237
0.0350039415061473846 0.0333786197006702423 0.0722112953662872314
0.0948140323162078857 0.0333786197006702423 0.126609891653060913
0.173631250858306885 0.0333786197006702423 0.109790608286857605
0.00860023032873868942 0.0333786197006702423 0.0684671550989151001
0.0555732212960720062 0.0333786197006702423 0.231064632534980774
0.118416242301464081 0.0333786197006702423 0.148382857441902161
0.261367499828338623 0.0333786197006702423 0.187573686242103577
0.0167623665183782578 0.0333786197006702423 0.146897703409194946
0.014422672800719738 0.0333786197006702423 0.182067751884460449
0.145823538303375244 0.0333786197006702423 0.159344702959060669
0.223511487245559692 0.0333786197006702423 0.215073585510253906
0.0505116395652294159 0.0333786197006702423 0.105126768350601196
0.0987911075353622437 0.0333786197006702423 0.128655955195426941
0.167354106903076172 0.0333786197006702423 0.182872146368026733
0.101507820188999176 0.0333786197006702423 0.155715435743331909
0.209436044096946716 0.0333786197006702423 0.141021281480789185
0.136736258864402771 0.0333786197006702423 0.211142241954803467
0.0347347110509872437 0.0333786197006702423 0.153745412826538086
0.0258880797773599625 0.0333786197006702423 0.249598219990730286
0.360167473554611206 0.0333786197006702423 0.225743189454078674
0.189721792936325073 0.0333786197006702423 0.214036807417869568
