ply
format ascii 1.0
element vertex 695
property float x
property float y
property float z
end_header
0.00999999977648258209 -0.0503887049853801727 0.00352179817855358124
0.00999999977648258209 -0.0495375394821166992 0.0223610755056142807
0.00999999977648258209 -0.0515964366495609283 0.013399885967373848
0.00999999977648258209 -0.0498087517917156219 -0.0409984663128852844
0.00999999977648258209 -0.056585114449262619 -0.0309699419885873795
0.00999999977648258209 -0.0520671196281909943 -0.0218843668699264526
0.00999999977648258209 -0.0488529764115810394 -0.0033498518168926239
0.00999999977648258209 -0.0512464642524719238 -0.00536328554153442383
0.00999999977648258209 -0.0508666299283504486 0.0232745055109262466
0.00999999977648258209 -0.0500149205327033997 0.000162973999977111816
0.00999999977648258209 -0.0489678569138050079 0.0139507744461297989
0.00999999977648258209 -0.0517609566450119019 0.016906367614865303
0.00999999977648258209 -0.0505715683102607727 -0.0227994471788406372
0.00999999977648258209 -0.0526380762457847595 -0.0366214998066425323
0.00999999977648258209 -0.0508176684379577637 -0.025256594642996788
0.00999999977648258209 -0.0540720187127590179 -0.0340254455804824829
0.00999999977648258209 -0.0491866543889045715 -0.0332110859453678131
0.00999999977648258209 -0.0502062886953353882 -0.0407343059778213501
0.00999999977648258209 -0.0504508577287197113 0.0154904322698712349
0.00999999977648258209 -0.0503077656030654907 -0.030699506402015686
0.00999999977648258209 -0.0503919050097465515 0.023159300908446312
0.00999999977648258209 -0.0543158054351806641 -0.033814556896686554
0.00999999977648258209 -0.0507950484752655029 -0.0183763336390256882
0.00999999977648258209 -0.0518793202936649323 0.00420158542692661285
0.00999999977648258209 -0.0502056293189525604 0.00308078154921531677
0.00999999977648258209 -0.0511895902454853058 -0.0324518568813800812
0.00999999977648258209 -0.055598817765712738 -0.0305186174809932709
0.00999999977648258209 -0.0491134673357009888 0.0119082331657409668
0.00999999977648258209 -0.0505181550979614258 -0.00135920010507106781
0.00999999977648258209 -0.0495642460882663727 0.00155655667185783386
0.00999999977648258209 -0.0506833232939243317 0.0249646492302417755
0.00999999977648258209 -0.0527770966291427612 -0.00989379733800888062
0.00999999977648258209 -0.0520779788494110107 -0.0295646656304597855
0.00999999977648258209 -0.0511018484830856323 0.00546415708959102631
0.00999999977648258209 -0.050856124609708786 -0.0265909638255834579
0.00999999977648258209 -0.0522404797375202179 -0.027306748554110527
0.00999999977648258209 -0.0490408055484294891 0.0385914705693721771
0.00999999977648258209 -0.0522748120129108429 -0.0371262505650520325
0.00999999977648258209 -0.0507843643426895142 -0.0361286401748657227
0.00999999977648258209 -0.050146445631980896 0.0108608957380056381
0.00999999977648258209 -0.0508099086582660675 0.0103514054790139198
0.00999999977648258209 -0.0497348085045814514 0.0185417458415031433
0.00999999977648258209 -0.0505826510488986969 0.00231378898024559021
0.00999999977648258209 -0.0490821376442909241 0.0207718759775161743
0.00999999977648258209 -0.0505181141197681427 -0.0184957273304462433
0.00999999977648258209 -0.0508401729166507721 -0.0128871351480484009
0.00999999977648258209 -0.0521502941846847534 0.00545385107398033142
0.00999999977648258209 -0.052622966468334198 -0.0202945172786712646
0.00999999977648258209 -0.0489341318607330322 0.0403462350368499756
0.00999999977648258209 -0.0529229193925857544 0.00135057885199785233
0.00999999977648258209 -0.0529956445097923279 -0.00925212353467941284
0.00999999977648258209 -0.0540543496608734131 -0.0349898301064968109
0.00999999977648258209 -0.0497144982218742371 -0.0251654945313930511
0.00999999977648258209 -0.0515850633382797241 -0.0359501093626022339
0.00999999977648258209 -0.050358746200799942 -0.0222771838307380676
0.00999999977648258209 -0.0500568263232707977 0.0263278037309646606
0.00999999977648258209 -0.0537222772836685181 -0.0104918815195560455
0.00999999977648258209 -0.0522990375757217407 -0.0315456613898277283
0.00999999977648258209 -0.0553958378732204437 -0.0148093365132808685
0.00999999977648258209 -0.0516070500016212463 -0.00958112627267837524
0.00999999977648258209 -0.0488025583326816559 -0.0148137360811233521
0.00999999977648258209 -0.0527559779584407806 -0.0241006277501583099
0.00999999977648258209 -0.0495982691645622253 -0.00531723722815513611
0.00999999977648258209 -0.0511042550206184387 -0.0360352993011474609
0.00999999977648258209 -0.0525374561548233032 0.00814021751284599304
0.00999999977648258209 -0.0552963390946388245 -0.0123472306877374649
0.00999999977648258209 -0.0399911552667617798 -0.0356549285352230072
0.00999999977648258209 -0.0373256988823413849 -0.0511186160147190094
0.00999999977648258209 -0.0484331697225570679 -0.00739633571356534958
0.00999999977648258209 -0.0383023582398891449 -0.0521930418908596039
0.00999999977648258209 -0.0459443554282188416 0.0082230735570192337
0.00999999977648258209 -0.0464475341141223907 -0.0206116046756505966
0.00999999977648258209 -0.0480896979570388794 -0.00376838631927967072
0.00999999977648258209 -0.0423037372529506683 -0.0239653773605823517
0.00999999977648258209 -0.0483937449753284454 0.0275398511439561844
0.00999999977648258209 -0.0431754738092422485 -0.0272529888898134232
0.00999999977648258209 -0.0383828356862068176 -0.0458720922470092773
0.00999999977648258209 -0.0458565019071102142 0.00584633089601993561
0.00999999977648258209 -0.0456853136420249939 0.0166733600199222565
0.00999999977648258209 -0.0445176512002944946 0.0078225061297416687
0.00999999977648258209 -0.0481861941516399384 0.00914839934557676315
0.00999999977648258209 -0.0402918048202991486 -0.0446414649486541748
0.00999999977648258209 -0.0479172803461551666 0.0349663831293582916
0.00999999977648258209 -0.044391728937625885 -0.0158579126000404358
0.00999999977648258209 -0.0402502715587615967 -0.027002338320016861
0.00999999977648258209 -0.0467491596937179565 -0.0242722388356924057
0.00999999977648258209 -0.0403720252215862274 -0.0292972289025783539
0.00999999977648258209 -0.0432948507368564606 -0.0310245305299758911
0.00999999977648258209 -0.0472923703491687775 -0.040178690105676651
0.00999999977648258209 -0.0394018106162548065 -0.0463881194591522217
0.00999999977648258209 -0.0442800559103488922 -0.0118263959884643555
0.00999999977648258209 -0.0469613857567310333 -0.0158058293163776398
0.00999999977648258209 -0.0405420586466789246 -0.0237113684415817261
0.00999999977648258209 -0.0422668978571891785 -0.0261463355273008347
0.00999999977648258209 -0.0467420779168605804 -0.0217095836997032166
0.00999999977648258209 -0.0395812727510929108 -0.0431900545954704285
0.00999999977648258209 -0.0478089414536952972 0.0123255755752325058
0.00999999977648258209 -0.0459748171269893646 -0.00413319095969200134
0.00999999977648258209 -0.0457475185394287109 -0.0198811199516057968
0.00999999977648258209 -0.046070244163274765 0.00835379026830196381
0.00999999977648258209 -0.0442703776061534882 -0.0285670943558216095
0.00999999977648258209 -0.0383799895644187927 -0.0495432354509830475
0.00999999977648258209 -0.0453795045614242554 -0.0108454003930091858
0.00999999977648258209 -0.0460064895451068878 -0.036523774266242981
0.00999999977648258209 -0.042179156094789505 -0.0474750809371471405
0.00999999977648258209 -0.0427885167300701141 -0.0473377816379070282
0.00999999977648258209 -0.0425846278667449951 -0.0315374657511711121
0.00999999977648258209 -0.0456295982003211975 -0.0377809815108776093
0.00999999977648258209 -0.0464017316699028015 -0.0165763609111309052
0.00999999977648258209 -0.0469407029449939728 -0.0134920962154865265
0.00999999977648258209 -0.0471783429384231567 -0.0260606072843074799
0.00999999977648258209 -0.0454295501112937927 -0.0361281111836433411
0.00999999977648258209 -0.0442657768726348877 -0.0405772514641284943
0.00999999977648258209 -0.0446484051644802094 -0.024061642587184906
0.00999999977648258209 -0.0474709272384643555 -0.0214935280382633209
0.00999999977648258209 -0.0435989834368228912 -0.0426716171205043793
0.00999999977648258209 -0.048058193176984787 0.0310445241630077362
0.00999999977648258209 -0.0382962897419929504 -0.0495908856391906738
0.00999999977648258209 -0.0449251085519790649 -0.00548417121171951294
0.00999999977648258209 -0.0457321889698505402 -0.0177689641714096069
0.00999999977648258209 -0.0460930392146110535 -0.00588374398648738861
0.00999999977648258209 -0.0450898446142673492 -0.0310231875628232956
0.00999999977648258209 -0.0451590754091739655 -0.00338087230920791626
0.00999999977648258209 -0.0486493445932865143 -0.00282358471304178238
0.00999999977648258209 -0.0472564436495304108 0.0281722322106361389
0.00999999977648258209 -0.0482840612530708313 0.0326802842319011688
0.00999999977648258209 -0.0479974821209907532 0.0340108722448348999
0.00999999977648258209 -0.046792689710855484 -0.0234042927622795105
0.00999999977648258209 -0.0434502884745597839 -0.0210010632872581482
0.00999999977648258209 -0.0439364612102508545 -0.0311834029853343964
0.00999999977648258209 -0.0417112782597541809 -0.0223049893975257874
0.00999999977648258209 -0.046792987734079361 0.00809903070330619812
0.00999999977648258209 -0.0485240370035171509 -0.00231415941379964352
0.00999999977648258209 -0.0472434051334857941 0.0224697180092334747
0.00999999977648258209 -0.041248910129070282 -0.0432803258299827576
0.00999999977648258209 -0.0460556522011756897 0.00602111406624317169
0.00999999977648258209 -0.0441703349351882935 -0.0424430109560489655
0.00999999977648258209 -0.047108776867389679 -0.0015752473846077919
0.00999999977648258209 -0.0441794916987419128 -0.0323981977999210358
0.00999999977648258209 -0.0438064783811569214 -0.0275151636451482773
0.00999999977648258209 -0.0456695966422557831 -0.0274186134338378906
0.00999999977648258209 -0.0469122566282749176 -0.0324546992778778076
0.00999999977648258209 -0.0461965054273605347 0.0195843223482370377
0.00999999977648258209 -0.0479354113340377808 -0.0162320360541343689
0.00999999977648258209 -0.043884672224521637 -0.0240628793835639954
0.00999999977648258209 -0.0473369508981704712 0.010659155435860157
0.00999999977648258209 -0.0438307859003543854 -0.0305860824882984161
0.00999999977648258209 -0.0451618321239948273 -0.00975498929619789124
0.00999999977648258209 -0.041531641036272049 -0.020498223602771759
0.00999999977648258209 -0.0423142910003662109 -0.0323728844523429871
0.00999999977648258209 -0.0404934436082839966 -0.0444886907935142517
0.00999999977648258209 -0.0426790378987789154 -0.00666273385286331177
0.00999999977648258209 -0.0407705530524253845 -0.0466584786772727966
0.00999999977648258209 -0.0382961109280586243 -0.0449292846024036407
0.00999999977648258209 -0.0447630323469638824 -0.0201222635805606842
0.00999999977648258209 -0.0407594367861747742 -0.0226594060659408569
0.00999999977648258209 -0.0435638837516307831 -0.000841874629259109497
0.00999999977648258209 -0.0461668334901332855 -0.0218090731650590897
0.00999999977648258209 -0.0443475991487503052 -0.0465069226920604706
0.00999999977648258209 -0.0471246317028999329 -0.00140034034848213196
0.00999999977648258209 -0.0486197434365749359 0.00486179720610380173
0.00999999977648258209 -0.0471904762089252472 0.00534776970744132996
0.00999999977648258209 -0.0473482385277748108 0.00171335134655237198
0.00999999977648258209 -0.0479595623910427094 -0.00323004135861992836
0.00999999977648258209 -0.046222243458032608 -0.00294630788266658783
0.00999999977648258209 -0.0471323803067207336 -0.0197974331676959991
0.00999999977648258209 -0.0436627455055713654 -0.00776346027851104736
0.00999999977648258209 -0.0466648340225219727 -0.0374999828636646271
0.00999999977648258209 -0.0408549010753631592 -0.0452010482549667358
0.00999999977648258209 -0.0395217984914779663 -0.0433171577751636505
0.00999999977648258209 -0.0482100360095500946 0.0192289706319570541
0.00999999977648258209 -0.0441968813538551331 -0.00172904133796691895
0.00999999977648258209 -0.0458906255662441254 -0.0141446497291326523
0.00999999977648258209 -0.0418509617447853088 -0.0313952714204788208
0.00999999977648258209 -0.0473012961447238922 -0.0115130459889769554
0.00999999977648258209 -0.0434912554919719696 -0.0351862423121929169
0.00999999977648258209 -0.0416573509573936462 -0.0170626714825630188
0.00999999977648258209 -0.0395410992205142975 -0.0469790734350681305
0.00999999977648258209 -0.0478180348873138428 0.0257874168455600739
0.00999999977648258209 -0.0450817979872226715 -0.0156545564532279968
0.00999999977648258209 -0.0425465814769268036 -0.011771082878112793
0.00999999977648258209 -0.0451525188982486725 -0.0414024218916893005
0.00999999977648258209 -0.0390381477773189545 -0.0439935587346553802
0.00999999977648258209 -0.0422341190278530121 -0.023987671360373497
0.00999999977648258209 -0.0434897877275943756 -0.0428261533379554749
0.00999999977648258209 -0.0395960137248039246 -0.0366124212741851807
0.00999999977648258209 -0.0483918078243732452 -0.0143978632986545563
0.00999999977648258209 -0.0452919900417327881 0.00694751180708408356
0.00999999977648258209 -0.0280993618071079254 -0.0449814200401306152
0.00999999977648258209 -0.0295196250081062317 -0.0491752400994300842
0.00999999977648258209 -0.0387346073985099792 -0.0196428615599870682
0.00999999977648258209 -0.0383371450006961823 -0.0324239879846572876
0.00999999977648258209 -0.0291203930974006653 -0.0530816465616226196
0.00999999977648258209 -0.0423002168536186218 0.0024713221937417984
0.00999999977648258209 -0.0331824421882629395 -0.0321876034140586853
0.00999999977648258209 -0.0282353423535823822 -0.0418403148651123047
0.00999999977648258209 -0.0344886630773544312 -0.0264349430799484253
0.00999999977648258209 -0.035825289785861969 -0.0466337986290454865
0.00999999977648258209 -0.0287667959928512573 -0.0435979664325714111
0.00999999977648258209 -0.0365887656807899475 -0.0370673313736915588
0.00999999977648258209 -0.0308893807232379913 -0.0297613628208637238
0.00999999977648258209 -0.0387829989194869995 -0.00560101866722106934
0.00999999977648258209 -0.0420710332691669464 -0.00451266113668680191
0.00999999977648258209 -0.0374214164912700653 -0.0354776494204998016
0.00999999977648258209 -0.0335834063589572906 -0.0290828179568052292
0.00999999977648258209 -0.033600974828004837 -0.04558582603931427
0.00999999977648258209 -0.0385337173938751221 -0.00443710386753082275
0.00999999977648258209 -0.0434179864823818207 0.00590906897559762001
0.00999999977648258209 -0.0355733186006546021 -0.0137692280113697052
0.00999999977648258209 -0.0363729558885097504 -0.0501011833548545837
0.00999999977648258209 -0.0335095822811126709 -0.0394177213311195374
0.00999999977648258209 -0.0275176223367452621 -0.056386604905128479
0.00999999977648258209 -0.027741018682718277 -0.0451433658599853516
0.00999999977648258209 -0.0269177816808223724 -0.056461036205291748
0.00999999977648258209 -0.0367726311087608337 -0.0527899302542209625
0.00999999977648258209 -0.0432278774678707123 0.000142021453939378262
0.00999999977648258209 -0.0272831786423921585 -0.0537357255816459656
0.00999999977648258209 -0.0303421393036842346 -0.0369911715388298035
0.00999999977648258209 -0.0379382222890853882 -0.0283823516219854355
0.00999999977648258209 -0.0359913930296897888 -0.0483393967151641846
0.00999999977648258209 -0.0315502248704433441 -0.0313576683402061462
0.00999999977648258209 -0.0268802177160978317 -0.0474068000912666321
0.00999999977648258209 -0.034193083643913269 -0.0446641296148300171
0.00999999977648258209 -0.0270952135324478149 -0.0458811484277248383
0.00999999977648258209 -0.0299548152834177017 -0.0368393883109092712
0.00999999977648258209 -0.0398293882608413696 -0.00492594391107559204
0.00999999977648258209 -0.0317336954176425934 -0.0371392816305160522
0.00999999977648258209 -0.0338598079979419708 -0.054293997585773468
0.00999999977648258209 -0.0345485471189022064 -0.0337507911026477814
0.00999999977648258209 -0.0387802645564079285 -0.0214500892907381058
0.00999999977648258209 -0.0423731505870819092 -0.00557003077119588852
0.00999999977648258209 -0.0378390476107597351 -0.0324931852519512177
0.00999999977648258209 -0.0385066047310829163 -0.0364229716360569
0.00999999977648258209 -0.0319188795983791351 -0.0408251211047172546
0.00999999977648258209 -0.0336674749851226807 -0.0324554368853569031
0.00999999977648258209 -0.0336516983807086945 -0.0498772040009498596
0.00999999977648258209 -0.0417260825634002686 -0.0115699851885437965
0.00999999977648258209 -0.0301372092217206955 -0.0324982702732086182
0.00999999977648258209 -0.0457034148275852203 0.0235063284635543823
0.00999999977648258209 -0.0390257090330123901 0.00168937444686889648
0.00999999977648258209 -0.0322390608489513397 -0.0528446994721889496
0.00999999977648258209 -0.0291507765650749207 -0.0471375398337841034
0.00999999977648258209 -0.0389835424721240997 -0.0301548503339290619
0.00999999977648258209 -0.0335374549031257629 -0.026714792475104332
0.00999999977648258209 -0.0358781516551971436 -0.0418422520160675049
0.00999999977648258209 -0.0375514328479766846 -0.0380762591958045959
0.00999999977648258209 -0.031725756824016571 -0.029692869633436203
0.00999999977648258209 -0.0280050039291381836 -0.0494151785969734192
0.00999999977648258209 -0.035395059734582901 -0.0428666695952415466
0.00999999977648258209 -0.0312275998294353485 -0.0323965735733509064
0.00999999977648258209 -0.0308638140559196472 -0.0423045530915260315
0.00999999977648258209 -0.0393611826002597809 0.00291332602500915527
0.00999999977648258209 -0.0357656180858612061 -0.0383486375212669373
0.00999999977648258209 -0.0304017476737499237 -0.0562836416065692902
0.00999999977648258209 -0.0322252064943313599 -0.0529065914452075958
0.00999999977648258209 -0.0388253405690193176 -0.0339982993900775909
0.00999999977648258209 -0.0434356555342674255 0.00342408963479101658
0.00999999977648258209 -0.0350821465253829956 -0.0166082121431827545
0.00999999977648258209 -0.0328206494450569153 -0.0289931129664182663
0.00999999977648258209 -0.0263936109840869904 -0.0535473935306072235
0.00999999977648258209 -0.033613596111536026 -0.0440065823495388031
0.00999999977648258209 -0.0370012000203132629 -0.036749962717294693
0.00999999977648258209 -0.0386665016412734985 -0.00901746191084384918
0.00999999977648258209 -0.0339399874210357666 -0.0270406380295753479
0.00999999977648258209 -0.0341042056679725647 -0.0172860585153102875
0.00999999977648258209 -0.0263389870524406433 -0.0535250604152679443
0.00999999977648258209 -0.0387840829789638519 -0.0245630331337451935
0.00999999977648258209 -0.0315952524542808533 -0.0539463311433792114
0.00999999977648258209 -0.0304982103407382965 -0.0381487607955932617
0.00999999977648258209 -0.038325626403093338 -0.0268171653151512146
0.00999999977648258209 -0.0410153828561306 0.0102016348391771317
0.00999999977648258209 -0.0290354639291763306 -0.0556285195052623749
0.00999999977648258209 -0.0367808640003204346 -0.0119682289659976959
0.00999999977648258209 -0.0315951183438301086 -0.055016789585351944
0.00999999977648258209 -0.0416073128581047058 -0.0147227151319384575
0.00999999977648258209 -0.0441213138401508331 0.00647225044667720795
0.00999999977648258209 -0.0261493828147649765 -0.048668980598449707
0.00999999977648258209 -0.0376314371824264526 -0.0364234670996665955
0.00999999977648258209 -0.0302062351256608963 -0.0347789935767650604
0.00999999977648258209 -0.0276496727019548416 -0.0458172857761383057
0.00999999977648258209 -0.0374031215906143188 -0.0194792356342077255
0.00999999977648258209 -0.0397940054535865784 0.003734540194272995
0.00999999977648258209 -0.0321237668395042419 -0.049792170524597168
0.00999999977648258209 -0.0304924808442592621 -0.038797818124294281
0.00999999977648258209 -0.0287391170859336853 -0.0386088229715824127
0.00999999977648258209 -0.0362454541027545929 -0.0532305687665939331
0.00999999977648258209 -0.0300127305090427399 -0.0569271072745323181
0.00999999977648258209 -0.0261232238262891769 -0.0569984763860702515
0.00999999977648258209 -0.0265664532780647278 -0.0493993870913982391
0.00999999977648258209 -0.0388519763946533203 -0.00517740659415721893
0.00999999977648258209 -0.0262169484049081802 -0.0589889883995056152
0.00999999977648258209 -0.0355644412338733673 -0.0529628247022628784
0.00999999977648258209 -0.027857927605509758 -0.056611970067024231
0.00999999977648258209 -0.0392412319779396057 -0.00574294291436672211
0.00999999977648258209 -0.0298634748905897141 -0.0389026552438735962
0.00999999977648258209 -0.0366461127996444702 -0.0237033050507307053
0.00999999977648258209 -0.0337309129536151886 -0.0429484322667121887
0.00999999977648258209 -0.0379072576761245728 -0.0378872901201248169
0.00999999977648258209 -0.0460903644561767578 0.0227679666131734848
0.00999999977648258209 -0.0347910374402999878 -0.0202211551368236542
0.00999999977648258209 -0.0328381508588790894 -0.0438978299498558044
0.00999999977648258209 -0.0353276915848255157 -0.027570430189371109
0.00999999977648258209 -0.0284853894263505936 -0.0440575405955314636
0.00999999977648258209 -0.0385126881301403046 -0.0347595550119876862
0.00999999977648258209 -0.0319201983511447906 -0.0340661853551864624
0.00999999977648258209 -0.0426171272993087769 0.0129113849252462387
0.00999999977648258209 -0.0424952730536460876 -0.00224718032404780388
0.00999999977648258209 -0.0277555510401725769 -0.0522361770272254944
0.00999999977648258209 -0.0370914079248905182 -0.0128310117870569229
0.00999999977648258209 -0.0311191752552986145 -0.046966254711151123
0.00999999977648258209 -0.0406352952122688293 0.00715346075594425201
0.00999999977648258209 -0.0349211692810058594 -0.0253783240914344788
0.00999999977648258209 -0.0320339463651180267 -0.0418060943484306335
0.00999999977648258209 -0.030444607138633728 -0.0483019724488258362
0.00999999977648258209 -0.0267350319772958755 -0.0488438904285430908
0.00999999977648258209 -0.0249704513698816299 -0.0555939003825187683
0.00999999977648258209 -0.0421866625547409058 -0.00853630620986223221
0.00999999977648258209 -0.0333742722868919373 -0.0403572060167789459
0.00999999977648258209 -0.0294201113283634186 -0.0534369423985481262
0.00999999977648258209 -0.033643767237663269 -0.0199955366551876068
0.00999999977648258209 -0.0377363450825214386 -0.0270179007202386856
0.00999999977648258209 -0.0334245972335338593 -0.0467370301485061646
0.00999999977648258209 -0.0434464588761329651 0.00701288366690278053
0.00999999977648258209 -0.0361662693321704865 -0.0351874455809593201
0.00999999977648258209 -0.0388282947242259979 -0.0308375582098960876
0.00999999977648258209 -0.0283740386366844177 -0.0417677685618400574
0.00999999977648258209 -0.0355840325355529785 -0.0359086394309997559
0.00999999977648258209 -0.0404384993016719818 -0.0240793284028768539
0.00999999977648258209 -0.0384259261190891266 -0.0281449966132640839
0.00999999977648258209 -0.0367593094706535339 -0.0318182706832885742
0.00999999977648258209 -0.0350196249783039093 -0.0257055424153804779
0.00999999977648258209 -0.0358392111957073212 -0.0439653247594833374
0.00999999977648258209 -0.0312748625874519348 -0.0337596088647842407
0.00999999977648258209 -0.0247516017407178879 -0.0549560338258743286
0.00999999977648258209 -0.035979103296995163 -0.0519534721970558167
0.00999999977648258209 -0.0368834547698497772 -0.0531301088631153107
0.00999999977648258209 -0.0343454182147979736 -0.0492214858531951904
0.00999999977648258209 -0.032506600022315979 -0.043493364006280899
0.00999999977648258209 -0.0416911877691745758 -0.00272021815180778503
0.00999999977648258209 -0.0302282124757766724 -0.0187123678624629974
0.00999999977648258209 -0.0301675498485565186 -0.00972135365009307861
0.00999999977648258209 -0.022996051236987114 -0.0462359525263309479
0.00999999977648258209 -0.0309719890356063843 -0.0123097412288188934
0.00999999977648258209 -0.0273992158472537994 -0.0195821858942508698
0.00999999977648258209 -0.0284375492483377457 -0.0139967314898967743
0.00999999977648258209 -0.0298686586320400238 -0.00978777557611465454
0.00999999977648258209 -0.0144797824323177338 -0.0580212175846099854
0.00999999977648258209 -0.0272040851414203644 -0.036413438618183136
0.00999999977648258209 -0.0230758786201477051 -0.0251195020973682404
0.00999999977648258209 -0.0188656710088253021 -0.0601217225193977356
0.00999999977648258209 -0.0255463570356369019 -0.0193415209650993347
0.00999999977648258209 -0.0199083480983972549 -0.0396082513034343719
0.00999999977648258209 -0.0230392925441265106 -0.0372559428215026855
0.00999999977648258209 -0.026905551552772522 -0.0174549855291843414
0.00999999977648258209 -0.027368057519197464 -0.0204335637390613556
0.00999999977648258209 -0.0211151596158742905 -0.039681360125541687
0.00999999977648258209 -0.0351949222385883331 -0.00166856497526168823
0.00999999977648258209 -0.0259880442172288895 -0.0254224278032779694
0.00999999977648258209 -0.0408091768622398376 0.0119662517681717873
0.00999999977648258209 -0.0345589704811573029 -0.0116099826991558075
0.00999999977648258209 -0.01768513023853302 -0.0429045520722866058
0.00999999977648258209 -0.0304809287190437317 -0.0246609039604663849
0.00999999977648258209 -0.0304353497922420502 -0.0205402858555316925
0.00999999977648258209 -0.0323695316910743713 -0.00076692923903465271
0.00999999977648258209 -0.0242999978363513947 -0.0398201160132884979
0.00999999977648258209 -0.0194614306092262268 -0.0434238053858280182
0.00999999977648258209 -0.0163168124854564667 -0.0587393492460250854
0.00999999977648258209 -0.0218815933912992477 -0.0527234598994255066
0.00999999977648258209 -0.0148050859570503235 -0.0583459511399269104
0.00999999977648258209 -0.0321046151220798492 -0.00347195938229560852
0.00999999977648258209 -0.0223495718091726303 -0.0262647531926631927
0.00999999977648258209 -0.0345234684646129608 -0.00439935363829135895
0.00999999977648258209 -0.0182635821402072906 -0.0379849039018154144
0.00999999977648258209 -0.0330309979617595673 0.000909596681594848633
0.00999999977648258209 -0.032885819673538208 -0.0108988750725984573
0.00999999977648258209 -0.0266961082816123962 -0.0365416258573532104
0.00999999977648258209 -0.0255284663289785385 -0.021044950932264328
0.00999999977648258209 -0.0260484702885150909 -0.0418640486896038055
0.00999999977648258209 -0.0323927663266658783 0.00017399713397026062
0.00999999977648258209 -0.0315900258719921112 -0.0245712213218212128
0.00999999977648258209 -0.0286633037030696869 -0.0233066398650407791
0.00999999977648258209 -0.0213587749749422073 -0.0427187606692314148
0.00999999977648258209 -0.0458911247551441193 0.0350690297782421112
0.00999999977648258209 -0.0289958156645298004 -0.00964972004294395447
0.00999999977648258209 -0.0321748144924640656 -0.00820527598261833191
0.00999999977648258209 -0.0235448982566595078 -0.032215069979429245
0.00999999977648258209 -0.0245117302983999252 -0.0375467203557491302
0.00999999977648258209 -0.0228582378476858139 -0.0493770092725753784
0.00999999977648258209 -0.021442025899887085 -0.0437001325190067291
0.00999999977648258209 -0.0274617522954940796 -0.019226565957069397
0.00999999977648258209 -0.0198654420673847198 -0.0553250014781951904
0.00999999977648258209 -0.0173669103533029556 -0.0456133484840393066
0.00999999977648258209 -0.0232860185205936432 -0.0368400514125823975
0.00999999977648258209 -0.0287592541426420212 -0.0259073767811059952
0.00999999977648258209 -0.0187302008271217346 -0.0409094095230102539
0.00999999977648258209 -0.0212316941469907761 -0.0350183993577957153
0.00999999977648258209 -0.0203022975474596024 -0.0477163679897785187
0.00999999977648258209 -0.0118622779846191406 -0.0610167384147644043
0.00999999977648258209 -0.0224234070628881454 -0.0558658689260482788
0.00999999977648258209 -0.0211180429905653 -0.0606664977967739105
0.00999999977648258209 -0.0317062251269817352 -0.0225180890411138535
0.00999999977648258209 -0.0343660451471805573 -0.0120321232825517654
0.00999999977648258209 -0.0179418735206127167 -0.0550860688090324402
0.00999999977648258209 -0.0297530367970466614 -0.0203057900071144104
0.00999999977648258209 -0.0214646421372890472 -0.048256412148475647
0.00999999977648258209 -0.0225311741232872009 -0.0517111495137214661
0.00999999977648258209 -0.0210179742425680161 -0.0601281821727752686
0.00999999977648258209 -0.0166718345135450363 -0.0422756075859069824
0.00999999977648258209 -0.0412415526807308197 0.0223686899989843369
0.00999999977648258209 -0.0411738306283950806 0.0186334215104579926
0.00999999977648258209 -0.0259536821395158768 -0.0168464332818984985
0.00999999977648258209 -0.028430696576833725 -0.019671313464641571
0.00999999977648258209 -0.0222059730440378189 -0.0545322634279727936
0.00999999977648258209 -0.0129671022295951843 -0.054607488214969635
0.00999999977648258209 -0.035601884126663208 -0.00302515923976898193
0.00999999977648258209 -0.0386165380477905273 0.00272570876404643059
0.00999999977648258209 -0.0218923240900039673 -0.0565001815557479858
0.00999999977648258209 -0.0285197403281927109 -0.0125740841031074524
0.00999999977648258209 -0.0186926461756229401 -0.0616855025291442871
0.00999999977648258209 -0.0134216509759426117 -0.0613752603530883789
0.00999999977648258209 -0.0296406224370002747 -0.0316679179668426514
0.00999999977648258209 -0.0346309095621109009 0.00210412777960300446
0.00999999977648258209 -0.0167823191732168198 -0.0422132611274719238
0.00999999977648258209 -0.0339111089706420898 0.00233520567417144775
0.00999999977648258209 -0.0310845561325550079 -0.0224956143647432327
0.00999999977648258209 -0.0424303337931632996 0.0263813789933919907
0.00999999977648258209 -0.0241296775639057159 -0.0553045868873596191
0.00999999977648258209 -0.0362843833863735199 -0.00432374747470021248
0.00999999977648258209 -0.0271272845566272736 -0.0201204791665077209
0.00999999977648258209 -0.0317679904401302338 -0.0151144992560148239
0.00999999977648258209 -0.0273642800748348236 -0.0382695794105529785
0.00999999977648258209 -0.0166767239570617676 -0.0444465652108192444
0.00999999977648258209 -0.0156521257013082504 -0.0533291101455688477
0.00999999977648258209 -0.0299070980399847031 -0.00984752178192138672
0.00999999977648258209 -0.0315354391932487488 -0.0132871735841035843
0.00999999977648258209 -0.0314296036958694458 -0.0157656110823154449
0.00999999977648258209 -0.0293054338544607162 -0.0240028202533721924
0.00999999977648258209 -0.0384656898677349091 0.0118222367018461227
0.00999999977648258209 -0.0160031802952289581 -0.0485996827483177185
0.00999999977648258209 -0.0266163703054189682 -0.0234121792018413544
0.00999999977648258209 -0.0241369307041168213 -0.049895748496055603
0.00999999977648258209 -0.016505977138876915 -0.0569326058030128479
0.00999999977648258209 -0.0295998398214578629 -0.0119425877928733826
0.00999999977648258209 -0.0170122496783733368 -0.0526696853339672089
0.00999999977648258209 -0.0387116000056266785 0.0103016961365938187
0.00999999977648258209 -0.0326896980404853821 -0.00204090029001235962
0.00999999977648258209 -0.0306831225752830505 -0.017458893358707428
0.00999999977648258209 -0.029393291100859642 -0.0160252004861831665
0.00999999977648258209 -0.0336827933788299561 -0.00284875743091106415
0.00999999977648258209 -0.0251440424472093582 -0.0416751205921173096
0.00999999977648258209 -0.0334462933242321014 -0.000534873455762863159
0.00999999977648258209 -0.0315934903919696808 -0.0147071797400712967
0.00999999977648258209 -0.0281991194933652878 -0.0397411547601222992
0.00999999977648258209 -0.0185362156480550766 -0.0531154759228229523
0.00999999977648258209 -0.0224526971578598022 -0.0512733981013298035
0.00999999977648258209 -0.0273992773145437241 -0.0331570729613304138
0.00999999977648258209 -0.0303262434899806976 -0.015148581936955452
0.00999999977648258209 -0.0167945064604282379 -0.058908265084028244
0.00999999977648258209 -0.0241072550415992737 -0.0508237630128860474
0.00999999977648258209 -0.023172963410615921 -0.0374594293534755707
0.00999999977648258209 -0.0257889702916145325 -0.0369607321918010712
0.00999999977648258209 -0.0237408541142940521 -0.0547221973538398743
0.00999999977648258209 -0.0296584255993366241 -0.0197879336774349213
0.00999999977648258209 -0.0353306233882904053 0.00240528397262096405
0.00999999977648258209 -0.030910225585103035 -0.00918653421103954315
0.00999999977648258209 -0.017228245735168457 -0.0554754287004470825
0.00999999977648258209 -0.030072282999753952 -0.0196809619665145874
0.00999999977648258209 -0.0409951470792293549 0.0149981044232845306
0.00999999977648258209 -0.0205915942788124084 -0.0345325618982315063
0.00999999977648258209 -0.0366699099540710449 0.00686908885836601257
0.00999999977648258209 -0.0254941992461681366 -0.0245012380182743073
0.00999999977648258209 -0.0262290835380554199 -0.0448082089424133301
0.00999999977648258209 -0.0376455634832382202 0.00551706086844205856
0.00999999977648258209 -0.02709931880235672 -0.0228188131004571915
0.00999999977648258209 -0.0305069107562303543 -0.0248459242284297943
0.00999999977648258209 -0.0205402150750160217 -0.0469560474157333374
0.00999999977648258209 -0.026951981708407402 -0.0143489949405193329
0.00999999977648258209 -0.0251399576663970947 -0.0208719857037067413
0.00999999977648258209 -0.0199369825422763824 -0.0414265021681785583
0.00999999977648258209 -0.0311322137713432312 -0.0141513366252183914
0.00999999977648258209 -0.0162671133875846863 -0.0580799020826816559
0.00999999977648258209 -0.030483439564704895 -0.0131919980049133301
0.00999999977648258209 -0.0197999738156795502 -0.0590111427009105682
0.00999999977648258209 -0.0396352000534534454 0.014839833602309227
0.00999999977648258209 -0.0356364920735359192 -0.000901579856872558594
0.00999999977648258209 -0.039129205048084259 0.0168510805815458298
0.00999999977648258209 -0.0247531458735466003 -0.0508080124855041504
0.00999999977648258209 -0.0164099577814340591 -0.0585171133279800415
0.00999999977648258209 -0.0133397802710533142 -0.0501692928373813629
0.00999999977648258209 -0.0256368033587932587 -0.0492277815937995911
0.00999999977648258209 -0.020682046189904213 -0.0583660230040550232
0.00999999977648258209 -0.0292238891124725342 -0.0315777622163295746
0.00999999977648258209 -0.0273211132735013962 -0.0294313617050647736
0.00999999977648258209 -0.0315055102109909058 -0.00750306248664855957
0.00999999977648258209 -0.0242135562002658844 -0.0419369228184223175
0.00999999977648258209 -0.0407500937581062317 0.0151889156550168991
0.00999999977648258209 -0.012349642813205719 -0.0586014017462730408
0.00999999977648258209 -0.0249396171420812607 -0.0310952439904212952
0.00999999977648258209 -0.0274722632020711899 -0.0154140517115592957
0.00999999977648258209 -0.0210576467216014862 -0.0418268591165542603
0.00999999977648258209 -0.03220411017537117 -0.00485767051577568054
0.00999999977648258209 -0.0480571910738945007 0.0411849617958068848
0.00999999977648258209 -0.0231734402477741241 -0.0257095992565155029
0.00999999977648258209 -0.0240148864686489105 -0.032986614853143692
0.00999999977648258209 -0.040722232311964035 0.0131008848547935486
0.00999999977648258209 -0.0201229043304920197 -0.0508476980030536652
0.00999999977648258209 -0.0243193842470645905 -0.0407548993825912476
0.00999999977648258209 -0.0342775844037532806 -0.0134298671036958694
0.00999999977648258209 -0.032021496444940567 -0.0238580852746963501
0.00999999977648258209 -0.0342976190149784088 -0.00322310999035835266
0.00999999977648258209 -0.0147659629583358765 -0.0539620593190193176
0.00999999977648258209 -0.0192438121885061264 -0.0477544739842414856
0.00999999977648258209 -0.0253134742379188538 -0.0309045836329460144
0.00999999977648258209 -0.0216687414795160294 -0.0428970009088516235
0.00999999977648258209 -0.0321388877928256989 -0.0216902829706668854
0.00999999977648258209 -0.033146347850561142 -0.00813917443156242371
0.00999999977648258209 -0.0196403283625841141 -0.0386556610465049744
0.00999999977648258209 -0.0362470895051956177 -0.0061666565015912056
0.00999999977648258209 -0.0114106237888336182 -0.0364777855575084686
0.00999999977648258209 -0.0097805708646774292 -0.0315840020775794983
0.00999999977648258209 -0.0240678749978542328 -0.0207515563815832138
0.00999999977648258209 -0.0429009050130844116 0.0315856896340847015
0.00999999977648258209 -0.0365974456071853638 0.0196920987218618393
0.00999999977648258209 0.000756721943616867065 -0.0561788715422153473
0.00999999977648258209 -0.0135060260072350502 -0.0426205135881900787
0.00999999977648258209 -0.0149750560522079468 -0.0384633690118789673
0.00999999977648258209 0.000494107604026794434 -0.0612087175250053406
0.00999999977648258209 0.00132941827178001404 -0.0573314279317855835
0.00999999977648258209 -0.00822182931005954742 -0.0580543018877506256
0.00999999977648258209 -0.0132822077721357346 -0.0304203741252422333
0.00999999977648258209 -0.0101278722286224365 -0.0313309542834758759
0.00999999977648258209 -0.0233863592147827148 -0.0131537206470966339
0.00999999977648258209 -0.014334382489323616 -0.0263696536421775818
0.00999999977648258209 -0.0167203899472951889 -0.0223260130733251572
0.00999999977648258209 -0.0216268692165613174 -0.0185844209045171738
0.00999999977648258209 -0.038581211119890213 0.0197363272309303284
0.00999999977648258209 -0.0015186704695224762 -0.0574513040482997894
0.00999999977648258209 -0.00432642921805381775 -0.0442977845668792725
0.00999999977648258209 -0.0080555938184261322 -0.0508968941867351532
0.00999999977648258209 0.00150324776768684387 -0.0636216029524803162
0.00999999977648258209 -0.0128882694989442825 -0.0287741068750619888
0.00999999977648258209 -0.0194290913641452789 -0.0334520488977432251
0.00999999977648258209 -0.0359489321708679199 0.018624303862452507
0.00999999977648258209 -0.00574716553092002869 -0.0402549952268600464
0.00999999977648258209 -0.0442068055272102356 0.031594984233379364
0.00999999977648258209 -0.025155235081911087 -0.0022635236382484436
0.00999999977648258209 -0.0249630175530910492 -0.00701458938419818878
0.00999999977648258209 -0.0166964884847402573 -0.019258398562669754
0.00999999977648258209 -0.00721212290227413177 -0.0529065132141113281
0.00999999977648258209 0.00328957661986351013 -0.0571180097758769989
0.00999999977648258209 -0.0398592501878738403 0.0263441968709230423
0.00999999977648258209 -0.0337402112782001495 0.0044686533510684967
0.00999999977648258209 -0.0116237308830022812 -0.0501477718353271484
0.00999999977648258209 0.00301211327314376831 -0.063343539834022522
0.00999999977648258209 -0.0101275695487856865 -0.054243285208940506
0.00999999977648258209 0.00460260733962059021 -0.0590768754482269287
0.00999999977648258209 0.00190815329551696777 -0.0553294681012630463
0.00999999977648258209 0.00030865892767906189 -0.0592542514204978943
0.00999999977648258209 -0.0132000632584095001 -0.033497542142868042
0.00999999977648258209 -0.00646450836211442947 -0.0577121712267398834
0.00999999977648258209 -0.0171716921031475067 -0.0338823720812797546
0.00999999977648258209 -0.0350481681525707245 0.0167548134922981262
0.00999999977648258209 -0.00542693212628364563 -0.0524622984230518341
0.00999999977648258209 0.00143010169267654419 -0.0538265854120254517
0.00999999977648258209 -0.0185240339487791061 -0.0228669848293066025
0.00999999977648258209 -0.00522349774837493896 -0.0526552759110927582
0.00999999977648258209 -0.00808326900005340576 -0.0404554903507232666
0.00999999977648258209 0.000540342181921005249 -0.0507612079381942749
0.00999999977648258209 -0.0325846485793590546 0.00498121324926614761
0.00999999977648258209 -0.00859371200203895569 -0.035002484917640686
0.00999999977648258209 -0.00955247879028320312 -0.0430782362818717957
0.00999999977648258209 -0.0096743367612361908 -0.048158697783946991
0.00999999977648258209 -0.0343340784311294556 0.00678463000804185867
0.00999999977648258209 -0.0275011695921421051 -0.00988680310547351837
0.00999999977648258209 -0.0334615744650363922 0.00626607891172170639
0.00999999977648258209 -0.0293298438191413879 0.00280518829822540283
0.00999999977648258209 -0.0209804624319076538 -0.0268359780311584473
0.00999999977648258209 -0.0077913627028465271 -0.0373147912323474884
0.00999999977648258209 -0.0192231684923171997 -0.0138332583010196686
0.00999999977648258209 -0.025622934103012085 -0.00210336595773696899
0.00999999977648258209 -0.0225180462002754211 -0.0191682558506727219
0.00999999977648258209 0.00210923328995704651 -0.0560129210352897644
0.00999999977648258209 -0.0127421077340841293 -0.031815696507692337
0.00999999977648258209 -0.0154446037486195564 -0.0423592254519462585
0.00999999977648258209 -0.0147019326686859131 -0.0273529458791017532
0.00999999977648258209 -0.0139392334967851639 -0.0421424657106399536
0.00999999977648258209 -0.0287826284766197205 0.00460595265030860901
0.00999999977648258209 -0.034117531031370163 0.0121287703514099121
0.00999999977648258209 -0.0107636004686355591 -0.0425400212407112122
0.00999999977648258209 -0.00481176003813743591 -0.0422397926449775696
0.00999999977648258209 -0.0369161553680896759 0.018200945109128952
0.00999999977648258209 -0.00587841309607028961 -0.0534200742840766907
0.00999999977648258209 -0.0170621033757925034 -0.0261835679411888123
0.00999999977648258209 -0.0127487592399120331 -0.0271163024008274078
0.00999999977648258209 -0.0102255754172801971 -0.0427687205374240875
0.00999999977648258209 -0.0195781774818897247 -0.0238082688301801682
0.00999999977648258209 -0.00105953216552734375 -0.0518254265189170837
0.00999999977648258209 -0.0172435678541660309 -0.023440726101398468
0.00999999977648258209 -0.00376169756054878235 -0.0436323285102844238
0.00999999977648258209 -0.0035950932651758194 -0.058405902236700058
0.00999999977648258209 -0.0189748182892799377 -0.0326130129396915436
0.00999999977648258209 -0.0105504132807254791 -0.0380060598254203796
0.00999999977648258209 -0.0211476683616638184 -0.0284301433712244034
0.00999999977648258209 -0.0331429652869701385 0.00740720797330141068
0.00999999977648258209 -0.00759699568152427673 -0.0356745682656764984
0.00999999977648258209 -0.0153439193964004517 -0.0409755446016788483
0.00999999977648258209 -0.0152430348098278046 -0.0318216569721698761
0.00999999977648258209 -0.0365299396216869354 0.0125545281916856766
0.00999999977648258209 -0.0312207639217376709 0.00317505933344364166
0.00999999977648258209 -0.0341477319598197937 0.0144219286739826202
0.00999999977648258209 -0.0139890629798173904 -0.0355474129319190979
0.00999999977648258209 -0.0381987281143665314 0.0191848743706941605
0.00999999977648258209 -0.0373356416821479797 0.0211975164711475372
0.00999999977648258209 -0.00609306618571281433 -0.0446350201964378357
0.00999999977648258209 -0.017752407118678093 -0.0301921870559453964
0.00999999977648258209 -0.022838447242975235 -0.013172423467040062
0.00999999977648258209 -0.0187574811279773712 -0.0140066817402839661
0.00999999977648258209 -0.0240644775331020355 -0.0180778782814741135
0.00999999977648258209 -0.0316976606845855713 0.00339783821254968643
0.00999999977648258209 -0.0209625177085399628 -0.0294668655842542648
0.00999999977648258209 -0.011819351464509964 -0.0424357205629348755
0.00999999977648258209 -0.0260283276438713074 -0.0136071434244513512
0.00999999977648258209 -0.00212940573692321777 -0.0589426122605800629
0.00999999977648258209 -0.0381799265742301941 0.0184187311679124832
0.00999999977648258209 -0.0204876158386468887 -0.0145087204873561859
0.00999999977648258209 -0.00342887267470359802 -0.0489135086536407471
0.00999999977648258209 0.000505510717630386353 -0.0542785003781318665
0.00999999977648258209 -0.00105668231844902039 -0.0513587817549705505
0.00999999977648258209 -0.0387522540986537933 0.0183295160531997681
0.00999999977648258209 -0.016961023211479187 -0.0174477435648441315
0.00999999977648258209 -0.00792349502444267273 -0.0392066538333892822
0.00999999977648258209 -0.0464144423604011536 0.0377963036298751831
0.00999999977648258209 -0.0176784992218017578 -0.0279948301613330841
0.00999999977648258209 -0.00647868821397423744 -0.0629848241806030273
0.00999999977648258209 -0.0239036697894334793 -0.0116076115518808365
0.00999999977648258209 -0.0192006416618824005 -0.0224547535181045532
0.00999999977648258209 -0.0148141840472817421 -0.0378711707890033722
0.00999999977648258209 -0.0106253065168857574 -0.0304088927805423737
0.00999999977648258209 -0.0303367543965578079 -0.00516950897872447968
0.00999999977648258209 -0.0115847103297710419 -0.0294680744409561157
0.00999999977648258209 -0.0365062952041625977 0.0116773452609777451
0.00999999977648258209 -0.0104727493599057198 -0.0471232198178768158
0.00999999977648258209 -0.0251450687646865845 -0.0121743753552436829
0.00999999977648258209 -0.0424648076295852661 0.0281761437654495239
0.00999999977648258209 -0.00589995831251144409 -0.041585095226764679
0.00999999977648258209 0.00177475437521934509 -0.0578893795609474182
0.00999999977648258209 -0.0176299288868904114 -0.0341049842536449432
0.00999999977648258209 -0.0188101697713136673 -0.0282054580748081207
0.00999999977648258209 -0.0444005466997623444 0.034122806042432785
0.00999999977648258209 -0.0285278446972370148 -0.00879303459078073502
0.00999999977648258209 -0.0163252223283052444 -0.0250745881348848343
0.00999999977648258209 -0.0088207833468914032 -0.0433965288102626801
0.00999999977648258209 -0.0341423600912094116 0.0150398090481758118
0.00999999977648258209 -0.00831551477313041687 -0.0626571476459503174
0.00999999977648258209 -0.00559879839420318604 -0.0461232252418994904
0.00999999977648258209 -0.00985368900001049042 -0.0416084527969360352
0.00999999977648258209 -0.00843482650816440582 -0.0625706762075424194
0.00999999977648258209 -0.00138049013912677765 -0.0621143393218517303
0.00999999977648258209 -0.019996369257569313 -0.0205189567059278488
0.00999999977648258209 -0.00819367542862892151 -0.0501030236482620239
0.00999999977648258209 -0.027758309617638588 0.000208411365747451782
0.00999999977648258209 -0.0181582346558570862 -0.0314140208065509796
0.00999999977648258209 -0.000960204750299453735 -0.0627588331699371338
0.00999999977648258209 -0.00972519628703594208 -0.0437456294894218445
0.00999999977648258209 -0.00294328108429908752 -0.0504143834114074707
0.00999999977648258209 -0.023473057895898819 -0.00699189677834510803
0.00999999977648258209 -0.0152717139571905136 -0.0280007738620042801
0.00999999977648258209 -0.0355080515146255493 0.0180097818374633789
0.00999999977648258209 -0.0120024662464857101 -0.032378561794757843
0.00999999977648258209 -0.0162651687860488892 -0.0408353731036186218
0.00999999977648258209 -0.0114438440650701523 -0.0329691283404827118
0.00999999977648258209 -0.0188495367765426636 -0.0181794986128807068
0.00999999977648258209 -0.0245991814881563187 -0.00343930348753929138
0.00999999977648258209 -0.0356048308312892914 0.0128973685204982758
0.00999999977648258209 -0.00357032567262649536 -0.0595378950238227844
0.00999999977648258209 8.24891030788421631e-05 -0.0514014512300491333
0.00999999977648258209 -0.0109300017356872559 -0.050762474536895752
0.00999999977648258209 -0.0313103683292865753 -0.00234413938596844673
0.00999999977648258209 -0.0102718360722064972 -0.0308826640248298645
0.00999999977648258209 -0.0111650247126817703 -0.037821304053068161
0.00999999977648258209 -0.0147926937788724899 -0.0248299632221460342
0.00999999977648258209 -0.00604508444666862488 -0.0559088103473186493
0.00999999977648258209 -0.0307488888502120972 0.00142751075327396393
0.00999999977648258209 -0.0425143130123615265 0.0298642441630363464
0.00999999977648258209 -0.0163098368793725967 -0.0352568626403808594
0.00999999977648258209 -0.0433238819241523743 0.0324896872043609619
0.00999999977648258209 -0.0409360975027084351 0.027467578649520874
0.00999999977648258209 -0.0334506966173648834 0.0103368107229471207
0.00999999977648258209 -0.0167222395539283752 -0.0201368741691112518
0.00999999977648258209 -0.0141741866245865822 -0.0447862111032009125
0.00999999977648258209 -0.0135098006576299667 -0.034040350466966629
0.00999999977648258209 -0.0379616543650627136 0.0192563347518444061
0.00999999977648258209 -0.0158081818372011185 -0.0230053812265396118
0.00999999977648258209 -0.00384426489472389221 -0.0449225716292858124
0.00999999977648258209 -0.00752157904207706451 -0.0533045865595340729
