ply
format ascii 1.0
element vertex 1014
property float x
property float y
property float z
end_header
0.181658089160919189 2.1339108943939209 0.0281154513359069824
0.405698716640472412 2.28610658645629883 0.0357260368764400482
0.57054823637008667 2.39809250831604004 0.0312015451490879059
0.361710399389266968 2.25622439384460449 0.0246350094676017761
0.543737649917602539 2.37987947463989258 0.040655963122844696
0.596821129322052002 2.41594028472900391 0.140521660447120667
0.6026344895362854 2.41988945007324219 0.00697789061814546585
0.155388712882995605 2.11606550216674805 0.0125413462519645691
0.189117938280105591 2.13897848129272461 0.00449397414922714233
0.33388066291809082 2.23731899261474609 0.0197421610355377197
0.190466314554214478 2.13989448547363281 0.00114795565605163574
0.640592634677886963 2.44567513465881348 0.0591660439968109131
0.579137623310089111 2.40392732620239258 0.0346761569380760193
0.455258011817932129 2.31977319717407227 0.107000499963760376
0.325469940900802612 2.23160552978515625 0.0618015900254249573
0.585035383701324463 2.40793395042419434 0.0178308617323637009
0.527215123176574707 2.36865544319152832 0.0436792671680450439
0.155692696571350098 2.11627197265625 0.0257577598094940186
0.234811305999755859 2.17001914978027344 0.0439129620790481567
0.27842751145362854 2.19964838027954102 0.00131976604461669922
0.558731973171234131 2.39006543159484863 0.0531099811196327209
0.224204689264297485 2.16281366348266602 0.0290156379342079163
0.486873447895050049 2.34125041961669922 0.0493087247014045715
0.508890509605407715 2.35620713233947754 0.121863454580307007
0.343832552433013916 2.24407958984375 0.0620762184262275696
0.616500735282897949 2.42930889129638672 0.119338952004909515
0.391354858875274658 2.27636241912841797 0.0462770238518714905
0.222173392772674561 2.16143393516540527 0.0401776134967803955
0.169459640979766846 2.12562417984008789 0.0199442058801651001
0.475698530673980713 2.33365893363952637 0.0871004834771156311
0.593491673469543457 2.41367840766906738 0.0178748574107885361
0.366089165210723877 2.25919890403747559 0.0370791032910346985
0.436427772045135498 2.30698156356811523 0.0531956516206264496
0.449045658111572266 2.31555318832397461 0.0867521241307258606
0.414703428745269775 2.29222369194030762 0.0195906758308410645
0.465705692768096924 2.32687067985534668 0.0310581140220165253
0.288696616888046265 2.20662450790405273 0.0644495189189910889
0.0851419568061828613 2.06834554672241211 0.00797441601753234863
0.46858590841293335 2.3288271427154541 0.10547223687171936
0.540144145488739014 2.37743830680847168 0.0416980423033237457
0.587208271026611328 2.40940999984741211 0.135662347078323364
0.486263930797576904 2.3408362865447998 0.0311355851590633392
0.544887185096740723 2.3806602954864502 0.118784405291080475
0.593768596649169922 2.41386651992797852 0.0482272990047931671
0.314535856246948242 2.22417759895324707 0.0394633859395980835
0.406250029802322388 2.28648114204406738 0.0424746796488761902
0.332323968410491943 2.23626160621643066 0.0425417721271514893
0.49426734447479248 2.34627318382263184 0.0560947731137275696
0.354174435138702393 2.25110507011413574 0.062354065477848053
0.529281735420227051 2.37005925178527832 0.0824650973081588745
0.571380615234375 2.39865779876708984 0.0824067145586013794
0.465717166662216187 2.32687854766845703 0.0822329819202423096
0.571394920349121094 2.39866757392883301 0.0809311866760253906
0.473009824752807617 2.3318324089050293 0.0316381044685840607
0.396229952573776245 2.27967429161071777 0.0769427120685577393
0.61252063512802124 2.426605224609375 0.141244515776634216
0.626821279525756836 2.43631982803344727 0.0648916512727737427
0.469401627779006958 2.32938146591186523 0.101695887744426727
0.599317848682403564 2.41763615608215332 0.132147863507270813
0.192297428846359253 2.14113855361938477 0.0140352323651313782
0.636967718601226807 2.44321274757385254 0.100047700107097626
0.381157189607620239 2.26943492889404297 0.000284187495708465576
0.350834548473358154 2.24883627891540527 0.00946836918592453003
0.347049564123153687 2.24626493453979492 0.00681263208389282227
0.333423376083374023 2.23700833320617676 0.0598985478281974792
0.507279455661773682 2.35511255264282227 0.00366869941353797913
0.268870949745178223 2.19315648078918457 0.0252707153558731079
0.047282874584197998 2.04262685775756836 0.00451734662055969238
0.517082929611206055 2.36177229881286621 0.0278297662734985352
0.62992250919342041 2.43842673301696777 0.0273718815296888351
0.109895169734954834 2.08516073226928711 0.0134745687246322632
0.598150968551635742 2.41684365272521973 0.11790282279253006
0.519176006317138672 2.36319422721862793 0.000496190041303634644
0.572299182415008545 2.39928197860717773 0.0858147144317626953
0.35306018590927124 2.25034809112548828 0.00313047319650650024
0.202899903059005737 2.14834094047546387 0.0388702675700187683
0.65278315544128418 2.45395636558532715 0.1365194171667099
0.141650557518005371 2.10673284530639648 0.00553750991821289062
0.311280518770217896 2.22196626663208008 0.0134129226207733154
0.197364330291748047 2.14458060264587402 0.0390917956829071045
0.214683711528778076 2.15634584426879883 0.0412789210677146912
0.593037068843841553 2.41336965560913086 0.131951093673706055
0.361596226692199707 2.25614690780639648 0.0636264681816101074
0.4898262619972229 2.34325623512268066 0.0643781572580337524
0.536370038986206055 2.37487435340881348 0.0213824119418859482
0.527006745338439941 2.36851382255554199 0.0384623296558856964
0.223120570182800293 2.16207718849182129 0.0222894921898841858
0.299589782953262329 2.21402454376220703 0.0390272140502929688
0.502413570880889893 2.3518071174621582 0.0965131372213363647
0.517804980278015137 2.36226272583007812 0.0765718743205070496
0.552306175231933594 2.38570022583007812 0.0944984480738639832
0.328197598457336426 2.23345851898193359 0.024417385458946228
0.235939890146255493 2.17078566551208496 0.0181071162223815918
0.642619848251342773 2.4470522403717041 0.00276547437533736229
0.186205446720123291 2.13700008392333984 0.0223054438829421997
0.20707876980304718 2.15117979049682617 0.0733383223414421082
0.03298148512840271 2.03291177749633789 0.152999937534332275
0.336713075637817383 2.2392430305480957 0.115958377718925476
0.268490314483642578 2.19289803504943848 0.118966415524482727
0.230360075831413269 2.16699528694152832 0.113692104816436768
0.462056517601013184 2.32439160346984863 0.153201192617416382
0.101288586854934692 2.07931423187255859 0.0327830910682678223
0.146561801433563232 2.11006927490234375 0.0816052928566932678
0.0936591923236846924 2.07413125038146973 0.0548025667667388916
0.0871210992336273193 2.06968998908996582 0.136001303791999817
0.104616008698940277 2.08157444000244141 0.0746705979108810425
0.49995306134223938 2.35013556480407715 0.141241550445556641
0.352031320333480835 2.2496490478515625 0.0981222093105316162
0.0229572057723999023 2.02610206604003906 0.0766916647553443909
0.12250903993844986 2.09372973442077637 0.0859401822090148926
0.113643787801265717 2.0877072811126709 0.0837393105030059814
0.0873326435685157776 2.06983351707458496 0.0639810189604759216
0.302631139755249023 2.21609044075012207 0.0872330889105796814
0.10190960019826889 2.07973599433898926 0.0416517555713653564
0.0888164341449737549 2.07084155082702637 0.121009781956672668
0.173823803663253784 2.12858891487121582 0.0994241386651992798
0.0485838092863559723 2.04351067543029785 0.114021554589271545
0.519554734230041504 2.36345148086547852 0.128541350364685059
0.029987771064043045 2.03087806701660156 0.0327523350715637207
0.0643049627542495728 2.05419039726257324 0.135991930961608887
0.498022794723510742 2.34882426261901855 0.134289950132369995
0.107688009738922119 2.08366155624389648 0.0747167766094207764
0.0663469955325126648 2.05557751655578613 0.133039116859436035
0.645454287528991699 2.44897770881652832 0.158568158745765686
0.259274542331695557 2.18663740158081055 0.0987659245729446411
0.174152955412864685 2.12881255149841309 0.11262783408164978
0.135374695062637329 2.10246968269348145 0.120537087321281433
0.491460561752319336 2.34436655044555664 0.120825827121734619
0.112753622233867645 2.08710265159606934 0.0897843316197395325
0.0308682173490524292 2.03147602081298828 0.112786516547203064
0.316882789134979248 2.22577190399169922 0.143701016902923584
0.0177152901887893677 2.02254104614257812 0.122594892978668213
0.255525916814804077 2.18409085273742676 0.06521645188331604
0.181912824511528015 2.13408398628234863 0.137282028794288635
0.282079249620437622 2.20212912559509277 0.141206234693527222
0.180844545364379883 2.13335824012756348 0.0749316737055778503
0.0593940876424312592 2.05085420608520508 0.072695709764957428
0.315969496965408325 2.22515153884887695 0.147192701697349548
0.0745419040322303772 2.06114459037780762 0.0241598933935165405
0.157486885786056519 2.11749100685119629 0.0536796525120735168
0.332211732864379883 2.23618531227111816 0.152603805065155029
0.119819417595863342 2.09190249443054199 0.156679525971412659
0.315478622913360596 2.22481822967529297 0.0982928276062011719
0.285511165857315063 2.20446062088012695 0.14031083881855011
0.107790522277355194 2.08373117446899414 0.0480028688907623291
0.102335505187511444 2.08002543449401855 0.0591956004500389099
0.16333414614200592 2.12146306037902832 0.0598531439900398254
0.0946581289172172546 2.07481002807617188 0.111947715282440186
0.191330388188362122 2.14048147201538086 0.125951111316680908
0.0867731422185897827 2.06945347785949707 0.123531579971313477
0.310110211372375488 2.22117114067077637 0.130796581506729126
0.357190966606140137 2.25315427780151367 0.136258214712142944
0.491539329290390015 2.34441995620727539 0.159233063459396362
0.183772265911102295 2.13534712791442871 0.122830018401145935
0.222764164209365845 2.1618351936340332 0.118974491953849792
0.103421233594417572 2.08076286315917969 0.0503427013754844666
0.0313339084386825562 2.03179240226745605 0.129619613289833069
0.036967303603887558 2.03561925888061523 0.0774897783994674683
0.253034293651580811 2.18239831924438477 0.083353780210018158
0.161177843809127808 2.11999821662902832 0.0569450333714485168
0.13117748498916626 2.09961843490600586 0.0327089875936508179
0.0368550196290016174 2.03554296493530273 0.154555872082710266
0.27937588095664978 2.20029282569885254 0.12112891674041748
0.0838287025690078735 2.06745338439941406 0.107489705085754395
0.130180418491363525 2.09894108772277832 0.125340372323989868
0.361174404621124268 2.25586032867431641 0.147544413805007935
0.00985194463282823563 2.01719927787780762 0.0949093997478485107
0.285872787237167358 2.20470619201660156 0.0990958660840988159
0.0316909141838550568 2.03203487396240234 0.0164231806993484497
0.451189756393432617 2.31700968742370605 0.15131494402885437
0.355582892894744873 2.25206184387207031 0.108906209468841553
0.254660516977310181 2.18350315093994141 0.0966177135705947876
0.0446816086769104004 2.04085969924926758 0.0142069607973098755
0.172720298171043396 2.12783932685852051 0.148780003190040588
0.0936292558908462524 2.07411098480224609 0.0353463813662528992
0.087326541543006897 2.06982946395874023 0.0913281440734863281
0.322497636079788208 2.22958636283874512 0.149105697870254517
0.240379229187965393 2.17380142211914062 0.144001588225364685
0.44190409779548645 2.31070160865783691 0.132355168461799622
0.0350825861096382141 2.03433895111083984 0.0826407521963119507
0.133552893996238708 2.10123205184936523 0.14461730420589447
0.0799564346671104431 2.06482267379760742 0.144149556756019592
0.0881823077797889709 2.07041072845458984 0.150840967893600464
0.217022016644477844 2.15793442726135254 0.159269526600837708
0.237594559788703918 2.17190980911254883 0.111345425248146057
0.220331162214279175 2.16018247604370117 0.0850078314542770386
0.137526899576187134 2.10393166542053223 0.133797958493232727
0.0151572702452540398 2.02080321311950684 0.0910572782158851624
0.200250610709190369 2.14654111862182617 0.121115803718566895
0.287647873163223267 2.20591211318969727 0.114295899868011475
0.406816631555557251 2.2868659496307373 0.151948437094688416
0.0265746507793664932 2.02855944633483887 0.0924297124147415161
0.131498292088508606 2.09983634948730469 0.124215289950370789
0.207541793584823608 2.15149426460266113 0.138835743069648743
0.355432301759719849 2.25195956230163574 0.146393895149230957
0.352239757776260376 2.24979066848754883 0.142711073160171509
0.277417212724685669 2.19896221160888672 0.140068471431732178
0.0341172516345977783 2.03368330001831055 0.119881659746170044
0.163973301649093628 2.12189722061157227 0.104325249791145325
0.353378981351852417 2.2505645751953125 0.156297668814659119
0.123510725796222687 2.09441018104553223 0.127101153135299683
0.215005442500114441 2.15656447410583496 0.124907910823822021
0.0728210136294364929 2.05997562408447266 0.0851120799779891968
0.0509383007884025574 2.04511022567749023 0.0618526339530944824
0.120437465608119965 2.09232234954833984 0.143406197428703308
0.238080486655235291 2.17223978042602539 0.110299766063690186
0.129961654543876648 2.09879231452941895 0.123611509799957275
0.165696635842323303 2.12306785583496094 0.155602201819419861
0.0483262278139591217 2.0433356761932373 0.139742732048034668
0.053050849586725235 2.04654526710510254 0.0937145128846168518
0.427606254816055298 2.30098891258239746 0.138238757848739624
0.425108909606933594 2.29929232597351074 0.149932816624641418
0.0399004817008972168 2.03761196136474609 0.112291410565376282
0.473260551691055298 2.33200287818908691 0.146031245589256287
0.298623174428939819 2.21336793899536133 0.0983278155326843262
0.233550667762756348 2.16916275024414062 0.0645460560917854309
0.105723023414611816 2.08232665061950684 0.0702460259199142456
0.113686129450798035 2.08773612976074219 0.155652865767478943
0.51303178071975708 2.35902023315429688 0.14271797239780426
0.092458091676235199 2.07331538200378418 0.114555910229682922
0.229092523455619812 2.16613411903381348 0.0765765011310577393
0.187609732151031494 2.1379539966583252 0.115920320153236389
0.0069894697517156601 2.01525473594665527 0.0590815991163253784
0.439477145671844482 2.30905294418334961 0.110296383500099182
0.071997523307800293 2.05941605567932129 0.0856463909149169922
0.448518157005310059 1.58518373966217041 0
1.14711201190948486 0.66782534122467041 0
1.0019608736038208 0.66466289758682251 0
0.406535416841506958 1.41909265518188477 0
1.66451525688171387 0.455421864986419678 0
0.649024903774261475 1.09455084800720215 0
1.44146311283111572 0.209910452365875244 0
1.33696520328521729 0.182514369487762451 0
1.46845054626464844 0.781805634498596191 0
0.442014455795288086 1.52208244800567627 0
1.83257842063903809 0.589069366455078125 0
0.325733095407485962 1.63318800926208496 0
0.873148024082183838 0.959946036338806152 0
0.808803796768188477 0.956051290035247803 0
1.44645798206329346 0.794746160507202148 0
0.325622051954269409 1.53377771377563477 0
1.39724647998809814 0.337001204490661621 0
1.54710626602172852 0.167086869478225708 0
0.737425506114959717 1.22777581214904785 0
1.68405699729919434 0.697922229766845703 0
1.6591564416885376 0.423540711402893066 0
0.206732809543609619 1.82359075546264648 0
1.54395473003387451 0.676372170448303223 0
1.43565678596496582 0.657011926174163818 0
0.997892260551452637 0.864654839038848877 0
1.42798817157745361 0.667512655258178711 0
0.961553215980529785 0.631724953651428223 0
1.79313516616821289 0.592377364635467529 0
1.80027961730957031 0.593702793121337891 0
1.42283594608306885 0.640641093254089355 0
0.311976581811904907 1.67813277244567871 0
0.57771003246307373 1.22796499729156494 0
1.69069266319274902 0.662381291389465332 0
1.49320125579833984 0.620467662811279297 0
0.95819854736328125 1.19532644748687744 0
0.758767366409301758 1.28935372829437256 0
1.44108271598815918 0.887925446033477783 0
1.16354274749755859 0.314441323280334473 0
0.633212447166442871 1.43570399284362793 0
1.29974675178527832 0.672673940658569336 0
1.30570018291473389 0.99034416675567627 0
1.14539539813995361 0.827920198440551758 0
1.41311907768249512 0.886286139488220215 0
1.01680839061737061 0.99693000316619873 0
1.24404621124267578 0.323982000350952148 0
1.329559326171875 0.170385867357254028 0
0.851457834243774414 0.917119920253753662 0
0.556040167808532715 1.31127572059631348 0
1.92391502857208252 0.392775416374206543 0
0.871909856796264648 1.31616508960723877 0
0.611702144145965576 1.52801644802093506 0
1.40699005126953125 0.373567342758178711 0
0.970753848552703857 0.784578800201416016 0
0.900924026966094971 0.933455467224121094 0
1.55535197257995605 0.747097611427307129 0
0.276673167943954468 1.68428778648376465 0
0.646768450736999512 1.28372669219970703 0
1.01619362831115723 0.801993966102600098 0
1.31570291519165039 0.558226168155670166 0
0.708437800407409668 1.08976054191589355 0
1.5932765007019043 0.748165905475616455 0
0.854540884494781494 0.863275349140167236 0
0.910867094993591309 0.901785373687744141 0
1.08106613159179688 0.755130529403686523 0
0.692502498626708984 1.38531053066253662 0
0.597768008708953857 1.24596762657165527 0
1.26370537281036377 0.471246391534805298 0
0.600000083446502686 1.37236857414245605 0
0.932038843631744385 0.949332535266876221 0
0.973056495189666748 1.16515350341796875 0
0.706586122512817383 1.18275392055511475 0
0.0559938438236713409 1.93962407112121582 0
1.48427021503448486 0.664885520935058594 0
1.39023947715759277 0.709426045417785645 0
1.21977519989013672 1.06027650833129883 0
1.11051404476165771 0.955113768577575684 0
1.32201814651489258 0.917462468147277832 0
1.26919722557067871 0.525619983673095703 0
1.37277066707611084 0.0496492981910705566 0
1.57553720474243164 0.655213475227355957 0
1.57324719429016113 0.662172794342041016 0
0.723542749881744385 1.16931605339050293 0
0.69458162784576416 1.35941481590270996 0
0.06993122398853302 1.95043802261352539 0
0.642506659030914307 1.20114850997924805 0
1.13414812088012695 0.468730449676513672 0
0.326097190380096436 1.59587252140045166 0
1.47936379909515381 0.620009362697601318 0
0.978663384914398193 1.23394167423248291 0
0.941628634929656982 0.854153811931610107 0
0.667614877223968506 1.44515788555145264 0
1.14698159694671631 1.09309065341949463 0
1.29802513122558594 0.889832854270935059 0
1.27298688888549805 0.333648949861526489 0
0.528010964393615723 1.59967303276062012 0
0.367123156785964966 1.52008593082427979 0
0.429592311382293701 1.64389443397521973 0
0.69548487663269043 1.40060520172119141 0
1.16495001316070557 0.506416380405426025 0
1.31366801261901855 0.481065332889556885 0
1.32524049282073975 0.968547940254211426 0
1.35167860984802246 0.612962543964385986 0
0.627993941307067871 1.31487655639648438 0
0.524412751197814941 1.27567136287689209 0
1.08921778202056885 1.02536380290985107 0
1.21886610984802246 0.510606467723846436 0
1.21900200843811035 0.726948142051696777 0
0.622312963008880615 1.41564154624938965 0
1.0959244966506958 0.401751339435577393 0
0.876831710338592529 0.733295142650604248 0
1.88074827194213867 0.54143989086151123 0
1.20454621315002441 0.533958911895751953 0
1.69106006622314453 0.361647218465805054 0
0.572306632995605469 1.42438209056854248 0
1.77295041084289551 0.350293546915054321 0
0.772792220115661621 0.90581822395324707 0
1.62767124176025391 0.279871612787246704 0
1.79444754123687744 0.562103211879730225 0
0.852133631706237793 1.33990335464477539 0
0.758365273475646973 1.28884613513946533 0
0.674767434597015381 1.15057039260864258 0
1.60662686824798584 0.363220334053039551 0
1.11207473278045654 1.01772809028625488 0
1.54266142845153809 0.700902938842773438 0
1.34804332256317139 0.8121490478515625 0
0.282790958881378174 1.65498387813568115 0
1.02807784080505371 0.689716994762420654 0
1.36542272567749023 0.364981770515441895 0
1.11631417274475098 0.710792243480682373 0
1.20113039016723633 0.756487071514129639 0
1.28169417381286621 0.611528992652893066 0
0.872136175632476807 0.815377652645111084 0
0.998490214347839355 0.633036315441131592 0
1.67094564437866211 0.671264290809631348 0
1.68432927131652832 0.35254177451133728 0
1.0005643367767334 0.72948223352432251 0
1.41688656806945801 0.273319125175476074 0
1.67409157752990723 0.699699759483337402 0
0.283642679452896118 1.73675870895385742 0
1.21549725532531738 1.0138547420501709 0
1.73762869834899902 0.462879091501235962 0
1.29188525676727295 0.783382773399353027 0
1.76270818710327148 0.410918235778808594 0
1.25981271266937256 0.568295776844024658 0
0.901566863059997559 1.23548364639282227 0
0.419114351272583008 1.54801905155181885 0
1.6622309684753418 0.267644047737121582 0
1.16246747970581055 0.299583077430725098 0
0.546425521373748779 1.48063850402832031 0
1.51699841022491455 0.232420772314071655 0
1.51478767395019531 0.693737387657165527 0
1.52086138725280762 0.491171032190322876 0
0.678828775882720947 1.27934038639068604 0
1.15292847156524658 0.603582918643951416 0
1.01956939697265625 1.19200325012207031 0
1.62977147102355957 0.573620319366455078 0
0.762147068977355957 1.01477432250976562 0
0.544125139713287354 1.40474188327789307 0
1.05946934223175049 1.10593283176422119 0
1.18254148960113525 0.79573667049407959 0
1.18705785274505615 0.674056529998779297 0
1.61312747001647949 0.638966798782348633 0
1.08547091484069824 0.748603403568267822 0
0.723404109477996826 1.13952553272247314 0
0.59879767894744873 1.17435216903686523 0
1.53453493118286133 0.467415809631347656 0
1.31156086921691895 0.721302330493927002 0
1.34663891792297363 0.175567209720611572 0
0.421016663312911987 1.58604669570922852 0
1.43991982936859131 0.288605928421020508 0
0.231621980667114258 1.71733474731445312 0
1.14010703563690186 0.843291759490966797 0
1.38646388053894043 0.0622623413801193237 0
1.03243958950042725 0.973106861114501953 0
1.53967177867889404 0.162653565406799316 0
1.51384830474853516 0.284256547689437866 0
1.25949406623840332 0.645360708236694336 0
1.48431706428527832 0.812692940235137939 0
0.745402932167053223 0.934826433658599854 0
1.48264229297637939 0.199582502245903015 0
0.633239626884460449 1.20809900760650635 0
0.391441762447357178 1.4644242525100708 0
0.65594857931137085 1.4426499605178833 0
0.370200574398040771 1.68609750270843506 0
1.32799005508422852 0.236007019877433777 0
0.254879266023635864 1.75243580341339111 0
1.80386781692504883 0.454484432935714722 0
1.10622811317443848 0.75619429349899292 0
0.690975368022918701 1.45997428894042969 0
1.25896382331848145 0.329847961664199829 0
0.795797407627105713 0.924583196640014648 0
1.42371678352355957 0.821432352066040039 0
0.766266345977783203 1.19658207893371582 0
1.30642926692962646 0.381558418273925781 0
1.19166433811187744 0.315439701080322266 0
0.877438187599182129 0.934289038181304932 0
1.27751100063323975 0.522916495800018311 0
1.44729673862457275 0.0773986354470252991 0
1.28907477855682373 0.185814797878265381 0
0.939171552658081055 0.977413356304168701 0
1.23924088478088379 0.616216659545898438 0
0.431552231311798096 1.66553258895874023 0
1.92158520221710205 0.445629596710205078 0
1.28396844863891602 0.292697131633758545 0
1.55174064636230469 0.150476142764091492 0
0.880405843257904053 1.01923644542694092 0
1.72252237796783447 0.465531647205352783 0
1.4261772632598877 0.343996882438659668 0
1.27959883213043213 0.220716774463653564 0
1.29753780364990234 0.866301417350769043 0
1.56620800495147705 0.642980277538299561 0
1.3213646411895752 0.385278761386871338 0
1.04014360904693604 1.15925061702728271 0
1.07409310340881348 0.59237295389175415 0
1.60803282260894775 0.534107565879821777 0
0.68366241455078125 1.47813403606414795 0
0.823083162307739258 0.842912018299102783 0
0.969682037830352783 0.600711345672607422 0
0.737229824066162109 1.24524474143981934 0
1.34487426280975342 0.0878145173192024231 0
0.977742671966552734 1.21437835693359375 0
0.569671154022216797 1.46489739418029785 0
1.11244702339172363 0.794049322605133057 0
0.489672571420669556 1.33329200744628906 0
0.188815087080001831 1.83019232749938965 0
1.28671860694885254 0.281684666872024536 0
0.805681109428405762 1.26755869388580322 0
0.793640315532684326 0.93546980619430542 0
0.341005086898803711 1.62142288684844971 0
1.56382417678833008 0.200224459171295166 0
0.642575562000274658 1.07623970508575439 0
1.09039449691772461 0.900676965713500977 0
1.39910829067230225 0.427225410938262939 0
1.36702322959899902 0.0755778998136520386 0
1.29339146614074707 0.522970736026763916 0
0.661010980606079102 1.09973931312561035 0
1.20999228954315186 0.509402871131896973 0
1.43020725250244141 0.21878388524055481 0
0.368792176246643066 1.67923998832702637 0
0.561542272567749023 1.34052014350891113 0
1.6577751636505127 0.277625203132629395 0
0.740409970283508301 1.16261768341064453 0
1.44134962558746338 0.412134945392608643 0
0.60716557502746582 1.2362205982208252 0
0.367177754640579224 1.6373591423034668 0
1.75714898109436035 0.30336606502532959 0
1.54289662837982178 0.207136273384094238 0
1.02884304523468018 0.921645164489746094 0
1.73695182800292969 0.511351644992828369 0
0.951476871967315674 0.760587871074676514 0
0.480675488710403442 1.33726322650909424 0
0.101867623627185822 1.93051886558532715 0
1.70316863059997559 0.255619823932647705 0
1.39238917827606201 0.108243465423583984 0
0.650539994239807129 1.0933377742767334 0
0.146146133542060852 1.80763018131256104 0
0.701271891593933105 1.13174784183502197 0
0.670126140117645264 1.43636906147003174 0
1.42117023468017578 0.762263655662536621 0
1.29322195053100586 0.11713690310716629 0
1.81843256950378418 0.481300383806228638 0
0.797199904918670654 1.1167759895324707 0
1.88931131362915039 0.491110146045684814 0
1.41486120223999023 0.892330646514892578 0
1.47610640525817871 0.663088321685791016 0
0.910363137722015381 0.93098139762878418 0
1.42934572696685791 0.581515133380889893 0
1.29001331329345703 0.510812699794769287 0
0.958309054374694824 0.764452874660491943 0
1.45824384689331055 0.565584301948547363 0
1.24993038177490234 0.230685368180274963 0
1.86021709442138672 0.370442718267440796 0
0.9238167405128479 0.902327537536621094 0
1.3823552131652832 0.62375795841217041 0
0.696234226226806641 1.26188874244689941 0
0.674406170845031738 1.25900506973266602 0
1.37632942199707031 0.296067863702774048 0
1.70960569381713867 0.498639345169067383 0
0.741558194160461426 1.22928857803344727 0
0.911740720272064209 0.7318878173828125 0
0.379960060119628906 1.62551772594451904 0
1.79660403728485107 0.585406005382537842 0
0.559269547462463379 1.43982338905334473 0
1.41372799873352051 0.679628074169158936 0
0.989857912063598633 1.10590744018554688 0
0.534451484680175781 1.51034438610076904 0
0.173979461193084717 1.81401467323303223 0
1.31019127368927002 0.720166444778442383 0
0.792999088764190674 1.26011669635772705 0
0.673942446708679199 1.09479939937591553 0
0.838817000389099121 1.08296680450439453 0
1.02213621139526367 1.04053092002868652 0
0.87369304895401001 0.951665222644805908 0
1.34539413452148438 0.442640572786331177 0
1.30585765838623047 0.184327960014343262 0
1.44958400726318359 0.281215935945510864 0
1.18302595615386963 0.405098170042037964 0
0.573027133941650391 1.31615006923675537 0
1.26826965808868408 0.748269259929656982 0
1.65020740032196045 0.56757432222366333 0
1.4186103343963623 0.200784221291542053 0
1.41822552680969238 0.464027315378189087 0
0.139809280633926392 1.85329127311706543 0
0.253645122051239014 1.66383528709411621 0
0.0912625938653945923 1.93394589424133301 0
0.311338216066360474 1.72375690937042236 0
0.828544497489929199 0.908066153526306152 0
0.877426266670227051 0.919175684452056885 0
1.2300262451171875 0.344849109649658203 0
1.2171318531036377 0.966338217258453369 0
1.55773067474365234 0.65040898323059082 0
1.38147306442260742 0.805394887924194336 0
1.60081088542938232 0.768884897232055664 0
1.86374413967132568 0.41314244270324707 0
1.40804815292358398 0.753206253051757812 0
0.924755632877349854 0.889443278312683105 0
0.249204546213150024 1.71763110160827637 0
1.21245932579040527 0.667713761329650879 0
1.83259713649749756 0.556008577346801758 0
1.73554182052612305 0.437502682209014893 0
0.845946669578552246 0.985445141792297363 0
0.936301469802856445 0.866063714027404785 0
1.16443061828613281 0.885834276676177979 0
1.09705018997192383 1.05707740783691406 0
0.641426622867584229 1.23347210884094238 0
0.938550591468811035 1.28590905666351318 0
1.80479490756988525 0.598362326622009277 0
0.681519150733947754 1.03428554534912109 0
1.2045290470123291 0.62201845645904541 0
0.789014995098114014 1.24451828002929688 0
1.69030129909515381 0.63492739200592041 0
0.44888991117477417 1.41745460033416748 0
1.43955063819885254 0.354658961296081543 0
1.78500533103942871 0.633517205715179443 0
1.74232792854309082 0.29366755485534668 0
1.15660595893859863 0.952642440795898438 0
1.41771066188812256 0.272384345531463623 0
0.736424148082733154 1.27396786212921143 0
0.407965600490570068 1.5405045747756958 0
1.00274288654327393 0.823753118515014648 0
1.10862696170806885 0.573745906352996826 0
1.13793051242828369 1.04797983169555664 0
1.81136155128479004 0.576448202133178711 0
0.951896965503692627 0.93234717845916748 0
1.59250414371490479 0.187112316489219666 0
0.895326972007751465 0.902218043804168701 0
1.34487807750701904 0.512490928173065186 0
1.57490754127502441 0.748025417327880859 0
1.34868240356445312 0.0494187548756599426 0
1.2323453426361084 0.760209918022155762 0
0.560458004474639893 1.36368119716644287 0
1.79111313819885254 0.493893861770629883 0
1.25541210174560547 0.953766763210296631 0
1.01946902275085449 1.08051419258117676 0
1.49309849739074707 0.469132512807846069 0
0.788777351379394531 1.01155591011047363 0
0.76529008150100708 1.02731657028198242 0
0.38507378101348877 1.70646262168884277 0
1.43230509757995605 0.217687502503395081 0
1.53284096717834473 0.291813254356384277 0
0.555834770202636719 1.49163317680358887 0
0.864688992500305176 0.758132100105285645 0
1.40294158458709717 0.835914254188537598 0
0.870638549327850342 0.996454834938049316 0
0.905649900436401367 0.917132914066314697 0
1.11460769176483154 0.403613865375518799 0
1.23647212982177734 0.271322548389434814 0
0.549957036972045898 1.53033220767974854 0
0.639492809772491455 1.48973095417022705 0
1.10511445999145508 0.640500962734222412 0
0.724466264247894287 1.17001378536224365 0
1.59357094764709473 0.602266430854797363 0
0.865316092967987061 1.19066774845123291 0
1.60510814189910889 0.293917030096054077 0
1.37239646911621094 0.594503462314605713 0
1.01525461673736572 0.982834279537200928 0
0.743280470371246338 1.37358248233795166 0
1.45262110233306885 0.846205711364746094 0
1.3294837474822998 0.210831671953201294 0
1.41603326797485352 0.902610838413238525 0
0.438584864139556885 1.63765871524810791 0
1.021889328956604 0.809884011745452881 0
0.948125183582305908 0.977348506450653076 0
1.21975100040435791 0.73571091890335083 0
1.00674033164978027 0.71178901195526123 0
0.53998410701751709 1.39611339569091797 0
0.808518111705780029 0.83742910623550415 0
1.29308223724365234 0.473761081695556641 0
1.69117486476898193 0.46224820613861084 0
0.572827458381652832 1.44694280624389648 0
1.51463186740875244 0.127417862415313721 0
0.757965445518493652 1.21468234062194824 0
1.60035550594329834 0.447095036506652832 0
1.32187080383300781 0.55117499828338623 0
0.44019317626953125 1.45891463756561279 0
1.49424886703491211 0.46217268705368042 0
1.54362058639526367 0.6461830735206604 0
0.552528500556945801 1.41319894790649414 0
1.11229395866394043 0.492578625679016113 0
0.821543574333190918 0.896824002265930176 0
1.64757645130157471 0.562962770462036133 0
1.42895066738128662 0.509036421775817871 0
1.00633931159973145 0.617683053016662598 0
1.82235455513000488 0.383996874094009399 0
1.26903653144836426 0.493403077125549316 0
1.27899754047393799 0.131104335188865662 0
1.60786557197570801 0.378831088542938232 0
0.981928825378417969 0.641624927520751953 0
0.759307503700256348 1.16062140464782715 0
1.325736403465271 0.790206849575042725 0
1.86404275894165039 0.347916603088378906 0
0.574059188365936279 1.21122503280639648 0
1.04288315773010254 0.706754565238952637 0
1.63924181461334229 0.278670728206634521 0
1.71964418888092041 0.57982182502746582 0
1.04762458801269531 1.02944135665893555 0
1.05840933322906494 0.763901352882385254 0
1.77586686611175537 0.436712712049484253 0
1.16007649898529053 0.426269292831420898 0
0.268016815185546875 1.62728750705718994 0
1.79686665534973145 0.483159750699996948 0
0.966058492660522461 0.785331249237060547 0
1.34623920917510986 0.777519881725311279 0
0.977190196514129639 0.758504271507263184 0
1.06501936912536621 0.497288554906845093 0
1.74005007743835449 0.564589619636535645 0
0.281648159027099609 1.67981588840484619 0
1.49388766288757324 0.492813944816589355 0
1.05904614925384521 0.615394413471221924 0
0.927195131778717041 0.843550920486450195 0
1.25938379764556885 0.892076194286346436 0
1.15918183326721191 0.346808761358261108 0
1.47834885120391846 0.192496776580810547 0
1.69809961318969727 0.319489806890487671 0
1.89108014106750488 0.460099965333938599 0
0.405747592449188232 1.59271061420440674 0
0.905387759208679199 1.02877867221832275 0
1.66654205322265625 0.56363070011138916 0
0.491162508726119995 1.58456826210021973 0
0.400232285261154175 1.55679893493652344 0
1.23537659645080566 0.238709136843681335 0
0.909090876579284668 1.09771895408630371 0
0.655631184577941895 1.36183261871337891 0
0.311717718839645386 1.66421675682067871 0
0.804679214954376221 1.21363067626953125 0
1.64460253715515137 0.300485700368881226 0
1.22039675712585449 0.785253226757049561 0
1.40473413467407227 0.718570351600646973 0
1.31104910373687744 0.56715625524520874 0
0.424585044384002686 1.42515671253204346 0
1.3652043342590332 0.803661704063415527 0
0.816809237003326416 0.953826963901519775 0
0.860072731971740723 1.25918829441070557 0
0.969624161720275879 1.19753670692443848 0
1.19599258899688721 0.433068156242370605 0
1.58336353302001953 0.4344635009765625 0
1.3603978157043457 0.54315650463104248 0
0.47882544994354248 1.49420607089996338 0
1.46684348583221436 0.485238373279571533 0
1.1396106481552124 0.403315335512161255 0
0.863417744636535645 0.838030159473419189 0
0.234257683157920837 1.75082051753997803 0
1.62677550315856934 0.494410872459411621 0
0.691263675689697266 1.27384054660797119 0
0.330538749694824219 1.55955922603607178 0
1.52806615829467773 0.518840670585632324 0
1.41100001335144043 0.440837204456329346 0
0.243800148367881775 1.76993024349212646 0
0.52172011137008667 1.52462685108184814 0
1.35216319561004639 0.201516479253768921 0
1.65259063243865967 0.46774628758430481 0
0.819852292537689209 1.35771584510803223 0
1.29072237014770508 0.171407401561737061 0
1.39774942398071289 0.555029511451721191 0
1.47144591808319092 0.80857163667678833 0
1.46498250961303711 0.21379050612449646 0
0.810264885425567627 0.849692165851593018 0
0.473586380481719971 1.43408262729644775 0
0.536233723163604736 1.42693281173706055 0
0.238257378339767456 1.79111635684967041 0
1.17948031425476074 1.01694393157958984 0
1.19766271114349365 0.544579863548278809 0
1.96512961387634277 0.429106682538986206 0
1.31558883190155029 0.226640582084655762 0
0.654257476329803467 1.22167360782623291 0
1.11395895481109619 0.672031760215759277 0
1.48551261425018311 0.528944432735443115 0
1.43661248683929443 0.434112727642059326 0
1.11442077159881592 1.14959406852722168 0
0.932599723339080811 0.780996859073638916 0
1.9036557674407959 0.465121716260910034 0
1.9856187105178833 0.471878021955490112 0
1.2978435754776001 0.437002271413803101 0
0.627162337303161621 1.28965318202972412 0
1.52870297431945801 0.580433845520019531 0
1.6404719352722168 0.648208975791931152 0
1.84443068504333496 0.552667975425720215 0
1.11099326610565186 1.05907487869262695 0
0.741694986820220947 1.12408769130706787 0
1.95562410354614258 0.411293387413024902 0
1.24510025978088379 0.447677731513977051 0
0.662214756011962891 1.18209576606750488 0
0.947863996028900146 0.758903622627258301 0
1.29565942287445068 0.174084484577178955 0
0.360126733779907227 1.61576175689697266 0
0.781639814376831055 1.38637447357177734 0
1.39713168144226074 0.0314732193946838379 0
1.57628095149993896 0.492364585399627686 0
1.57586860656738281 0.242530658841133118 0
1.05884802341461182 1.05595552921295166 0
0.301751881837844849 1.74695861339569092 0
0.896471917629241943 1.11922824382781982 0
1.38625597953796387 0.440045058727264404 0
1.02425789833068848 0.956273376941680908 0
0.74963003396987915 1.26762235164642334 0
1.49884748458862305 0.523731112480163574 0
1.55382788181304932 0.137659788131713867 0
1.40658879280090332 0.617995023727416992 0
0.92801588773727417 0.926930487155914307 0
0.370902776718139648 1.57509005069732666 0
1.15732836723327637 1.05534958839416504 0
1.30726814270019531 0.693219482898712158 0
0.4915618896484375 1.61006796360015869 0
0.837911546230316162 1.17109942436218262 0
0.818843185901641846 1.37343192100524902 0
1.24027645587921143 0.278558522462844849 0
1.37962102890014648 0.543552279472351074 0
0.415602058172225952 1.42574453353881836 0
1.49227523803710938 0.717323124408721924 0
1.62439882755279541 0.626529932022094727 0
1.59493184089660645 0.466828078031539917 0
0.856924891471862793 1.14237010478973389 0
1.28716588020324707 0.581275105476379395 0
1.27317249774932861 0.740502357482910156 0
1.20194172859191895 0.884679734706878662 0
1.91907167434692383 0.517497539520263672 0
1.74958217144012451 0.639794290065765381 0
1.52140247821807861 0.362269282341003418 0
1.31528210639953613 0.626957714557647705 0
1.58603620529174805 0.215348958969116211 0
1.36820018291473389 0.0335808619856834412 0
0.931467235088348389 0.977272450923919678 0
1.12701332569122314 0.373394966125488281 0
1.72196900844573975 0.36248701810836792 0
0.820774495601654053 1.32435750961303711 0
1.35834372043609619 0.222900062799453735 0
0.22309577465057373 1.83119821548461914 0
0.708076059818267822 1.34942293167114258 0
0.915357291698455811 1.24448573589324951 0
0.512334585189819336 1.28613114356994629 0
1.33459484577178955 0.404903531074523926 0
0.841564059257507324 1.29252636432647705 0
1.3817901611328125 0.73216855525970459 0
0.653110682964324951 1.47744584083557129 0
0.898077845573425293 1.16569948196411133 0
1.80795001983642578 0.534719944000244141 0
1.28479409217834473 0.293451875448226929 0
1.51393675804138184 0.30740666389465332 0
0.786296367645263672 1.13859105110168457 0
0.974570930004119873 1.14357388019561768 0
0.438797116279602051 1.50613141059875488 0
1.65837836265563965 0.538343727588653564 0
1.07198214530944824 0.995629251003265381 0
0.910363256931304932 1.15086722373962402 0
0.733637392520904541 1.33437061309814453 0
1.32753705978393555 0.140992432832717896 0
1.06039977073669434 1.10969245433807373 0
1.56081676483154297 0.462850898504257202 0
1.02285480499267578 1.00210094451904297 0
1.41791653633117676 0.54346919059753418 0
0.95043647289276123 0.965654671192169189 0
0.681665658950805664 1.27739930152893066 0
0.926440060138702393 0.737787604331970215 0
1.51589441299438477 0.658547282218933105 0
0.0639734715223312378 1.95701777935028076 0
1.27323150634765625 0.724842309951782227 0
1.06835293769836426 0.526534676551818848 0
0.683397829532623291 1.47727692127227783 0
1.02812623977661133 0.784696280956268311 0
1.74833917617797852 0.42336195707321167 0
0.940994143486022949 1.09083902835845947 0
1.15290188789367676 0.859230577945709229 0
0.235612347722053528 1.74608373641967773 0
1.60506975650787354 0.539431929588317871 0
0.276858776807785034 1.70646679401397705 0
0.444349080324172974 1.44504201412200928 0
0.914000570774078369 0.859323978424072266 0
1.21022963523864746 0.815898895263671875 0
1.17283189296722412 0.917937636375427246 0
1.94709515571594238 0.494882941246032715 0
0.442744195461273193 1.38836836814880371 0
1.38715314865112305 0.418609678745269775 0
1.28038501739501953 0.879583656787872314 0
1.64904642105102539 0.727466702461242676 0
1.13367855548858643 0.405655980110168457 0
1.57254540920257568 0.564679741859436035 0
1.12694144248962402 1.0216442346572876 0
0.242496773600578308 1.69429051876068115 0
0.752370357513427734 0.929613411426544189 0
1.16825509071350098 1.05941593647003174 0
1.49541652202606201 0.699356436729431152 0
0.291254878044128418 1.72139716148376465 0
1.53935432434082031 0.255826115608215332 0
1.81510090827941895 0.345909297466278076 0
1.42954981327056885 0.27455437183380127 0
0.851389527320861816 0.768993735313415527 0
0.253516554832458496 1.70016920566558838 0
0.931627869606018066 1.20544695854187012 0
1.18409097194671631 0.997451663017272949 0
0.373368740081787109 1.51450836658477783 0
1.30895781517028809 0.148020893335342407 0
1.08536243438720703 1.11280059814453125 0
1.66222810745239258 0.25624382495880127 0
1.49473440647125244 0.591987669467926025 0
0.933681905269622803 0.953123152256011963 0
1.24510872364044189 0.230065822601318359 0
0.980598866939544678 0.876434624195098877 0
0.468311220407485962 1.54568743705749512 0
1.10527908802032471 0.989347338676452637 0
1.7673490047454834 0.598699808120727539 0
0.406312286853790283 1.61997032165527344 0
1.8804020881652832 0.526289105415344238 0
1.05698847770690918 0.696814119815826416 0
0.975353240966796875 0.785522520542144775 0
0.78594207763671875 1.16292333602905273 0
1.07993984222412109 0.81981348991394043 0
1.5854499340057373 0.336764097213745117 0
0.89283674955368042 0.920354962348937988 0
0.325285464525222778 1.55438101291656494 0
1.3500896692276001 0.055243413895368576 0
1.38006937503814697 0.240812093019485474 0
0.683394253253936768 1.01594829559326172 0
1.49123728275299072 0.147817656397819519 0
1.36079275608062744 0.943935632705688477 0
1.73988485336303711 0.669472455978393555 0
0.960801124572753906 0.840160250663757324 0
1.44370663166046143 0.866031408309936523 0
1.1440274715423584 0.777420341968536377 0
1.43846654891967773 0.388271689414978027 0
0.865491747856140137 1.09138393402099609 0
1.00664210319519043 1.14288997650146484 0
1.6677781343460083 0.482776045799255371 0
1.46552276611328125 0.322593271732330322 0
0.773374974727630615 1.31548571586608887 0
1.38185882568359375 0.932867169380187988 0
1.09281241893768311 0.956293880939483643 0
1.15036797523498535 0.569405317306518555 0
0.303949892520904541 1.69733095169067383 0
0.796497881412506104 1.06147921085357666 0
1.6478123664855957 0.6665496826171875 0
1.24882543087005615 0.284726142883300781 0
1.43542599678039551 0.317828595638275146 0
1.76790821552276611 0.545042157173156738 0
0.757539629936218262 1.14094698429107666 0
0.62288135290145874 1.16793262958526611 0
1.19679546356201172 0.922778725624084473 0
0.916690587997436523 1.2234576940536499 0
1.37988889217376709 0.673361599445343018 0
1.16034960746765137 0.726636171340942383 0
0.98215562105178833 0.921069025993347168 0
1.07049238681793213 0.47340846061706543 0
0.138528525829315186 1.82498335838317871 0
1.8707730770111084 0.374930322170257568 0
1.36759257316589355 0.114101141691207886 0
1.86221647262573242 0.343529850244522095 0
1.15923488140106201 0.769170522689819336 0
1.84619021415710449 0.589034855365753174 0
1.24363088607788086 0.931727766990661621 0
0.493462055921554565 1.62109053134918213 0
1.46934604644775391 0.104948699474334717 0
1.1312490701675415 1.00328552722930908 0
1.379203200340271 0.779738306999206543 0
1.58422195911407471 0.507443428039550781 0
1.160300612449646 0.805816173553466797 0
1.18044018745422363 0.348861664533615112 0
1.08233082294464111 0.733105182647705078 0
1.1141502857208252 0.648500919342041016 0
0.842809081077575684 1.09117603302001953 0
1.58118605613708496 0.669961869716644287 0
0.576059818267822266 1.32185721397399902 0
1.21480488777160645 0.339262574911117554 0
1.1690831184387207 0.786982893943786621 0
1.19447755813598633 1.0446479320526123 0
0.383233189582824707 1.48205387592315674 0
1.66349375247955322 0.25704684853553772 0
1.4487912654876709 0.355140835046768188 0
0.244824633002281189 1.78372430801391602 0
1.33703899383544922 0.177380263805389404 0
1.41463541984558105 0.227295219898223877 0
0.739948272705078125 0.998207449913024902 0
1.15250957012176514 1.06569647789001465 0
1.52001893520355225 0.257523268461227417 0
0.738461852073669434 1.36572372913360596 0
1.88658523559570312 0.512994289398193359 0
0.871726036071777344 0.906394898891448975 0
1.10111832618713379 0.737944841384887695 0
1.64361608028411865 0.441145867109298706 0
1.13568925857543945 0.372656166553497314 0
1.06717896461486816 0.488287270069122314 0
1.59054863452911377 0.208946466445922852 0
0.589826703071594238 1.48880946636199951 0
1.33113789558410645 0.115657798945903778 0
1.25958192348480225 0.975956559181213379 0
0.822904467582702637 0.824093341827392578 0
1.10371088981628418 0.991392731666564941 0
1.09798109531402588 0.744672894477844238 0
0.889153718948364258 1.20108532905578613 0
0.0670237839221954346 1.93889462947845459 0
1.02188694477081299 0.82017827033996582 0
0.222690477967262268 1.768410325050354 0
0.615571498870849609 1.51647710800170898 0
0.806299924850463867 0.977994561195373535 0
0.593115746974945068 1.50921857357025146 0
1.66036951541900635 0.218857645988464355 0
1.15714073181152344 0.847202420234680176 0
0.812365889549255371 0.927951931953430176 0
0.730431973934173584 1.38157212734222412 0
1.08226954936981201 0.964169561862945557 0
1.24460315704345703 0.26770821213722229 0
0.347717911005020142 1.50929844379425049 0
1.25550806522369385 0.66470789909362793 0
1.3154071569442749 0.130479782819747925 0
0.259565114974975586 1.64436352252960205 0
1.98442351818084717 0.453721135854721069 0
0.919158756732940674 0.965900182723999023 0
1.26714277267456055 0.502590060234069824 0
1.42766833305358887 0.714011847972869873 0
0.906095385551452637 1.17459893226623535 0
0.060834445059299469 1.96178019046783447 0
0.906823396682739258 1.04563117027282715 0
0.851091980934143066 1.11816978454589844 0
1.75848543643951416 0.631634116172790527 0
1.10860896110534668 0.764254152774810791 0
1.67955529689788818 0.661248147487640381 0
0.816467583179473877 0.814440488815307617 0
0.626240193843841553 1.2387927770614624 0
1.5940861701965332 0.703986525535583496 0
0.800994515419006348 1.06617653369903564 0
1.79068982601165771 0.349372625350952148 0
1.56237876415252686 0.469651341438293457 0
0.72194218635559082 1.33963561058044434 0
1.52022445201873779 0.786454200744628906 0
1.39293503761291504 0.928610801696777344 0
1.36203563213348389 0.678202986717224121 0
0.986480474472045898 0.834957301616668701 0
1.25395333766937256 0.54381406307220459 0
1.5704270601272583 0.410274893045425415 0
1.39857089519500732 0.82439112663269043 0
1.26303446292877197 0.679707467555999756 0
1.60146069526672363 0.21168634295463562 0
1.27697920799255371 0.157225832343101501 0
1.94652748107910156 0.429559856653213501 0
1.43668484687805176 0.433403432369232178 0
1.29685044288635254 0.722549915313720703 0
0.602019131183624268 1.13660073280334473 0
1.15500187873840332 0.803803920745849609 0
1.56136178970336914 0.550028860569000244 0
1.34659886360168457 0.600925028324127197 0
1.33132350444793701 0.358673125505447388 0
1.37759733200073242 0.491480797529220581 0
1.46930265426635742 0.58629608154296875 0
0.299679160118103027 1.72241544723510742 0
1.50668370723724365 0.580968856811523438 0
1.0702892541885376 0.438680022954940796 0
0.196558356285095215 1.73859512805938721 0
1.67449378967285156 0.252223163843154907 0
1.4284520149230957 0.794684529304504395 0
0.34140428900718689 1.65591156482696533 0
1.12094604969024658 0.426169931888580322 0
1.55051290988922119 0.365859389305114746 0
0.769772052764892578 0.974383234977722168 0
1.09469449520111084 0.848387002944946289 0
1.24658346176147461 0.645869731903076172 0
0.960058093070983887 1.19607138633728027 0
0.304969221353530884 1.56253504753112793 0
0.766977429389953613 1.31188750267028809 0
0.768337905406951904 1.10724103450775146 0
0.998894214630126953 0.757207751274108887 0
1.9154742956161499 0.416315555572509766 0
0.0820711702108383179 1.91423368453979492 0
0.935135424137115479 0.962769091129302979 0
1.37312209606170654 0.821697652339935303 0
1.23861169815063477 0.97680586576461792 0
1.33934128284454346 0.342052042484283447 0
1.30670607089996338 0.164976000785827637 0
0.838668525218963623 1.35250198841094971 0
1.42862725257873535 0.805309951305389404 0
0.686786770820617676 1.28289532661437988 0
1.25224900245666504 0.626436114311218262 0
