ply
format ascii 1.0
element vertex 708
property float x
property float y
property float z
end_header
0.030798301100730896 0.00360307144001126289 -0.0158998537808656693
0.0214235205203294754 0.00299604190513491631 -0.0175060220062732697
0.0202694926410913467 0.00284078065305948257 -0.0177235919982194901
0.0281732510775327682 0.00275039765983819962 -0.0165178701281547546
0.043343227356672287 0.00294264126569032669 -0.0141135435551404953
0.045874081552028656 0.00417790841311216354 -0.0134158609434962273
0.0393477678298950195 0.00352490996010601521 -0.0145907970145344734
0.0242961868643760681 0.00247186841443181038 -0.0171888973563909531
0.0322496145963668823 0.00219848193228244781 -0.0160205662250518799
0.0195223353803157806 0.00294349202886223793 -0.0178143605589866638
0.0101962611079216003 0.00297294696792960167 -0.0192560832947492599
0.0438058190047740936 0.00280087185092270374 -0.0140766138210892677
0.0458913557231426239 0.00369435129687190056 -0.0135323638096451759
0.0451363660395145416 0.0038393812719732523 -0.0136139178648591042
0.0509098879992961884 0.00200125668197870255 -0.0131699498742818832
0.037511531263589859 0.00255654007196426392 -0.0151147739961743355
0.0463890433311462402 0.00399180827662348747 -0.0133817214518785477
0.0395927093923091888 0.00280284672044217587 -0.0147307133302092552
0.0431721769273281097 0.00219915877096354961 -0.0143233723938465118
0.0414913929998874664 0.00188860774505883455 -0.0146610569208860397
0.022160608321428299 0.00302456831559538841 -0.0173844713717699051
0.0502224564552307129 0.00315954908728599548 -0.0129912616685032845
0.00872004404664039612 0.00250412384048104286 -0.019600994884967804
0.0494599044322967529 0.00293823960237205029 -0.0131642874330282211
0.050274968147277832 0.00317981839179992676 -0.0129781067371368408
0.0450856462121009827 0.00228456431068480015 -0.0140050267800688744
0.046971440315246582 0.00252089835703372955 -0.0136537821963429451
0.041217409074306488 0.00421951571479439735 -0.0141291078180074692
0.0487903133034706116 0.00404645130038261414 -0.0129951704293489456
0.0459550544619560242 0.00210142321884632111 -0.013915088027715683
0.0239393282681703568 0.00282286549918353558 -0.0171578284353017807
0.0485230870544910431 0.00300296139903366566 -0.0132938865572214127
0.0392607599496841431 0.00350861507467925549 -0.0146083319559693336
0.0367539785802364349 0.00206371606327593327 -0.0153539441525936127
0.0092840343713760376 0.00257819052785634995 -0.0194951146841049194
0.0318473950028419495 0.00322471978142857552 -0.0158301126211881638
0.0315968319773674011 0.00215769349597394466 -0.0161320418119430542
0.0102072171866893768 0.00283905863761901855 -0.0192873813211917877
0.0390820726752281189 0.00297571718692779541 -0.0147674428299069405
0.0163370631635189056 0.00317746633663773537 -0.0182515829801559448
0.00445699319243431091 0.0026615483220666647 -0.0202245395630598068
0.0383685119450092316 0.00401537911966443062 -0.0146220531314611435
0.024148792028427124 0.00247839582152664661 -0.0172101892530918121
0.0363566316664218903 0.00329535617493093014 -0.0151121066883206367
0.0285263583064079285 0.00202526524662971497 -0.0166417378932237625
0.0501122064888477325 0.00272117904387414455 -0.0131164407357573509
0.0192695409059524536 0.0023464476689696312 -0.0180007964372634888
0.0456955656409263611 0.00285861967131495476 -0.0137687725946307182
0.0477726757526397705 0.00392468739300966263 -0.0131832920014858246
0.0205956157296895981 0.00266618537716567516 -0.0177159570157527924
0.0231532789766788483 0.00229860004037618637 -0.0174091756343841553
0.0346905961632728577 0.00218101940117776394 -0.0156456157565116882
0.0225438736379146576 0.0034318799152970314 -0.0172245297580957413
0.0377695485949516296 0.00206254585646092892 -0.0151964444667100906
0.0424244441092014313 0.00350812985561788082 -0.0141169130802154541
0.0249679610133171082 0.00316535658203065395 -0.0169135946780443192
0.0238406732678413391 0.00250050844624638557 -0.0172526109963655472
0.0350863635540008545 0.00333910994231700897 -0.015298682264983654
0.0287964101880788803 0.00260371062904596329 -0.0164572056382894516
0.048657737672328949 0.00249805813655257225 -0.0133974133059382439
0.0276129618287086487 0.00244610756635665894 -0.0166799239814281464
0.037556283175945282 0.00222049490548670292 -0.0151906479150056839
0.0345945581793785095 0.00368516659364104271 -0.015289798378944397
0.0434233918786048889 0.00400888547301292419 -0.0138382818549871445
0.00414044782519340515 0.00249929912388324738 -0.0203137136995792389
0.0468555726110935211 0.00335281062871217728 -0.013466736301779747
0.0298546161502599716 0.00225853291340172291 -0.0163778718560934067
0.045532960444688797 0.0019713293295353651 -0.0140127344056963921
0.0228849612176418304 0.00222502229735255241 -0.0174690000712871552
0.0489364638924598694 0.00345944007858633995 -0.0131171485409140587
0.0170219317078590393 0.00254509830847382545 -0.0183010399341583252
0.0455330982804298401 0.00401223497465252876 -0.013509673997759819
0.0291616767644882202 0.00206726789474487305 -0.0165326762944459915
0.0316134914755821228 0.00295930332504212856 -0.0159318726509809494
0.0424877628684043884 0.00433373171836137772 -0.013903583399951458
0.00565021485090255737 0.00259760208427906036 -0.020054912194609642
0.0446761325001716614 0.0023606414906680584 -0.0140499016270041466
0.045605294406414032 0.00318823405541479588 -0.0137015562504529953
0.029893750324845314 0.00228451681323349476 -0.0163653865456581116
0.038415856659412384 0.00410174299031496048 -0.0145934103056788445
0.0459506362676620483 0.00233561266213655472 -0.0138580519706010818
0.0432372540235519409 0.00298111536540091038 -0.0141205256804823875
0.0442900955677032471 0.0017764196963980794 -0.0142538780346512794
0.0321660861372947693 0.00318845175206661224 -0.0157895386219024658
0.0498710088431835175 0.00452485494315624237 -0.0127093484625220299
0.0187057480216026306 0.00248247990384697914 -0.0180548615753650665
0.0377172306180000305 0.00208188453689217567 -0.0151998056098818779
0.0428041331470012665 0.00178920081816613674 -0.0144816003739833832
0.0376675911247730255 0.00254029454663395882 -0.0150945307686924934
0.0207738764584064484 0.00320107443258166313 -0.0175564214587211609
0.0420646145939826965 0.00258196284994482994 -0.0144010987132787704
0.0487863421440124512 0.00362171302549540997 -0.0131004760041832924
0.0344496481120586395 0.00214645639061927795 -0.0156915728002786636
0.0501751601696014404 0.00355760124512016773 -0.0129004986956715584
0.0475105307996273041 0.00388381513766944408 -0.0132340947166085243
0.0264504160732030869 0.00314461789093911648 -0.0166883803904056549
0.0309768375009298325 0.00257258513011038303 -0.0161261074244976044
0.0436098501086235046 0.00290127401240170002 -0.0140823144465684891
0.040977180004119873 0.00253330939449369907 -0.0145820453763008118
0.022101130336523056 0.00318321911618113518 -0.0173546075820922852
0.0347834490239620209 0.00204909010790288448 -0.0156637076288461685
0.0441009849309921265 0.00205405615270137787 -0.0142148276790976524
0.0409643836319446564 0.00269113574177026749 -0.0145451324060559273
0.0315534397959709167 0.00238020601682364941 -0.0160839371383190155
0.0497351586818695068 0.00239827996119856834 -0.0132546089589595795
0.00172410346567630768 0.0136466240510344505 -0.0155464485287666321
0.0167394522577524185 0.0127467084676027298 -0.0133175309747457504
0.0115411989390850067 0.0130751319229602814 -0.0140742221847176552
0.0171313527971506119 0.0105819264426827431 -0.0151563771069049835
0.0338593050837516785 0.00924131833016872406 -0.0129727227613329887
0.00248241610825061798 0.013332003727555275 -0.0156723503023386002
0.0115869287401437759 0.0111306067556142807 -0.0157877057790756226
0.0118378987535834312 0.012025575153529644 -0.0149442516267299652
0.0205821488052606583 0.0119444383308291435 -0.0132538266479969025
0.0170463528484106064 0.0126547757536172867 -0.0133371222764253616
0.0221019051969051361 0.0111746760085225105 -0.0136294877156615257
0.0124434493482112885 0.0122295357286930084 -0.0146415159106254578
0.0068165995180606842 0.0145823210477828979 -0.0136911580339074135
0.00351342558860778809 0.0146077349781990051 -0.0143343610689043999
0.0231872480362653732 0.0110212508589029312 -0.0135466717183589935
0.0450287461280822754 0.00815727189183235168 -0.0116820288822054863
0.000737875699996948242 0.0146284028887748718 -0.0148754306137561798
0.00727819837629795074 0.012900838628411293 -0.0150877917185425758
0.00474979914724826813 0.0131502002477645874 -0.0153764467686414719
0.0416120029985904694 0.00891747139394283295 -0.0116971563547849655
0.00276287458837032318 0.0122545454651117325 -0.0165703725069761276
0.0403334945440292358 0.0089261205866932869 -0.0119471633806824684
0.00450213812291622162 0.0122315259650349617 -0.0162402335554361343
0.00306860450655221939 0.0124810449779033661 -0.0163080934435129166
0.00012500956654548645 0.0139522301033139229 -0.0155979841947555542
0.0176306143403053284 0.0118617173284292221 -0.013921959325671196
0.00116401445120573044 0.0128709403797984123 -0.0163465254008769989
0.00661611650139093399 0.0114591438323259354 -0.0164984595030546188
0.000463228672742843628 0.0153257399797439575 -0.0143129955977201462
0.00134808383882045746 0.0136818466708064079 -0.0155910253524780273
0.015078442171216011 0.0126700270920991898 -0.0137202218174934387
0.0149185173213481903 0.0115292016416788101 -0.0147631363943219185
0.0030904822051525116 0.0126271964982151985 -0.0161742046475410461
0.017221502959728241 0.0111551238223910332 -0.0146303987130522728
0.0209434200078248978 0.0116886664181947708 -0.0134076112881302834
0.0287397671490907669 0.0104957558214664459 -0.0128931719809770584
0.0129780955612659454 0.0134940296411514282 -0.013413519598543644
0.0395157262682914734 0.00876629352569580078 -0.0122535703703761101
0.0148721719160676003 0.0107661988586187363 -0.015448438934981823
0.00485636387020349503 0.011849268339574337 -0.0165074951946735382
0.00037042517215013504 0.0129922637715935707 -0.0163989812135696411
0.0185696855187416077 0.0108154602348804474 -0.0146596049889922142
0.0353060215711593628 0.00946719199419021606 -0.0124810459092259407
0.0316233895719051361 0.00990982167422771454 -0.0128311030566692352
0.012112841010093689 0.0133501105010509491 -0.0137154050171375275
0.00657218322157859802 0.0135004855692386627 -0.0146988406777381897
6.5717846155166626e-05 0.015214432030916214 -0.014491720125079155
0.00670383498072624207 0.014007185585796833 -0.0142234098166227341
0.00350884534418582916 0.0123079288750886917 -0.0163727346807718277
0.0290924571454524994 0.00997972581535577774 -0.0132792545482516289
0.0234258808195590973 0.0100969849154353142 -0.0143174063414335251
0.0346361845731735229 0.0101527012884616852 -0.0120087349787354469
0.00238059647381305695 0.0121763171628117561 -0.0167167168110609055
0.0131772672757506371 0.0119385365396738052 -0.0147514268755912781
0.0155952190980315208 0.0113501120358705521 -0.0147854136303067207
0.00500758178532123566 0.0131048476323485374 -0.015364672988653183
0.00625006109476089478 0.011726810596883297 -0.0163350999355316162
0.0288439393043518066 0.0100006228312849998 -0.0133108273148536682
0.0036818324588239193 0.0117185721173882484 -0.0168599970638751984
0.0228955261409282684 0.0107165798544883728 -0.0138753810897469521
0.0226001106202602386 0.0106966830790042877 -0.0139525448903441429
0.011214056983590126 0.0122132524847984314 -0.014903712086379528
0.0208695158362388611 0.0115543622523546219 -0.0135414889082312584
0.00421035848557949066 0.0139336157590150833 -0.0147911198437213898
0.00748300179839134216 0.0125812254846096039 -0.0153296682983636856
0.00168278999626636505 0.01340499147772789 -0.0157688427716493607
0.000431083142757415771 0.0156708192080259323 -0.0140137607231736183
0.000731133855879306793 0.0126512916758656502 -0.0166283603757619858
0.00759364664554595947 0.0133974356576800346 -0.0145842703059315681
0.0242469273507595062 0.0117650656029582024 -0.0126741435378789902
0.029287826269865036 0.0103154722601175308 -0.0129424352198839188
0.0296396873891353607 0.010591849684715271 -0.01262667216360569
0.0164448898285627365 0.010575425811111927 -0.015300484374165535
0.00149028003215789795 0.014897715300321579 -0.0144852027297019958
0.0198574140667915344 0.0118653597310185432 -0.0134699465706944466
0.0461525395512580872 0.00804650411009788513 -0.0115536730736494064
0.00781193003058433533 0.0136567316949367523 -0.0143105611205101013
0.00882416218519210815 0.0113722067326307297 -0.0161304697394371033
0.0286253318190574646 0.0111841438338160515 -0.0123063763603568077
0.00132121425122022629 0.0125320795923471451 -0.0166150461882352829
0.0119673069566488266 0.0117237186059355736 -0.0151855926960706711
0.0198998786509037018 0.0104238856583833694 -0.0147384237498044968
0.0218563452363014221 0.0116480309516191483 -0.01325962133705616
0.0137542281299829483 0.0119692403823137283 -0.0146079454571008682
0.0187108926475048065 0.012747117318212986 -0.0129198450595140457
0.000468675047159194946 0.0130934435874223709 -0.016289539635181427
0.03149443119764328 0.00933439005166292191 -0.0133668817579746246
0.00394209288060665131 0.0119393616914749146 -0.0166119411587715149
0.0108224451541900635 0.0129869850352406502 -0.0142971696332097054
0.0165867693722248077 0.0130878929048776627 -0.0130460383370518684
0.00283386185765266418 0.013545389287173748 -0.0154124759137630463
0.0153643377125263214 0.0131701361387968063 -0.0132195446640253067
0.0290118884295225143 0.0101024750620126724 -0.0131867444142699242
0.0346614234149456024 0.00994388014078140259 -0.0121886478736996651
0.0187910981476306915 0.0123578589409589767 -0.0132485339418053627
0.0203982070088386536 0.0111800599843263626 -0.0139680793508887291
0.0307648107409477234 0.0101772584021091461 -0.0127672106027603149
0.0240680333226919174 0.011670977808535099 -0.0127935511991381645
0.00133052747696638107 0.0126829613000154495 -0.0164794996380805969
0.011751122772693634 0.0134951937943696976 -0.0136597715318202972
0.00411923415958881378 0.0121676633134484291 -0.0163739807903766632
0.0298458598554134369 0.00946847628802061081 -0.0135803427547216415
0.00792578049004077911 0.0130788972601294518 -0.0147995315492153168
0.00766511866822838783 0.0114589082077145576 -0.0162872504442930222
0.00267748534679412842 0.0148998387157917023 -0.0142440525814890862
0.0107818730175495148 0.0122776776552200317 -0.0149337379261851311
0.0304806269705295563 0.00990960560739040375 -0.0130616053938865662
0.00990407168865203857 0.0137637825682759285 -0.0137940747663378716
0.00773489847779273987 0.013170214369893074 -0.0147571023553609848
0.0302211921662092209 0.0106626600027084351 -0.0124467425048351288
0.0277345199137926102 0.0105926766991615295 -0.0130099039524793625
0.013837471604347229 0.0118470992892980576 -0.0146993771195411682
0.0285521429032087326 0.00954925548285245895 -0.0137695120647549629
0.00930624734610319138 0.0113989096134901047 -0.0160096548497676849
0.0289848931133747101 0.00973638705909252167 -0.0135165117681026459
0.00566778983920812607 0.0125533947721123695 -0.0157201588153839111
0.00802305713295936584 0.0121551211923360825 -0.0155983222648501396
0.0120937321335077286 0.0128100132569670677 -0.014197738841176033
0.0193569660186767578 0.0113216284662485123 -0.0140525111928582191
0.0103444419801235199 0.0136084249243140221 -0.0138429589569568634
0.00391129031777381897 0.0148489242419600487 -0.0140405008569359779
0.010455375537276268 0.0125684160739183426 -0.0147419683635234833
0.00159636512398719788 0.0141082219779491425 -0.015163252130150795
0.00633288547396659851 0.0138243287801742554 -0.0144601669162511826
0.0078263087198138237 0.0124625256285071373 -0.0153656387701630592
0.000423157587647438049 0.0134679954499006271 -0.0159668903797864914
0.00632348470389842987 0.0137528926134109497 -0.0145253492519259453
0.0145392194390296936 0.0131101496517658234 -0.0134389810264110565
0.0136317946016788483 0.0130381835624575615 -0.0136856194585561752
0.0240668263286352158 0.00997357815504074097 -0.0142975598573684692
0.00748734641820192337 0.0121724745258688927 -0.0156909152865409851
0.0140954814851284027 0.013162761926651001 -0.0134818004444241524
0.00576825812458992004 0.0131226098164916039 -0.0151956314221024513
0.00739945098757743835 0.0137895923107862473 -0.0142759867012500763
0.0318640097975730896 0.0103177148848772049 -0.0124212456867098808
0.00880559533834457397 0.0120942704379558563 -0.0154945198446512222
0.00216694548726081848 0.0144440876320004463 -0.0147507078945636749
0.0354930944740772247 0.00963898003101348877 -0.0122911529615521431
0.0174472667276859283 0.0129173137247562408 -0.013023735024034977
0.0162100605666637421 0.011313706636428833 -0.0146937528625130653
0.0264816451817750931 0.0105937924236059189 -0.0132614178583025932
0.0149744413793087006 0.0108507527038455009 -0.015352918766438961
0.0227289851754903793 0.0106218066066503525 -0.0139929056167602539
0.00848044268786907196 0.0135852498933672905 -0.0142391566187143326
0.0143271870911121368 0.0127672711387276649 -0.0137854777276515961
0.0117355901747941971 0.0130547909066081047 -0.0140530634671449661
0.00631744973361492157 0.013554857112467289 -0.0147020099684596062
0.0349918976426124573 0.00993655156344175339 -0.0121285375207662582
0.00234728772193193436 0.0125722652301192284 -0.0163726527243852615
0.00800000689923763275 0.0126233268529176712 -0.0151881743222475052
0.0027256011962890625 0.0147605240345001221 -0.0143577773123979568
0.0239563081413507462 0.011129315011203289 -0.0132959391921758652
0.0208469107747077942 0.0106362169608473778 -0.0143594508990645409
0.0091958269476890564 0.0134261399507522583 -0.0142359398305416107
0.0158381201326847076 0.0123204728588461876 -0.0138767948374152184
0.0146254468709230423 0.0121736694127321243 -0.0142512517049908638
0.0145090892910957336 0.0133177358657121658 -0.0132611477747559547
0.0330225378274917603 0.00941126886755228043 -0.0129907997325062752
0.00201879441738128662 0.0142545457929372787 -0.0149484854191541672
0.0268007777631282806 0.00987480580806732178 -0.013834068551659584
0.015308150090277195 0.0110236955806612968 -0.0151324495673179626
0.0190433505922555923 0.0117842033505439758 -0.0137059101834893227
0.0109355151653289795 0.0139966020360589027 -0.0133799389004707336
0.00212790071964263916 0.0126593718305230141 -0.0163396969437599182
0.00514514371752738953 0.0137148760259151459 -0.0147965094074606895
0.0175769403576850891 0.0123442392796278 -0.0135053014382719994
0.0103681692853569984 0.0113718193024396896 -0.0158196371048688889
0.0158300269395112991 0.0116555765271186829 -0.0144674722105264664
0.0142349880188703537 0.0127314236015081406 -0.0138358175754547119
0.00812291353940963745 0.0136343138292431831 -0.0142677463591098785
0.0231028683483600616 0.0100372349843382835 -0.0144354403018951416
0.0177696105092763901 0.0126642342656850815 -0.0131829790771007538
0.0146994674578309059 0.0108678881078958511 -0.0153931565582752228
0.00216329470276832581 0.0137464692816138268 -0.0153694795444607735
0.0395729131996631622 0.0084012988954782486 -0.0125044537708163261
0.0220634825527667999 0.00918599031865596771 -0.0150756770744919777
0.0128693170845508575 0.0104345344007015228 -0.0159867890179157257
0.0361545160412788391 0.00774607574567198753 -0.0134307295083999634
0.0187895521521568298 0.00966128520667552948 -0.0153839979320764542
0.0196812339127063751 0.00922892056405544281 -0.0154590057209134102
0.0415948331356048584 0.00803480949252843857 -0.0123523306101560593
0.0349512696266174316 0.00818371027708053589 -0.0134060373529791832
0.0244369562715291977 0.00882475078105926514 -0.0148609038442373276
0.0262130163609981537 0.00933264195919036865 -0.0142917558550834656
0.0434904471039772034 0.00642804568633437157 -0.0128726707771420479
0.0336898863315582275 0.00846370775252580643 -0.01347398292273283
0.0300961956381797791 0.00937970820814371109 -0.0136054810136556625
0.041391029953956604 0.00776791758835315704 -0.01252712681889534
0.0465470515191555023 0.00542335491627454758 -0.0128792226314544678
0.0258217975497245789 0.00838910415768623352 -0.0148536153137683868
0.0296634901314973831 0.00826893188059329987 -0.0142621807754039764
0.0258222911506891251 0.00835843384265899658 -0.0148696275427937508
0.0465530753135681152 0.00761849712580442429 -0.0117260981351137161
0.0466566197574138641 0.00584354763850569725 -0.0126400226727128029
0.0241800863295793533 0.00958808325231075287 -0.0145040377974510193
0.0489557757973670959 0.00521550560370087624 -0.0125779397785663605
0.0292346030473709106 0.00929659977555274963 -0.0137958880513906479
0.0429309681057929993 0.00684086466208100319 -0.0127513259649276733
0.0310814566910266876 0.00919650588184595108 -0.013533775694668293
0.028771471232175827 0.00920614507049322128 -0.0139222666621208191
0.0250506047159433365 0.00881984177976846695 -0.0147589333355426788
0.0247964989393949509 0.00947602000087499619 -0.0144578367471694946
0.0369963273406028748 0.00837347563356161118 -0.0129580255597829819
0.0365563109517097473 0.00779724353924393654 -0.0133354216814041138
0.0479279607534408569 0.00564451888203620911 -0.0125278839841485023
0.0157392211258411407 0.00984786730259656906 -0.0158057548105716705
0.0384796485304832458 0.00673934537917375565 -0.0135629717260599136
0.0368034690618515015 0.00695215445011854172 -0.0137368505820631981
0.0168138332664966583 0.00998347997665405273 -0.0155514981597661972
0.034755270928144455 0.00777261750772595406 -0.0136551866307854652
0.0398654378950595856 0.00683388113975524902 -0.0132772605866193771
0.0506955422461032867 0.00661336444318294525 -0.0115478849038481712
0.0097444877028465271 0.0110980691388249397 -0.0161709114909172058
0.0214597880840301514 0.0100778015330433846 -0.0147104682400822639
0.0436350069940090179 0.00637520803138613701 -0.012875773012638092
0.0432244725525379181 0.00622567674145102501 -0.0130241960287094116
0.0500775799155235291 0.00518397754058241844 -0.0124033661559224129
0.0196492001414299011 0.00945392251014709473 -0.0153463734313845634
0.0359875895082950592 0.00692937150597572327 -0.0138878077268600464
0.0301376786082983017 0.00906762946397066116 -0.0137622058391571045
0.0387997105717658997 0.0083403000608086586 -0.012668197974562645
0.0474944338202476501 0.00618449226021766663 -0.012318342924118042
0.0208877865225076675 0.00903961155563592911 -0.0153528042137622833
0.0289009623229503632 0.00941718090325593948 -0.013789445161819458
0.0435811169445514679 0.00613027391955256462 -0.0130135063081979752
0.0356277301907539368 0.00830206368118524551 -0.0132286716252565384
0.0508830025792121887 0.00551062729209661484 -0.0120947090908885002
0.0313314124941825867 0.00790289603173732758 -0.0141701297834515572
0.0486499480903148651 0.00773609662428498268 -0.0113071352243423462
0.0330143719911575317 0.00904200784862041473 -0.0132855549454689026
0.0151067934930324554 0.0104202106595039368 -0.0156131098046898842
0.0145571529865264893 0.00998743530362844467 -0.0159338898956775665
0.0160303078591823578 0.0105362897738814354 -0.0153948487713932991
0.0460288822650909424 0.00752775697037577629 -0.0118630276992917061
0.029897613450884819 0.00774041004478931427 -0.0144996838644146919
0.049198150634765625 0.00765570718795061111 -0.011255929246544838
0.034284248948097229 0.0085641760379076004 -0.0133199915289878845
0.00786495581269264221 0.0109381629154086113 -0.0165750514715909958
0.0493039414286613464 0.0071499519981443882 -0.0115033471956849098
0.0270816776901483536 0.00822225399315357208 -0.0147265400737524033
0.0384549163281917572 0.0065256897360086441 -0.0136793209239840508
0.0334256365895271301 0.00871831830590963364 -0.0133853722363710403
0.0361725613474845886 0.00788432266563177109 -0.0133550968021154404
0.0448454320430755615 0.00586400087922811508 -0.0129378568381071091
0.0442888475954532623 0.00803801044821739197 -0.011891673319041729
0.016192849725484848 0.00983183551579713821 -0.0157368835061788559
0.0230400171130895615 0.00946489628404378891 -0.0147629240527749062
0.0049439258873462677 0.0115296533331274986 -0.0167622659355401993
0.0288187228143215179 0.00818733964115381241 -0.0144489267840981483
0.0340403392910957336 0.00785492733120918274 -0.013733789324760437
0.0391418039798736572 0.00838674884289503098 -0.0125855375081300735
0.0429292842745780945 0.00701700290665030479 -0.0126591678708791733
0.0185481980443000793 0.0100450534373521805 -0.0152236996218562126
0.0264338962733745575 0.00941842887550592422 -0.0142091009765863419
0.0417985767126083374 0.00709574110805988312 -0.0128104798495769501
0.0359968580305576324 0.00795165542513132095 -0.0133496932685375214
0.0205885525792837143 0.0101839154958724976 -0.0148032074794173241
0.0122523419559001923 0.0107143130153417587 -0.015945063903927803
0.0287245195358991623 0.00876849517226219177 -0.0141599616035819054
0.0408799275755882263 0.00713298888877034187 -0.0129474392160773277
0.0425434894859790802 0.00744424480944871902 -0.0125006604939699173
0.0343166142702102661 0.00830120407044887543 -0.013452497310936451
0.0247213635593652725 0.00953724049031734467 -0.0144385062158107758
0.0445621497929096222 0.00776289124041795731 -0.0119895050302147865
0.0348217934370040894 0.00799260009080171585 -0.0135283991694450378
0.0301441233605146408 0.0083586275577545166 -0.0141332205384969711
0.0142331942915916443 0.0101568959653377533 -0.0159001424908638
0.0179200991988182068 0.0102768177166581154 -0.0152090694755315781
0.0182821489870548248 0.00996570754796266556 -0.0153106711804866791
0.0352580174803733826 0.00815923232585191727 -0.0133666237816214561
0.0308198016136884689 0.00867963209748268127 -0.0138496300205588341
0.0113180205225944519 0.0109522547572851181 -0.0159793607890605927
0.0182158127427101135 0.00956364814192056656 -0.0155329890549182892
0.049682222306728363 0.00564649282023310661 -0.0122279766947031021
0.0306231454014778137 0.00835610739886760712 -0.01405293308198452
0.0328651294112205505 0.00883425306528806686 -0.0134200183674693108
0.0360808223485946655 0.00838554464280605316 -0.0131076658144593239
0.040137171745300293 0.00754598341882228851 -0.0128572247922420502
0.0474267974495887756 0.00767002906650304794 -0.0115501955151557922
0.0369252488017082214 0.00802377611398696899 -0.0131536722183227539
0.016996774822473526 0.0102774575352668762 -0.0153660392388701439
0.0500686466693878174 0.00507553666830062866 -0.0124618029221892357
0.024388439953327179 0.00980756897479295731 -0.014353347010910511
0.0336515530943870544 0.00845519360154867172 -0.0134849818423390388
0.0448001809418201447 0.00704301521182060242 -0.0123267723247408867
0.0470474213361740112 0.00915337260812520981 -0.0103927189484238625
0.023136751726269722 0.0122954742982983589 -0.0124279847368597984
0.0230253413319587708 0.0129248052835464478 -0.0118928998708724976
0.0208108648657798767 0.0128826992586255074 -0.0123765049502253532
0.0209635291248559952 0.0128692565485835075 -0.0123576465994119644
0.0404650866985321045 0.0105861332267522812 -0.0104499990120530128
0.0292760655283927917 0.0115524139255285263 -0.0118489693850278854
0.0212055183947086334 0.0125130489468574524 -0.0126244481652975082
0.0335661917924880981 0.0111022135242819786 -0.0113831870257854462
0.0261968132108449936 0.0117653077468276024 -0.0122809512540698051
0.0385772548615932465 0.00962031446397304535 -0.0116861108690500259
0.0499980486929416656 0.00806839019060134888 -0.0107592642307281494
0.0167585350573062897 0.0138436499983072281 -0.0123418774455785751
0.0291357133537530899 0.0118504641577601433 -0.0116132069379091263
0.0478345863521099091 0.00866244267672300339 -0.0106690004467964172
0.0455355346202850342 0.00987672433257102966 -0.0100565897300839424
0.0397126674652099609 0.00948129594326019287 -0.0115804411470890045
0.0373667813837528229 0.0113360993564128876 -0.0104100154712796211
0.00731952488422393799 0.0149570778012275696 -0.0132577931508421898
0.047452293336391449 0.00883597973734140396 -0.0105923069640994072
0.043341122567653656 0.00992405600845813751 -0.010456915944814682
0.037255067378282547 0.00987994112074375153 -0.0117225740104913712
0.0439819768071174622 0.00904175546020269394 -0.0111094089224934578
0.0350524969398975372 0.0107661150395870209 -0.011381395161151886
0.0469829365611076355 0.00962526258081197739 -0.00998765788972377777
0.0387178733944892883 0.01114695705473423 -0.0103052845224738121
0.0411525517702102661 0.0104786045849323273 -0.0104067111387848854
0.0475919395685195923 0.00885484274476766586 -0.0105474507436156273
0.0474302023649215698 0.00846129748970270157 -0.010928700678050518
0.0313336700201034546 0.0117695452645421028 -0.0112419212237000465
0.0474712736904621124 0.00854542385786771774 -0.0108458921313285828
0.0391029790043830872 0.0101140560582280159 -0.0111427409574389458
0.0444462411105632782 0.00984547100961208344 -0.010303812101483345
0.0402570292353630066 0.010468129999935627 -0.0105964727699756622
0.0433780848979949951 0.0108330836519598961 -0.00964413862675428391
0.0376966819167137146 0.0104965269565582275 -0.011087324470281601
0.0186558663845062256 0.0135236512869596481 -0.0122429868206381798
0.0376949384808540344 0.00996062345802783966 -0.0115624433383345604
0.0440514497458934784 0.00948686059564352036 -0.0107010789215564728
0.0367739498615264893 0.010354507714509964 -0.0113991079851984978
0.0371791794896125793 0.0100135169923305511 -0.01161953154951334
0.0156327821314334869 0.013566131703555584 -0.0128146205097436905
0.0156140774488449097 0.0136675946414470673 -0.0127285029739141464
0.0202178750187158585 0.0132085494697093964 -0.0122073367238044739
0.0446285344660282135 0.00943476613610982895 -0.0106309261173009872
0.0298218410462141037 0.0117969335988163948 -0.011522349901497364
0.0158198587596416473 0.0133622754365205765 -0.0129575189203023911
0.0121854357421398163 0.0140817780047655106 -0.0130525734275579453
0.0477039515972137451 0.00980077404528856277 -0.00968685559928417206
0.0447875633835792542 0.0104974173009395599 -0.00965744815766811371
0.0459436811506748199 0.0104542113840579987 -0.00946272257715463638
0.0305196493864059448 0.0118169290944933891 -0.0113639999181032181
0.0239938031882047653 0.0121810780838131905 -0.0123566035181283951
0.0132807828485965729 0.0140729323029518127 -0.0128396544605493546
0.030648157000541687 0.0111122876405715942 -0.0119623579084873199
0.0195090584456920624 0.0132678188383579254 -0.0122976843267679214
0.0371817350387573242 0.0102041289210319519 -0.0114501481875777245
0.0493781343102455139 0.00912471581250429153 -0.00994837842881679535
0.0473422855138778687 0.00855575036257505417 -0.0108627388253808022
0.0489700771868228912 0.00801448896527290344 -0.0110141914337873459
0.0465115420520305634 0.0104994559660553932 -0.00930819381028413773
0.0123416781425476074 0.0138113424181938171 -0.0132606681436300278
0.0312485657632350922 0.0109625291079282761 -0.0119740273803472519
0.0491819940507411957 0.00881487317383289337 -0.0102624036371707916
0.0460410863161087036 0.00861129723489284515 -0.0110757723450660706
0.0196334347128868103 0.0127658210694789886 -0.0127173494547605515
0.0275231022387742996 0.0124857909977436066 -0.0113753592595458031
0.0461226925253868103 0.00848270207643508911 -0.0111732501536607742
0.0466818436980247498 0.0101271411404013634 -0.00960371363908052444
0.0446299798786640167 0.00898847170174121857 -0.0110260173678398132
0.029113132506608963 0.0116859804838895798 -0.0117634767666459084
0.0503578037023544312 0.00820969697088003159 -0.0105615733191370964
0.0390252433717250824 0.00985687505453824997 -0.0113862501457333565
0.0300195645540952682 0.0111643169075250626 -0.0120429489761590958
0.0467511937022209167 0.00900873355567455292 -0.0105805592611432076
0.026826249435544014 0.0124312750995159149 -0.0115640992298722267
0.0384026765823364258 0.0108880829066038132 -0.0105981500819325447
0.011635947972536087 0.0140675082802772522 -0.0131759569048881531
0.039854682981967926 0.010330595076084137 -0.0107994070276618004
0.0303581133484840393 0.0121135041117668152 -0.0111338123679161072
0.0469311289489269257 0.00914165005087852478 -0.0104265417903661728
0.0189087875187397003 0.0127605991438031197 -0.0128680188208818436
0.0421834960579872131 0.0101613858714699745 -0.0104799671098589897
0.0118879005312919617 0.0139870680868625641 -0.0131964422762393951
0.0259910468012094498 0.0117239942774176598 -0.0123590203002095222
0.0426572114229202271 0.00900352653115987778 -0.0114102689549326897
0.0370457209646701813 0.0101788900792598724 -0.0114999189972877502
0.0436473190784454346 0.0105230454355478287 -0.0098645482212305069
0.00471567735075950623 0.0151487803086638451 -0.0136127360165119171
0.0491523444652557373 0.00992790888994932175 -0.00928231608122587204
0.0412044450640678406 0.0104412827640771866 -0.0104293162003159523
0.0203546285629272461 0.0131902452558279037 -0.0121959922835230827
0.00796061381697654724 0.0146821942180395126 -0.0133721139281988144
0.0478416904807090759 0.00814596377313137054 -0.0111251296475529671
0.0260107535868883133 0.012716132216155529 -0.0114760929718613625
0.0292387660592794418 0.0114251282066106796 -0.0119692515581846237
0.0108406618237495422 0.0144651532173156738 -0.012983955442905426
0.0302943550050258636 0.0114205777645111084 -0.011760542169213295
0.0248866640031337738 0.0125369923189282417 -0.0118613447993993759
0.0163180716335773468 0.013594391755759716 -0.0126514723524451256
0.0365253984928131104 0.0114379487931728363 -0.0104893557727336884
0.0199526324868202209 0.0127500798553228378 -0.0126669630408287048
0.0355830565094947815 0.0113343596458435059 -0.0107710463926196098
0.021937299519777298 0.0123239178210496902 -0.0126445228233933449
0.00860218703746795654 0.0144206658005714417 -0.0134745072573423386
0.0316120684146881104 0.0121484594419598579 -0.0108501249924302101
0.0422289744019508362 0.0100155835971236229 -0.010599970817565918
0.0304537620395421982 0.0119706569239497185 -0.0112410876899957657
0.0456245243549346924 0.00863519031554460526 -0.0111385565251111984
0.0314067676663398743 0.0118009559810161591 -0.011199362576007843
0.0413388796150684357 0.0133620221167802811 -0.00625017145648598671
0.00527638942003250122 0.0190154332667589188 -0.0066847875714302063
0.0146004445850849152 0.0173675380647182465 -0.0070633571594953537
0.000681758858263492584 0.0190603584051132202 -0.00852093938738107681
0.0257121976464986801 0.0155648859217762947 -0.00708948541432619095
0.0314945243299007416 0.0146338623017072678 -0.00708451680839061737
0.0204338114708662033 0.01618996262550354 -0.00768678262829780579
0.00133950263261795044 0.0197048820555210114 -0.00654166098684072495
0.00458458997309207916 0.0188513025641441345 -0.00741185992956161499
0.0305146239697933197 0.0149311339482665062 -0.00671753846108913422
0.0108384378254413605 0.0185970794409513474 -0.0054217260330915451
0.0104513838887214661 0.0185655876994132996 -0.00566942384466528893
0.0111242420971393585 0.0179701317101716995 -0.00695326970890164375
0.0203003920614719391 0.0164597611874341965 -0.00703214341774582863
0.000376443378627300262 0.0189467966556549072 -0.00895026233047246933
0.0189247950911521912 0.0171992667019367218 -0.00566742429509758949
0.0118421316146850586 0.0177518874406814575 -0.00722333276644349098
0.00837568007409572601 0.0177977941930294037 -0.00857695937156677246
0.0152727449312806129 0.0170181505382061005 -0.00769861368462443352
0.0162926260381937027 0.0166614819318056107 -0.00820519868284463882
0.00886350125074386597 0.0182730443775653839 -0.00711630005389451981
0.0233632512390613556 0.0160491764545440674 -0.00681178411468863487
0.0131703773513436317 0.0169543363153934479 -0.00876124855130910873
0.0215365327894687653 0.0157947055995464325 -0.00825988035649061203
0.0254697147756814957 0.0157390125095844269 -0.00673350365832448006
0.0126814618706703186 0.0181718505918979645 -0.00575892068445682526
0.00918779522180557251 0.017976200208067894 -0.00776105886325240135
0.0172381028532981873 0.0167670417577028275 -0.0075246468186378479
0.0109278000891208649 0.0185108371078968048 -0.0056111128069460392
0.0322751514613628387 0.0143618425354361534 -0.00746968621388077736
0.0103938616812229156 0.0173188596963882446 -0.00898124463856220245
0.0386849194765090942 0.0138085931539535522 -0.00620168820023536682
0.0264393463730812073 0.0156881511211395264 -0.00645512063056230545
0.00313506275415420532 0.0197760313749313354 -0.00559019763022661209
0.0336654633283615112 0.0147584183141589165 -0.0058325459249317646
0.00735323503613471985 0.0184686928987503052 -0.00724290404468774796
0.0339591950178146362 0.0143596269190311432 -0.00675911316648125648
0.00805507320910692215 0.0180370490998029709 -0.00808248762041330338
0.0280653610825538635 0.0152561729773879051 -0.00690242648124694824
0.00339876115322113037 0.0197183545678853989 -0.00563010340556502342
0.000470480881631374359 0.0189688950777053833 -0.00885198544710874557
0.0314240828156471252 0.0150483865290880203 -0.0060214754194021225
0.00833117589354515076 0.0177338086068630219 -0.00876460690051317215
0.0130663076415657997 0.0172260887920856476 -0.0080889752134680748
0.04171733558177948 0.0132165504619479179 -0.00647274777293205261
0.0290064401924610138 0.0151279279962182045 -0.00684023415669798851
0.0393724068999290466 0.0137959793210029602 -0.0059424862265586853
0.0443334914743900299 0.0128155006095767021 -0.00641728797927498817
0.0218160878866910934 0.016611829400062561 -0.00598637247458100319
0.004246540367603302 0.0193790886551141739 -0.00616401620209217072
0.0288932044059038162 0.0153502514585852623 -0.00630218628793954849
0.0195256266742944717 0.0166192762553691864 -0.00694112759083509445
0.00362657755613327026 0.0197010263800621033 -0.0055788741447031498
0.00753340870141983032 0.0189069956541061401 -0.00601054821163415909
0.0033540576696395874 0.0188809353858232498 -0.00785721372812986374
0.00328194443136453629 0.0186941977590322495 -0.00838027335703372955
0.00585307180881500244 0.0192133635282516479 -0.00591755704954266548
0.0205291528254747391 0.0161234121769666672 -0.00782170519232749939
0.0113955531269311905 0.0178313199430704117 -0.00720386439934372902
0.00362657569348812103 0.0189300421625375748 -0.00761179393157362938
0.0205132178962230682 0.0164963696151971817 -0.00684507330879569054
0.0214329306036233902 0.0166276935487985611 -0.00610754359513521194
0.00072620343416929245 0.0190441831946372986 -0.00854468438774347305
0.00150509923696517944 0.0195032656192779541 -0.00700282864272594452
0.0212375912815332413 0.016681550070643425 -0.00604863464832305908
0.0408793836832046509 0.0132925575599074364 -0.00662881135940551758
0.00331255979835987091 0.0187940411269664764 -0.00810398906469345093
0.00925140082836151123 0.0180129483342170715 -0.00763710122555494308
0.00273887068033218384 0.0198297519236803055 -0.00561709422618150711
0.00158368423581123352 0.0187321342527866364 -0.00900270603597164154
0.0232457779347896576 0.0164457447826862335 -0.00581609969958662987
0.0353701561689376831 0.0144174173474311829 -0.00600649230182170868
0.0119948182255029678 0.0179667770862579346 -0.00659175915643572807
0.0111490655690431595 0.0181355588138103485 -0.00650651194155216217
0.0140310581773519516 0.0169013086706399918 -0.0085349278524518013
0.031444896012544632 0.0149480532854795456 -0.00627717655152082443
0.00204252451658248901 0.0200607012957334518 -0.00530436588451266289
0.00308767333626747131 0.0195145905017852783 -0.00629972619935870171
0.00678830314427614212 0.0182696618139743805 -0.00800803396850824356
0.00798001512885093689 0.0187732651829719543 -0.00617317669093608856
0.0116627290844917297 0.0180516317486763 -0.0065092938020825386
0.0273383241146802902 0.0153985433280467987 -0.00683632167056202888
0.0292774699628353119 0.0148898204788565636 -0.00735277449712157249
0.0165639892220497131 0.0172246433794498444 -0.00660482235252857208
0.0376935787498950958 0.0136562222614884377 -0.0070251859724521637
0.0306846797466278076 0.0145608345046639442 -0.00762159470468759537
0.00460494682192802429 0.0185564309358596802 -0.00818071421235799789
0.00286272168159484863 0.0196097325533628464 -0.00614454923197627068
0.0191564634442329407 0.0165812280029058456 -0.00719850277528166771
0.0230356566607952118 0.0159805808216333389 -0.00713202124461531639
0.032888755202293396 0.0146209215745329857 -0.00652551604434847832
0.0013559386134147644 0.0193064361810684204 -0.00758528057485818863
0.00683977268636226654 0.0181783456355333328 -0.00822691991925239563
0.0277839116752147675 0.0154092675074934959 -0.00661848206073045731
0.0152568928897380829 0.0172283574938774109 -0.0071510891430079937
0.00435508228838443756 0.0183744952082633972 -0.00876673497259616852
0.0322249718010425568 0.0148979490622878075 -0.00607743905857205391
0.027227349579334259 0.0155827216804027557 -0.00639788899570703506
0.0178774669766426086 0.0171566493809223175 -0.00622534099966287613
0.00495167262852191925 0.0182085279375314713 -0.00895055942237377167
0.0014657825231552124 0.0198658555746078491 -0.00606348458677530289
0.000831339508295059204 0.0191918686032295227 -0.00811053812503814697
0.0118946880102157593 0.0182532332837581635 -0.00587903568521142006
0.0143011398613452911 0.0172029305249452591 -0.00762472162023186684
0.00988654699176549911 0.0177660677582025528 -0.00801787152886390686
0.018576502799987793 0.0163912102580070496 -0.00794625747948884964
0.00609343033283948898 0.0180113818496465683 -0.0089846709743142128
0.0122030135244131088 0.0179993603378534317 -0.00641727820038795471
0.0446694977581501007 0.0128943910822272301 -0.00606632791459560394
0.0282530002295970917 0.0153164798393845558 -0.00666358880698680878
0.0201017819344997406 0.0160523653030395508 -0.00819084513932466507
0.0040957033634185791 0.0183227416127920151 -0.0090135401114821434
0.0142916850745677948 0.0180203597992658615 -0.00547335809096693993
0.00784618593752384186 0.0182999391108751297 -0.00747816497460007668
0.0222521480172872543 0.0157342124730348587 -0.00811495445668697357
0.00608837790787220001 0.0188454240560531616 -0.00678763678297400475
0.0046177031472325325 0.0183441787958145142 -0.00873495079576969147
0.0221222937107086182 0.0161958448588848114 -0.00695296935737133026
0.0255990549921989441 0.0156058138236403465 -0.00702969916164875031
0.0284236818552017212 0.0152689358219504356 -0.0067163403145968914
0.00327704101800918579 0.0193778853863477707 -0.00657962542027235031
0.00672148913145065308 0.0192016717046499252 -0.00557894958183169365
0.0253306794911623001 0.0155464652925729752 -0.00730035500600934029
0.0067667253315448761 0.0193223189562559128 -0.00524158822372555733
0.0272882096469402313 0.0154739962890744209 -0.00665868353098630905
0.00509091001003980637 0.0185471214354038239 -0.0079985298216342926
0.0106988083571195602 0.0180887356400489807 -0.00682152155786752701
0.0264812987297773361 0.0159368813037872314 -0.00578142749145627022
0.00916926376521587372 0.0175246037542819977 -0.00895970501005649567
0.00559334643185138702 0.018777802586555481 -0.00717652635648846626
0.00801678653806447983 0.0179558116942644119 -0.00831297971308231354
0.0234520193189382553 0.0156813561916351318 -0.00774388574063777924
0.0294816605746746063 0.0148484436795115471 -0.00737501122057437897
0.0427678301930427551 0.0130171896889805794 -0.00655152928084135056
0.010723259299993515 0.018456190824508667 -0.00584222329780459404
0.0205685440450906754 0.0167534742504358292 -0.0061436058022081852
0.008814200758934021 0.0175413712859153748 -0.00906653981655836105
0.0073763607069849968 0.0181586649268865585 -0.00805054139345884323
0.01232152059674263 0.0182798895984888077 -0.00562717020511627197
0.0102023454383015633 0.0178331919014453888 -0.0077065369114279747
0.0157477855682373047 0.017123539000749588 -0.00721864309161901474
0.0349925048649311066 0.0142054576426744461 -0.00672604469582438469
0.00987643469125032425 0.0177760794758796692 -0.00799577310681343079
0.0203803926706314087 0.0160134024918079376 -0.00817505922168493271
0.000972965732216835022 0.0195132717490196228 -0.00720282131806015968
0.0450005978345870972 0.0127057181671261787 -0.00642296485602855682
0.00383063033223152161 0.0196885578334331512 -0.00552494730800390244
0.0235071033239364624 0.0157389584928750992 -0.00756856938824057579
0.0274586882442235947 0.0156354643404483795 -0.00616040406748652458
0.00516343675553798676 0.0183815453201532364 -0.00840426236391067505
0.0345537178218364716 0.0145927630364894867 -0.00589147023856639862
0.0386003777384757996 0.0137350168079137802 -0.00643166061490774155
0.0312387160956859589 0.0145744094625115395 -0.00735010718926787376
0.00564416497945785522 0.019139433279633522 -0.00620136922225356102
0.00671983137726783752 0.0193343646824359894 -0.00522977253422141075
0.000994697213172912598 0.0191247705370187759 -0.00821796897798776627
0.000108968466520309448 0.0201910138130187988 -0.00578331947326660156
0.0386584363877773285 0.0139023261144757271 -0.00596580421552062035
0.0082387290894985199 0.0188878849148750305 -0.00576088577508926392
0.00928066298365592957 0.0188957992941141129 -0.00529676582664251328
0.0302154012024402618 0.0148103693500161171 -0.00716326106339693069
0.00741276144981384277 0.0190427284687757492 -0.0057039773091673851
0.0306743551045656204 0.014707198366522789 -0.00724005745723843575
0.0229878760874271393 0.0165526866912841797 -0.00564383110031485558
0.0010190207976847887 0.0186235848814249039 -0.00952914264053106308
0.0240700729191303253 0.0161982737481594086 -0.00611795810982584953
0.0245957393199205399 0.0155982356518507004 -0.00747650256380438805
0.00481175631284713745 0.0192493535578250885 -0.00626565283164381981
0.0272439327090978622 0.0156458765268325806 -0.00622431188821792603
0.00476493686437606812 0.0188397802412509918 -0.00736552104353904724
0.00494363531470298767 0.0187318939715623856 -0.00757397664710879326
0.0219658687710762024 0.0164716728031635284 -0.00629221973940730095
0.000953515991568565369 0.0191979072988033295 -0.00804264657199382782
0.0208804942667484283 0.0163178537040948868 -0.00715953856706619263
0.0216485336422920227 0.015940813347697258 -0.00782697740942239761
0.0346171706914901733 0.0139875207096338272 -0.00741557590663433075
0.0143058355897665024 0.0152365714311599731 -0.0109998332336544991
0.0152469025924801826 0.0147800669074058533 -0.011411287821829319
0.0211501959711313248 0.0143626425415277481 -0.0104483691975474358
0.0346335619688034058 0.0139905689284205437 -0.00740680750459432602
0.0217998698353767395 0.0146268345415592194 -0.00989309698343276978
0.0479059070348739624 0.0121364546939730644 -0.00656839041039347649
0.00428651832044124603 0.0165238566696643829 -0.0117955794557929039
0.00743052363395690918 0.0172836631536483765 -0.00985989626497030258
0.00659311376512050629 0.0161854010075330734 -0.0116733824834227562
0.00294227059930562973 0.0162175055593252182 -0.0125963808968663216
0.00785439647734165192 0.0165818389505147934 -0.0107641024515032768
0.00686680525541305542 0.0163275450468063354 -0.0113947717472910881
0.0272784307599067688 0.0139703433960676193 -0.00938931573182344437
0.0263906084001064301 0.0150612890720367432 -0.00804457627236843109
0.0147954355925321579 0.0158212687820196152 -0.0100227370858192444
0.00993394013494253159 0.0152166448533535004 -0.0121896900236606598
0.0015422329306602478 0.0169626642018556595 -0.0118886204436421394
0.0467235520482063293 0.0122827915474772453 -0.00667036743834614754
0.00590629503130912781 0.0171763170510530472 -0.0104201845824718475
0.000280560925602912903 0.0161558389663696289 -0.0133925545960664749
0.0330365747213363647 0.0141715556383132935 -0.00756869465112686157
0.037541709840297699 0.013487059623003006 -0.00736398808658123016
6.63101673126220703e-06 0.0185038596391677856 -0.0100636035203933716
0.00186002254486083984 0.0178780797868967056 -0.010478021577000618
0.00990859605371952057 0.0161775220185518265 -0.0108043495565652847
0.0272727478295564651 0.0145648177713155746 -0.00852958206087350845
0.0174381062388420105 0.0147039778530597687 -0.0109396316111087799
0.00977496802806854248 0.0171636734157800674 -0.0094111468642950058
0.0162171181291341782 0.0158562641590833664 -0.00959449820220470428
0.00334398634731769562 0.0163062680512666702 -0.0123611073940992355
0.02288103848695755 0.0147960204631090164 -0.0093608759343624115
0.00925725605338811874 0.0159418024122714996 -0.0113188140094280243
