ply
format ascii 1.0
element vertex 726
property float x
property float y
property float z
end_header
0.136153608560562134 0.0728935673832893372 -0.0405022688210010529
0.121433258056640625 0.0580087341368198395 -0.0577117651700973511
0.122065581381320953 0.0614077597856521606 -0.0539039149880409241
0.118288204073905945 0.0643328800797462463 -0.0498421564698219299
0.117001660168170929 0.0610989071428775787 -0.053340718150138855
0.120209157466888428 0.0574381314218044281 -0.0581479743123054504
0.125808492302894592 0.0625047534704208374 -0.0533176437020301819
0.123219743371009827 0.0635659918189048767 -0.0516227856278419495
0.11810709536075592 0.061575762927532196 -0.0529911518096923828
0.124857835471630096 0.0622519850730895996 -0.0534367114305496216
0.130598276853561401 0.0673002377152442932 -0.0486532188951969147
0.124977529048919678 0.0685714185237884521 -0.0461654402315616608
0.120082743465900421 0.065011925995349884 -0.049384385347366333
0.12409297376871109 0.0597781538963317871 -0.0561527684330940247
0.123580843210220337 0.0583266466856002808 -0.0577348917722702026
0.13792891800403595 0.0680318251252174377 -0.0491401888430118561
0.121965378522872925 0.0669769719243049622 -0.0474585108458995819
0.12798328697681427 0.0681908652186393738 -0.0471504777669906616
0.123896196484565735 0.0601686127483844757 -0.0556664168834686279
0.129018336534500122 0.0633555501699447632 -0.052918698638677597
0.118066839873790741 0.0580019056797027588 -0.0571082942187786102
0.120785124599933624 0.0604284889996051788 -0.0548015162348747253
0.137542366981506348 0.0680677443742752075 -0.0490285418927669525
0.129637941718101501 0.0673372894525527954 -0.0484360493719577789
0.124289602041244507 0.0614821575582027435 -0.0542219467461109161
0.120973013341426849 0.0579636469483375549 -0.0576802194118499756
0.124359056353569031 0.0587890185415744781 -0.0573426112532615662
0.103923305869102478 0.0599843785166740417 -0.0527087487280368805
0.106370501220226288 0.0677017197012901306 -0.0441591441631317139
0.0986071079969406128 0.0570482127368450165 -0.0553224235773086548
0.0992783308029174805 0.0569802485406398773 -0.0554986856877803802
0.0970355123281478882 0.0599620863795280457 -0.0517305657267570496
0.10963788628578186 0.0679699480533599854 -0.0443258173763751984
0.102057203650474548 0.0600651465356349945 -0.0523435547947883606
0.0995558500289916992 0.0600619576871395111 -0.0519826561212539673
0.108839906752109528 0.0668602660298347473 -0.0454901531338691711
0.0948754251003265381 0.0599934495985507965 -0.0513795353472232819
0.102686308324337006 0.0647909641265869141 -0.0469813607633113861
0.096719697117805481 0.0634415820240974426 -0.0476689897477626801
0.112297385931015015 0.0666884183883666992 -0.046192411333322525
0.0992151275277137756 0.0639241933822631836 -0.0474757365882396698
0.103434480726718903 0.0615704953670501709 -0.0508070215582847595
0.0942944735288619995 0.055540233850479126 -0.0564341433346271515
0.1104937344789505 0.0674288570880889893 -0.0450750067830085754
0.0989591553807258606 0.0581298954784870148 -0.0541254021227359772
0.0961478948593139648 0.0557682327926158905 -0.0564411617815494537
0.0944436937570571899 0.0629883632063865662 -0.0478603057563304901
0.102819062769412994 0.0623787529766559601 -0.0497845523059368134
0.0948504805564880371 0.0626118704676628113 -0.0483540855348110199
0.103638306260108948 0.0668272748589515686 -0.0447700917720794678
0.104719504714012146 0.0649053603410720825 -0.0471456758677959442
0.0955201312899589539 0.0616800077259540558 -0.0495271086692810059
0.103597618639469147 0.0538486652076244354 -0.059742264449596405
0.114561356604099274 0.063798271119594574 -0.0498577989637851715
0.115776613354682922 0.0628359615802764893 -0.0511454902589321136
0.115491308271884918 0.0568461790680885315 -0.0580164790153503418
0.100388854742050171 0.0565510019659996033 -0.0561559312045574188
0.11217760294675827 0.0583163686096668243 -0.0558368079364299774
0.107731223106384277 0.0609233304858207703 -0.0521801523864269257
0.109740793704986572 0.0588088035583496094 -0.054913349449634552
0.112285763025283813 0.0642867162823677063 -0.0489624328911304474
0.106040678918361664 0.0555240735411643982 -0.0581648275256156921
0.10949244350194931 0.0550511851906776428 -0.0592136681079864502
0.109191320836544037 0.058712545782327652 -0.0549443438649177551
0.112194284796714783 0.0646395683288574219 -0.0485418811440467834
0.102428235113620758 0.0567076578736305237 -0.0562723763287067413
0.111528888344764709 0.0548058263957500458 -0.0597936473786830902
0.0949865728616714478 0.0529462173581123352 -0.0595286749303340912
0.102911829948425293 0.056832142174243927 -0.056199200451374054
0.109456688165664673 0.0612166114151477814 -0.0520931705832481384
0.095189310610294342 0.0531552582979202271 -0.059316977858543396
0.115151196718215942 0.067134462296962738 -0.0460935942828655243
0.101353056728839874 0.056616663932800293 -0.0562206804752349854
0.112583808600902557 0.0645520016551017761 -0.0486997105181217194
0.108260579407215118 0.0617987290024757385 -0.0512470416724681854
0.112335577607154846 0.0606275051832199097 -0.0531926453113555908
0.10815979540348053 0.0558419041335582733 -0.0581068955361843109
0.108617797493934631 0.0584003031253814697 -0.0552210919559001923
0.10214417427778244 0.0706858336925506592 -0.0370283909142017365
0.113488882780075073 0.0705622434616088867 -0.0399056077003479004
0.101766608655452728 0.0709490999579429626 -0.0363651663064956665
0.0976746454834938049 0.0676055103540420532 -0.042746424674987793
0.114137820899486542 0.0690322369337081909 -0.0434049591422080994
0.108184412121772766 0.0705205649137496948 -0.038778107613325119
0.113606929779052734 0.07514982670545578 -0.0298873297870159149
0.108858287334442139 0.0720121487975120544 -0.0356668159365653992
0.0995413735508918762 0.069308646023273468 -0.0394459739327430725
0.106256298720836639 0.068220876157283783 -0.0433707162737846375
0.0990597903728485107 0.0678804144263267517 -0.042462717741727829
0.106916896998882294 0.0687387287616729736 -0.0423885509371757507
0.111127115786075592 0.0685830488801002502 -0.0436967909336090088
0.112198203802108765 0.0720161199569702148 -0.036425519734621048
0.0956852957606315613 0.0681354105472564697 -0.0411290191113948822
0.115654371678829193 0.071806885302066803 -0.0376777723431587219
0.10873778909444809 0.0712506696581840515 -0.0373065359890460968
0.113731883466243744 0.0744401663541793823 -0.031469978392124176
0.111372917890548706 0.0752771496772766113 -0.029095236212015152
0.107568293809890747 0.0693457946181297302 -0.0412089340388774872
0.108815774321556091 0.0728784725069999695 -0.0337600819766521454
0.101460471749305725 0.0696212425827980042 -0.0392024368047714233
0.106281891465187073 0.0718756541609764099 -0.0353737510740756989
0.111905366182327271 0.070140451192855835 -0.0404653884470462799
0.11257220059633255 0.0751269310712814331 -0.0296997316181659698
0.136010691523551941 0.0796947404742240906 -0.0245398916304111481
0.132436782121658325 0.0791952610015869141 -0.0251738056540489197
0.127100482583045959 0.0800055935978889465 -0.0213311184197664261
0.132159382104873657 0.0799389854073524475 -0.0228147357702255249
0.134171351790428162 0.0785751044750213623 -0.0275208670645952225
0.132663160562515259 0.0777994617819786072 -0.0295268706977367401
0.131912380456924438 0.0779139772057533264 -0.0289846453815698624
0.1336660236120224 0.0803602486848831177 -0.0218990296125411987
0.13240930438041687 0.0780537426471710205 -0.0286800973117351532
0.126443192362785339 0.0783528387546539307 -0.0262516438961029053
0.132291287183761597 0.0803275853395462036 -0.0216521155089139938
0.12642708420753479 0.078556455671787262 -0.0256209149956703186
0.125947818160057068 0.0779854953289031982 -0.0272569917142391205
0.133366093039512634 0.0805155038833618164 -0.0213453918695449829
0.130764752626419067 0.0780590251088142395 -0.0282481834292411804
0.137967661023139954 0.0792739167809486389 -0.0263296514749526978
0.127613991498947144 0.0788928791880607605 -0.0248854756355285645
0.13901965320110321 0.078976757824420929 -0.0275101009756326675
0.126934140920639038 0.077897585928440094 -0.0277768485248088837
0.129342570900917053 0.0807425230741500854 -0.018764326348900795
0.138006716966629028 0.083547741174697876 -0.00317607098259031773
0.126344025135040283 0.0804802924394607544 -0.0174172110855579376
0.136637017130851746 0.0819911360740661621 -0.0162311829626560211
0.135890021920204163 0.0818037167191505432 -0.0170571990311145782
0.131387457251548767 0.0809926241636276245 -0.0190049409866333008
0.127883702516555786 0.0810568705201148987 -0.0139042474329471588
0.133983820676803589 0.0815991610288619995 -0.0165609605610370636
0.123469151556491852 0.080199703574180603 -0.0164031684398651123
0.125656187534332275 0.0803071111440658569 -0.0181836318224668503
0.122363932430744171 0.0796843916177749634 -0.0198899246752262115
0.136702597141265869 0.0826464146375656128 -0.0100805815309286118
0.137599587440490723 0.0820150747895240784 -0.0172367636114358902
0.133031576871871948 0.0814166814088821411 -0.0170769914984703064
0.118038035929203033 0.0788660570979118347 -0.0221329685300588608
0.121335834264755249 0.0793437957763671875 -0.0218131765723228455
0.130693405866622925 0.0809525474905967712 -0.0184969641268253326
0.130096659064292908 0.0811153426766395569 -0.0161834657192230225
0.127458080649375916 0.0803841501474380493 -0.0197594240307807922
0.139349654316902161 0.0836266279220581055 -0.00414624810218811035
0.118095189332962036 0.0773523151874542236 -0.0262214560061693192
0.13066062331199646 0.0750378146767616272 -0.0352820008993148804
0.120502039790153503 0.0702450424432754517 -0.0425489619374275208
0.135787025094032288 0.0764704272150993347 -0.0337738506495952606
0.117690637707710266 0.0756384804844856262 -0.029845699667930603
0.11834389716386795 0.0780715346336364746 -0.0247256122529506683
0.133234590291976929 0.074635826051235199 -0.0369800552725791931
0.128135204315185547 0.0766246244311332703 -0.0310049578547477722
0.123967736959457397 0.0724786818027496338 -0.0387591458857059479
0.121010482311248779 0.072500571608543396 -0.0377715937793254852
0.136678516864776611 0.0766477510333061218 -0.0336688049137592316
0.11880967766046524 0.0699545145034790039 -0.0426473990082740784
0.132835477590560913 0.0749185904860496521 -0.0362340845167636871
0.122111782431602478 0.0765525773167610168 -0.0292488560080528259
0.120526440441608429 0.0780072659254074097 -0.0255598109215497971
0.131293520331382751 0.0758465975522994995 -0.0337120890617370605
0.119705446064472198 0.0744846612215042114 -0.0330123677849769592
0.117218188941478729 0.0752003490924835205 -0.0306549593806266785
0.128079429268836975 0.0770035162568092346 -0.0301575791090726852
0.123211979866027832 0.071153394877910614 -0.0414209775626659393
0.13764345645904541 0.0770385786890983582 -0.0331196151673793793
0.127943262457847595 0.0753822699189186096 -0.0336643345654010773
0.118664607405662537 0.0753829404711723328 -0.0307147130370140076
0.116674825549125671 0.0774548500776290894 -0.0255456417798995972
0.127322077751159668 0.0758707821369171143 -0.0323972813785076141
0.135134235024452209 0.0763088241219520569 -0.0339202880859375
0.134048536419868469 0.083101317286491394 -0.00330229848623275757
0.0960962474346160889 0.0768275633454322815 -0.0214835219085216522
0.12220580130815506 0.0808723494410514832 -0.0108624789863824844
0.134748995304107666 0.0830002725124359131 -0.0044748205691576004
0.114964716136455536 0.0798915475606918335 -0.0128276422619819641
0.115341201424598694 0.0797852650284767151 -0.0138192996382713318
0.110961459577083588 0.0783006846904754639 -0.0212074574083089828
0.118499435484409332 0.0804352611303329468 -0.0114166727289557457
0.104435883462429047 0.0775612816214561462 -0.0219735465943813324
0.114516466856002808 0.0790466293692588806 -0.0184035301208496094
0.135548904538154602 0.0832410603761672974 -0.00333661772310733795
0.111699163913726807 0.078635871410369873 -0.0193709395825862885
0.113765925168991089 0.0790062621235847473 -0.0181809030473232269
0.120021581649780273 0.0794871821999549866 -0.0190315824002027512
0.112420745193958282 0.079128652811050415 -0.016427554190158844
0.0996186733245849609 0.0771982967853546143 -0.021267404779791832
0.120346046984195709 0.0803249925374984741 -0.0134220793843269348
0.114038683474063873 0.0789142772555351257 -0.0190036669373512268
0.114886149764060974 0.0794514939188957214 -0.015835566446185112
0.117134541273117065 0.0794892981648445129 -0.0170806106179952621
0.119547829031944275 0.0796577334403991699 -0.0175276026129722595
0.134420990943908691 0.0831831246614456177 -0.00298309698700904846
0.114451140165328979 0.0797881931066513062 -0.0132020516321063042
0.115679435431957245 0.0792953819036483765 -0.0174533892422914505
0.112053677439689636 0.0784522891044616699 -0.0208855178207159042
0.130108162760734558 0.082334473729133606 -0.00599309243261814117
0.127547681331634521 0.0812248736619949341 -0.0119932303205132484
0.101835243403911591 0.0745171383023262024 -0.0285680294036865234
0.101623393595218658 0.0723451599478721619 -0.0332753248512744904
0.0936357006430625916 0.0704375505447387695 -0.0356171280145645142
0.0952315628528594971 0.0720301568508148193 -0.032496478408575058
0.111666284501552582 0.0770942717790603638 -0.025183703750371933
0.093547426164150238 0.072517983615398407 -0.0310413297265768051
0.0991776138544082642 0.0768597871065139771 -0.0228277109563350677
0.0983850136399269104 0.069873519241809845 -0.0379433967173099518
0.104998528957366943 0.0749439597129821777 -0.0283602103590965271
0.109514050185680389 0.0763872861862182617 -0.0262372735887765884
0.107848308980464935 0.0773009583353996277 -0.0238538850098848343
0.0951124131679534912 0.068873576819896698 -0.039381030946969986
0.100195929408073425 0.0739503353834152222 -0.0294324867427349091
0.101980507373809814 0.0733667314052581787 -0.0311204269528388977
0.10932275652885437 0.075257524847984314 -0.0286671631038188934
0.0970661714673042297 0.0764768496155738831 -0.0231810957193374634
0.0946171507239341736 0.074863627552986145 -0.0261508673429489136
0.0981419980525970459 0.0700210854411125183 -0.0375644303858280182
0.0986088067293167114 0.0760894343256950378 -0.02438385970890522
0.10817253589630127 0.077193818986415863 -0.0241629946976900101
0.10149189829826355 0.0743187889456748962 -0.0289234649389982224
0.105278849601745605 0.0739096999168395996 -0.0306893512606620789
0.104326777160167694 0.074451446533203125 -0.0292843189090490341
0.111259631812572479 0.0766337662935256958 -0.0260986313223838806
0.108821466565132141 0.077481195330619812 -0.0236828196793794632
0.0146179385483264923 0.0692161098122596741 0.0196874253451824188
0.00779060181230306625 0.0662131309509277344 0.0259665548801422119
0.014603467658162117 0.0692247748374938965 0.0196577683091163635
0.00756100937724113464 0.066412016749382019 0.0253207236528396606
0.00736176222562789917 0.068351253867149353 0.0197114814072847366
0.0180618166923522949 0.0691926926374435425 0.0209159683436155319
0.0100634898990392685 0.0692280083894729614 0.0181171819567680359
0.0179087594151496887 0.0691168755292892456 0.0210810340940952301
0.0115467272698879242 0.0684237182140350342 0.0209160074591636658
0.0139562208205461502 0.0690628588199615479 0.0199021808803081512
0.000882199034094810486 0.0647028684616088867 0.0279523991048336029
0.00413333950564265251 0.0681197047233581543 0.0192842632532119751
0.0037130061537027359 0.0653471648693084717 0.0270659495145082474
0.00456221401691436768 0.0687839165329933167 0.0175307132303714752
0.00105035305023193359 0.0656404271721839905 0.0253297202289104462
0.0097231576219201088 0.0685089454054832458 0.0200573429465293884
9.79648903012275696e-05 0.0679153501987457275 0.0185071304440498352
0.0183464642614126205 0.0699128061532974243 0.0177859757095575333
0.00738475657999515533 0.0693750903010368347 0.0158407688140869141
0.00159051455557346344 0.0693019554018974304 0.0129389669746160507
0.00854856986552476883 0.0694379508495330811 0.015996025875210762
0.00181890837848186493 0.069230102002620697 0.013716626912355423
0.00866302847862243652 0.0699809789657592773 0.0112466942518949509
0.0152548365294933319 0.0699751079082489014 0.0153384190052747726
0.0151761528104543686 0.0699926167726516724 0.0151347760111093521
0.0152530893683433533 0.0696503743529319763 0.0182194281369447708
0.00339727569371461868 0.0697070583701133728 0.0104507459327578545
0.00290092057548463345 0.0705347582697868347 0.00280059874057769775
0.0201517045497894287 0.0700168013572692871 0.0179692935198545456
0.00428046565502882004 0.0700554326176643372 0.00790006294846534729
0.00236247293651103973 0.0693514570593833923 0.0129727115854620934
0.00928347185254096985 0.0698621422052383423 0.0126815661787986755
0.00973150227218866348 0.0700351148843765259 0.0114209968596696854
0.0178063958883285522 0.0697189345955848694 0.0191756635904312134
0.00908710435032844543 0.0700244158506393433 0.0111210113391280174
0.00571728777140378952 0.0586946681141853333 0.0397848226130008698
0.0187688879668712616 0.0610553361475467682 0.0388564467430114746
0.00962981022894382477 0.0588158629834651947 0.0404398813843727112
0.0101804090663790703 0.0615243427455425262 0.0362486951053142548
0.00469646137207746506 0.0584175586700439453 0.0400045961141586304
0.000591436401009559631 0.0614160746335983276 0.0343428254127502441
0.00917146541178226471 0.0619108155369758606 0.0354149565100669861
0.0127980047836899757 0.0593662522733211517 0.0402505733072757721
0.00669733714312314987 0.05889936164021492 0.0396714620292186737
0.00243148487061262131 0.058780863881111145 0.0389355272054672241
0.00579327717423439026 0.0616484358906745911 0.0351003929972648621
0.00537389423698186874 0.0599867179989814758 0.0376541092991828918
0.00694465218111872673 0.0626974031329154968 0.0336805172264575958
0.00557462591677904129 0.0575271137058734894 0.0416120551526546478
0.0113201271742582321 0.0602634213864803314 0.0385024398565292358
0.00997750088572502136 0.0606426894664764404 0.0376078598201274872
0.0152540439739823341 0.0593543089926242828 0.0408018603920936584
0.00855844654142856598 0.0582927130162715912 0.0410402789711952209
0.00604248046875 0.0643791481852531433 0.0300140604376792908
0.0156468171626329422 0.0672362670302391052 0.0252665821462869644
0.0182276144623756409 0.0633290410041809082 0.0342276468873023987
0.0135221527889370918 0.0646698847413063049 0.0305524244904518127
0.0200114231556653976 0.0670437589287757874 0.0263737551867961884
0.0195052176713943481 0.0654230266809463501 0.0298431310802698135
0.0185193121433258057 0.06853494793176651 0.0228741131722927094
0.0107471626251935959 0.0630588382482528687 0.0336441807448863983
0.0218008235096931458 0.0670755356550216675 0.0265852659940719604
0.0133587140589952469 0.0647093281149864197 0.0304403603076934814
0.0151289105415344238 0.0637419223785400391 0.03283676877617836
0.0229683760553598404 0.0665951371192932129 0.0278206057846546173
0.0180192925035953522 0.0675688832998275757 0.024910949170589447
0.0122336260974407196 0.0633222237229347229 0.0333009660243988037
0.0205262117087841034 0.067793235182762146 0.0248134955763816833
0.00869223568588495255 0.0638637766242027283 0.0315588079392910004
0.0230184197425842285 0.0657256245613098145 0.029732435941696167
0.0185134485363960266 0.06841239333152771 0.0231415443122386932
0.0192097816616296768 0.0664528384804725647 0.0275417603552341461
0.0167009811848402023 0.0630541145801544189 0.0345898233354091644
0.0101923821493983269 0.0657665729522705078 0.0276279188692569733
0.010149884968996048 0.0634792745113372803 0.0326297357678413391
0.011604764498770237 0.0659323781728744507 0.0274867210537195206
0.0264525376260280609 0.0714255049824714661 0.0123473005369305611
0.0185931529849767685 0.0709073767066001892 0.0106798242777585983
0.0160920843482017517 0.0705320611596107483 0.011612841859459877
0.031579338014125824 0.0714904218912124634 0.0153342112898826599
0.0346868522465229034 0.0716449841856956482 0.0163433551788330078
0.00742124859243631363 0.0707798302173614502 0.00407425174489617348
0.0424235127866268158 0.071924060583114624 0.0195911303162574768
0.016005244106054306 0.0705114379525184631 0.0116980504244565964
0.034571770578622818 0.0715532004833221436 0.0169045552611351013
0.0241568554192781448 0.0707903206348419189 0.0152254467830061913
0.0389618314802646637 0.0714476034045219421 0.0205832868814468384
0.0142569150775671005 0.0709843263030052185 0.00723643600940704346
0.0345469973981380463 0.0711188092827796936 0.019909195601940155
0.0267867669463157654 0.0703715085983276367 0.0199021603912115097
0.0217357799410820007 0.0707435160875320435 0.0139272138476371765
0.0148901063948869705 0.0710246041417121887 0.00738102151080965996
0.0424832254648208618 0.0719292238354682922 0.0195952430367469788
0.0258010588586330414 0.0711129680275917053 0.0140841212123632431
0.0230591911822557449 0.0708274617791175842 0.014230913482606411
0.0172885209321975708 0.0704453364014625549 0.0130184218287467957
0.0092448107898235321 0.0707556307315826416 0.00546558760106563568
0.0192909501492977142 0.0704973936080932617 0.0139993410557508469
0.009981522336602211 0.0508707612752914429 0.0499327592551708221
0.00653924187645316124 0.0494086705148220062 0.0508714914321899414
0.005275677889585495 0.0449714362621307373 0.0551166161894798279
0.0105962948873639107 0.0490305088460445404 0.0518664754927158356
0.00453223008662462234 0.0472315065562725067 0.0527435131371021271
0.0159417111426591873 0.047648157924413681 0.0540615320205688477
0.0174502469599246979 0.0485241226851940155 0.0534149184823036194
0.00109133403748273849 0.0477342382073402405 0.0517176352441310883
0.00724498741328716278 0.0472305156290531158 0.0531569421291351318
0.00378824747167527676 0.0529640242457389832 0.0468978807330131531
0.00852226559072732925 0.0480211563408374786 0.0525604970753192902
0.0172329246997833252 0.0477374419569969177 0.0541685596108436584
0.00259353965520858765 0.046725936233997345 0.0529543310403823853
0.0167689863592386246 0.048837319016456604 0.0529981441795825958
0.00795204564929008484 0.0480764992535114288 0.0524184629321098328
0.00208613276481628418 0.0443800650537014008 0.0552230551838874817
6.283540278673172e-05 0.0487573668360710144 0.0505381375551223755
0.014170805923640728 0.047558322548866272 0.0538821257650852203
0.017876235768198967 0.0501064509153366089 0.0518028028309345245
0.0224823970347642899 0.0583105906844139099 0.0428070239722728729
0.0116608394309878349 0.0545189157128334045 0.0460732430219650269
0.0213640853762626648 0.0600149519741535187 0.04072541743516922
0.0167811624705791473 0.051920570433139801 0.0495969168841838837
0.022928306832909584 0.0537918545305728912 0.0480676516890525818
0.0110705820843577385 0.0536648407578468323 0.0469983704388141632
0.0207446273416280746 0.0565502867102622986 0.0446603409945964813
0.0209772400557994843 0.0499712005257606506 0.0522768609225749969
0.0183331090956926346 0.058600105345249176 0.042047455906867981
0.0185844618827104568 0.0512052141129970551 0.050607386976480484
0.0129957981407642365 0.0524119921028614044 0.0486416444182395935
0.0201430022716522217 0.0583484992384910583 0.0425234027206897736
0.0176454335451126099 0.0540701970458030701 0.0472047366201877594
0.0133262677118182182 0.0517861731350421906 0.0493977628648281097
0.0164363384246826172 0.0563137419521808624 0.0444915704429149628
0.023164043202996254 0.0542487166821956635 0.0475645773112773895
0.0207852460443973541 0.0546548552811145782 0.0468519516289234161
0.020527007058262825 0.0596734806895256042 0.041033666580915451
0.0145016871392726898 0.0572437718510627747 0.0432198792695999146
0.0229370743036270142 0.0509207136929035187 0.0513820238411426544
0.00714691169559955597 0.0541562438011169434 0.0460289381444454193
0.0177725665271282196 0.0556414946913719177 0.0454043969511985779
0.0430678240954875946 0.0652253031730651855 0.0354117155075073242
0.036741994321346283 0.0699826702475547791 0.0235410816967487335
0.0310550257563591003 0.0695995241403579712 0.0230734087526798248
0.0438717938959598541 0.0657971352338790894 0.0343443006277084351
0.0448933877050876617 0.0718233585357666016 0.0213834457099437714
0.0429868139326572418 0.0709022209048271179 0.0229623876512050629
0.030103631317615509 0.06948138028383255 0.0231135077774524689
0.0416632816195487976 0.0675638169050216675 0.0299683734774589539
0.038105010986328125 0.0699541941285133362 0.0239166133105754852
0.0463104061782360077 0.0640180334448814392 0.0388003028929233551
0.0369449257850646973 0.069670945405960083 0.0242703109979629517
0.040952686220407486 0.0670991390943527222 0.03082260861992836
0.0434031523764133453 0.0672542080283164978 0.0310460738837718964
0.0315456800162792206 0.0683459192514419556 0.025931142270565033
0.0420856699347496033 0.070544905960559845 0.0235377401113510132
0.0405696220695972443 0.0713025331497192383 0.0215304475277662277
0.0331970527768135071 0.0679105967283248901 0.0272638052701950073
0.0404176153242588043 0.0693847984075546265 0.025694776326417923
0.0427633412182331085 0.0653609633445739746 0.0350446999073028564
0.0454845167696475983 0.0652041137218475342 0.036013379693031311
0.0370683148503303528 0.0690713077783584595 0.0256116762757301331
0.0357235223054885864 0.0667956620454788208 0.0302856527268886566
0.0425882898271083832 0.0712851956486701965 0.0220322329550981522
0.0459977388381958008 0.065153755247592926 0.0362415909767150879
0.0292248502373695374 0.0663564801216125488 0.0297541674226522446
0.0324906259775161743 0.0628309696912765503 0.0382243357598781586
0.028033774346113205 0.0646147429943084717 0.0332943983376026154
0.0284385122358798981 0.0624346546828746796 0.0381611138582229614
0.0238820947706699371 0.0656595528125762939 0.0300526637583971024
0.0309134330600500107 0.0659963861107826233 0.0309306476265192032
0.025074295699596405 0.0651333257555961609 0.0314788743853569031
0.0287964325398206711 0.0625167489051818848 0.0380635857582092285
0.0303917005658149719 0.0630293935537338257 0.0373075827956199646
0.0392215736210346222 0.0641365870833396912 0.036911938339471817
0.0316341891884803772 0.0625532642006874084 0.03863564133644104
0.0294743143022060394 0.0678889229893684387 0.0264559108763933182
0.0325808078050613403 0.0663607344031333923 0.0305159445852041245
0.0271743051707744598 0.0623198896646499634 0.0381219498813152313
0.0342077687382698059 0.0635308846831321716 0.0370862558484077454
0.0274179428815841675 0.0623916015028953552 0.0380208902060985565
0.0312599502503871918 0.064155876636505127 0.0350404158234596252
0.0413631685078144073 0.0637930780649185181 0.0381561964750289917
0.0286719687283039093 0.0630932971835136414 0.0367725230753421783
0.0264117885380983353 0.0653972923755645752 0.0312081649899482727
0.0331144928932189941 0.0627758875489234924 0.0384882800281047821
0.0457253307104110718 0.0632814466953277588 0.0402787663042545319
0.0325087867677211761 0.0655974745750427246 0.0321706943213939667
0.0600694194436073303 0.0741626173257827759 0.0158562902361154556
0.080909430980682373 0.0781467333436012268 0.0021230652928352356
0.102265253663063049 0.0795712843537330627 0.00653792917728424072
0.0714661180973052979 0.0772741883993148804 0.00185831263661384583
0.0514174476265907288 0.0753861591219902039 0.00154372677206993103
0.0859626531600952148 0.0766367688775062561 0.0160141568630933762
0.0247551761567592621 0.0720994099974632263 0.00652179401367902756
0.131888270378112793 0.0832742974162101746 0.00065030297264456749
0.077394537627696991 0.0761151015758514404 0.0138960201293230057
0.0516770929098129272 0.073803536593914032 0.0127252079546451569
0.0238532014191150665 0.0727233439683914185 0.00157734379172325134
0.0728777199983596802 0.0762948840856552124 0.00961625482887029648
0.0441430956125259399 0.0746076703071594238 0.00207944866269826889
0.092662520706653595 0.078053690493106842 0.0106526557356119156
0.0361347459256649017 0.0737852752208709717 0.00242835469543933868
0.0489032045006752014 0.0750693082809448242 0.00206118728965520859
0.0445225164294242859 0.0740011557936668396 0.00655234977602958679
0.0822288095951080322 0.076203569769859314 0.0165228992700576782
0.0180248096585273743 0.0720499008893966675 0.00235224887728691101
0.0599121786653995514 0.0760943517088890076 0.00231530983000993729
0.0549040138721466064 0.0742603689432144165 0.0117121031507849693
0.0275062285363674164 0.0725798606872558594 0.00502524524927139282
0.0570059493184089661 0.0753404945135116577 0.00560939963907003403
0.11655861884355545 0.0812388136982917786 0.0045261681079864502
0.114825412631034851 0.0816546827554702759 0.000471341190859675407
0.122099071741104126 0.0818243697285652161 0.00416937051340937614
0.132360547780990601 0.0833726823329925537 0.000282787950709462166
0.113889940083026886 0.080532073974609375 0.00765188084915280342
0.0545438751578330994 0.0739895477890968323 0.0133541896939277649
0.031368449330329895 0.0730731114745140076 0.00418489053845405579
0.130937114357948303 0.0830606073141098022 0.00149862677790224552
0.120014302432537079 0.0816007629036903381 0.00432639569044113159
0.051512300968170166 0.0745380371809005737 0.00750613212585449219
0.089580923318862915 0.0773591697216033936 0.0134164458140730858
0.0710605829954147339 0.0758936852216720581 0.0111879743635654449
0.0616858601570129395 0.0745368972420692444 0.014337221160531044
0.0694445520639419556 0.0751057788729667664 0.0155841372907161713
0.0369172058999538422 0.0731607675552368164 0.00729671027511358261
0.110760092735290527 0.0801379978656768799 0.00829361937940120697
0.0858707129955291748 0.0780056342482566833 0.00643177330493927002
0.0248019546270370483 0.0721058845520019531 0.00650817248970270157
0.0482704900205135345 0.075219474732875824 0.000592407770454883575
0.0683491975069046021 0.0744828507304191589 0.0191820766776800156
0.0759867802262306213 0.0770853310823440552 0.00620373431593179703
0.0273418240249156952 0.0730522200465202332 0.00162969715893268585
0.00176709145307540894 0.0707522407174110413 0.00047403387725353241
0.0201123319566249847 0.0725582093000411987 0.00021693110466003418
0.0464572682976722717 0.0741323083639144897 0.00693779345601797104
0.0659636557102203369 0.0753473266959190369 0.0115695483982563019
0.126250758767127991 0.082748018205165863 0.000529756187461316586
0.0563929080963134766 0.0747749432921409607 0.00913168676197528839
0.0775235444307327271 0.0777941197156906128 0.00230470485985279083
0.0880515351891517639 0.0775017216801643372 0.0113992467522621155
0.12573280930519104 0.0825351104140281677 0.00166315690148621798
0.0342944562435150146 0.0731169581413269043 0.00584233924746513367
0.03283701092004776 0.0736546367406845093 0.00112524814903736115
0.0400451570749282837 0.0741027146577835083 0.00284312665462493896
0.0815751180052757263 0.0781767517328262329 0.00236074812710285187
0.0387822985649108887 0.073938421905040741 0.00313885975629091263
0.025548253208398819 0.0729755163192749023 0.000960206612944602966
0.0482531897723674774 0.074113696813583374 0.00827167555689811707
0.030472341924905777 0.0733536630868911743 0.00163264200091362
0.0751519277691841125 0.0773795545101165771 0.00359750445932149887
0.103619672358036041 0.0803123190999031067 0.00229224096983671188
0.0786724388599395752 0.0780217871069908142 0.00149176362901926041
0.0522944852709770203 0.0751947313547134399 0.00346330646425485611
0.0356467887759208679 0.0725609064102172852 0.0106167551130056381
0.0578582435846328735 0.0748258009552955627 0.00976077653467655182
0.110750578343868256 0.0809228420257568359 0.00282855401746928692
0.0263374783098697662 0.0721128359436988831 0.00748964119702577591
0.0423042774200439453 0.0741411373019218445 0.00409103091806173325
0.0215685553848743439 0.072353169322013855 0.00261969119310379028
0.103395074605941772 0.0792769566178321838 0.00934276077896356583
0.0422506555914878845 0.0744660347700119019 0.00179533567279577255
0.101950198411941528 0.0790403634309768677 0.0100192278623580933
0.00388786941766738892 0.0709904879331588745 0.0002393331378698349
0.0476483963429927826 0.0746722668409347534 0.00398113112896680832
0.065836295485496521 0.0757691115140914917 0.00855055730789899826
0.0574711337685585022 0.0738995000720024109 0.0159436929970979691
0.118302755057811737 0.081131570041179657 0.00644185999408364296
0.0917020514607429504 0.0774123221635818481 0.0144693059846758842
0.0588879026472568512 0.0744588896632194519 0.0130033083260059357
0.0914191305637359619 0.0784104391932487488 0.00733753200620412827
0.022122655063867569 0.0720732212066650391 0.0049384143203496933
0.0812126323580741882 0.0773032680153846741 0.00819278694689273834
0.12286338210105896 0.0818196460604667664 0.00471486570313572884
0.0750267505645751953 0.0771837830543518066 0.00487511930987238884
0.0852308794856071472 0.0776295140385627747 0.00861871149390935898
0.113430380821228027 0.0808573812246322632 0.0050810566172003746
0.0700830593705177307 0.0770127326250076294 0.00274916738271713257
0.0572229474782943726 0.0750135853886604309 0.00802860315889120102
0.0899590253829956055 0.0790101960301399231 0.00218689627945423126
0.0905553698539733887 0.0787195339798927307 0.00460843648761510849
0.0155197568237781525 0.0716448947787284851 0.00348909199237823486
0.0342335104942321777 0.0726073905825614929 0.00934560876339673996
0.0625335872173309326 0.0764152482151985168 0.00184154324233531952
0.0652253180742263794 0.0761388987302780151 0.00556887499988079071
0.0507076866924762726 0.0737831592559814453 0.0122168045490980148
0.128327354788780212 0.0826642364263534546 0.00250518298707902431
0.0985368415713310242 0.0790829956531524658 0.00743343587964773178
0.0386096946895122528 0.0741340070962905884 0.00166274793446063995
0.023443911224603653 0.0724612921476364136 0.00312541984021663666
0.058237273246049881 0.0754068121314048767 0.00597394444048404694
0.118983611464500427 0.0819744020700454712 0.00103645469062030315
0.0944363698363304138 0.0784766003489494324 0.00890092458575963974
0.0440167151391506195 0.0747023746371269226 0.00133603904396295547
0.0283015444874763489 0.0721355602145195007 0.0086488695815205574
0.00260753929615020752 0.0708276033401489258 0.000513520091772079468
0.0423683635890483856 0.0747246742248535156 7.54212960600852966e-05
0.0726111829280853271 0.0767415761947631836 0.00633072759956121445
0.0230317898094654083 0.0719391182065010071 0.00648084003478288651
0.0582601502537727356 0.075625099241733551 0.00447106454521417618
0.0376215577125549316 0.0730013623833656311 0.00887776445597410202
0.0243250429630279541 0.0720299035310745239 0.00671675987541675568
0.0578038021922111511 0.0736975595355033875 0.0175713654607534409
0.102011799812316895 0.0804004669189453125 0.000600806437432765961
0.0272941701114177704 0.0723390877246856689 0.00655765272676944733
0.0601840987801551819 0.0743910521268844604 0.0143443997949361801
0.0212900266051292419 0.0719138458371162415 0.00548844411969184875
0.0966963693499565125 0.0788276046514511108 0.00797537621110677719
0.0578113868832588196 0.0750528499484062195 0.00815018918365240097
0.0776291638612747192 0.0762345343828201294 0.0132226943969726562
0.0835327655076980591 0.0766633152961730957 0.0141998333856463432
0.0906157195568084717 0.0788453072309494019 0.0037741377018392086
0.0554757565259933472 0.0748645961284637451 0.00789308268576860428
0.0631965026259422302 0.0739443600177764893 0.0194716043770313263
0.111972153186798096 0.0808876752853393555 0.00389240565709769726
0.0327630005776882172 0.0732719376683235168 0.00373732764273881912
0.020022224634885788 0.0717774480581283569 0.0055868346244096756
0.114838488399982452 0.0816564187407493591 0.000468029174953699112
0.0145442262291908264 0.0714039131999015808 0.00451087392866611481
0.0334020927548408508 0.0727835670113563538 0.00756263360381126404
0.103694558143615723 0.0794463455677032471 0.00836543366312980652
0.118810474872589111 0.08121509850025177 0.0062014400027692318
0.0721463486552238464 0.0775412917137145996 0.000456797890365123749
0.0627845227718353271 0.0740588903427124023 0.0183986686170101166
0.117603927850723267 0.0814957842230796814 0.00343998847529292107
0.0629257410764694214 0.0764548406004905701 0.00182914920151233673
0.117597289383411407 0.0811815932393074036 0.00562078366056084633
0.0415690168738365173 0.0742560327053070068 0.00279879849404096603
0.118915341794490814 0.0813434943556785583 0.00537872686982154846
0.0616896413266658783 0.0757076814770698547 0.00619678385555744171
0.0400646999478340149 0.0730384513735771179 0.0102583505213260651
0.0829632878303527832 0.0778166055679321289 0.00579656893387436867
0.0807760506868362427 0.0768306106328964233 0.0111874612048268318
0.0480655096471309662 0.074809052050113678 0.00330951530486345291
0.101317927241325378 0.0798562690615653992 0.00392046431079506874
0.0151712149381637573 0.0712303072214126587 0.0061388527974486351
0.0383453145623207092 0.072315610945224762 0.014132671058177948
0.052015937864780426 0.0728857815265655518 0.0193355754017829895
0.0307134799659252167 0.0719965696334838867 0.011233162134885788
0.0391244702041149139 0.0719426572322845459 0.0172491669654846191
0.0392391681671142578 0.0724226608872413635 0.0139876194298267365
0.012822943739593029 0.0711008608341217041 0.00546418875455856323
0.0493052303791046143 0.0724934563040733337 0.0202462971210479736
0.0506145432591438293 0.0729050487279891968 0.0182617288082838058
0.0574837401509284973 0.0733147263526916504 0.0200193990021944046
0.0164954699575901031 0.0713396444916725159 0.00626651663333177567
0.0403288230299949646 0.0722013786435127258 0.0162574891000986099
0.0247277151793241501 0.0718659684062004089 0.00812701042741537094
0.0593714937567710876 0.0734090134501457214 0.0206296537071466446
0.0297123938798904419 0.0716231465339660645 0.0131590161472558975
0.0292411819100379944 0.071834072470664978 0.0113759804517030716
0.0182069763541221619 0.0713540017604827881 0.00731449108570814133
0.0486437678337097168 0.0725821331143379211 0.0191859360784292221
0.0553627647459506989 0.0733248665928840637 0.0185263659805059433
0.0579233318567276001 0.0735315233469009399 0.0188062898814678192
0.00941799953579902649 0.0710822418332099915 0.00331005523912608624
0.0294474028050899506 0.0719699189066886902 0.0105693778023123741
0.0227463375777006149 0.0718086287379264832 0.00719696981832385063
0.00226531829684972763 0.0220201611518859863 0.0669200718402862549
0.00420610047876834869 0.0217583067715167999 0.0672220662236213684
0.0123642468824982643 0.0266509354114532471 0.0663943588733673096
0.00576487230136990547 0.0256865601986646652 0.0660164728760719299
0.00554848089814186096 0.0254992730915546417 0.0660585537552833557
0.00521478801965713501 0.0190877653658390045 0.068265870213508606
0.00104517745785415173 0.0288957245647907257 0.0643819570541381836
0.000606911256909370422 0.0163970030844211578 0.0687079355120658875
0.011095510795712471 0.0240791067481040955 0.0671567544341087341
0.0044993208721280098 0.0292231310158967972 0.0646417960524559021
0.00555132282897830009 0.0278611257672309875 0.0652324184775352478
0.00829266943037509918 0.0273105818778276443 0.0657222047448158264
0.00728053553029894829 0.0292919669300317764 0.0649191811680793762
0.0051769232377409935 0.0262274034321308136 0.0657634958624839783
0.0174267888069152832 0.02732083760201931 0.0667087063193321228
0.00744489859789609909 0.0283953901380300522 0.0652507245540618896
0.0101880365982651711 0.0251889154314994812 0.066670052707195282
0.00425951182842254639 0.0328339189291000366 0.0627265423536300659
0.00181767018511891365 0.0388971790671348572 0.0586628429591655731
0.017776070162653923 0.030744524672627449 0.0654448196291923523
0.00306861381977796555 0.0340781025588512421 0.0618209391832351685
0.0103539358824491501 0.03250151127576828 0.063569091260433197
0.000490648671984672546 0.0339400321245193481 0.0616396479308605194
2.83271074295043945e-05 0.039427679032087326 0.0581434555351734161
0.0090254712849855423 0.0316464006900787354 0.063968263566493988
0.00127732846885919571 0.0386666730046272278 0.0587515011429786682
0.00124308653175830841 0.0330451987683773041 0.0622801445424556732
0.00668879691511392593 0.0390069372951984406 0.0591003671288490295
0.00961338169872760773 0.0325231142342090607 0.063478514552116394
0.0158143918961286545 0.030451485887169838 0.0654249712824821472
0.00219774153083562851 0.0368419848382472992 0.0599937289953231812
0.000853330828249454498 0.0406433418393135071 0.0574653893709182739
0.00361246382817625999 0.0401063971221446991 0.0580896660685539246
0.011422022245824337 0.0313782617449760437 0.0643859356641769409
0.0171594247221946716 0.0334007889032363892 0.0637116506695747375
0.0100351348519325256 0.0388317815959453583 0.0595483146607875824
0.0101412413641810417 0.0399710796773433685 0.0588262639939785004
0.0141011541709303856 0.0455515272915363312 0.0556182228028774261
0.00926990620791912079 0.0422343835234642029 0.0572884902358055115
0.0205697938799858093 0.0410477407276630402 0.0591305755078792572
0.01074251439422369 0.0410054586827754974 0.0582189522683620453
0.0144016724079847336 0.0375530682504177094 0.0607872270047664642
0.00616907328367233276 0.0415505096316337585 0.0574317649006843567
0.0139219844713807106 0.04505157470703125 0.0559224039316177368
0.0162143036723136902 0.0441596470773220062 0.0567145980894565582
0.00687071681022644043 0.0428491868078708649 0.0566641874611377716
0.0141199938952922821 0.039721660315990448 0.0593666471540927887
0.00775042921304702759 0.0450826063752174377 0.0553128942847251892
0.0166674666106700897 0.035147055983543396 0.0625499263405799866
0.0118976440280675888 0.0427828915417194366 0.0571870133280754089
0.0199574325233697891 0.042253982275724411 0.0582968741655349731
0.0113902892917394638 0.0402411594986915588 0.0587720125913619995
0.0158751551061868668 0.0415508188307285309 0.0583587922155857086
0.0196006633341312408 0.0341429673135280609 0.0634754300117492676
0.0134573783725500107 0.0457377396523952484 0.0554370507597923279
0.0149342408403754234 0.0385256670415401459 0.0602130517363548279
0.0230288300663232803 0.0322032719850540161 0.0650494843721389771
0.0190815441310405731 0.0369684472680091858 0.0616100095212459564
0.034784417599439621 0.0521413423120975494 0.051682986319065094
0.0373091995716094971 0.0512851029634475708 0.0530391298234462738
0.0322565436363220215 0.0514711886644363403 0.0520879402756690979
0.0279420875012874603 0.0574414283037185669 0.0445690825581550598
0.0259552821516990662 0.0587400980293750763 0.042780749499797821
0.0319455415010452271 0.0505274757742881775 0.0531317181885242462
0.0362539775669574738 0.0537794157862663269 0.0500067397952079773
0.0249653495848178864 0.0492001771926879883 0.0536461211740970612
0.0247616320848464966 0.0510098822414875031 0.0515279285609722137
0.0350343771278858185 0.0484918095171451569 0.0559312030673027039
0.0235832501202821732 0.0568320490419864655 0.0446370355784893036
0.0264668837189674377 0.048397257924079895 0.0547915957868099213
0.0283810514956712723 0.0509458370506763458 0.0521293692290782928
0.0234337933361530304 0.0594496876001358032 0.0415943339467048645
0.0331927910447120667 0.0536115244030952454 0.0497543215751647949
0.0412535779178142548 0.0516654513776302338 0.0531750842928886414
0.0272321980446577072 0.0503814518451690674 0.0526132620871067047
0.0385383404791355133 0.0501851178705692291 0.0544877350330352783
0.0240082722157239914 0.0535695627331733704 0.0484640933573246002
0.0366472527384757996 0.0493777841329574585 0.0551438145339488983
0.0309923570603132248 0.0525808706879615784 0.0506230443716049194
0.0279553681612014771 0.0523709356784820557 0.0504226833581924438
0.0318837724626064301 0.0542336665093898773 0.0488455407321453094
0.0374034307897090912 0.0608980432152748108 0.0419589392840862274
0.0310856625437736511 0.0606111511588096619 0.0413692034780979156
0.0423415936529636383 0.0525829866528511047 0.0522747710347175598
0.0295581985265016556 0.0597791858017444611 0.0421067140996456146
0.0314465388655662537 0.0597009025514125824 0.0424722880125045776
0.044900987297296524 0.0531834624707698822 0.0519548207521438599
0.0387279689311981201 0.0546944960951805115 0.0493112727999687195
0.0406206585466861725 0.057354118674993515 0.0465177632868289948
0.04402938112616539 0.0572188980877399445 0.047170642763376236
0.0290893428027629852 0.0589940547943115234 0.0429444648325443268
0.0393898896872997284 0.0587450712919235229 0.0447331294417381287
0.0453951843082904816 0.0570552870631217957 0.0475585311651229858
0.0394736640155315399 0.0576662607491016388 0.0459903553128242493
0.0411612503230571747 0.0588497854769229889 0.0448704659938812256
0.0453737340867519379 0.0546873435378074646 0.0502881519496440887
0.0311789084225893021 0.0608186125755310059 0.041143372654914856
0.0412561818957328796 0.0627165511250495911 0.0404218137264251709
0.0336211360991001129 0.0571281649172306061 0.0457583367824554443
0.0409337766468524933 0.0625724121928215027 0.0405411645770072937
0.0428207069635391235 0.0577335916459560394 0.0464004911482334137
0.043661508709192276 0.0619052238762378693 0.0417087152600288391
0.0344679951667785645 0.0590345002710819244 0.0436817407608032227
0.0397167615592479706 0.057773396372795105 0.0459021404385566711
0.0369899086654186249 0.0615832284092903137 0.0411079227924346924
0.0540576577186584473 0.0679456964135169983 0.0319799408316612244
0.062461458146572113 0.0668475106358528137 0.0363155193626880646
0.0510026253759860992 0.0669123977422714233 0.0335406213998794556
0.063470795750617981 0.0663175284862518311 0.037707936018705368
0.0540944039821624756 0.0696195438504219055 0.0283231921494007111
0.0515415482223033905 0.068524383008480072 0.0301347002387046814
0.0598215758800506592 0.066226564347743988 0.0370686575770378113
0.0481642447412014008 0.0703682824969291687 0.0253211483359336853
0.0581720694899559021 0.0685670524835586548 0.031564716249704361
0.0495452880859375 0.0682887285947799683 0.0301920380443334579
0.0490788482129573822 0.063577696681022644 0.0404005832970142365
0.0664643272757530212 0.065058194100856781 0.041153300553560257
0.0471473000943660736 0.0672633275389671326 0.0318863764405250549
0.0628873556852340698 0.065827198326587677 0.0386475585401058197
0.0484958440065383911 0.0696712583303451538 0.0269236024469137192
0.0578750483691692352 0.0669381469488143921 0.0350632742047309875
0.0568639971315860748 0.0680502727627754211 0.0323957428336143494
0.048801615834236145 0.0641969367861747742 0.0389809384942054749
0.048739314079284668 0.0702195391058921814 0.0257789753377437592
0.0542608536779880524 0.0646233782172203064 0.0393014922738075256
0.056042596697807312 0.065355055034160614 0.0381087251007556915
0.0587293840944766998 0.0677862763404846191 0.0334024243056774139
0.0556900203227996826 0.0665673166513442993 0.0353732407093048096
0.0572305992245674133 0.0661258772015571594 0.0366938076913356781
0.0618580952286720276 0.0718850865960121155 0.0251461546868085861
0.0667950361967086792 0.0683639347553253174 0.0339907221496105194
0.0682461783289909363 0.0691022723913192749 0.0327073968946933746
0.0581284239888191223 0.0692337527871131897 0.0300948116928339005
0.0579957067966461182 0.0704083815217018127 0.0274922512471675873
0.0694304630160331726 0.0677657201886177063 0.035906132310628891
0.0694118812680244446 0.0721899047493934631 0.02621426060795784
0.0509716793894767761 0.0708853527903556824 0.0248339548707008362
0.0524571090936660767 0.0709057226777076721 0.0251306500285863876
0.0578858032822608948 0.0711275786161422729 0.0258921682834625244
0.0606101378798484802 0.069362342357635498 0.0303834546357393265
0.0625234097242355347 0.0714502930641174316 0.0262510739266872406
0.0522090867161750793 0.0714288726449012756 0.0239281300455331802
0.0640405789017677307 0.0685305222868919373 0.0329930670559406281
0.0670604631304740906 0.070010945200920105 0.0304452534765005112
0.0674053356051445007 0.0673302337527275085 0.0363944321870803833
0.0658210590481758118 0.067034989595413208 0.0366769134998321533
0.0535562001168727875 0.0725977420806884766 0.0216781795024871826
0.0668521076440811157 0.0735718533396720886 0.0226000845432281494
0.0672533437609672546 0.0716769993305206299 0.0268414095044136047
0.0689562410116195679 0.072804570198059082 0.0247636456042528152
