ply
format ascii 1.0
element vertex 707
property float x
property float y
property float z
end_header
0.0153484661132097244 -0.0346000008285045624 0.0323499254882335663
0.0263307169079780579 -0.0346000008285045624 0.0330750644207000732
0.0183239094913005829 -0.0346000008285045624 0.034270264208316803
-0.000196684151887893677 -0.0346000008285045624 0.0318828150629997253
0.00834459811449050903 -0.0346000008285045624 0.032779548317193985
0.00727471895515918732 -0.0346000008285045624 0.030337456613779068
0.00817232951521873474 -0.0346000008285045624 0.0349571742117404938
0.0197236090898513794 -0.0346000008285045624 0.0346406437456607819
0.0150259500369429588 -0.0346000008285045624 0.0316190198063850403
-0.0126342950388789177 -0.0346000008285045624 0.031908128410577774
0.0253304280340671539 -0.0346000008285045624 0.0316638201475143433
-0.0175652205944061279 -0.0346000008285045624 0.0307546444237232208
-0.0155311413109302521 -0.0346000008285045624 0.0312283653765916824
0.0194741636514663696 -0.0346000008285045624 0.0336359515786170959
0.00719437003135681152 -0.0346000008285045624 0.0331749171018600464
0.0171426422894001007 -0.0346000008285045624 0.0333681702613830566
-0.0165404770523309708 -0.0346000008285045624 0.0323404856026172638
0.0147269070148468018 -0.0346000008285045624 0.0313853919506072998
0.00468578841537237167 -0.0346000008285045624 0.0321159213781356812
0.010771971195936203 -0.0346000008285045624 0.0322285778820514679
0.0241252295672893524 -0.0346000008285045624 0.0318292342126369476
-0.00529040209949016571 -0.0346000008285045624 0.0325214788317680359
0.0286886319518089294 -0.0346000008285045624 0.0328853465616703033
0.0124697219580411911 -0.0346000008285045624 0.0353064388036727905
-0.0143411550670862198 -0.0346000008285045624 0.0304515250027179718
0.0257381647825241089 -0.0346000008285045624 0.0373702570796012878
0.0185960177332162857 -0.0346000008285045624 0.0304358936846256256
0.0289142262190580368 -0.0346000008285045624 0.0314908474683761597
0.0134984459728002548 -0.0346000008285045624 0.0308827459812164307
-0.0142288189381361008 -0.0346000008285045624 0.0322996824979782104
-0.0288456808775663376 -0.0346000008285045624 0.030414242297410965
0.0103340819478034973 -0.0346000008285045624 0.03281397745013237
0.00344934873282909393 -0.0346000008285045624 0.0332881025969982147
-0.0088785933330655098 -0.0346000008285045624 0.0321131832897663116
-0.0105176083743572235 -0.0346000008285045624 0.0326108522713184357
0.0036086495965719223 -0.0346000008285045624 0.0325946323573589325
-0.00737717654556035995 -0.0346000008285045624 0.0311237871646881104
0.0134174712002277374 -0.0346000008285045624 0.0359349958598613739
0.014701496809720993 -0.0346000008285045624 0.039772525429725647
0.0152877653017640114 -0.0346000008285045624 0.0375863015651702881
0.00884215906262397766 -0.0346000008285045624 0.0404971055686473846
0.0176464207470417023 -0.0346000008285045624 0.0407898649573326111
-0.00662714056670665741 -0.0346000008285045624 0.0361088477075099945
0.000579268671572208405 -0.0346000008285045624 0.0361528433859348297
0.017122950404882431 -0.0346000008285045624 0.0375748835504055023
-0.0120301898568868637 -0.0346000008285045624 0.0337275303900241852
-0.0164213422685861588 -0.0346000008285045624 0.0334739238023757935
0.0143598485738039017 -0.0346000008285045624 0.0390839129686355591
-0.00487804226577281952 -0.0346000008285045624 0.0359486080706119537
-0.0197077933698892593 -0.0346000008285045624 0.0324749201536178589
0.0186134781688451767 -0.0346000008285045624 0.0400583334267139435
-0.0113578252494335175 -0.0346000008285045624 0.0351441241800785065
0.0179127398878335953 -0.0346000008285045624 0.0366836339235305786
-0.013807998038828373 -0.0346000008285045624 0.033136170357465744
0.0180004816502332687 -0.0346000008285045624 0.0409440547227859497
-0.0193095430731773376 -0.0346000008285045624 0.0333001092076301575
0.0116037763655185699 -0.0346000008285045624 0.03997073695063591
-0.0023637586273252964 -0.0346000008285045624 0.0346611179411411285
-0.00760431215167045593 -0.0346000008285045624 0.0366721637547016144
0.0145004559308290482 -0.0346000008285045624 0.0364716015756130219
-0.0153738651424646378 -0.0346000008285045624 0.0333856865763664246
0.0139243956655263901 -0.0346000008285045624 0.0391472317278385162
0.00239432230591773987 -0.0346000008285045624 0.038243122398853302
-0.0170579850673675537 -0.0346000008285045624 0.0332788564264774323
-0.0106286248192191124 -0.0346000008285045624 0.0332195088267326355
0.00664628855884075165 -0.0346000008285045624 0.0384419150650501251
0.0084718288853764534 -0.0346000008285045624 0.035451207309961319
-0.00178730860352516174 -0.0346000008285045624 0.0374116301536560059
-0.0020894072949886322 -0.0346000008285045624 0.0362862758338451385
-0.00258625485002994537 -0.0346000008285045624 0.0362180359661579132
0.00861069001257419586 -0.0346000008285045624 0.0362137407064437866
-0.00272467546164989471 -0.0346000008285045624 0.0361940599977970123
0.0128464885056018829 -0.0346000008285045624 0.0407612286508083344
-0.00504831690341234207 -0.0346000008285045624 0.0351805239915847778
0.00754968356341123581 -0.0346000008285045624 0.0372311621904373169
-0.00704749766737222672 -0.0346000008285045624 0.0351341888308525085
0.0221051853150129318 -0.0346000008285045624 0.0387737080454826355
-0.00135330110788345337 -0.0346000008285045624 0.0364687591791152954
0.0111315064132213593 -0.0346000008285045624 0.0394198969006538391
-0.0214399509131908417 -0.0346000008285045624 0.032026384025812149
0.00608592107892036438 -0.0346000008285045624 0.0444288663566112518
0.0091085527092218399 -0.0346000008285045624 0.0431151874363422394
0.00153706548735499382 -0.0346000008285045624 0.0390588231384754181
-0.023504260927438736 -0.0346000008285045624 0.0332937873899936676
0.00653051678091287613 -0.0346000008285045624 0.0418759025633335114
0.00129304453730583191 -0.0346000008285045624 0.0410179831087589264
0.00951646082103252411 -0.0346000008285045624 0.0411469340324401855
0.00753895379602909088 -0.0346000008285045624 0.044543784111738205
-0.00764958793297410011 -0.0346000008285045624 0.0377845950424671173
0.000892901793122291565 -0.0346000008285045624 0.0401591435074806213
-0.0103361308574676514 -0.0346000008285045624 0.0385851301252841949
-0.0247551519423723221 -0.0346000008285045624 0.0327778235077857971
0.00276047922670841217 -0.0346000008285045624 0.0407547317445278168
0.00641566328704357147 -0.0346000008285045624 0.0414788499474525452
-0.0204234365373849869 -0.0346000008285045624 0.0338205881416797638
0.00226262956857681274 -0.0346000008285045624 0.0429158732295036316
-0.013153955340385437 -0.0346000008285045624 0.0357364155352115631
0.00846555829048156738 -0.0346000008285045624 0.04364023357629776
0.00560057163238525391 -0.0346000008285045624 0.0447308719158172607
-0.00348113849759101868 -0.0346000008285045624 0.0399598665535449982
-0.00469957664608955383 -0.0346000008285045624 0.0411082133650779724
-0.0100182304158806801 -0.0346000008285045624 0.0377159565687179565
-0.0271598082035779953 -0.0346000008285045624 0.0324369929730892181
-0.000248644966632127762 -0.0346000008285045624 0.0396042875945568085
-0.00246927235275506973 -0.0346000008285045624 0.0397638604044914246
0.00213221227750182152 -0.0346000008285045624 0.039434533566236496
0.0114022139459848404 -0.0346000008285045624 0.0435514487326145172
0.006726851686835289 -0.0346000008285045624 0.043591771274805069
0.00805174186825752258 -0.0346000008285045624 0.0423034653067588806
0.00232981517910957336 -0.0346000008285045624 0.0426051169633865356
-0.00708543509244918823 -0.0346000008285045624 0.0431636646389961243
-0.0102390795946121216 -0.0346000008285045624 0.0402472428977489471
-0.00377571210265159607 -0.0346000008285045624 0.0445544011890888214
-0.00197463389486074448 -0.0346000008285045624 0.0442018993198871613
-0.014718363992869854 -0.0346000008285045624 0.0385325700044631958
-0.0100663602352142334 -0.0346000008285045624 0.0395237989723682404
-0.00893889926373958588 -0.0346000008285045624 0.0415428951382637024
-0.0214782636612653732 -0.0346000008285045624 0.0356147922575473785
-0.00534469075500965118 -0.0346000008285045624 0.0434827692806720734
-0.0168828833848237991 -0.0346000008285045624 0.0368021242320537567
-0.0214650221168994904 -0.0346000008285045624 0.036410897970199585
-0.00870159734040498734 -0.0346000008285045624 0.0412512198090553284
-0.00849658064544200897 -0.0346000008285045624 0.0405158661305904388
-0.0141601786017417908 -0.0346000008285045624 0.0386805832386016846
-0.00333342514932155609 -0.0346000008285045624 0.0432384684681892395
-0.0209272857755422592 -0.0346000008285045624 0.0355432406067848206
-0.00845216773450374603 -0.0346000008285045624 0.0402323976159095764
-0.0143355485051870346 -0.0346000008285045624 0.0393852442502975464
-0.0309884324669837952 -0.0346000008285045624 0.0323712974786758423
-0.0220437292009592056 -0.0346000008285045624 0.0367137491703033447
-0.013857576996088028 -0.0346000008285045624 0.0431520976126194
-0.0267167836427688599 -0.0346000008285045624 0.0351566150784492493
-0.0126631259918212891 -0.0346000008285045624 0.0423115231096744537
-0.0208513736724853516 -0.0346000008285045624 0.0376113876700401306
-0.0213778652250766754 -0.0346000008285045624 0.0384644269943237305
-0.0220173075795173645 -0.0346000008285045624 0.0384690724313259125
-0.0136529868468642235 -0.0346000008285045624 0.0413172431290149689
-0.0255043394863605499 -0.0346000008285045624 0.0373787768185138702
-0.0260381847620010376 -0.0346000008285045624 0.0367832742631435394
-0.0247480589896440506 -0.0346000008285045624 0.0371802821755409241
-0.0386650413274765015 -0.0346000008285045624 0.0218645241111516953
-0.039609130471944809 -0.0346000008285045624 0.0218953527510166168
-0.0399670638144016266 -0.0346000008285045624 0.0216140542179346085
-0.0386636517941951752 -0.0346000008285045624 0.0215281881392002106
-0.0433701947331428528 -0.0346000008285045624 0.009163648821413517
-0.0444230735301971436 -0.0346000008285045624 0.00814330391585826874
-0.0381780453026294708 -0.0346000008285045624 0.0207399278879165649
-0.0377131998538970947 -0.0346000008285045624 0.0230738148093223572
-0.040817607194185257 -0.0346000008285045624 0.015109136700630188
-0.0385111570358276367 -0.0346000008285045624 0.0188825912773609161
-0.0410741753876209259 -0.0346000008285045624 0.0154925137758255005
-0.0408763624727725983 -0.0346000008285045624 0.0141326012089848518
-0.0454385131597518921 -0.0260169301182031631 0.00132995843887329102
-0.0449184253811836243 -0.0267430432140827179 0.00561328325420618057
-0.0452401451766490936 -0.0302377939224243164 0.00296367332339286804
-0.0446897037327289581 -0.0245368257164955139 0.00749696791172027588
-0.0455882661044597626 -0.025144185870885849 9.66382212936878204e-05
-0.0450165160000324249 -0.0291596688330173492 0.00480541819706559181
-0.0450400933623313904 -0.0257984790951013565 0.00461126910522580147
-0.0449505150318145752 -0.0282861851155757904 0.00534899905323982239
-0.0451797954738140106 -0.0286896079778671265 0.00346068106591701508
-0.0454593375325202942 -0.0306409765034914017 0.0011584646999835968
-0.04544810950756073 -0.0236426517367362976 0.00125091895461082458
-0.0450190678238868713 -0.0256698857992887497 0.00478442944586277008
-0.0454419739544391632 -0.0301147643476724625 0.00130147067829966545
-0.0444908030331134796 -0.0225709490478038788 0.00913509633392095566
-0.0449678264558315277 -0.0251011773943901062 0.00520642288029193878
-0.0447036810219287872 -0.0290819853544235229 0.00738185364753007889
-0.0445075742900371552 -0.0338616073131561279 0.00899694859981536865
-0.044460933655500412 -0.0244299136102199554 0.00938106700778007507
-0.0443183779716491699 -0.0251453090459108353 0.0105551080778241158
-0.0450021028518676758 -0.034274660050868988 0.0049241241067647934
-0.0445405915379524231 -0.0304805934429168701 0.00872502103447914124
-0.0447927042841911316 -0.0299226269125938416 0.00664869463071227074
-0.0447720587253570557 -0.0307808909565210342 0.00681872386485338211
-0.044331476092338562 -0.0263554099947214127 0.010447254404425621
-0.0450093410909175873 -0.0345352515578269958 0.00486452458426356316
-0.0452411733567714691 -0.0318968109786510468 0.00295519735664129257
-0.0450231507420539856 -0.0328388363122940063 0.004750796128064394
-0.0444053150713443756 -0.0327642150223255157 0.00983913429081439972
-0.0443062111735343933 -0.0272511281073093414 0.0106553183868527412
-0.0447399131953716278 -0.0316891781985759735 0.00708345789462327957
-0.0432033613324165344 -0.0315594226121902466 0.0137383397668600082
-0.0415674448013305664 -0.0330067239701747894 0.0180518887937068939
-0.0431105159223079681 -0.0344140678644180298 0.0139831528067588806
-0.0432023070752620697 -0.0336422771215438843 0.0137411151081323624
-0.0410258807241916656 -0.0289595834910869598 0.0194798745214939117
-0.040690004825592041 -0.0280052907764911652 0.0203655064105987549
-0.0435796007513999939 -0.0335870571434497833 0.0127462735399603844
-0.0407280363142490387 -0.0324668213725090027 0.0202652290463447571
-0.0416581779718399048 -0.0333820246160030365 0.0178126506507396698
-0.042882964015007019 -0.0334572084248065948 0.0145831508561968803
-0.0410374291241168976 -0.0336074084043502808 0.0194494295865297318
-0.0428378358483314514 -0.0345467664301395416 0.0147021431475877762
-0.0415253415703773499 -0.0331747643649578094 0.0181629117578268051
-0.0408143289387226105 -0.0312552265822887421 0.0200376901775598526
-0.0430588982999324799 -0.0308850519359111786 0.0141192562878131866
-0.0441638827323913574 -0.0296887978911399841 0.0112056536599993706
-0.0435180105268955231 -0.0288074426352977753 0.0129086738452315331
-0.0436736457049846649 -0.0258153975009918213 0.0124982958659529686
-0.0429002456367015839 -0.0248616542667150497 0.0145375840365886688
-0.0426860861480236053 -0.0263854321092367172 0.0151022728532552719
-0.0425637662410736084 -0.0272259283810853958 0.0154248056933283806
-0.043214600533246994 -0.0307531990110874176 0.013708699494600296
-0.0419025570154190063 -0.0263253971934318542 0.0171682797372341156
-0.0427718237042427063 -0.0294830985367298126 0.0148762036114931107
-0.040398377925157547 -0.0225043445825576782 0.0211344659328460693
-0.0427092127501964569 -0.0231330618262290955 0.0150412982329726219
-0.0414217002689838409 -0.0236867833882570267 0.0184361804276704788
-0.0437661074101924896 -0.0282952040433883667 0.0122544970363378525
-0.0434941425919532776 -0.030878555029630661 0.0129716126248240471
-0.0432867109775543213 -0.0256644245237112045 0.0135185625404119492
-0.0379666611552238464 -0.0309482105076313019 0.0246830582618713379
-0.0368108637630939484 -0.0289041418582201004 0.0263575185090303421
-0.035454239696264267 -0.0294975060969591141 0.0283229295164346695
-0.0347259044647216797 -0.0284052621573209763 0.0293781030923128128
-0.0359268747270107269 -0.0277336519211530685 0.0276382006704807281
-0.0364540070295333862 -0.0332070626318454742 0.0268745142966508865
-0.034375704824924469 -0.0334226600825786591 0.0298854559659957886
-0.0345048531889915466 -0.0287095345556735992 0.0296983513981103897
-0.0384764410555362701 -0.0343325845897197723 0.0239445138722658157
-0.0341977179050445557 -0.0303614288568496704 0.0301433168351650238
-0.0367296189069747925 -0.0290745776146650314 0.0264752190560102463
-0.0367560721933841705 -0.0321320109069347382 0.0264368969947099686
-0.0358897298574447632 -0.033105112612247467 0.0276920106261968613
-0.0366304889321327209 -0.0277695786207914352 0.02661883644759655
-0.0343478694558143616 -0.031420484185218811 0.0299257822334766388
-0.0369372628629207611 -0.023430144414305687 0.0261744000017642975
-0.040337245911359787 -0.0268351491540670395 0.021248670294880867
-0.036485716700553894 -0.0243454724550247192 0.0268285777419805527
-0.0370501577854156494 -0.0267101749777793884 0.0260108448565006256
-0.0399248003959655762 -0.0244490392506122589 0.0218462012708187103
-0.0368469581007957458 -0.0225972142070531845 0.0263052303344011307
-0.0393468104302883148 -0.0315830260515213013 0.0226835664361715317
-0.0397301279008388519 -0.0276774279773235321 0.0221282299607992172
-0.0378399044275283813 -0.0286968611180782318 0.0248666983097791672
-0.0389397554099559784 -0.0295884925872087479 0.0232732854783535004
-0.0395035892724990845 -0.0274518672376871109 0.0224564336240291595
-0.0394279584288597107 -0.0262887421995401382 0.0225659981369972229
-0.0395354218780994415 -0.0268054027110338211 0.022410314530134201
-0.0395550765097141266 -0.0243071727454662323 0.0223818402737379074
-0.0400802530348300934 -0.0329794101417064667 0.0216209888458251953
-0.0268572885543107986 -0.0331725999712944031 0.0366833023726940155
-0.0300410296767950058 -0.0328057967126369476 0.0338627547025680542
-0.0314349494874477386 -0.0331725776195526123 0.0326278507709503174
-0.0260062292218208313 -0.0345089547336101532 0.0374372750520706177
-0.0310205630958080292 -0.0313333198428153992 0.0329949669539928436
-0.0262381434440612793 -0.0328261330723762512 0.0372318178415298462
-0.0260458439588546753 -0.0295026227831840515 0.0374021828174591064
-0.0269581414759159088 -0.03397388756275177 0.0365939587354660034
-0.0288899857550859451 -0.0314625054597854614 0.0348824933171272278
-0.0279620550572872162 -0.0296366102993488312 0.0357045680284500122
-0.0260467473417520523 -0.0311883129179477692 0.0374013818800449371
-0.0279288552701473236 -0.0303427092730998993 0.035733979195356369
-0.0291027426719665527 -0.0305387508124113083 0.0346940048038959503
-0.0296031590551137924 -0.0325562432408332825 0.0342506766319274902
-0.030434485524892807 -0.0335334800183773041 0.0335141830146312714
-0.026468837633728981 -0.0232947021722793579 0.0370274409651756287
-0.0331072583794593811 -0.0258023831993341446 0.0311463158577680588
-0.0279369782656431198 -0.0252792537212371826 0.0357267856597900391
-0.030606977641582489 -0.0289829298853874207 0.0333613716065883636
-0.031797993928194046 -0.0292321238666772842 0.0323062241077423096
-0.0340259969234466553 -0.0277475994080305099 0.0303323827683925629
-0.0281049944460391998 -0.0239441953599452972 0.0355779342353343964
-0.0333283469080924988 -0.0237228889018297195 0.030950445681810379
-0.0336342267692089081 -0.0268769189715385437 0.0306794606149196625
-0.0293225385248661041 -0.0261883959174156189 0.0344992876052856445
-0.0317664183676242828 -0.0294424276798963547 0.0323341935873031616
-0.0328437536954879761 -0.030320487916469574 0.0313797630369663239
-0.0339139848947525024 -0.0335424914956092834 0.0304316170513629913
-0.0328072570264339447 -0.0305976495146751404 0.0314120911061763763
-0.0319875925779342651 -0.0258489008992910385 0.0321382507681846619
-0.0186544898897409439 -0.0274488702416419983 0.0413327701389789581
-0.0167912207543849945 -0.028307763859629631 0.0423106886446475983
-0.0180296879261732101 -0.0317626297473907471 0.0416606925427913666
-0.0217776540666818619 -0.0334702283143997192 0.0396936088800430298
-0.0179663561284542084 -0.0290579143911600113 0.0416939295828342438
-0.0196717455983161926 -0.0340262651443481445 0.040798872709274292
-0.0166899822652339935 -0.0232964605093002319 0.0423638224601745605
-0.0172910317778587341 -0.0322896465659141541 0.0420483686029911041
-0.0243924781680107117 -0.0330926068127155304 0.0383212417364120483
-0.0182095915079116821 -0.0324480533599853516 0.0415662713348865509
-0.0214195847511291504 -0.0311485771089792252 0.0398815348744392395
-0.0212343279272317886 -0.0302611254155635834 0.0399787649512290955
-0.0194393284618854523 -0.0307288989424705505 0.0409208573400974274
-0.0166181866079568863 -0.0299980342388153076 0.0424015037715435028
-0.0185351856052875519 -0.0318094715476036072 0.041395384818315506
-0.0238514523953199387 -0.0284028444439172745 0.0386051945388317108
-0.0228581279516220093 -0.0289695896208286285 0.0391265302896499634
-0.022369682788848877 -0.0262722037732601166 0.03938288614153862
-0.0245212353765964508 -0.0289431419223546982 0.0382536649703979492
-0.01741044782102108 -0.0230943281203508377 0.0419856943190097809
-0.0221702195703983307 -0.0244144368916749954 0.0394875742495059967
-0.0188483111560344696 -0.0243087355047464371 0.0412310473620891571
-0.0248446203768253326 -0.0306714847683906555 0.038083937019109726
-0.0254793129861354828 -0.0329726822674274445 0.0377508290112018585
-0.0239660199731588364 -0.0256597753614187241 0.0385450646281242371
-0.0234706010669469833 -0.025196559727191925 0.0388050787150859833
-0.0204436853528022766 -0.0272714123129844666 0.0403937250375747681
-0.0256008058786392212 -0.0294123422354459763 0.0376870632171630859
-0.0242785662412643433 -0.0226805005222558975 0.0383810289204120636
-0.0246067196130752563 -0.032273370772600174 0.0382088012993335724
-0.00633088871836662292 -0.0303560458123683929 0.0450618602335453033
-0.0152771379798650742 -0.0337029770016670227 0.0428568087518215179
-0.00595855992287397385 -0.0281226187944412231 0.0451536327600479126
-0.00689082033932209015 -0.0276095494627952576 0.0449238494038581848
-0.00743426056578755379 -0.0276374761015176773 0.0447899028658866882
-0.00941920280456542969 -0.0329105928540229797 0.0443006604909896851
-0.0118071688339114189 -0.0325024574995040894 0.0437120795249938965
-0.00819664634764194489 -0.0261823330074548721 0.0446019917726516724
-0.00836156122386455536 -0.0283461660146713257 0.0445613451302051544
-0.00642417790368199348 -0.0283617302775382996 0.0450388677418231964
-0.0111035788431763649 -0.0295771341770887375 0.0438854992389678955
-0.00905683264136314392 -0.0302525460720062256 0.0443899743258953094
-0.00799173302948474884 -0.0323460102081298828 0.044652499258518219
-0.013994704931974411 -0.0336963161826133728 0.0431728996336460114
-0.00953737739473581314 -0.0289087332785129547 0.0442715324461460114
-0.0111984396353363991 -0.0241199154406785965 0.0438621155917644501
-0.0138672376051545143 -0.0256824996322393417 0.0432043187320232391
-0.0156122343614697456 -0.031669124960899353 0.0427742153406143188
-0.00831478647887706757 -0.0233423113822937012 0.044572874903678894
-0.0136345168575644493 -0.0226044654846191406 0.0432616770267486572
-0.0157716609537601471 -0.0319703370332717896 0.0427349172532558441
-0.0124246273189783096 -0.0290274117141962051 0.0435598902404308319
-0.0099203009158372879 -0.0267642084509134293 0.0441771522164344788
-0.0107014775276184082 -0.0228559039533138275 0.0439846068620681763
-0.0131285302340984344 -0.0295349806547164917 0.0433863922953605652
-0.0122377816587686539 -0.0251238346099853516 0.0436059385538101196
-0.0159392990171909332 -0.0316601917147636414 0.042693600058555603
-0.0131479157134890556 -0.0225463937968015671 0.0433816127479076385
-0.0125480908900499344 -0.024531196802854538 0.0435294583439826965
-0.00975050404667854309 -0.0246345996856689453 0.0442190021276473999
0.00505071133375167847 -0.0267293807119131088 0.0452675260603427887
-0.00474519236013293266 -0.0343999974429607391 0.0452675260603427887
0.000183862634003162384 -0.0342586487531661987 0.0452675260603427887
0.00369385350495576859 -0.0299495477229356766 0.0452675260603427887
0.00410986598581075668 -0.0292075052857398987 0.0452675260603427887
-0.00115900533273816109 -0.0329712033271789551 0.0452675260603427887
0.00220216996967792511 -0.0321217849850654602 0.0452675260603427887
0.00532347057014703751 -0.0245568845421075821 0.0452675260603427887
0.0014893081970512867 -0.0321522988379001617 0.0452675260603427887
-0.00280729075893759727 -0.0321153402328491211 0.0452675260603427887
0.00159967760555446148 -0.0325316190719604492 0.0452675260603427887
-0.000658718869090080261 -0.0316696688532829285 0.0452675260603427887
0.00410088617354631424 -0.0329394973814487457 0.0452675260603427887
-0.000138655304908752441 -0.0294839479029178619 0.0452675260603427887
0.00548207713291049004 -0.0296713132411241531 0.0452675260603427887
-0.00246434286236763 -0.0231653023511171341 0.0452675260603427887
-0.00319336447864770889 -0.0287956018000841141 0.0452675260603427887
-0.00534016778692603111 -0.0292441491037607193 0.0452675260603427887
-0.00230024219490587711 -0.0275641307234764099 0.0452675260603427887
-0.0043241819366812706 -0.0259851012378931046 0.0452675260603427887
-0.00170301459729671478 -0.0270992740988731384 0.0452675260603427887
-0.00229637138545513153 -0.0260846633464097977 0.0452675260603427887
-0.00228035892359912395 -0.0257307421416044235 0.0452675260603427887
-0.00442149024456739426 -0.0257660672068595886 0.0452675260603427887
-0.0050891190767288208 -0.0262237228453159332 0.0452675260603427887
-0.00342378020286560059 -0.0290892161428928375 0.0452675260603427887
-0.00381087721325457096 -0.0290069673210382462 0.0452675260603427887
-0.00547637278214097023 -0.0236877109855413437 0.0452675260603427887
0.000499004730954766273 -0.0241251401603221893 0.0452675260603427887
0.00173361715860664845 -0.0232411250472068787 0.0452675260603427887
0.013048849068582058 -0.0307425390928983688 0.0434060320258140564
0.0100303320214152336 -0.0342275574803352356 0.0441500283777713776
0.0120590068399906158 -0.027959311380982399 0.0436500050127506256
0.0122951800003647804 -0.0276702549308538437 0.0435917936265468597
0.0145373791456222534 -0.0299364887177944183 0.0430391430854797363
0.0133175048977136612 -0.0343312658369541168 0.0433398149907588959
0.0128931552171707153 -0.0326622426509857178 0.0434444062411785126
0.00869290158152580261 -0.034250989556312561 0.0444796755909919739
0.00968762859702110291 -0.033830009400844574 0.0442344993352890015
0.0160252805799245834 -0.0343705154955387115 0.0426724068820476532
0.00724594481289386749 -0.0344123020768165588 0.0448363199830055237
0.0140122473239898682 -0.0275762863457202911 0.0431685745716094971
0.0113154835999011993 -0.0337290726602077484 0.043833266943693161
0.015497094951570034 -0.0239503383636474609 0.0428025946021080017
0.0132107716053724289 -0.0338375940918922424 0.0433661229908466339
0.00689171254634857178 -0.0326318889856338501 0.044923633337020874
0.00775555893778800964 -0.0260025281459093094 0.0447107106447219849
0.00610109046101570129 -0.0249852966517210007 0.0451184995472431183
0.0101036932319402695 -0.0230000186711549759 0.0441319495439529419
0.00633734976872801781 -0.0287279151380062103 0.0450602695345878601
0.00634568557143211365 -0.0325094126164913177 0.0450582131743431091
0.0116706155240535736 -0.0267937667667865753 0.0437457337975502014
0.00578757468611001968 -0.0341625921428203583 0.0451957732439041138
0.0111901657655835152 -0.0259448923170566559 0.0438641533255577087
0.00773240206763148308 -0.0234703663736581802 0.044716421514749527
0.00568204838782548904 -0.0290402304381132126 0.0452217832207679749
0.00974035914987325668 -0.0266777761280536652 0.0442215017974376678
0.00619032047688961029 -0.0262640304863452911 0.0450965054333209991
0.00881327688694000244 -0.0308144800364971161 0.0444500073790550232
0.0100597422569990158 -0.0274654682725667953 0.0441427789628505707
0.0212474353611469269 -0.0316334515810012817 0.0399718880653381348
0.0224734917283058167 -0.0311050266027450562 0.0393284037709236145
0.0226755384355783463 -0.0309547372162342072 0.0392223596572875977
0.0243004057556390762 -0.0262663383036851883 0.0383695662021636963
0.0203882269561290741 -0.0337991006672382355 0.0404228344559669495
0.0253481604158878326 -0.0236788168549537659 0.0378196612000465393
0.0255256295204162598 -0.0241314899176359177 0.0377265177667140961
0.0195410847663879395 -0.0304692070931196213 0.0408674515783786774
0.0207267589867115021 -0.0322552435100078583 0.0402451604604721069
0.0207638666033744812 -0.0308084115386009216 0.040225684642791748
0.0228895638138055801 -0.0311965607106685638 0.0391100309789180756
0.0173687711358070374 -0.0334264449775218964 0.0420075692236423492
0.0223935507237911224 -0.0327828265726566315 0.039370361715555191
0.0225005503743886948 -0.0332374759018421173 0.0393142029643058777
0.0256431940943002701 -0.0246483311057090759 0.0376648157835006714
0.0229269824922084808 -0.0248056873679161072 0.0390903912484645844
0.0236766450107097626 -0.0229925625026226044 0.0386969372630119324
0.0181071106344461441 -0.025020962581038475 0.041620057076215744
0.0182095076888799667 -0.0269065257161855698 0.041566312313079834
0.0224194508045911789 -0.0231371652334928513 0.0393567681312561035
0.0190622657537460327 -0.0244712941348552704 0.0411187522113323212
0.0186256784945726395 -0.0291649959981441498 0.041347891092300415
0.0195116903632879257 -0.0295687634497880936 0.0408828780055046082
0.0218291711062192917 -0.0229553598910570145 0.0396665669977664948
0.0200086236000061035 -0.0271708257496356964 0.0406220629811286926
0.0165505148470401764 -0.0301792416721582413 0.0424370244145393372
0.0200459081679582596 -0.0244352053850889206 0.0406024977564811707
0.0171750672161579132 -0.0236249696463346481 0.0421092323958873749
0.0174796730279922485 -0.0231752265244722366 0.0419493615627288818
0.0197654943913221359 -0.0225610528141260147 0.040749669075012207
0.0313602760434150696 -0.0299339815974235535 0.0326940044760704041
0.0335049182176589966 -0.0262994524091482162 0.0307940170168876648
0.0307663343846797943 -0.0305333454161882401 0.0332201942801475525
0.0317789278924465179 -0.032741893082857132 0.0323231145739555359
0.0293874386698007584 -0.0297551024705171585 0.0344417877495288849
0.0304329004138708115 -0.0293551962822675705 0.0335155874490737915
0.0331333056092262268 -0.0309265293180942535 0.0311232395470142365
0.029367789626121521 -0.0335792526602745056 0.0344591960310935974
0.0317790210247039795 -0.0266028996556997299 0.0323230326175689697
0.0321584418416023254 -0.031001705676317215 0.0319868959486484528
0.0338642485439777374 -0.0231266617774963379 0.0304756816476583481
0.0283006653189659119 -0.0310845263302326202 0.0354045853018760681
0.033743884414434433 -0.0254140105098485947 0.0305823143571615219
0.0290801394730806351 -0.0313022471964359283 0.0347140319645404816
0.0322065241634845734 -0.0278121940791606903 0.0319442935287952423
0.0266340877860784531 -0.0302260369062423706 0.0368810445070266724
0.0302354730665683746 -0.0281160473823547363 0.0336904972791671753
0.0266610067337751389 -0.0245158076286315918 0.0368571951985359192
0.0269984547048807144 -0.0302718356251716614 0.0365582406520843506
0.0262157712131738663 -0.0337957702577114105 0.037251640111207962
0.0266253873705863953 -0.0238155834376811981 0.0368887521326541901
0.0273787379264831543 -0.0291293486952781677 0.0362213440239429474
0.0259549785405397415 -0.0324718020856380463 0.0374826826155185699
0.0282113011926412582 -0.0288029257208108902 0.0354837551712989807
0.0295331086963415146 -0.0226507186889648438 0.0343127362430095673
0.0261187013238668442 -0.0237203333526849747 0.0373376384377479553
0.0259836018085479736 -0.0232303589582443237 0.0374573208391666412
0.0276572145521640778 -0.0318379439413547516 0.0359746329486370087
0.0277709905058145523 -0.0313173457980155945 0.0358738340437412262
0.0263234656304121017 -0.030349312350153923 0.037156231701374054
0.035176888108253479 -0.0339402779936790466 0.0287247411906719208
0.0388341136276721954 -0.0337303429841995239 0.0234263353049755096
0.0385251604020595551 -0.030358804389834404 0.0238739307969808578
0.0394830405712127686 -0.0300615318119525909 0.0224862005561590195
0.0387052558362483978 -0.0336722433567047119 0.0236130170524120331
0.0368101783096790314 -0.0305695347487926483 0.0263585131615400314
0.039836488664150238 -0.0251050833612680435 0.0219741445034742355
0.0383863486349582672 -0.0298928748816251755 0.0240750350058078766
0.0377338677644729614 -0.0312718972563743591 0.0250203143805265427
0.0383663251996040344 -0.0283219404518604279 0.0241040457040071487
0.0388334915041923523 -0.03391275554895401 0.0234272349625825882
0.0369955599308013916 -0.0293563399463891983 0.026089940220117569
0.0361560806632041931 -0.0334951281547546387 0.0273061394691467285
0.0348821170628070831 -0.0336392521858215332 0.0291517917066812515
0.0364782065153121948 -0.0335427932441234589 0.0268394537270069122
0.039517328143119812 -0.0232047010213136673 0.0224365275353193283
0.0388428755104541779 -0.0238950550556182861 0.0234136432409286499
0.0382451489567756653 -0.0233769584447145462 0.0242795981466770172
0.0360080040991306305 -0.0230402220040559769 0.0275206621736288071
0.0365902036428451538 -0.0283912122249603271 0.0266772005707025528
0.0377289578318595886 -0.022624526172876358 0.0250274296849966049
0.0343207493424415588 -0.0296749379485845566 0.0299650728702545166
0.0343083478510379791 -0.0294656530022621155 0.0299830380827188492
0.0365183129906654358 -0.0263377483934164047 0.0267813540995121002
0.0345569700002670288 -0.0237691141664981842 0.0296228528022766113
0.0357362739741802216 -0.0280725881457328796 0.0279143266379833221
0.0376103818416595459 -0.0237253457307815552 0.0251992177218198776
0.0366877354681491852 -0.0244078263640403748 0.0265358965843915939
0.0373430512845516205 -0.0248702578246593475 0.0255865100771188736
0.0388276316225528717 -0.0236250311136245728 0.0234357267618179321
0.0425821989774703979 -0.0320804454386234283 0.0153762036934494972
0.0423421859741210938 -0.0337659977376461029 0.0160090681165456772
0.0424334146082401276 -0.0295260064303874969 0.0157685130834579468
0.0415837280452251434 -0.0327108427882194519 0.0180089548230171204
0.0416435524821281433 -0.0340150967240333557 0.0178512074053287506
0.042918078601360321 -0.0324701182544231415 0.0144905615597963333
0.0438438095152378082 -0.0247069764882326126 0.0120496144518256187
0.0434587709605693817 -0.0294387638568878174 0.0130648799240589142
0.0414077490568161011 -0.0345150493085384369 0.0184729676693677902
0.043755851686000824 -0.0276721026748418808 0.0122815370559692383
0.0419541522860527039 -0.0307938586920499802 0.0170322228223085403
0.0435279384255409241 -0.0330152548849582672 0.0128824962303042412
0.0440522432327270508 -0.025629337877035141 0.0115000195801258087
0.0422700792551040649 -0.0323870070278644562 0.0161991994827985764
0.0442676395177841187 -0.0331818126142024994 0.0109320683404803276
0.0411153025925159454 -0.0303140431642532349 0.019244091585278511
0.0420661307871341705 -0.024590780958533287 0.0167369581758975983
0.0412727408111095428 -0.0244644228368997574 0.0188289601355791092
0.0412898138165473938 -0.024203423410654068 0.0187839455902576447
0.0415875725448131561 -0.0255935993045568466 0.0179988183081150055
0.0422481074929237366 -0.0229945313185453415 0.0162571258842945099
0.0412687100470066071 -0.0231076404452323914 0.0188395977020263672
0.0410349369049072266 -0.0253440774977207184 0.0194560028612613678
0.0412922538816928864 -0.0279479920864105225 0.018777504563331604
0.0405753739178180695 -0.0290771890431642532 0.0206677652895450592
0.0403793416917324066 -0.0297489557415246964 0.0211846567690372467
0.0411981716752052307 -0.0237739458680152893 0.0190255865454673767
0.0422815866768360138 -0.0248314570635557175 0.0161688625812530518
0.0423508249223232269 -0.0237475689500570297 0.0159862879663705826
0.0446887575089931488 -0.0318974927067756653 0.00750476028770208359
0.0455436035990715027 -0.0284138061106204987 0.000464462034869939089
0.0454432852566242218 -0.0283989887684583664 0.00129066291265189648
0.0451216474175453186 -0.0280509777367115021 0.00393960298970341682
0.045465514063835144 -0.0340156778693199158 0.00110759551171213388
0.0446369349956512451 -0.0323596373200416565 0.00793156307190656662
0.0454199276864528656 -0.0245726071298122406 0.00148305133916437626
0.0448487699031829834 -0.0304084289819002151 0.00618695793673396111
0.0449584163725376129 -0.029329763725399971 0.0052839275449514389
0.0452034063637256622 -0.0326528139412403107 0.0032662625890225172
0.0445881485939025879 -0.032799985259771347 0.00833335146307945251
0.0454922206699848175 -0.0334983170032501221 0.0008876609499566257
0.0454774647951126099 -0.0337657704949378967 0.00100917229428887367
0.0454856492578983307 -0.026500968262553215 0.000941762526053935289
0.0448940396308898926 -0.0323338061571121216 0.00581413088366389275
0.0448727421462535858 -0.0242903083562850952 0.00598951289430260658
0.0448583066463470459 -0.0256917495280504227 0.00610843393951654434
0.0443165898323059082 -0.0241450369358062744 0.0105698704719543457
0.0451512113213539124 -0.0235825758427381516 0.00369612243957817554
0.0445587784051895142 -0.0290775075554847717 0.00857523642480373383
0.0442937277257442474 -0.0246125124394893646 0.0107581531628966331
0.045131295919418335 -0.0265211295336484909 0.00386014301329851151
0.0450159832835197449 -0.0231514256447553635 0.00480982055887579918
0.044731777161359787 -0.0243518352508544922 0.00715046795085072517
0.0449846535921096802 -0.0252627488225698471 0.00506782345473766327
0.0445032492280006409 -0.0267353542149066925 0.00903256610035896301
0.0443214699625968933 -0.0279260221868753433 0.0105296531692147255
0.0452803708612918854 -0.0253187697380781174 0.0026324025820940733
0.0451548546552658081 -0.0239114388823509216 0.00366609683260321617
0.0449439361691474915 -0.0232401564717292786 0.00540318293496966362
0.0451474599540233612 -0.0255384780466556549 -0.0037270041648298502
0.0446441471576690674 -0.0230523403733968735 -0.00787217170000076294
0.0444852188229560852 -0.0229611936956644058 -0.00918106921017169952
0.045450892299413681 -0.0245819445699453354 -0.00122802844271063805
0.0452856458723545074 -0.022824091836810112 -0.00258893542923033237
0.0453649796545505524 -0.0231918711215257645 -0.00193555944133549929
0.0452966876327991486 -0.0225510671734809875 -0.00249800831079483032
0.045091286301612854 -0.0266045574098825455 -0.0041896207258105278
0.044774271547794342 -0.0230383221060037613 -0.00680048065260052681
0.0453109629452228546 -0.0311171486973762512 -0.00238044513389468193
0.0452239960432052612 -0.0226871650665998459 -0.00309668038971722126
0.0448967292904853821 -0.0229028183966875076 -0.00579194584861397743
0.0451819635927677155 -0.0276210550218820572 -0.00344284763559699059
0.0450817272067070007 -0.0230324920266866684 -0.00426836870610713959
0.045156136155128479 -0.0225753448903560638 -0.00365555589087307453
0.0444156788289546967 -0.0249254964292049408 -0.00975377950817346573
0.044457361102104187 -0.0293735731393098831 -0.00941048562526702881
0.0452596507966518402 -0.0344751551747322083 -0.002803044393658638
0.0449822433292865753 -0.0302438344806432724 -0.00508769042789936066
0.0451500453054904938 -0.0340751186013221741 -0.00370572367683053017
0.0447805412113666534 -0.0286304689943790436 -0.00674887141212821007
0.0452131330966949463 -0.0344203896820545197 -0.00318614114075899124
0.044865734875202179 -0.0305364653468132019 -0.00604723533615469933
0.0447880551218986511 -0.033269047737121582 -0.00668696919456124306
0.0453582592308521271 -0.0341874472796916962 -0.00199091900140047073
0.0449527055025100708 -0.0326899997889995575 -0.00533097237348556519
0.0443895608186721802 -0.0240722391754388809 -0.0099688749760389328
0.0449906475841999054 -0.0291744954884052277 -0.00501848896965384483
0.0452348142862319946 -0.0315869040787220001 -0.00300758425146341324
0.040486600250005722 -0.0272702854126691818 -0.0209018439054489136
0.0411443822085857391 -0.0344749651849269867 -0.0191674157977104187
0.0422418676316738129 -0.0293587725609540939 -0.0162735823541879654
0.0406519845128059387 -0.0328568145632743835 -0.0204657558351755142
0.0414941087365150452 -0.0316004380583763123 -0.018245261162519455
0.041698310524225235 -0.0270164608955383301 -0.0177068281918764114
0.0408983193337917328 -0.0341115742921829224 -0.019816223531961441
0.0417880676686763763 -0.0289591681212186813 -0.0174701586365699768
0.0430942773818969727 -0.0338286794722080231 -0.0140259712934494019
0.041753966361284256 -0.0322525463998317719 -0.0175600722432136536
0.04338822141289711 -0.0326428748667240143 -0.0132509032264351845
0.0417266786098480225 -0.0296060051769018173 -0.0176320299506187439
0.0406083203852176666 -0.0333243720233440399 -0.0205808877944946289
0.0424363985657691956 -0.0338008217513561249 -0.0157606508582830429
0.0436225980520248413 -0.0337529219686985016 -0.0126328989863395691
0.0412725172936916351 -0.0245731361210346222 -0.0188295468688011169
0.0440757498145103455 -0.0263977795839309692 -0.0114380363374948502
0.0416614003479480743 -0.0258758347481489182 -0.0178041569888591766
0.0429356619715690613 -0.0286639351397752762 -0.0144442059099674225
0.0427784472703933716 -0.0296426229178905487 -0.0148587459698319435
0.0412900000810623169 -0.024035237729549408 -0.0187834519892930984
0.0417545661330223083 -0.0241467021405696869 -0.0175584964454174042
0.0438849292695522308 -0.0238953046500682831 -0.0119411833584308624
0.0432204380631446838 -0.0310907457023859024 -0.013693307526409626
0.043509896844625473 -0.029111495241522789 -0.012930065393447876
0.043172881007194519 -0.0303213931620121002 -0.0138187054544687271
0.0438189543783664703 -0.0225241184234619141 -0.0121151572093367577
0.0437383577227592468 -0.0308461375534534454 -0.0123276747763156891
0.0427237078547477722 -0.0290062520653009415 -0.0150030795484781265
0.0421652793884277344 -0.0277037564665079117 -0.0164755340665578842
0.0342369265854358673 -0.0344721786677837372 -0.0300865117460489273
0.034944433718919754 -0.0262074507772922516 -0.0290615111589431763
0.0360856354236602783 -0.0318902432918548584 -0.0274081919342279434
0.0383943021297454834 -0.0341189615428447723 -0.0240635126829147339
0.0347483605146408081 -0.0237116832286119461 -0.0293455701321363449
0.0348396487534046173 -0.0342000722885131836 -0.0292133167386054993
0.0343274958431720734 -0.0307593792676925659 -0.0299552977085113525
0.0346368998289108276 -0.0312858559191226959 -0.0295070484280586243
0.0361403636634349823 -0.0297828037291765213 -0.0273289084434509277
0.0360917523503303528 -0.0270431265234947205 -0.0273993313312530518
0.0385708659887313843 -0.0313587673008441925 -0.0238077137619256973
0.0347964204847812653 -0.0319228470325469971 -0.029275946319103241
0.0352144315838813782 -0.0309522412717342377 -0.0286703519523143768
0.034526437520980835 -0.0260915420949459076 -0.0296670813113451004
0.0376610234379768372 -0.0344300456345081329 -0.0251258499920368195
0.0390084758400917053 -0.0283601954579353333 -0.0231737289577722549
0.0389101840555667877 -0.0271056219935417175 -0.0233161281794309616
0.0397413857281208038 -0.0235904473811388016 -0.0221119225025177002
0.0387370176613330841 -0.0250715930014848709 -0.0235670022666454315
0.0386924296617507935 -0.0287775956094264984 -0.0236315950751304626
0.0368190817534923553 -0.0261198729276657104 -0.0263456143438816071
0.0362147465348243713 -0.0227018557488918304 -0.0272211451083421707
0.0381493531167507172 -0.0234540738165378571 -0.0244183856993913651
0.0351273790001869202 -0.0234938878566026688 -0.0287964697927236557
0.0365740172564983368 -0.0233620516955852509 -0.0267006475478410721
0.0392778404057025909 -0.031130542978644371 -0.0227834843099117279
0.0396230630576610565 -0.0259944815188646317 -0.0222833435982465744
0.0379753224551677704 -0.0241345856338739395 -0.0246705096215009689
0.0376094356179237366 -0.0271264202892780304 -0.0252005867660045624
0.0296579152345657349 -0.0330325514078140259 -0.0342021659016609192
0.0265563130378723145 -0.0292109493166208267 -0.0369499437510967255
0.0277831908315420151 -0.0272326096892356873 -0.0358630269765853882
0.0319898948073387146 -0.0324533171951770782 -0.0321362130343914032
0.0272205770015716553 -0.0269635654985904694 -0.0363614596426486969
0.0265893023461103439 -0.026451529935002327 -0.0369207188487052917
0.028444923460483551 -0.034190002828836441 -0.0352767817676067352
0.027866927906870842 -0.0312951654195785522 -0.0357888415455818176
0.0323089174926280975 -0.0340888015925884247 -0.0318535827100276947
0.0283481776714324951 -0.0304857790470123291 -0.0353624932467937469
0.0259686969220638275 -0.0249097235500812531 -0.0374705269932746887
0.0264483802020549774 -0.0324215888977050781 -0.0370455682277679443
0.033098910003900528 -0.0340337567031383514 -0.0311537105590105057
0.0270904339849948883 -0.0307098310440778732 -0.0364767573773860931
0.027684289962053299 -0.0294906161725521088 -0.0359506458044052124
0.032368779182434082 -0.0255443323403596878 -0.0318005494773387909
0.0320132113993167877 -0.0267222784459590912 -0.0321155525743961334
0.0302710290998220444 -0.028147038072347641 -0.0336589962244033813
0.0328788161277770996 -0.0251738391816616058 -0.03134869784116745
0.030542740598320961 -0.0237995944917201996 -0.0334182754158973694
0.0326997935771942139 -0.0236639548093080521 -0.0315072983503341675
0.0333120338618755341 -0.0252711828798055649 -0.0309648960828781128
0.0310300011187791824 -0.0252020265907049179 -0.0329866036772727966
0.0310038253664970398 -0.0261362381279468536 -0.033009793609380722
0.0325175561010837555 -0.0239913947880268097 -0.0316687449812889099
0.029822230339050293 -0.0260038282722234726 -0.0340565964579582214
0.0273027084767818451 -0.0237691588699817657 -0.0362886935472488403
0.0262986067682504654 -0.0230004377663135529 -0.0371782518923282623
0.0339719168841838837 -0.0251200217753648758 -0.0303802955895662308
0.0175349507480859756 -0.0296563282608985901 -0.0419203490018844604
0.0172366499900817871 -0.0306662507355213165 -0.0420769080519676208
0.0228478778153657913 -0.0317457877099514008 -0.0391319096088409424
0.0167819391936063766 -0.0284795518964529037 -0.0423155613243579865
0.0207467544823884964 -0.0323910936713218689 -0.0402346663177013397
0.0176181197166442871 -0.0327235572040081024 -0.0418766997754573822
0.0229765288531780243 -0.0340007282793521881 -0.0390643887221813202
0.0243001040071249008 -0.0337753929197788239 -0.0383697226643562317
0.0232575088739395142 -0.0319575704634189606 -0.0389169193804264069
0.0176122784614562988 -0.030643850564956665 -0.0418797656893730164
0.0210618488490581512 -0.0286988336592912674 -0.04006928950548172
0.0191556699573993683 -0.0326053276658058167 -0.0410697311162948608
0.0218967311084270477 -0.0330060571432113647 -0.0396311096847057343
0.0187630429863929749 -0.0336966924369335175 -0.0412757992744445801
0.0178596880286931992 -0.0272807925939559937 -0.0417499169707298279
0.024805024266242981 -0.0271739605814218521 -0.038104720413684845
0.0248413123190402985 -0.0329261608421802521 -0.0380856730043888092
0.0247056707739830017 -0.0305011235177516937 -0.0381568670272827148
0.0226671639829874039 -0.0279260054230690002 -0.0392267554998397827
0.024044698104262352 -0.0228973571211099625 -0.0385037735104560852
0.0234236083924770355 -0.0225560739636421204 -0.0388297438621520996
0.0254285931587219238 -0.0267257653176784515 -0.0377774462103843689
0.0225282721221446991 -0.0264651030302047729 -0.0392996519804000854
0.0244732126593589783 -0.0262166969478130341 -0.0382788702845573425
0.01915767602622509 -0.0228248927742242813 -0.0410686768591403961
0.0258007682859897614 -0.0278763342648744583 -0.0375821143388748169
0.0222619511187076569 -0.0252589676529169083 -0.0394394285976886749
0.023368053138256073 -0.029767550528049469 -0.038858901709318161
0.0200314577668905258 -0.0267757195979356766 -0.0406100824475288391
0.0107545070350170135 -0.0295431315898895264 -0.0439715348184108734
0.0108388308435678482 -0.0293092094361782074 -0.0439507514238357544
0.00860488135367631912 -0.0340910963714122772 -0.0445013716816902161
0.00810208357870578766 -0.0279424022883176804 -0.0446253009140491486
0.00919291749596595764 -0.0310678724199533463 -0.0443564355373382568
0.0116989025846123695 -0.0308953076601028442 -0.0437387637794017792
0.00665113795548677444 -0.033906206488609314 -0.0449829250574111938
0.00607465114444494247 -0.0341205932199954987 -0.0451250188052654266
0.00946492888033390045 -0.02989940345287323 -0.0442893877625465393
0.00552686676383018494 -0.0236802175641059875 -0.0452600345015525818
0.0056919795460999012 -0.0246120411902666092 -0.0452193394303321838
0.0139604844152927399 -0.0344988144934177399 -0.0431813336908817291
0.00886424072086811066 -0.0294806379824876785 -0.0444374457001686096
0.00840967241674661636 -0.0287918858230113983 -0.0445494875311851501
0.00999870151281356812 -0.0307899452745914459 -0.0441578254103660583
0.0142662599682807922 -0.0261586233973503113 -0.0431059673428535461
0.00606806157156825066 -0.0227241907268762589 -0.045126643031835556
0.0141912642866373062 -0.0262368768453598022 -0.0431244522333145142
0.0126538127660751343 -0.0269320383667945862 -0.0435033999383449554
0.013524400070309639 -0.0304952487349510193 -0.0432888194918632507
