ply
format ascii 1.0
element vertex 712
property float x
property float y
property float z
end_header
-0.00677972007542848587 -0.068599998950958252 0.0164306256920099258
0.00323623046278953552 -0.068599998950958252 0.0141557194292545319
-0.00694363843649625778 -0.068599998950958252 0.0154325272887945175
0.0137925595045089722 -0.068599998950958252 0.0122755579650402069
-0.00195232639089226723 -0.068599998950958252 0.0158549752086400986
0.000423612538725137711 -0.068599998950958252 0.0164072159677743912
0.0106434328481554985 -0.068599998950958252 0.0132057312875986099
-0.00429738312959671021 -0.068599998950958252 0.017298353835940361
0.00125976046547293663 -0.068599998950958252 0.0174495112150907516
0.00730840209871530533 -0.068599998950958252 0.0154468007385730743
0.00767956208437681198 -0.068599998950958252 0.0163810551166534424
0.00796095840632915497 -0.068599998950958252 0.0163623616099357605
0.0177181623876094818 -0.068599998950958252 0.00338211981579661369
0.0174288582056760788 -0.068599998950958252 3.50391492247581482e-05
0.0169814173132181168 -0.068599998950958252 -0.000439662951976060867
0.0149269029498100281 -0.068599998950958252 0.00562032964080572128
0.0165704507380723953 -0.068599998950958252 5.92404976487159729e-05
0.0163218490779399872 -0.068599998950958252 0.000481837429106235504
0.0140671180561184883 -0.068599998950958252 -0.000432421453297138214
0.0145908612757921219 -0.068599998950958252 -0.000401645898818969727
0.0148575510829687119 -0.068599998950958252 -0.000582435168325901031
0.0141305597499012947 -0.068599998950958252 0.00213934388011693954
0.0148724541068077087 -0.068599998950958252 -0.00807467661798000336
0.0131806144490838051 -0.068599998950958252 -0.00972876511514186859
0.0116049572825431824 -0.068599998950958252 -0.0130373258143663406
0.0137739423662424088 -0.068599998950958252 -0.00848464109003543854
0.0115585653111338615 -0.068599998950958252 -0.0126014081761240959
0.0120334029197692871 -0.068599998950958252 -0.0128579959273338318
0.0126512832939624786 -0.068599998950958252 -0.00220733322203159332
0.00836446881294250488 -0.068599998950958252 -0.0127908363938331604
0.0112359095364809036 -0.068599998950958252 -0.00911236368119716644
0.0108522567898035049 -0.068599998950958252 -0.00550991855561733246
0.0103646237403154373 -0.068599998950958252 -0.0113939382135868073
0.00985241774469614029 -0.068599998950958252 -0.00980558432638645172
0.0125214718282222748 -0.068599998950958252 0.00319562852382659912
0.0102628506720066071 -0.068599998950958252 -0.0136046595871448517
0.00927642360329627991 -0.068599998950958252 -0.00543961301445960999
0.0102101750671863556 -0.068599998950958252 0.000710269436240196228
0.00622197706252336502 -0.068599998950958252 -0.0117262890562415123
0.00586631568148732185 -0.068599998950958252 -0.0146798379719257355
0.00648980727419257164 -0.068599998950958252 -0.0156720932573080063
0.00747019797563552856 -0.068599998950958252 -0.00924582034349441528
0.00948521401733160019 -0.068599998950958252 0.000618694350123405457
0.0109325610101222992 -0.068599998950958252 0.00277363508939743042
0.00657893996685743332 -0.068599998950958252 -0.0112739875912666321
0.00354566238820552826 -0.068599998950958252 -0.00913288816809654236
0.000660787336528301239 -0.068599998950958252 -0.0140785593539476395
0.00390836503356695175 -0.068599998950958252 -0.0124822072684764862
0.00627884827554225922 -0.068599998950958252 -0.00381257291883230209
-0.000449283805210143328 -0.068599998950958252 -0.0172267500311136246
0.00462924502789974213 -0.068599998950958252 -0.00855468586087226868
-0.00122732808813452721 -0.068599998950958252 -0.0176280364394187927
0.00438869372010231018 -0.068599998950958252 -0.00646447297185659409
0.0115598477423191071 -0.068599998950958252 0.00778064318001270294
0.00854353420436382294 -0.068599998950958252 -0.0010389816015958786
0.00631460500881075859 -0.068599998950958252 -2.43429094552993774e-05
-0.000491667073220014572 -0.068599998950958252 -0.0149529874324798584
-0.00596190802752971649 -0.068599998950958252 -0.0167215242981910706
0.00310529489070177078 -0.068599998950958252 -0.00731289573013782501
0.00906252488493919373 -0.068599998950958252 0.00530230812728404999
0.00184581265784800053 -0.068599998950958252 -0.0105985421687364578
-0.00456417584791779518 -0.068599998950958252 -0.0162363331764936447
0.00216289982199668884 -0.068599998950958252 -0.00810935627669095993
0.00615330878645181656 -0.068599998950958252 -0.000127043575048446655
0.00942505151033401489 -0.068599998950958252 0.00401497446000576019
0.0121529875323176384 -0.068599998950958252 0.00933415628969669342
-0.00813289638608694077 -0.068599998950958252 -0.0156233338639140129
0.00990144535899162292 -0.068599998950958252 0.00733749568462371826
0.00262076873332262039 -0.068599998950958252 -0.000596797093749046326
0.0113968681544065475 -0.068599998950958252 0.00929587893187999725
-0.00541297672316431999 -0.068599998950958252 -0.0155152939260005951
-0.00814453326165676117 -0.068599998950958252 -0.0151001187041401863
0.00104326289147138596 -0.068599998950958252 -0.0028799399733543396
-0.00747043080627918243 -0.068599998950958252 -0.0167102273553609848
-0.000854032114148139954 -0.068599998950958252 -0.00574436690658330917
0.00328313466161489487 -0.068599998950958252 -0.00261402036994695663
-0.00518259964883327484 -0.068599998950958252 -0.0114126522094011307
-0.0135371042415499687 -0.068599998950958252 -0.0123812025412917137
0.00851761270314455032 -0.068599998950958252 0.00630845874547958374
-0.00239324197173118591 -0.068599998950958252 -0.00303209200501441956
0.00508547481149435043 -0.068599998950958252 0.00378571543842554092
-0.00333439558744430542 -0.068599998950958252 -0.00566386338323354721
-0.00115823931992053986 -0.068599998950958252 -0.00438001006841659546
-0.0119753060862421989 -0.068599998950958252 -0.0119945527985692024
-0.0110380109399557114 -0.068599998950958252 -0.0134052420035004616
0.000918850302696228027 -0.068599998950958252 -0.000399524345993995667
0.00324441958218812943 -0.068599998950958252 0.000708621926605701447
-0.000165402889251708984 -0.068599998950958252 -0.00298732612282037735
-0.00269524287432432175 -0.068599998950958252 -0.0027956496924161911
0.00180238671600818634 -0.068599998950958252 0.00160020496696233749
-0.0015224795788526535 -0.068599998950958252 0.00108733493834733963
-0.000950113870203495026 -0.068599998950958252 0.00111482199281454086
-0.0137546230107545853 -0.068599998950958252 -0.0108343688771128654
-0.00599325075745582581 -0.068599998950958252 -0.00498234294354915619
0.0103346798568964005 -0.068599998950958252 0.00939040631055831909
-0.00638207420706748962 -0.068599998950958252 -0.00485191168263554573
-0.00628336425870656967 -0.068599998950958252 -0.00327337021008133888
-0.0116501022130250931 -0.068599998950958252 -0.00902410782873630524
-0.014160526916384697 -0.068599998950958252 -0.0105687323957681656
-0.014365500770509243 -0.068599998950958252 -0.0110412901267409325
-0.00404182635247707367 -0.068599998950958252 -0.00237284833565354347
-0.00578561611473560333 -0.068599998950958252 0.000608093570917844772
-0.00858169421553611755 -0.068599998950958252 -0.00208452437072992325
-0.00120856426656246185 -0.068599998950958252 0.0034012780524790287
-0.00535271689295768738 -0.068599998950958252 0.00148259894922375679
0.00698187388479709625 -0.068599998950958252 0.00813208520412445068
-0.010547783225774765 -0.068599998950958252 -0.000657665077596902847
-0.0101486491039395332 -0.068599998950958252 -0.00122603168711066246
-0.0137124210596084595 -0.068599998950958252 -0.00418213382363319397
0.0101105459034442902 -0.068599998950958252 0.0100993216037750244
-0.0102808289229869843 -0.068599998950958252 -0.00188562110997736454
-0.0166929773986339569 -0.068599998950958252 -0.00598386768251657486
-0.0160681586712598801 -0.068599998950958252 -0.00368179287761449814
-0.0105126909911632538 -0.068599998950958252 0.000765437725931406021
-0.0149295255541801453 -0.068599998950958252 -0.00028947833925485611
-0.0155607219785451889 -0.068599998950958252 -0.00120178377255797386
0.00287303701043128967 -0.068599998950958252 0.00777321727946400642
0.00166297517716884613 -0.068599998950958252 0.00701061869040131569
-0.0094720376655459404 -0.068599998950958252 0.00122994603589177132
-0.0139440707862377167 -0.068599998950958252 -0.00199525291100144386
-0.0107370121404528618 -0.068599998950958252 -0.000225962139666080475
-0.0120364250615239143 -0.068599998950958252 0.00149043556302785873
-0.00463197287172079086 -0.068599998950958252 0.00284434575587511063
0.000487633049488067627 -0.068599998950958252 0.00541811902076005936
-0.0171461477875709534 -0.075499996542930603 0.000746543519198894501
-0.0163721460849046707 -0.075499996542930603 0.00428785011172294617
-0.0170762054622173309 -0.075499996542930603 -0.00279748765751719475
-0.0164603665471076965 -0.075499996542930603 -0.00674661807715892792
-0.0174033958464860916 -0.075499996542930603 -0.00365508953109383583
-0.0150579195469617844 -0.075499996542930603 -0.0025899568572640419
-0.0159504637122154236 -0.075499996542930603 -0.00531119666993618011
-0.0138971488922834396 -0.075499996542930603 0.00974383298307657242
-0.0144773153588175774 -0.075499996542930603 0.000778275541961193085
-0.0133691756054759026 -0.075499996542930603 -0.000229374505579471588
-0.0114835258573293686 -0.075499996542930603 -0.00985470227897167206
-0.0134036289528012276 -0.075499996542930603 0.00183328683488070965
-0.0126896705478429794 -0.075499996542930603 -0.000825778581202030182
-0.0131426248699426651 -0.075499996542930603 0.00558724952861666679
-0.0134341949597001076 -0.075499996542930603 -0.00185245415195822716
-0.0124453948810696602 -0.075499996542930603 0.00133884022943675518
-0.0091730654239654541 -0.075499996542930603 -0.0140523612499237061
-0.0114885848015546799 -0.075499996542930603 -0.00282576773315668106
-0.0110620874911546707 -0.075499996542930603 -0.00944824051111936569
-0.0078726746141910553 -0.075499996542930603 -0.0149410655722022057
-0.0123094776645302773 -0.075499996542930603 0.0030808555893599987
-0.00722284428775310516 -0.075499996542930603 -0.0159274749457836151
-0.00466606346890330315 -0.075499996542930603 -0.0146320704370737076
-0.0125949569046497345 -0.075499996542930603 0.00764112640172243118
-0.00761092221364378929 -0.075499996542930603 -0.011029466986656189
-0.0086509333923459053 -0.075499996542930603 -0.00615532742813229561
-0.00970815587788820267 -0.075499996542930603 -0.00159265892580151558
-0.0091917477548122406 -0.075499996542930603 -0.00244180904701352119
-0.00533012347295880318 -0.075499996542930603 -0.0114923827350139618
-0.0103234536945819855 -0.075499996542930603 0.00258685462176799774
-0.00542935635894536972 -0.075499996542930603 -0.0155250215902924538
0.00158033892512321472 -0.075499996542930603 -0.0181594658643007278
-0.0024252778384834528 -0.075499996542930603 -0.0159377306699752808
-0.00679710973054170609 -0.075499996542930603 -0.0049253939650952816
-0.00441037863492965698 -0.075499996542930603 -0.00991767924278974533
-0.002379261190071702 -0.075499996542930603 -0.017206139862537384
-0.00341304508037865162 -0.075499996542930603 -0.0146973384544253349
-0.00239637540653347969 -0.075499996542930603 -0.0139564061537384987
-0.00816171802580356598 -0.075499996542930603 -0.000925629399716854095
-0.00870082713663578033 -0.075499996542930603 0.00164070585742592812
-0.00740305148065090179 -0.075499996542930603 -0.00205240305513143539
-0.00160739640705287457 -0.075499996542930603 -0.00976622290909290314
0.000312709948047995567 -0.075499996542930603 -0.0132953310385346413
-0.00203143944963812828 -0.075499996542930603 -0.00837295129895210266
-0.000796237727627158165 -0.075499996542930603 -0.0121526932343840599
-0.000787097960710525513 -0.075499996542930603 -0.00727169681340456009
0.00357755925506353378 -0.075499996542930603 -0.0144843785092234612
-0.00234691472724080086 -0.075499996542930603 -0.00826837401837110519
-0.00827080477029085159 -0.075499996542930603 0.00236434326507151127
0.00446532154455780983 -0.075499996542930603 -0.017695404589176178
-0.00891180522739887238 -0.075499996542930603 0.00477340538054704666
-0.00817492138594388962 -0.075499996542930603 0.0015111059183254838
0.00735769234597682953 -0.075499996542930603 -0.0138736236840486526
0.0071417931467294693 -0.075499996542930603 -0.0128149706870317459
-0.00199703127145767212 -0.075499996542930603 -0.00170489028096199036
-0.000780728994868695736 -0.075499996542930603 -0.00631420779973268509
-0.0019277939572930336 -0.075499996542930603 -0.00340982014313340187
0.0074090929701924324 -0.075499996542930603 -0.0153376786038279533
0.001976777333766222 -0.075499996542930603 -0.00823362544178962708
0.00746617652475833893 -0.075499996542930603 -0.0126454811543226242
0.000320633873343467712 -0.075499996542930603 -0.00493924226611852646
0.00657812599092721939 -0.075499996542930603 -0.0139105310663580894
-0.00939295068383216858 -0.075499996542930603 0.00628263689577579498
-0.00298476684838533401 -0.075499996542930603 -0.00307768164202570915
0.00214564474299550056 -0.075499996542930603 -0.00439194310456514359
0.00716222077608108521 -0.075499996542930603 -0.00772063760086894035
-0.00167468097060918808 -0.075499996542930603 0.0002455124631524086
0.00763786351308226585 -0.075499996542930603 -0.0109752137213945389
0.00125326262786984444 -0.075499996542930603 -0.00473842723295092583
0.0096589997410774231 -0.075499996542930603 -0.0115290665999054909
0.00488900952041149139 -0.075499996542930603 -0.00454613193869590759
0.0103382663801312447 -0.075499996542930603 -0.0111481687054038048
0.00713182613253593445 -0.075499996542930603 -0.0106169171631336212
-0.00387114030309021473 -0.075499996542930603 0.00126385851763188839
-0.00330592505633831024 -0.075499996542930603 0.00264774821698665619
-0.000949761364609003067 -0.075499996542930603 -0.000689198262989521027
-0.00158190750516951084 -0.075499996542930603 0.00208275439217686653
0.0114760808646678925 -0.075499996542930603 -0.00808972772210836411
-0.00198224745690822601 -0.075499996542930603 0.00301801413297653198
-0.00446168053895235062 -0.075499996542930603 0.00413331389427185059
0.0101939523592591286 -0.075499996542930603 -0.00775251304730772972
-0.00394757324829697609 -0.075499996542930603 0.00453070737421512604
0.00797488167881965637 -0.075499996542930603 -0.00657856510952115059
0.00556567357853055 -0.075499996542930603 -0.0024844869039952755
0.000804478302597999573 -0.075499996542930603 0.000868339091539382935
0.00625188369303941727 -0.075499996542930603 -0.00179165881127119064
0.00557934306561946869 -0.075499996542930603 -0.00268677948042750359
-0.00319418171420693398 -0.075499996542930603 0.00413209106773138046
0.00715407170355319977 -0.075499996542930603 0.00041723158210515976
0.013364759273827076 -0.075499996542930603 -0.00465659517794847488
0.013019142672419548 -0.075499996542930603 -0.00590303726494312286
-0.0058855721727013588 -0.075499996542930603 0.00717336125671863556
0.0131051326170563698 -0.075499996542930603 -0.00262642558664083481
0.0102525632828474045 -0.075499996542930603 -0.00226599443703889847
-0.0032508564181625843 -0.075499996542930603 0.00591256888583302498
0.00176994968205690384 -0.075499996542930603 0.00240560993552207947
0.00192352640442550182 -0.075499996542930603 0.00157310441136360168
-0.00480962591245770454 -0.075499996542930603 0.0072332439012825489
0.00124054960906505585 -0.075499996542930603 0.00402736198157072067
0.00305026303976774216 -0.075499996542930603 0.003015897236764431
0.00730846868827939034 -0.075499996542930603 0.00313401501625776291
0.0104551790282130241 -0.075499996542930603 0.00058426358737051487
0.00803061574697494507 -0.075499996542930603 0.00253735017031431198
0.00341985234990715981 -0.075499996542930603 0.0036538571584969759
0.00602967757731676102 -0.075499996542930603 0.00455401092767715454
-0.00158654525876045227 -0.075499996542930603 0.0065103643573820591
0.0109708206728100777 -0.075499996542930603 0.000521471025422215462
-0.00971678551286458969 -0.075499996542930603 0.0101292133331298828
0.0150818470865488052 -0.075499996542930603 7.6867174357175827e-05
-0.00263880472630262375 -0.075499996542930603 0.00754523929208517075
0.0138427503407001495 -0.075499996542930603 0.000555050559341907501
0.00172430137172341347 -0.075499996542930603 0.00706973206251859665
0.0110699888318777084 -0.075499996542930603 0.003239812096580863
0.00322581990621984005 -0.075499996542930603 0.0062237088568508625
0.00256319856271147728 -0.075499996542930603 0.00665681343525648117
0.0156226456165313721 -0.075499996542930603 0.00477217743173241615
0.00839394889771938324 -0.075499996542930603 0.00664167897775769234
0.0143777672201395035 -0.075499996542930603 0.00249587930738925934
-0.000915286422241479158 -0.075499996542930603 0.00740731274709105492
-0.00815930869430303574 -0.075499996542930603 0.0103429416194558144
0.00964825041592121124 -0.075499996542930603 0.00606154510751366615
0.0109689431264996529 -0.075499996542930603 0.00776649918407201767
0.00638735527172684669 -0.075499996542930603 0.00779424374923110008
0.00771810952574014664 -0.075499996542930603 0.00897489581257104874
0.00918802712112665176 -0.075499996542930603 0.00774853955954313278
0.0108325658366084099 -0.075499996542930603 0.00926103163510560989
0.00983836781233549118 -0.075499996542930603 0.00918043963611125946
0.0127198360860347748 -0.075499996542930603 0.00750372977927327156
0.00596090871840715408 -0.075499996542930603 0.0096722133457660675
-0.0032817586325109005 -0.075499996542930603 0.0105197066441178322
0.0151531361043453217 -0.075499996542930603 0.00952053442597389221
0.0141050517559051514 -0.075499996542930603 0.0113848261535167694
0.000909850466996431351 -0.075499996542930603 0.0111938593909144402
0.014031299389898777 -0.075499996542930603 0.0106015745550394058
0.00786208361387252808 -0.075499996542930603 0.0109586808830499649
0.00394253619015216827 -0.075499996542930603 0.0119300717487931252
0.0129701839759945869 -0.075499996542930603 0.0113505804911255836
0.00860614515841007233 -0.075499996542930603 0.0146982558071613312
0.010067853145301342 -0.075499996542930603 0.014223836362361908
-0.00551216397434473038 -0.075499996542930603 0.0124755529686808586
0.00735825859010219574 -0.075499996542930603 0.0144469011574983597
-0.00178318331018090248 -0.075499996542930603 0.0130748189985752106
-0.00314559205435216427 -0.075499996542930603 0.0123293790966272354
0.00518703088164329529 -0.075499996542930603 0.0166108403354883194
0.000349526992067694664 -0.075499996542930603 0.0143379839137196541
-0.0121494745835661888 -0.075499996542930603 0.0125036714598536491
0.00622873706743121147 -0.075499996542930603 0.014778592623770237
-0.00205746013671159744 -0.075499996542930603 0.0157705172896385193
-0.00568981468677520752 -0.075499996542930603 0.0152000412344932556
0.00495811318978667259 -0.075499996542930603 0.0176639016717672348
-0.0037858225405216217 -0.075499996542930603 0.0168676264584064484
-0.00205652695149183273 -0.075499996542930603 0.0180539488792419434
-0.00458509428426623344 -0.075499996542930603 0.0177362058311700821
-0.0150498263537883759 -0.075499996542930603 0.00959322415292263031
-0.0184839591383934021 -0.0745394080877304077 0.000132103683426976204
-0.0180601980537176132 -0.0691611245274543762 0.00362210022285580635
-0.0179863870143890381 -0.0689597204327583313 0.00422999123111367226
-0.0180139746516942978 -0.0697060525417327881 0.00400278717279434204
-0.0180172771215438843 -0.0720153450965881348 0.00397558882832527161
-0.0170792583376169205 -0.0730662643909454346 0.00675605423748493195
-0.0167936496436595917 -0.0709428265690803528 0.00750914029777050018
-0.0178284086287021637 -0.0688171014189720154 0.00478071393445134163
-0.017435094341635704 -0.0694957002997398376 0.00581779610365629196
-0.0150502240285277367 -0.0754362419247627258 0.0105252480134367943
-0.0141955753788352013 -0.074072226881980896 0.0117634208872914314
-0.014064474031329155 -0.0741052702069282532 0.0119533538818359375
-0.0159710384905338287 -0.07084636390209198 0.00919121876358985901
-0.0157803930342197418 -0.0701723769307136536 0.00946741551160812378
-0.0108191231265664101 -0.0702770724892616272 0.0149506311863660812
-0.0127651570364832878 -0.0747914835810661316 0.0132265966385602951
-0.0134797729551792145 -0.0744025558233261108 0.0125935012474656105
-0.0137090152129530907 -0.0748011544346809387 0.0123904114589095116
-0.00785445980727672577 -0.0710224583745002747 0.0166185162961483002
-0.00661769090220332146 -0.0710022300481796265 0.0172676220536231995
-0.00990858487784862518 -0.069123096764087677 0.0155404265969991684
-0.00955692492425441742 -0.0705591142177581787 0.0157249942421913147
-0.00509946467354893684 -0.0746391043066978455 0.0176578368991613388
-0.00442899856716394424 -0.0732964277267456055 0.0178230926394462585
-0.00595459621399641037 -0.0712998360395431519 0.0174470655620098114
-0.00617002975195646286 -0.073227904736995697 0.0173939671367406845
-0.0028575691394507885 -0.0695525780320167542 0.0182104147970676422
0.000384957762435078621 -0.075433678925037384 0.0183651149272918701
0.000352433766238391399 -0.0730627328157424927 0.0183651149272918701
0.000277861254289746284 -0.0712846070528030396 0.0183651149272918701
2.85973073914647102e-05 -0.0687881633639335632 0.0183651149272918701
0.00588806904852390289 -0.0741690993309020996 0.0174634642899036407
0.00549523439258337021 -0.0705038830637931824 0.0175602883100509644
0.00375001551583409309 -0.0721995308995246887 0.0179904475808143616
0.00389469088986515999 -0.0699645578861236572 0.0179547872394323349
0.00843073800206184387 -0.0725324153900146484 0.0163160618394613266
0.0101148495450615883 -0.07202109694480896 0.0154321715235710144
0.00677928607910871506 -0.0732090547680854797 0.0171828102320432663
0.00888111535459756851 -0.0699955970048904419 0.0160796865820884705
0.0127278771251440048 -0.0725117102265357971 0.0132596231997013092
0.0109902247786521912 -0.074647270143032074 0.014799049124121666
0.0126249734312295914 -0.0704338625073432922 0.0133507885038852692
0.0115061867982149124 -0.0688300430774688721 0.0143419457599520683
0.014759305864572525 -0.0743762850761413574 0.0109467161819338799
0.0146323246881365776 -0.0734643936157226562 0.0111306803300976753
0.0150048611685633659 -0.0744501873850822449 0.0105909677222371101
0.0141610139980912209 -0.0725962594151496887 0.0118134906515479088
0.014451807364821434 -0.0729186162352561951 0.0113922040909528732
0.0150489229708909988 -0.0687043964862823486 0.0105271339416503906
0.0168899931013584137 -0.0741246268153190613 0.00725510576739907265
0.0172956734895706177 -0.0722139850258827209 0.00618541566655039787
0.0164074692875146866 -0.0726343318819999695 0.00852741394191980362
0.0165202021598815918 -0.0719485729932785034 0.00823016464710235596
0.0182151570916175842 -0.07336464524269104 0.00234589306637644768
0.0181461554020643234 -0.073230251669883728 0.00291418167762458324
0.018263593316078186 -0.0693675056099891663 0.00194698944687843323
0.0180960409343242645 -0.0716127455234527588 0.00332691776566207409
0.0184320230036973953 -0.0736928656697273254 -0.00055983872152864933
0.0184673015028238297 -0.071789272129535675 -0.000269301468506455421
0.0179916433990001678 -0.0697325542569160461 -0.00418670289218425751
0.0180584117770195007 -0.070428110659122467 -0.00363681535236537457
0.016575150191783905 -0.0751462578773498535 -0.0080852806568145752
0.0165129844099283218 -0.0700509622693061829 -0.00824919715523719788
0.0171077009290456772 -0.0715736672282218933 -0.00668105622753500938
0.0174935143440961838 -0.0714288502931594849 -0.00566375162452459335
0.0142463278025388718 -0.0709580555558204651 -0.011689893901348114
0.0157487131655216217 -0.0752060413360595703 -0.00951331108808517456
0.0163346994668245316 -0.0731275156140327454 -0.0086643630638718605
0.0154832825064659119 -0.0689319521188735962 -0.00989785417914390564
0.0122292926535010338 -0.0742964819073677063 -0.0137013308703899384
0.0127022694796323776 -0.0738838464021682739 -0.0132823092862963676
0.0117715680971741676 -0.0686465203762054443 -0.0141068389639258385
0.0116784479469060898 -0.0687017589807510376 -0.0141893355175852776
0.0132620465010404587 -0.0724428668618202209 -0.0127863911911845207
0.00982881709933280945 -0.0753423124551773071 -0.0155822932720184326
0.00665152911096811295 -0.0730472803115844727 -0.0172498617321252823
0.00662871962413191795 -0.0743932425975799561 -0.0172618329524993896
0.0100892586633563042 -0.0730335414409637451 -0.0154456030577421188
0.00992575660347938538 -0.0725583732128143311 -0.0155314160510897636
0.00459536071866750717 -0.0744739547371864319 -0.0177820883691310883
0.00290079694241285324 -0.07511911541223526 -0.0181997604668140411
0.00443204585462808609 -0.0709317475557327271 -0.0178223419934511185
0.00446443399414420128 -0.0700623840093612671 -0.0178143586963415146
-0.00106398144271224737 -0.0742968618869781494 -0.0183651149272918701
-0.000588814844377338886 -0.0711460933089256287 -0.0183651149272918701
0.00195672083646059036 -0.0739212185144424438 -0.0183651149272918701
0.0016588547732681036 -0.0735155344009399414 -0.0183651149272918701
-0.00571806402876973152 -0.0742408260703086853 -0.0175053663551807404
-0.00325150205753743649 -0.0750831887125968933 -0.0181133188307285309
-0.00406154384836554527 -0.0716989710927009583 -0.0179136618971824646
-0.00449778884649276733 -0.0718180090188980103 -0.0178061369806528091
-0.00278456602245569229 -0.0740985199809074402 -0.0182284079492092133
-0.00758688151836395264 -0.0753990411758422852 -0.0167589522898197174
-0.00998849142342805862 -0.0713854357600212097 -0.0154984891414642334
-0.00656379573047161102 -0.0729187130928039551 -0.0172959081828594208
-0.00890279281884431839 -0.0698674842715263367 -0.0160683076828718185
-0.0135210221633315086 -0.0731362625956535339 -0.0125569580122828484
-0.0124602355062961578 -0.0741698890924453735 -0.013496733270585537
-0.0122542036697268486 -0.0706845223903656006 -0.0136792613193392754
-0.0105962362140417099 -0.074841819703578949 -0.0151480920612812042
-0.0113894790410995483 -0.0704312101006507874 -0.0144453411921858788
-0.015096236951649189 -0.0724316909909248352 -0.0104585867375135422
-0.015552896074950695 -0.0753118917346000671 -0.00979700125753879547
-0.0140643725171685219 -0.0745489820837974548 -0.0119535010308027267
-0.0143912136554718018 -0.0697166398167610168 -0.011479988694190979
-0.0178554486483335495 -0.0734178200364112854 -0.00470941094681620598
-0.0175558440387248993 -0.0709031820297241211 -0.00549940438941121101
-0.0168911162763834 -0.071279965341091156 -0.00725214555859565735
-0.0165054332464933395 -0.072237260639667511 -0.00826910510659217834
-0.0183606799691915512 -0.0753337740898132324 -0.00114740501157939434
-0.0184682048857212067 -0.0694434419274330139 -0.000261864945059642196
-0.0179840344935655594 -0.0730760097503662109 -0.00424935668706893921
-0.0181328170001506805 -0.0690751969814300537 -0.00302403699606657028
-0.0548585951328277588 -0.068599998950958252 0
-0.0548585951328277588 -0.066880054771900177 0.0152649357914924622
-0.0548585951328277588 -0.0618064627051353455 0.0297644250094890594
-0.0548585951328277588 -0.0536336414515972137 0.0427713990211486816
-0.0548585951328277588 -0.0427713990211486816 0.0536336414515972137
-0.0548585951328277588 -0.0297644250094890594 0.0618064627051353455
-0.0548585951328277588 -0.0152649357914924622 0.066880054771900177
-0.0548585951328277588 -1.26016152131288708e-17 0.068599998950958252
-0.0548585951328277588 0.0152649357914924622 0.066880054771900177
-0.0548585951328277588 0.0297644250094890594 0.0618064627051353455
-0.0548585951328277588 0.0427713990211486816 0.0536336414515972137
-0.0548585951328277588 0.0536336414515972137 0.0427713990211486816
-0.0548585951328277588 0.0618064627051353455 0.0297644250094890594
-0.0548585951328277588 0.066880054771900177 0.0152649357914924622
-0.0548585951328277588 0.068599998950958252 0
-0.0548585951328277588 0.066880054771900177 -0.0152649357914924622
-0.0548585951328277588 0.0618064627051353455 -0.0297644250094890594
-0.0548585951328277588 0.0536336414515972137 -0.0427713990211486816
-0.0548585951328277588 0.0427713990211486816 -0.0536336414515972137
-0.0548585951328277588 0.0297644250094890594 -0.0618064627051353455
-0.0548585951328277588 0.0152649357914924622 -0.066880054771900177
-0.0548585951328277588 4.20053854223972568e-18 -0.068599998950958252
-0.0548585951328277588 -0.0152649357914924622 -0.066880054771900177
-0.0548585951328277588 -0.0297644250094890594 -0.0618064627051353455
-0.0548585951328277588 -0.0427713990211486816 -0.0536336414515972137
-0.0548585951328277588 -0.0536336414515972137 -0.0427713990211486816
-0.0548585951328277588 -0.0618064627051353455 -0.0297644250094890594
-0.0548585951328277588 -0.066880054771900177 -0.0152649357914924622
-0.0380585938692092896 -0.068599998950958252 0
-0.0380585938692092896 -0.066880054771900177 -0.0152649357914924622
-0.0380585938692092896 -0.0618064627051353455 -0.0297644250094890594
-0.0380585938692092896 -0.0536336414515972137 -0.0427713990211486816
-0.0380585938692092896 -0.0427713990211486816 -0.0536336414515972137
-0.0380585938692092896 -0.0297644250094890594 -0.0618064627051353455
-0.0380585938692092896 -0.0152649357914924622 -0.066880054771900177
-0.0380585938692092896 -1.26016152131288708e-17 -0.068599998950958252
-0.0380585938692092896 0.0152649357914924622 -0.066880054771900177
-0.0380585938692092896 0.0297644250094890594 -0.0618064627051353455
-0.0380585938692092896 0.0427713990211486816 -0.0536336414515972137
-0.0380585938692092896 0.0536336414515972137 -0.0427713990211486816
-0.0380585938692092896 0.0618064627051353455 -0.0297644250094890594
-0.0380585938692092896 0.066880054771900177 -0.0152649357914924622
-0.0380585938692092896 0.068599998950958252 0
-0.0380585938692092896 0.066880054771900177 0.0152649357914924622
-0.0380585938692092896 0.0618064627051353455 0.0297644250094890594
-0.0380585938692092896 0.0536336414515972137 0.0427713990211486816
-0.0380585938692092896 0.0427713990211486816 0.0536336414515972137
-0.0380585938692092896 0.0297644250094890594 0.0618064627051353455
-0.0380585938692092896 0.0152649357914924622 0.066880054771900177
-0.0380585938692092896 4.20053854223972568e-18 0.068599998950958252
-0.0380585938692092896 -0.0152649357914924622 0.066880054771900177
-0.0380585938692092896 -0.0297644250094890594 0.0618064627051353455
-0.0380585938692092896 -0.0427713990211486816 0.0536336414515972137
-0.0380585938692092896 -0.0536336414515972137 0.0427713990211486816
-0.0380585938692092896 -0.0618064627051353455 0.0297644250094890594
-0.0380585938692092896 -0.066880054771900177 0.0152649357914924622
-0.0380585938692092896 0.0639299973845481873 0
-0.0380585938692092896 0.062072310596704483 -0.0152994506061077118
-0.0380585938692092896 0.0566072054207324982 -0.0297097526490688324
-0.0380585938692092896 0.0478522926568984985 -0.0423934310674667358
-0.0380585938692092896 0.0363163799047470093 -0.0526133589446544647
-0.0380585938692092896 0.022669890895485878 -0.0597755871713161469
-0.0380585938692092896 0.00770591013133525848 -0.0634638816118240356
-0.0380585938692092896 -0.00770591013133525848 -0.0634638816118240356
-0.0380585938692092896 -0.022669890895485878 -0.0597755871713161469
-0.0380585938692092896 -0.0363163799047470093 -0.0526133589446544647
-0.0380585938692092896 -0.0478522926568984985 -0.0423934310674667358
-0.0380585938692092896 -0.0566072054207324982 -0.0297097526490688324
-0.0380585938692092896 -0.062072310596704483 -0.0152994506061077118
-0.0380585938692092896 -0.0639299973845481873 0
-0.0380585938692092896 -0.062072310596704483 0.0152994506061077118
-0.0380585938692092896 -0.0566072054207324982 0.0297097526490688324
-0.0380585938692092896 -0.0478522926568984985 0.0423934310674667358
-0.0380585938692092896 -0.0363163799047470093 0.0526133589446544647
-0.0380585938692092896 -0.022669890895485878 0.0597755871713161469
-0.0380585938692092896 -0.00770591013133525848 0.0634638816118240356
-0.0380585938692092896 0.00770591013133525848 0.0634638816118240356
-0.0380585938692092896 0.022669890895485878 0.0597755871713161469
-0.0380585938692092896 0.0363163799047470093 0.0526133589446544647
-0.0380585938692092896 0.0478522926568984985 0.0423934310674667358
-0.0380585938692092896 0.0566072054207324982 0.0297097526490688324
-0.0380585938692092896 0.062072310596704483 0.0152994506061077118
-0.0548585951328277588 -0.068599998950958252 0
-0.0548585951328277588 -0.066880054771900177 0.0152649357914924622
-0.0548585951328277588 -0.0618064627051353455 0.0297644250094890594
-0.0548585951328277588 -0.0536336414515972137 0.0427713990211486816
-0.0548585951328277588 -0.0427713990211486816 0.0536336414515972137
-0.0548585951328277588 -0.0297644250094890594 0.0618064627051353455
-0.0548585951328277588 -0.0152649357914924622 0.066880054771900177
-0.0548585951328277588 -1.26016152131288708e-17 0.068599998950958252
-0.0548585951328277588 0.0152649357914924622 0.066880054771900177
-0.0548585951328277588 0.0297644250094890594 0.0618064627051353455
-0.0548585951328277588 0.0427713990211486816 0.0536336414515972137
-0.0548585951328277588 0.0536336414515972137 0.0427713990211486816
-0.0548585951328277588 0.0618064627051353455 0.0297644250094890594
-0.0548585951328277588 0.066880054771900177 0.0152649357914924622
-0.0548585951328277588 0.068599998950958252 0
-0.0380585938692092896 -0.068599998950958252 0
-0.0380585938692092896 0.068599998950958252 0
-0.0380585938692092896 0.066880054771900177 0.0152649357914924622
-0.0380585938692092896 0.0618064627051353455 0.0297644250094890594
-0.0380585938692092896 0.0536336414515972137 0.0427713990211486816
-0.0380585938692092896 0.0427713990211486816 0.0536336414515972137
-0.0380585938692092896 0.0297644250094890594 0.0618064627051353455
-0.0380585938692092896 0.0152649357914924622 0.066880054771900177
-0.0380585938692092896 4.20053854223972568e-18 0.068599998950958252
-0.0380585938692092896 -0.0152649357914924622 0.066880054771900177
-0.0380585938692092896 -0.0297644250094890594 0.0618064627051353455
-0.0380585938692092896 -0.0427713990211486816 0.0536336414515972137
-0.0380585938692092896 -0.0536336414515972137 0.0427713990211486816
-0.0380585938692092896 -0.0618064627051353455 0.0297644250094890594
-0.0380585938692092896 -0.066880054771900177 0.0152649357914924622
-0.0548585951328277588 0.068599998950958252 0
-0.0548585951328277588 0.066880054771900177 -0.0152649357914924622
-0.0548585951328277588 0.0618064627051353455 -0.0297644250094890594
-0.0548585951328277588 0.0536336414515972137 -0.0427713990211486816
-0.0548585951328277588 0.0427713990211486816 -0.0536336414515972137
-0.0548585951328277588 0.0297644250094890594 -0.0618064627051353455
-0.0548585951328277588 0.0152649357914924622 -0.066880054771900177
-0.0548585951328277588 4.20053854223972568e-18 -0.068599998950958252
-0.0548585951328277588 -0.0152649357914924622 -0.066880054771900177
-0.0548585951328277588 -0.0297644250094890594 -0.0618064627051353455
-0.0548585951328277588 -0.0427713990211486816 -0.0536336414515972137
-0.0548585951328277588 -0.0536336414515972137 -0.0427713990211486816
-0.0548585951328277588 -0.0618064627051353455 -0.0297644250094890594
-0.0548585951328277588 -0.066880054771900177 -0.0152649357914924622
-0.0548585951328277588 -0.068599998950958252 0
-0.0380585938692092896 0.068599998950958252 0
-0.0380585938692092896 -0.068599998950958252 0
-0.0380585938692092896 -0.066880054771900177 -0.0152649357914924622
-0.0380585938692092896 -0.0618064627051353455 -0.0297644250094890594
-0.0380585938692092896 -0.0536336414515972137 -0.0427713990211486816
-0.0380585938692092896 -0.0427713990211486816 -0.0536336414515972137
-0.0380585938692092896 -0.0297644250094890594 -0.0618064627051353455
-0.0380585938692092896 -0.0152649357914924622 -0.066880054771900177
-0.0380585938692092896 -1.26016152131288708e-17 -0.068599998950958252
-0.0380585938692092896 0.0152649357914924622 -0.066880054771900177
-0.0380585938692092896 0.0297644250094890594 -0.0618064627051353455
-0.0380585938692092896 0.0427713990211486816 -0.0536336414515972137
-0.0380585938692092896 0.0536336414515972137 -0.0427713990211486816
-0.0380585938692092896 0.0618064627051353455 -0.0297644250094890594
-0.0380585938692092896 0.066880054771900177 -0.0152649357914924622
-0.0380585938692092896 0.0639299973845481873 0
0.0347632803022861481 0.0345400013029575348 0
0.0347632803022861481 0.0335363298654556274 -0.00826596282422542572
0.0347632803022861481 0.0305836517363786697 -0.0160515382885932922
0.0347632803022861481 0.0258535612374544144 -0.0229042563587427139
0.0347632803022861481 0.0196209568530321121 -0.0284258630126714706
0.0347632803022861481 0.012248053215444088 -0.0322954617440700531
0.0347632803022861481 0.00416333694010972977 -0.0342881642282009125
0.0347632803022861481 -0.00416333694010972977 -0.0342881642282009125
0.0347632803022861481 -0.012248053215444088 -0.0322954617440700531
0.0347632803022861481 -0.0196209568530321121 -0.0284258630126714706
0.0347632803022861481 -0.0258535612374544144 -0.0229042563587427139
0.0347632803022861481 -0.0305836517363786697 -0.0160515382885932922
0.0347632803022861481 -0.0335363298654556274 -0.00826596282422542572
0.0347632803022861481 -0.0345400013029575348 0
0.0164000000804662704 -0.0419511906802654266 0
0.0158612802624702454 -0.0419622920453548431 -0.0041691032238304615
0.0145191680639982224 -0.0420269817113876343 -0.00760831311345100403
0.012650657445192337 -0.0421933494508266449 -0.0104343341663479805
0.0102629922330379486 -0.042552262544631958 -0.0127731896936893463
0.00747636379674077034 -0.0431504696607589722 -0.0145973255857825279
0.00444187037646770477 -0.0440371520817279816 -0.0157749559730291367
0.00132317666430026293 -0.0451668500900268555 -0.0163528341799974442
-0.00178518914617598057 -0.0465182438492774963 -0.0162974335253238678
-0.00475382246077060699 -0.047984439879655838 -0.015703245997428894
-0.00755306193605065346 -0.0495231039822101593 -0.0145571595057845116
-0.0100930575281381607 -0.0510308034718036652 -0.0129307210445404053
-0.0123233208432793617 -0.0524384789168834686 -0.0108226994052529335
-0.0141673032194375992 -0.0536554418504238129 -0.0082596801221370697
-0.0155073953792452812 -0.0545698739588260651 -0.00532030593603849411
-0.0161404404789209366 -0.0550155900418758392 -0.0027462211437523365
-0.0164000000804662704 -0.0551888607442378998 0
-0.0380585938692092896 -0.0639299973845481873 0
-0.0380585938692092896 0.062072310596704483 -0.0152994506061077118
-0.0380585938692092896 0.0566072054207324982 -0.0297097526490688324
-0.0380585938692092896 0.0478522926568984985 -0.0423934310674667358
-0.0380585938692092896 0.0363163799047470093 -0.0526133589446544647
-0.0380585938692092896 0.022669890895485878 -0.0597755871713161469
-0.0380585938692092896 0.00770591013133525848 -0.0634638816118240356
-0.0380585938692092896 -0.00770591013133525848 -0.0634638816118240356
-0.0380585938692092896 -0.022669890895485878 -0.0597755871713161469
-0.0380585938692092896 -0.0363163799047470093 -0.0526133589446544647
-0.0380585938692092896 -0.0478522926568984985 -0.0423934310674667358
-0.0380585938692092896 -0.0566072054207324982 -0.0297097526490688324
-0.0380585938692092896 -0.062072310596704483 -0.0152994506061077118
0.0165578126907348633 0.0393613763153553009 -0.0143263684585690498
0.0165578126907348633 0.0320876874029636383 -0.0269247666001319885
-0.00164765620138496161 0.0462657660245895386 -0.0168393626809120178
0.0165578126907348633 0.0209437496960163116 -0.0362756401300430298
-0.00164765620138496161 0.0377161987125873566 -0.0316476486623287201
-0.0198531243950128555 0.0531701594591140747 -0.019352354109287262
0.0165578126907348633 0.00727368798106908798 -0.0412511341273784637
-0.00164765620138496161 0.0246175006031990051 -0.0426387600600719452
-0.0198531243950128555 0.0433447100222110748 -0.0363705307245254517
0.0165578126907348633 -0.00727368798106908798 -0.0412511341273784637
-0.00164765620138496161 0.00854956824332475662 -0.0484870113432407379
-0.0198531243950128555 0.0282912496477365494 -0.0490018837153911591
0.0165578126907348633 -0.0209437496960163116 -0.0362756401300430298
-0.00164765620138496161 -0.00854956824332475662 -0.0484870113432407379
-0.0198531243950128555 0.00982544757425785065 -0.0557228848338127136
0.0165578126907348633 -0.0320876874029636383 -0.0269247666001319885
-0.00164765620138496161 -0.0246175006031990051 -0.0426387600600719452
-0.0198531243950128555 -0.00982544757425785065 -0.0557228848338127136
0.0165578126907348633 -0.0393613763153553009 -0.0143263684585690498
-0.00164765620138496161 -0.0377161987125873566 -0.0316476486623287201
-0.0198531243950128555 -0.0282912496477365494 -0.0490018837153911591
-0.00164765620138496161 -0.0462657660245895386 -0.0168393626809120178
-0.0198531243950128555 -0.0433447100222110748 -0.0363705307245254517
-0.0198531243950128555 -0.0531701594591140747 -0.019352354109287262
-0.0380585938692092896 0.0639299973845481873 0
0.0347632803022861481 0.0345400013029575348 0
-0.0380585938692092896 -0.0639299973845481873 0
-0.0380585938692092896 -0.062072310596704483 0.0152994506061077118
-0.0380585938692092896 -0.0566072054207324982 0.0297097526490688324
-0.0380585938692092896 -0.0478522926568984985 0.0423934310674667358
-0.0380585938692092896 -0.0363163799047470093 0.0526133589446544647
-0.0380585938692092896 -0.022669890895485878 0.0597755871713161469
-0.0380585938692092896 -0.00770591013133525848 0.0634638816118240356
-0.0380585938692092896 0.00770591013133525848 0.0634638816118240356
-0.0380585938692092896 0.022669890895485878 0.0597755871713161469
-0.0380585938692092896 0.0363163799047470093 0.0526133589446544647
-0.0380585938692092896 0.0478522926568984985 0.0423934310674667358
-0.0380585938692092896 0.0566072054207324982 0.0297097526490688324
-0.0380585938692092896 0.062072310596704483 0.0152994506061077118
-0.0164000000804662704 -0.0551888607442378998 0
-0.0159895364195108414 -0.0549092628061771393 0.00353902950882911682
-0.0149363270029425621 -0.0541753694415092468 0.00678071985021233559
-0.0132304690778255463 -0.0530331693589687347 0.0096817798912525177
-0.0110758915543556213 -0.0516417920589447021 0.0120985675603151321
-0.00852773431688547134 -0.0500897467136383057 0.0140083832666277885
-0.00568731501698493958 -0.0484819523990154266 0.0153877781704068184
-0.00262571056373417377 -0.0469166487455368042 0.0161845069378614426
0.00061098393052816391 -0.0454568304121494293 0.0163961071521043777
0.00387236103415489197 -0.0442282222211360931 0.0159231051802635193
0.00709043070673942566 -0.043249029666185379 0.0147911831736564636
0.0100344829261302948 -0.0425945818424224854 0.0129519505426287651
0.0125676058232784271 -0.042203076183795929 0.0105342157185077667
0.0145361060276627541 -0.0420259013772010803 0.00757586723193526268
0.0158187448978424072 -0.0419647917151451111 0.00433508493006229401
0.0162427127361297607 -0.0419571287930011749 0.00222755107097327709
0.0164000000804662704 -0.0419511906802654266 0
0.0347632803022861481 -0.0345400013029575348 0
0.0347632803022861481 -0.0335363298654556274 0.00826596282422542572
0.0347632803022861481 -0.0305836517363786697 0.0160515382885932922
0.0347632803022861481 -0.0258535612374544144 0.0229042563587427139
0.0347632803022861481 -0.0196209568530321121 0.0284258630126714706
0.0347632803022861481 -0.012248053215444088 0.0322954617440700531
0.0347632803022861481 -0.00416333694010972977 0.0342881642282009125
0.0347632803022861481 0.00416333694010972977 0.0342881642282009125
0.0347632803022861481 0.012248053215444088 0.0322954617440700531
0.0347632803022861481 0.0196209568530321121 0.0284258630126714706
0.0347632803022861481 0.0258535612374544144 0.0229042563587427139
0.0347632803022861481 0.0305836517363786697 0.0160515382885932922
0.0347632803022861481 0.0335363298654556274 0.00826596282422542572
0.0165578126907348633 -0.0393613763153553009 0.0143263684585690498
0.0165578126907348633 -0.0320876874029636383 0.0269247666001319885
-0.00164765620138496161 -0.0462657660245895386 0.0168393626809120178
0.0165578126907348633 -0.0209437496960163116 0.0362756401300430298
-0.00164765620138496161 -0.0377161987125873566 0.0316476486623287201
-0.0198531243950128555 -0.0531701594591140747 0.019352354109287262
0.0165578126907348633 -0.00727368798106908798 0.0412511341273784637
-0.00164765620138496161 -0.0246175006031990051 0.0426387600600719452
-0.0198531243950128555 -0.0433447100222110748 0.0363705307245254517
0.0165578126907348633 0.00727368798106908798 0.0412511341273784637
-0.00164765620138496161 -0.00854956824332475662 0.0484870113432407379
-0.0198531243950128555 -0.0282912496477365494 0.0490018837153911591
0.0165578126907348633 0.0209437496960163116 0.0362756401300430298
-0.00164765620138496161 0.00854956824332475662 0.0484870113432407379
-0.0198531243950128555 -0.00982544757425785065 0.0557228848338127136
0.0165578126907348633 0.0320876874029636383 0.0269247666001319885
-0.00164765620138496161 0.0246175006031990051 0.0426387600600719452
-0.0198531243950128555 0.00982544757425785065 0.0557228848338127136
0.0165578126907348633 0.0393613763153553009 0.0143263684585690498
-0.00164765620138496161 0.0377161987125873566 0.0316476486623287201
-0.0198531243950128555 0.0282912496477365494 0.0490018837153911591
-0.00164765620138496161 0.0462657660245895386 0.0168393626809120178
-0.0198531243950128555 0.0433447100222110748 0.0363705307245254517
-0.0198531243950128555 0.0531701594591140747 0.019352354109287262
0.0347632803022861481 -0.0345400013029575348 0
0.0347632803022861481 -0.0335363298654556274 0.00826596282422542572
0.0347632803022861481 -0.0305836517363786697 0.0160515382885932922
0.0347632803022861481 -0.0258535612374544144 0.0229042563587427139
0.0347632803022861481 -0.0196209568530321121 0.0284258630126714706
0.0347632803022861481 -0.012248053215444088 0.0322954617440700531
0.0347632803022861481 -0.00416333694010972977 0.0342881642282009125
0.0347632803022861481 0.00416333694010972977 0.0342881642282009125
0.0347632803022861481 0.012248053215444088 0.0322954617440700531
0.0347632803022861481 0.0196209568530321121 0.0284258630126714706
0.0347632803022861481 0.0258535612374544144 0.0229042563587427139
0.0347632803022861481 0.0305836517363786697 0.0160515382885932922
0.0347632803022861481 0.0335363298654556274 0.00826596282422542572
0.0347632803022861481 0.0345400013029575348 0
0.0347632803022861481 0.0335363298654556274 -0.00826596282422542572
0.0347632803022861481 0.0305836517363786697 -0.0160515382885932922
0.0347632803022861481 0.0258535612374544144 -0.0229042563587427139
0.0347632803022861481 0.0196209568530321121 -0.0284258630126714706
0.0347632803022861481 0.012248053215444088 -0.0322954617440700531
0.0347632803022861481 0.00416333694010972977 -0.0342881642282009125
0.0347632803022861481 -0.00416333694010972977 -0.0342881642282009125
0.0347632803022861481 -0.012248053215444088 -0.0322954617440700531
0.0347632803022861481 -0.0196209568530321121 -0.0284258630126714706
0.0347632803022861481 -0.0258535612374544144 -0.0229042563587427139
0.0347632803022861481 -0.0305836517363786697 -0.0160515382885932922
0.0347632803022861481 -0.0335363298654556274 -0.00826596282422542572
0.0347632803022861481 -0.0376500003039836884 0
0.0347632803022861481 -0.0365559607744216919 0.00901023484766483307
0.0347632803022861481 -0.0333374179899692535 0.0174968279898166656
0.0347632803022861481 -0.0281814299523830414 0.0249665677547454834
0.0347632803022861481 -0.0213876385241746902 0.030985342338681221
0.0347632803022861481 -0.0133508741855621338 0.0352033600211143494
0.0347632803022861481 -0.00453820591792464256 0.0373754873871803284
0.0347632803022861481 0.00453820591792464256 0.0373754873871803284
0.0347632803022861481 0.0133508741855621338 0.0352033600211143494
0.0347632803022861481 0.0213876385241746902 0.030985342338681221
0.0347632803022861481 0.0281814299523830414 0.0249665677547454834
0.0347632803022861481 0.0333374179899692535 0.0174968279898166656
0.0347632803022861481 0.0365559607744216919 0.00901023484766483307
0.0347632803022861481 0.0376500003039836884 0
0.0347632803022861481 0.0365559607744216919 -0.00901023484766483307
