ply
format ascii 1.0
element vertex 728
property float x
property float y
property float z
end_header
0.601811110973358154 3.77045639154971468e-09 0.0687866955995559692
1.74614107608795166 2.03215022587244221e-09 0.0363793820142745972
0.67317575216293335 3.66204933044400605e-09 0.111070021986961365
0.102852456271648407 4.52840476228288935e-09 0.0959740728139877319
2.03004336357116699 1.60088564626903462e-09 0.0525575429201126099
0.162218064069747925 4.43822489870626669e-09 0.1256895512342453
1.68138158321380615 2.13052397946000838e-09 0.0540786236524581909
2.00851535797119141 1.63358815363778831e-09 0.0620875358581542969
0.0225029680877923965 4.65046046116412981e-09 0.106347359716892242
0.764373719692230225 3.52351414711904454e-09 0.00707164034247398376
1.51825392246246338 2.37832464833331869e-09 0.05545777827501297
0.26210939884185791 4.28648405659259879e-09 0.00300315581262111664
0.0347662046551704407 4.63183180698933938e-09 0.0821944549679756165
1.04675912857055664 3.094553724380944e-09 0.0252152234315872192
1.04055893421173096 3.10397219038804906e-09 0.147765830159187317
1.82380294799804688 1.9141772611419583e-09 0.0489620864391326904
1.4104468822479248 2.54209009398209673e-09 0.0516661778092384338
1.16098785400390625 2.92103319310399456e-09 0.0223908126354217529
0.613236546516418457 3.75310049705035453e-09 0.077817872166633606
0.244392737746238708 4.31339630679872243e-09 0.228659749031066895
0.710831224918365479 3.60484841976926873e-09 0.144703328609466553
1.30266952514648438 2.70581046457607499e-09 0.126608729362487793
0.0883809253573417664 4.5503876222596773e-09 0.103586651384830475
0.856511473655700684 3.38355121698441508e-09 0.0967934951186180115
0.601527869701385498 3.77088671399405939e-09 0.197612181305885315
0.788949966430664062 3.48618112155918425e-09 0.0657054483890533447
2.61464738845825195 7.12836900618185609e-10 0.0310615003108978271
2.42463517189025879 1.00147690140772738e-09 0.0284259319305419922
0.633162915706634521 3.72283115446236934e-09 0.0439846478402614594
1.42525327205657959 2.51959830777082061e-09 0.00826191157102584839
1.2382814884185791 2.80361978077792173e-09 0.0773173049092292786
1.68488776683807373 2.12519779552167165e-09 0.0398395508527755737
0.782039046287536621 3.49667939048003973e-09 0.152590721845626831
0.747814357280731201 3.54866869223258163e-09 0.155742645263671875
0.088219471275806427 4.55063320359272439e-09 0.0528509169816970825
0.0873114913702011108 4.55201254467851868e-09 0.146723613142967224
0.551840841770172119 3.84636411610017603e-09 0.0435815341770648956
0.275085240602493286 4.26677271292419391e-09 0.0953394994139671326
0.8303985595703125 3.42321859747585222e-09 0.0856091976165771484
0.664742827415466309 3.67485952779134095e-09 0.167890101671218872
0.126043751835823059 4.49317560935469373e-09 0.0861279070377349854
0.227839648723602295 4.33854152603885268e-09 0.138860613107681274
2.10878252983093262 1.48127621280025323e-09 0.0115864574909210205
2.3954315185546875 1.04583919302569939e-09 0.0160490870475769043
0.197614103555679321 4.38445590944525065e-09 0.0192961413413286209
2.05655908584594727 1.56060675493563394e-09 0.0746176391839981079
1.47097170352935791 2.45014919464381364e-09 0.0977441966533660889
2.32935047149658203 1.14622022984178784e-09 0.0210884958505630493
2.36274003982543945 1.09549946891718264e-09 0.0207888334989547729
1.0463937520980835 3.09510861384865166e-09 0.147857010364532471
0.201324030756950378 4.37882041737225336e-09 0.0343506820499897003
1.05322957038879395 3.08472469789933257e-09 0.00892287492752075195
0.724811911582946777 3.58361074148660919e-09 0.185429602861404419
0.603825151920318604 3.7673970609830576e-09 0.0616863705217838287
0.929007172584533691 3.27342597472579655e-09 0.0868218764662742615
0.537642776966094971 3.86793219675496402e-09 0.0959490537643432617
2.2488560676574707 1.26849619697111393e-09 0.0663533806800842285
1.19515252113342285 2.86913515168407685e-09 0.084352441132068634
0.217415958642959595 4.35437597090526651e-09 0.0252488758414983749
0.4663105309009552 3.9762899639583793e-09 0.060324840247631073
0.703637242317199707 3.61577656704525907e-09 0.0864732712507247925
0.548759937286376953 3.85104437228278584e-09 0.168274149298667908
1.68758249282836914 2.1211044032298787e-09 0.0915574878454208374
0.907489538192749023 3.30611249488299563e-09 0.147493481636047363
0.715485036373138428 3.59777896363766558e-09 0.138456016778945923
0.957886815071105957 3.22955617804154826e-09 0.163549721240997314
0.443879455327987671 4.01036404085175491e-09 0.000834524631500244141
1.77371585369110107 1.99026262137635968e-09 0.0692361593246459961
1.18007063865661621 2.89204549197563665e-09 0.0755826905369758606
2.6368718147277832 6.79076794796173999e-10 0.0156712979078292847
0.427895992994308472 4.03464417431109723e-09 0.171530693769454956
1.14419782161712646 2.94653856869331321e-09 0.154615491628646851
0.136202961206436157 4.47774350931240406e-09 0.205824196338653564
1.41745436191558838 2.53144527562199073e-09 0.0744495168328285217
1.06642293930053711 3.06468317390340417e-09 0.151654645800590515
1.13299906253814697 2.96355007201043463e-09 0.13931688666343689
0.487271010875701904 3.94444965579054951e-09 0.0443479046225547791
1.04169249534606934 3.10225023447685544e-09 0.0895356908440589905
0.52465289831161499 3.88766441261623186e-09 0.140319690108299255
2.65013551712036133 6.58928467345276658e-10 0.0123827159404754639
0.542997777462005615 3.85979737060893058e-09 0.0727744922041893005
0.119857072830200195 4.50257386930275061e-09 0.202900752425193787
0.473647803068161011 3.96514421296956243e-09 0.163550123572349548
1.11364889144897461 2.99294411476580535e-09 0.0324764475226402283
0.275957673788070679 4.26544755072200132e-09 0.0415756478905677795
1.82549464702606201 1.91160753892916091e-09 0.0729627311229705811
1.10387790203094482 3.007786908426624e-09 0.145334333181381226
1.56773042678833008 2.30316699045829409e-09 0.0101097822189331055
0.593649148941040039 3.78285491819951858e-09 0.00583359971642494202
0.971466600894927979 3.20892756811019808e-09 0.134718611836433411
0.105269297957420349 4.52473347678505888e-09 0.136744946241378784
1.77800273895263672 1.98375049720311836e-09 0.0720986872911453247
1.14611697196960449 2.94362312303064755e-09 0.0160786435008049011
0.147140651941299438 4.46112835561507381e-09 0.0452474616467952728
1.21676933765411377 2.83629786324013367e-09 0.0107137560844421387
3.0446317195892334 5.96647176109854627e-11 0.00245058536529541016
1.57336795330047607 2.29460317413554549e-09 0.0280963927507400513
1.7769320011138916 1.98537697393419421e-09 0.0189844667911529541
1.27476382255554199 2.74820077805770779e-09 0.122742220759391785
1.50601780414581299 2.39691200221159306e-09 0.0766203403472900391
0.992853105068206787 3.17644022196361675e-09 0.00803954154253005981
1.54092752933502197 2.34388219944037246e-09 0.0339838862419128418
0.0932403206825256348 4.54300597141354956e-09 0.0833635255694389343
1.07531356811523438 3.05117775489804899e-09 0.0172729939222335815
0.235598355531692505 4.32675584249864187e-09 0.183703199028968811
0.901231944561004639 3.31561822441983622e-09 0.0792084559798240662
1.33967506885528564 2.64959676421483437e-09 0.0881355255842208862
1.77923214435577393 1.98188310207569884e-09 0.0257360786199569702
0.0900284498929977417 4.5478851795621722e-09 0.00478340312838554382
0.138074412941932678 4.47490045019094396e-09 0.152294337749481201
1.40666651725769043 2.54783261155466789e-09 0.0325631275773048401
1.6269524097442627 2.21320517468370781e-09 0.0747700035572052002
0.921834051609039307 3.28432236962328261e-09 0.123577192425727844
1.66216909885406494 2.15970885619753972e-09 0.111851274967193604
0.374959379434585571 4.11505807207390717e-09 0.10586344450712204
0.721487283706665039 3.58866136807023395e-09 0.0920371711254119873
0.83031010627746582 3.42335271241722694e-09 0.136348381638526917
0.197132989764213562 4.38518688028466386e-09 0.0290959402918815613
1.41497230529785156 2.53521559301361776e-09 0.0169204473495483398
0.881623566150665283 3.34540439794750455e-09 0.01072702556848526
0.812201797962188721 3.45086048625375952e-09 0.112236611545085907
1.27260994911193848 2.75147260531127813e-09 0.092052556574344635
0.988684415817260742 3.18277271205147372e-09 0.16246931254863739
0.661584556102752686 3.67965702352535118e-09 0.0769253373146057129
0.27734076976776123 4.26334656467020068e-09 0.0295299608260393143
0.0750110074877738953 4.57069759818296006e-09 0.191045388579368591
1.74492919445037842 2.03399119769187564e-09 0.0192733258008956909
0.0506535880267620087 4.60769777888003773e-09 0.0293425228446722031
0.904804527759552002 3.31019123223086353e-09 0.0958297476172447205
2.10318398475646973 1.48978074321348686e-09 0.00548158586025238037
1.10670804977416992 3.00348768078606554e-09 0.0182777866721153259
0.0160658396780490875 4.66023886147581834e-09 0.128528594970703125
1.71656668186187744 2.07707562260850409e-09 0.0739829093217849731
0.360945820808410645 4.13634548834806992e-09 0.217808991670608521
2.10366392135620117 1.48905177077551798e-09 0.0625092387199401855
1.71284115314483643 2.08273509549883329e-09 0.0773073583841323853
0.38825562596321106 4.09486000663150662e-09 0.0828823298215866089
1.76549577713012695 2.00274952177892374e-09 0.0915990620851516724
0.836603224277496338 3.41379324808599449e-09 0.174006864428520203
0.859858989715576172 3.37846617348702694e-09 0.110570698976516724
1.67750918865203857 2.13640638513368231e-09 0.111763983964920044
0.780569195747375488 3.49891227102716584e-09 0.12443869560956955
0.420803099870681763 4.04541866672047945e-09 0.0407181493937969208
0.544724464416503906 3.85717457973555611e-09 0.0456045866012573242
1.12911081314086914 2.96945645850144047e-09 0.0573624074459075928
1.09074831008911133 3.02773139893020016e-09 0.0595161616802215576
1.06772053241729736 3.06271208394548466e-09 0.153309375047683716
0.030464470386505127 4.63836657971228306e-09 0.147740870714187622
1.1274411678314209 2.9719928740234991e-09 0.0735885649919509888
0.26142999529838562 4.28751611991629034e-09 0.0193294361233711243
0.896347582340240479 3.32303784489340615e-09 0.156389445066452026
0.247155800461769104 4.30919921967642949e-09 0.0463669523596763611
1.13406765460968018 2.96192670390382773e-09 0.0239824578166007996
0.796574294567108154 3.47459949701089954e-09 0.178644001483917236
0.532975494861602783 3.87502208099022027e-09 0.039134640246629715
0.124612875282764435 4.49534942603690979e-09 0.235151812434196472
2.05085945129394531 1.56926494021547569e-09 0.0140531659126281738
1.15135312080383301 2.93566904119302308e-09 0.120165713131427765
0.913900494575500488 3.29637384055558869e-09 0.0648006424307823181
2.01517057418823242 1.62347846277555163e-09 0.0460855066776275635
0.396773368120193481 4.0819210234133152e-09 0.0532104112207889557
1.58209586143493652 2.28134489077547187e-09 0.0285816788673400879
0.0750021561980247498 4.57071092085925557e-09 0.0374314114451408386
1.13027262687683105 2.96769164798149632e-09 0.115596272051334381
0.426895350217819214 4.036164291676414e-09 0.067091815173625946
1.19548690319061279 2.8686273356726133e-09 0.0750378742814064026
1.60875153541564941 2.24085328071055301e-09 0.0117579400539398193
0.517671108245849609 3.89827015112587105e-09 0.00672034546732902527
0.959593415260314941 3.2269635852344436e-09 0.134809449315071106
0.28506895899772644 4.25160706640781427e-09 0.100725874304771423
0.791699230670928955 3.48200490662975426e-09 0.176942735910415649
1.32935309410095215 2.66527644399161545e-09 0.0651850178837776184
0.266692012548446655 4.27952251413898921e-09 0.0297509264200925827
1.67489182949066162 2.14038231582946992e-09 0.0412379652261734009
0.979872286319732666 3.19615889310398416e-09 0.10166071355342865
0.663717269897460938 3.67641739273949497e-09 0.141753897070884705
0.337101280689239502 4.17256673657107058e-09 0.0197591874748468399
0.189348533749580383 4.39701208776455132e-09 0.051785152405500412
1.9480597972869873 1.72542358178873201e-09 0.0274607390165328979
0.949646592140197754 3.24207327651038213e-09 0.0681719779968261719
1.20172524452209473 2.85915069397901789e-09 0.086476445198059082
2.03240180015563965 1.59730317861317417e-09 0.0110502541065216064
2.92868661880493164 2.35792274594359696e-10 0.00577692687511444092
1.42038917541503906 2.52698728608891088e-09 0.117901228368282318
0.0179218295961618423 4.65741933908248029e-09 0.074353635311126709
1.02285826206207275 3.1308604597768408e-09 0.125355139374732971
1.14399862289428711 2.9468409934452211e-09 0.0807882323861122131
0.00154540024232119322 4.6822963284398611e-09 0.103624053299427032
2.15145540237426758 1.41645362106146422e-09 0.0568498671054840088
0.907598018646240234 3.30594795983074619e-09 0.157565474510192871
2.4985051155090332 8.89264217818208635e-10 0.0390088111162185669
1.20793712139129639 2.84971468644812376e-09 0.0574342310428619385
1.10455095767974854 3.00676439302094423e-09 0.0636104866862297058
0.520047426223754883 3.89466059402820974e-09 0.073408961296081543
1.2379838228225708 2.8040718635935491e-09 0.0850696712732315063
0.52708512544631958 3.88396959039027934e-09 0.0687031298875808716
2.05131077766418457 1.56857926647546719e-09 0.0461213886737823486
0.185592964291572571 4.40271685775428523e-09 0.0486531555652618408
1.28478991985321045 2.73297051656129497e-09 0.0338486954569816589
0.148988053202629089 4.45832215589803127e-09 0.125400468707084656
0.033610217273235321 4.63358773572508653e-09 0.195970922708511353
0.0701492801308631897 4.57808280174276661e-09 0.200058087706565857
1.17599713802337646 2.8982332089810825e-09 0.0887255370616912842
2.07104849815368652 1.53859658347244022e-09 0.0482095927000045776
1.65705811977386475 2.16747286785334836e-09 0.0897554010152816772
0.704931557178497314 3.61381036206864792e-09 0.151081666350364685
1.12345767021179199 2.97804403359691605e-09 0.137301653623580933
0.582864642143249512 3.79923736915088739e-09 0.00221656635403633118
1.19604921340942383 2.8677731300774667e-09 0.133851364254951477
2.05845952033996582 1.55771995302700361e-09 0.0451133102178573608
1.29495799541473389 2.71752464975349994e-09 0.132861912250518799
1.78201496601104736 1.9776558168871361e-09 0.0805986374616622925
1.67121458053588867 2.14596829195556893e-09 0.0450465679168701172
1.8197026252746582 1.92040605639931528e-09 0.00847394764423370361
1.23578941822052002 2.80740519720268367e-09 0.00501328706741333008
0.665839195251464844 3.67319397120979829e-09 0.135423958301544189
2.68460321426391602 6.06569905414744426e-10 0.00118660926818847656
0.332529306411743164 4.17951184772391571e-09 0.0867278873920440674
0.463703513145446777 3.98025035153182216e-09 0.086696922779083252
2.12910294532775879 1.45040823795739016e-09 0.0740310102701187134
1.88565397262573242 1.82022197314779532e-09 0.0503851175308227539
2.0559849739074707 1.56147872409917454e-09 0.0662099868059158325
0.327478647232055664 4.18718393291328539e-09 0.0666423588991165161
0.296322792768478394 4.23451140818542626e-09 0.0329228863120079041
0.593822479248046875 3.78259157329807749e-09 0.139071136713027954
0.0296532493084669113 4.63959892726961698e-09 0.154484763741493225
0.55447697639465332 3.84235976369495802e-09 0.0757876187562942505
0.122174285352230072 4.49905357413626916e-09 0.170665934681892395
0.604282021522521973 3.76670294954806195e-09 0.18001200258731842
1.48622143268585205 2.4269839471457999e-09 0.1201467365026474
0.0674896612763404846 4.58212312537398248e-09 0.0988709926605224609
1.66957807540893555 2.14845408130770466e-09 0.0559970289468765259
0.398911744356155396 4.07867295493247184e-09 0.0719273537397384644
0.844091594219207764 3.40241790297568514e-09 0.103184588253498077
1.20593166351318359 2.85276113842769519e-09 0.0555089935660362244
0.6264190673828125 3.73307562639979551e-09 0.168976128101348877
2.14761900901794434 1.42228118171772167e-09 0.00918111205101013184
2.28548383712768555 1.21285625986899959e-09 0.0382991284132003784
1.26475024223327637 2.76341194371809706e-09 0.0411135852336883545
2.59618043899536133 7.40889127825994365e-10 0.00270299613475799561
1.42493689060211182 2.52007881229587838e-09 0.115232788026332855
2.10663700103759766 1.48453516146673792e-09 0.0692610442638397217
1.43775629997253418 2.50060550044395313e-09 0.0959886163473129272
0.454538077116012573 3.99417299234983147e-09 0.113002188503742218
2.14397835731506348 1.4278114246479845e-09 0.0484579801559448242
0.861922860145568848 3.37533112571009042e-09 0.00206871330738067627
1.59289729595184326 2.26493690469453668e-09 0.0292492657899856567
2.69397950172424316 5.92326632187223368e-10 0.0245041847229003906
0.679125308990478516 3.65301167093434742e-09 0.0845216214656829834
0.914032101631164551 3.29617400041115616e-09 0.152551859617233276
1.69924831390380859 2.10338324535541688e-09 0.0286749899387359619
0.091118738055229187 4.54622872680943146e-09 0.228899300098419189
1.27900564670562744 2.74175726566738831e-09 0.043311484158039093
0.19903111457824707 4.3823034090451074e-09 0.17284075915813446
1.63238894939422607 2.20494666969273112e-09 0.0869008451700210571
0.307127594947814941 4.2180983150785778e-09 0.159797117114067078
0.727930724620819092 3.57887319779592872e-09 0.0159730799496173859
0.0971525758504867554 4.53706316960733602e-09 0.218041837215423584
1.64166569709777832 2.19085483088576893e-09 0.109645292162895203
2.41664838790893555 1.01360964066543602e-09 0.045812457799911499
1.58253967761993408 2.28067076335491947e-09 0.0362473279237747192
0.350099533796310425 4.15282164212271709e-09 0.0640631020069122314
1.40606856346130371 2.5487409960334162e-09 0.0655362308025360107
1.17747962474822998 2.89598123259793283e-09 0.11563187837600708
1.19088757038116455 2.87561396916657941e-09 0.0202071815729141235
0.389390915632247925 4.09313560822965883e-09 0.0245824232697486877
2.82374429702758789 3.95206090075816974e-10 0.0178942680358886719
1.02720069885253906 3.12426395865372797e-09 0.0172969400882720947
1.74110066890716553 2.03980698998407206e-09 0.0666569024324417114
1.69022321701049805 2.11709316744190801e-09 0.046849176287651062
0.0116493087261915207 4.66694771716902324e-09 0.230897560715675354
2.54012441635131836 8.26041901547114321e-10 0.00425265729427337646
0.119081974029541016 4.50375114979806312e-09 0.19309118390083313
0.728156387805938721 3.57853036092592447e-09 0.04065680131316185
1.40174996852874756 2.55530130388592625e-09 0.0520948469638824463
1.81307435035705566 1.93047466900964082e-09 0.0211004316806793213
0.486499488353729248 3.94562160721534383e-09 0.00208614394068717957
0.00442596897482872009 4.67792027336599858e-09 0.040081169456243515
0.425102919340133667 4.03888700262200473e-09 0.0529965721070766449
1.24012410640716553 2.80082068648823679e-09 0.119822569191455841
0.00917948503047227859 4.67069938281383656e-09 0.00865816231817007065
1.29541468620300293 2.71683076036310922e-09 0.132794931530952454
0.558289110660552979 3.8365688403985132e-09 0.105884045362472534
2.47528791427612305 9.24532450596871058e-10 0.0248447656631469727
1.99847674369812012 1.64883728892561976e-09 0.0129195451736450195
0.611127793788909912 3.75630371252100304e-09 0.127560243010520935
0.616741299629211426 3.74777675560267198e-09 0.108030438423156738
0.532798528671264648 3.87529075496217956e-09 0.140479370951652527
1.33588874340057373 2.65534838561620745e-09 0.0438835322856903076
0.150117740035057068 4.45660575110196078e-09 0.220954880118370056
0.551771938800811768 3.84646892115370065e-09 0.102935418486595154
0.0136474240571260452 4.66391236741969806e-09 0.228591620922088623
1.62895083427429199 2.21016938084517278e-09 0.0667994022369384766
0.40284612774848938 4.0726964023463097e-09 0.0900754779577255249
0.539251983165740967 3.86548748565473943e-09 0.0784614086151123047
1.43097996711730957 2.51089904423906773e-09 0.0204348191618919373
1.13904845714569092 2.95436075603561221e-09 0.0341321974992752075
1.52466630935668945 2.36858399560446742e-09 0.000533252954483032227
0.629358410835266113 3.72861030939475313e-09 0.170814886689186096
1.54665589332580566 2.33518027137336048e-09 0.0830276757478713989
0.14550366997718811 4.46361481110102432e-09 0.0717038437724113464
1.60683917999267578 2.24375851232139212e-09 0.0333874523639678955
2.0665740966796875 1.54539336882919542e-09 0.0231847763061523438
0.277317553758621216 4.26338164771777883e-09 0.110917545855045319
0.0891050249338150024 4.54928805737608855e-09 0.18193112313747406
0.317511498928070068 4.20232471043391342e-09 0.143006086349487305
0.923475146293640137 3.28182947484378928e-09 0.0497942119836807251
0.44450947642326355 4.00940702860452802e-09 0.0359671935439109802
2.3394324779510498 1.13090492526168873e-09 0.0133307278156280518
6.93637557560577989e-05 4.68453853486039407e-09 0.12278478592634201
0.0119883147999644279 4.66643301777480701e-09 0.183748945593833923
2.52795839309692383 8.44523118104234527e-10 0.0175799578428268433
1.53521883487701416 2.35255392944111463e-09 0.0783426389098167419
0.725376486778259277 3.58275320522238871e-09 0.166969567537307739
1.64820206165313721 2.18092566228733631e-09 0.0772852301597595215
1.62235665321350098 2.22018647910715572e-09 0.0566868633031845093
1.93030548095703125 1.75239356359213616e-09 0.0758713632822036743
1.43958616256713867 2.49782572403489667e-09 0.0223234891891479492
1.63164925575256348 2.2060704374382567e-09 0.0369562059640884399
1.8060530424118042 1.9411405816072147e-09 0.0503505319356918335
0.0398754030466079712 4.62407045986878984e-09 0.178928732872009277
2.17328310012817383 1.38329592225261422e-09 0.0497893393039703369
0.326088070869445801 4.18929646528454214e-09 0.163832202553749084
1.54834353923797607 2.332616766409501e-09 0.0201544016599655151
0.885636270046234131 3.33930882945310259e-09 0.0577186867594718933
0.0037492457777261734 4.67894833988680148e-09 0.149594977498054504
0.183739736676216125 4.40553193925552478e-09 0.187071844935417175
2.9171290397644043 2.53348897416572072e-10 0.00971379876136779785
0.0520906634628772736 4.60551508041362467e-09 0.23877638578414917
0.628112375736236572 3.73050346169634395e-09 0.184769093990325928
1.23667001724243164 2.80606760050261528e-09 0.0488281026482582092
1.98341083526611328 1.67172320431063781e-09 0.020956873893737793
2.25748705863952637 1.25538512918410561e-09 0.0651520490646362305
0.116575971245765686 4.50755788250489786e-09 0.0246641784906387329
1.43030655384063721 2.51192200373395735e-09 0.0249793753027915955
0.257853567600250244 4.29294866322038615e-09 0.0983164459466934204
0.365855664014816284 4.12888701006863812e-09 0.11201082170009613
1.34535706043243408 2.64096544633218855e-09 0.00289516150951385498
1.99087929725646973 1.66037827931120319e-09 0.047426566481590271
0.684310495853424072 3.64513486061923686e-09 0.184602603316307068
0.720569252967834473 3.59005580818916314e-09 0.0129458829760551453
0.840687155723571777 3.40758932182438912e-09 0.0304751470685005188
0.219945117831230164 4.35053371106164377e-09 0.133439034223556519
0.180371284484863281 4.4106487351314172e-09 0.173645421862602234
1.81448531150817871 1.92833127243829949e-09 0.0929183810949325562
2.76647520065307617 4.8220138992860484e-10 0.0152179449796676636
2.09113812446594238 1.50807921706075376e-09 0.0198571085929870605
0.525002241134643555 3.88713372601046103e-09 0.178325116634368896
1.53642332553863525 2.35072428189653237e-09 0.0215293318033218384
0.477826148271560669 3.95879684589317549e-09 0.174986094236373901
1.04966294765472412 3.09014280830410826e-09 0.0152628645300865173
0.595206916332244873 3.78048881088943745e-09 0.0192567333579063416
2.59918427467346191 7.36326555283994821e-10 0.026811063289642334
1.50684165954589844 2.39566055881823559e-09 0.0651627182960510254
0.57844167947769165 3.80595599480670899e-09 0.0513000413775444031
1.28290915489196777 2.73582756449286535e-09 0.0300116837024688721
2.95846819877624512 1.90552462697723968e-10 0.00224411487579345703
1.32398319244384766 2.67343369664274633e-09 0.061551213264465332
0.482037097215652466 3.95240018491449518e-09 0.0113198347389698029
0.338570356369018555 4.17033518829157401e-09 0.126729458570480347
0.0633504539728164673 4.58841054040703966e-09 0.241755276918411255
1.17273604869842529 2.90318724616156487e-09 0.128141999244689941
0.974513888359069824 3.20429860423132595e-09 0.0801529139280319214
0.391315191984176636 4.09021261305042572e-09 0.0407211482524871826
1.01760351657867432 3.13884296332389567e-09 0.0423368141055107117
0.736257374286651611 3.56622464892097923e-09 0.00519279018044471741
1.15162146091461182 2.93526136729838072e-09 0.0387958511710166931
0.84065169095993042 3.4076432786633859e-09 0.019489578902721405
1.60532450675964355 2.24605933851762529e-09 0.0421068668365478516
2.74509930610656738 5.14672748863631568e-10 0.0149347633123397827
1.04944777488708496 3.09046943591795298e-09 0.0991355478763580322
1.10260546207427979 3.00971980671249639e-09 0.107643656432628632
0.0912322327494621277 4.54605642019600964e-09 0.0489236265420913696
1.52658450603485107 2.36567010425403623e-09 0.100701592862606049
0.11814647912979126 4.50517223526958333e-09 0.101721629500389099
0.164569467306137085 4.43465264510223278e-09 0.03717079758644104
1.91292309761047363 1.77879844187600611e-09 0.0226041078567504883
0.528639495372772217 3.8816088121507164e-09 0.0851953178644180298
1.01599466800689697 3.14128678624570057e-09 0.161817476153373718
2.64040470123291016 6.73709976695135992e-10 0.00243850052356719971
0.17371639609336853 4.42075798190444402e-09 0.177030608057975769
0.912893235683441162 3.29790394992812708e-09 0.151113763451576233
0.29619145393371582 4.23471124832985879e-09 0.19957423210144043
2.05455303192138672 1.56365409509362507e-09 0.0530994981527328491
0.279846787452697754 4.25953983196336594e-09 0.0444878898561000824
1.33417856693267822 2.65794630749383032e-09 0.0939024165272712708
2.39678478240966797 1.04378328202869852e-09 0.0104452222585678101
2.03925442695617676 1.5868937275342887e-09 0.025728762149810791
0.901074230670928955 3.31585781054855033e-09 0.157650291919708252
0.549441814422607422 3.8500087562454155e-09 0.0680030211806297302
1.62678956985473633 2.21345253237359429e-09 0.0265103727579116821
0.00596446078270673752 4.67558347594376755e-09 0.145643949508666992
0.15962865948677063 4.44215819683790869e-09 0.0598205029964447021
0.138458862900733948 4.47431647287999112e-09 0.0727563351392745972
1.83950614929199219 1.89032323127946711e-09 0.0187623202800750732
0.689848721027374268 3.63672203462783727e-09 0.174817353487014771
1.12752890586853027 2.97185964726054408e-09 0.0861839950084686279
0.00733306119218468666 4.67350425026324956e-09 0.00140934286173433065
1.70769298076629639 2.09055528443968797e-09 0.101152300834655762
1.88165795803070068 1.82629200651263091e-09 0.0179536640644073486
0.349143654108047485 4.15427336974971695e-09 0.101443752646446228
0.810786247253417969 3.45301076620785352e-09 0.0758545026183128357
0.33266100287437439 4.17931156349027333e-09 0.139156654477119446
1.30154275894165039 2.70752198439083713e-09 0.0291563719511032104
1.5390777587890625 2.34669195187109381e-09 0.0946732610464096069
0.4485664963722229 4.0032444026394387e-09 0.19671061635017395
0.707438111305236816 3.61000274118339348e-09 0.176087558269500732
2.46868681907653809 9.34559984955285472e-10 0.0207612365484237671
1.70849943161010742 2.08933048639892149e-09 0.0981716811656951904
0.738776147365570068 3.56239837628891109e-09 0.141393393278121948
2.56699085235595703 7.85230103161893567e-10 0.0407958626747131348
0.117614477872848511 4.50598047763151044e-09 0.0760009437799453735
1.76059532165527344 2.01019356715903541e-09 0.0864212214946746826
0.897371947765350342 3.32148175630209153e-09 0.16455155611038208
1.72599935531616211 2.0627468622080869e-09 0.000365853309631347656
0.677594900131225586 3.6553364779479125e-09 0.167615294456481934
1.64437556266784668 2.18673834595506378e-09 0.0469945818185806274
1.6979835033416748 2.10530459732183317e-09 0.0228842198848724365
1.95509076118469238 1.714743236291838e-09 0.000308960676193237305
0.402585059404373169 4.0730929740107058e-09 0.155594184994697571
0.650435209274291992 3.69659347576600794e-09 0.104806512594223022
0.916573822498321533 3.29231308882071971e-09 0.0625884979963302612
0.525277435779571533 3.88671583806399212e-09 0.0966229662299156189
0.444218993186950684 4.00984845327911898e-09 0.116507768630981445
2.05640745162963867 1.5608370151909412e-09 0.0330140292644500732
0.0583215057849884033 4.59604976299488044e-09 0.193828865885734558
1.67586088180541992 2.13891016009881696e-09 0.0929364860057830811
0.0101378792896866798 4.66924365838394806e-09 0.200600892305374146
0.802831530570983887 3.46509443360787373e-09 0.0946830660104751587
1.76988589763641357 1.99608063411460535e-09 0.0687366724014282227
0.488111793994903564 3.94317245522302073e-09 0.0423942580819129944
1.3943246603012085 2.56658072572690799e-09 0.0483466163277626038
1.56463432312011719 2.30787011723521118e-09 0.116705328226089478
2.57424592971801758 7.74209141241044563e-10 0.00165766477584838867
1.14862155914306641 2.93981861076986206e-09 0.0201984047889709473
2.72622919082641602 5.4333737509182356e-10 0.0094299018383026123
0.416852444410324097 4.05141964421318335e-09 0.159398213028907776
1.47075414657592773 2.45047959701594209e-09 0.0712260827422142029
1.01506423950195312 3.14270010015604839e-09 0.0199989750981330872
1.3940500020980835 2.56699794753956212e-09 0.0585934892296791077
1.33113932609558105 2.66256305891943157e-09 0.129931628704071045
0.00513860583305358887 4.67683802796159398e-09 0.179412528872489929
1.65337419509887695 2.173068835986669e-09 0.0614576339721679688
1.10456609725952148 3.00674152242663695e-09 0.0358589291572570801
1.2666323184967041 2.76055311942968729e-09 0.0240778103470802307
0.464862585067749023 3.97848953781476666e-09 0.0994487851858139038
0.0533222965896129608 4.60364413257252636e-09 0.230156257748603821
1.4590533971786499 2.468253823550981e-09 0.0737638846039772034
0.594199538230895996 3.78201914230658076e-09 0.194502010941505432
1.75525796413421631 2.018301303863268e-09 0.077433854341506958
1.81844770908355713 1.92231230933259667e-09 0.0248770564794540405
0.569238722324371338 3.81993592313278896e-09 0.0607611201703548431
1.2274092435836792 2.82013523644764064e-09 0.109400898218154907
1.08550024032592773 3.03570368842542848e-09 0.153418943285942078
1.86918163299560547 1.84524440172140203e-09 0.0436693280935287476
1.44981884956359863 2.48228171351172477e-09 0.050422176718711853
0.499142587184906006 3.92641608115695817e-09 0.129575267434120178
1.24692785739898682 2.79048517626279136e-09 0.0438692271709442139
1.24812126159667969 2.78867262615278833e-09 0.00516869127750396729
1.98685574531555176 1.6664902791063696e-09 0.0689602941274642944
0.846376717090606689 3.39894667966689212e-09 0.0391295403242111206
0.0487607531249523163 4.61057325651381689e-09 0.0667990446090698242
0.0819909051060676575 4.56009452420857997e-09 0.0845364928245544434
0.793487906455993652 3.47928796884389158e-09 0.0214864984154701233
2.21970486640930176 1.312778330486708e-09 0.0350720733404159546
0.267554610967636108 4.27821245096993152e-09 0.0809752345085144043
1.03210902214050293 3.11680814490955527e-09 0.00238816440105438232
0.609670758247375488 3.75851705314289575e-09 0.121752530336380005
1.64022624492645264 2.19304130411046572e-09 0.0974633842706680298
2.78903794288635254 4.47927472890796707e-10 0.0177527368068695068
1.78162872791290283 1.97824245873334803e-09 0.0789871066808700562
0.247008353471755981 4.30942304063819392e-09 0.151711538434028625
1.25495219230651855 2.77829581563082684e-09 0.0962411165237426758
2.42847418785095215 9.9564512190397636e-10 0.0297670364379882812
0.788206994533538818 3.48730999633062311e-09 0.146311581134796143
0.797731280326843262 3.47284201396291792e-09 0.00464227050542831421
0.160253643989562988 4.44120873410724926e-09 0.151476770639419556
1.21897482872009277 2.83294765424102479e-09 0.0727588608860969543
1.50127339363098145 2.40411912599824973e-09 0.0465564653277397156
0.284300863742828369 4.25277368876209039e-09 0.216330647468566895
0.168865665793418884 4.42812675416348611e-09 0.0243384763598442078
2.22099637985229492 1.31081656640219535e-09 0.0640053004026412964
1.67469549179077148 2.14068052173388423e-09 0.0868303924798965454
0.222712412476539612 4.34633040669041293e-09 0.00435534678399562836
2.34639286994934082 1.12033160526436859e-09 0.0460767596960067749
0.40657845139503479 4.06702671540415395e-09 0.176529183983802795
1.97196340560913086 1.68911262754534164e-09 0.0564444065093994141
0.840773999691009521 3.40745742732906365e-09 0.0352069437503814697
0.110053181648254395 4.51746640095507246e-09 0.062320612370967865
0.496224582195281982 3.9308489796496815e-09 0.0710167884826660156
1.62119388580322266 2.22195284393933434e-09 0.00485680997371673584
1.00597929954528809 3.15650083848595386e-09 0.140057355165481567
1.01018011569976807 3.15011927654040846e-09 0.130796194076538086
0.309691667556762695 4.21420365270819275e-09 0.0730817988514900208
0.260021775960922241 4.28965485355092824e-09 0.119649030268192291
1.63965737819671631 2.19390550171283394e-09 0.0750836580991744995
0.0307233836501836777 4.6379731166723559e-09 0.23567846417427063
1.23472023010253906 2.80902945348771027e-09 0.0570153519511222839
1.11424970626831055 2.99203151143956347e-09 0.145930320024490356
2.45976066589355469 9.48119360799637434e-10 0.0462665259838104248
0.396191537380218506 4.08280520503012667e-09 0.0728442147374153137
1.68517208099365234 2.12476591876509247e-09 0.0831044614315032959
0.317825257778167725 4.20184820271174431e-09 0.0197118949145078659
1.42446804046630859 2.52079113138847788e-09 0.0572815015912055969
0.235247477889060974 4.32728874955046194e-09 0.143366903066635132
0.50290602445602417 3.92069932075855831e-09 0.202484056353569031
1.60253989696502686 2.25028928824144714e-09 0.0478853434324264526
0.933256864547729492 3.26697024988220619e-09 0.166289746761322021
0.564586639404296875 3.827002714729133e-09 0.118833303451538086
0.608403801918029785 3.76044173577838592e-09 0.0347502417862415314
0.158754721283912659 4.44348602357536038e-09 0.23547711968421936
0.962807774543762207 3.22208082437214216e-09 0.120940625667572021
0.834156155586242676 3.41751027477243952e-09 0.0417651012539863586
1.60333693027496338 2.24907847901079094e-09 0.0678547173738479614
1.35052132606506348 2.63312061044018719e-09 0.0149446874856948853
0.0133588425815105438 4.66435068346982007e-09 0.165989413857460022
1.50388932228088379 2.40014541574851137e-09 0.0422756001353263855
0.97879946231842041 3.19778847845952896e-09 0.0746935382485389709
0.137178629636764526 4.47626113952992455e-09 0.113235123455524445
0.202059000730514526 4.3777039770986903e-09 0.10033242404460907
0.13699786365032196 4.47653558666161189e-09 0.202510178089141846
2.11065244674682617 1.47843581821405223e-09 0.0587163567543029785
1.04270327091217041 3.10071479603379885e-09 0.0214198455214500427
1.0692751407623291 3.06035063957210696e-09 0.0236055925488471985
0.377966552972793579 4.11048972637217958e-09 0.113067924976348877
0.193015441298484802 4.39144187680540199e-09 0.170844018459320068
1.7175133228302002 2.07563766174700959e-09 0.0689526796340942383
0.343109607696533203 4.16343981513023209e-09 0.186086922883987427
0.224999472498893738 4.34285585271254604e-09 0.0202219374477863312
0.312493443489074707 4.20994750172098975e-09 0.0395457595586776733
1.12299275398254395 2.97875013544057765e-09 0.14875379204750061
0.405053973197937012 4.06934219654431217e-09 0.199018001556396484
0.785609841346740723 3.49125506282632614e-09 0.0195356607437133789
2.22961807250976562 1.29771970946990223e-09 0.0502455383539199829
1.25828266143798828 2.77323675135221492e-09 0.0527142956852912903
1.48738181591033936 2.42522113502730008e-09 0.00487640500068664551
2.22350096702575684 1.30701183209680494e-09 0.0663175433874130249
0.806757926940917969 3.45912987143037753e-09 0.152405381202697754
1.01823270320892334 3.13788683925508849e-09 0.0235866159200668335
0.0234089326113462448 4.64908422870280447e-09 0.152399331331253052
0.0605456680059432983 4.59267113228634116e-09 0.0562550723552703857
0.370372921228408813 4.12202494359803495e-09 0.0848222225904464722
0.181697875261306763 4.40863390238632746e-09 0.0922510772943496704
0.227252081036567688 4.33943414535065131e-09 0.107942916452884674
2.17587137222290039 1.37936417843320669e-09 0.00895141065120697021
1.31810903549194336 2.68235678113626363e-09 0.0229559466242790222
1.90527808666229248 1.7904118188027951e-09 0.0538218766450881958
0.480038613080978394 3.95543642284224006e-09 0.0604314282536506653
1.70171475410461426 2.09963668673651682e-09 0.0898979902267456055
0.114551790058612823 4.5106327561938997e-09 0.237416595220565796
1.38411271572113037 2.58209320591618052e-09 0.00577442348003387451
0.561245977878570557 3.83207732213008967e-09 0.140473276376724243
2.65662956237792969 6.49063469637667367e-10 0.0105701088905334473
0.56345289945602417 3.82872489268493155e-09 0.184918835759162903
0.00622909516096115112 4.67518157520885325e-09 0.116843074560165405
0.512710988521575928 3.90580501274939706e-09 0.0917938500642776489
1.49320816993713379 2.41637065911959326e-09 0.0486620292067527771
0.00122721074149012566 4.68277949750017797e-09 0.158946514129638672
1.99636161327362061 1.65205027435888496e-09 0.0356658697128295898
2.44190287590026855 9.75246328138723584e-10 0.0469679534435272217
1.055450439453125 3.08135117421670657e-09 0.0650852471590042114
2.64757251739501953 6.62821852959183389e-10 0.24981747567653656
1.94781780242919922 1.72579128765448786e-09 0.127066642045974731
0.438667774200439453 4.01828126328496182e-09 0.237028509378433228
0.998173236846923828 3.16835868652276531e-09 0.211954429745674133
1.797149658203125 1.95466531849319836e-09 0.229606986045837402
0.668550014495849609 3.66907593196685866e-09 0.209996029734611511
2.86574149131774902 3.31409899523293916e-10 0.0924918800592422485
1.86039984226226807 1.85858461954069298e-09 0.175477206707000732
0.368485212326049805 4.12489242762603681e-09 0.24907374382019043
1.14231431484222412 2.94939961342777224e-09 0.241141587495803833
2.1842646598815918 1.36661459926301632e-09 0.232674673199653625
1.72627604007720947 2.06232675381556874e-09 0.12644234299659729
1.73111772537231445 2.054971748322032e-09 0.160382866859436035
2.17856836318969727 1.37526745547233986e-09 0.153247728943824768
2.85108017921447754 3.53681306464181944e-10 0.130284875631332397
1.02870297431945801 3.12198222829351835e-09 0.227305352687835693
1.95926129817962646 1.70840808166872193e-09 0.139953583478927612
1.9789271354675293 1.67853442256671315e-09 0.108465299010276794
1.58789157867431641 2.27254082219019438e-09 0.173998713493347168
1.3101353645324707 2.69446931433492409e-09 0.17367398738861084
2.1121220588684082 1.47620338175613597e-09 0.174020320177078247
2.71604251861572266 5.58811774631351454e-10 0.0686268061399459839
2.9795384407043457 1.58545468420534519e-10 0.181603416800498962
2.14890289306640625 1.42033118599727004e-09 0.151671558618545532
2.38671278953552246 1.0590832655310578e-09 0.126915872097015381
1.25637137889862061 2.77613998456160971e-09 0.230346739292144775
2.34885501861572266 1.11659148593901136e-09 0.165488466620445251
2.27950286865234375 1.22194188101332202e-09 0.0901599973440170288
1.07343435287475586 3.05403236033896519e-09 0.248628988862037659
2.17032623291015625 1.3877878846102476e-09 0.109886929392814636
2.25085043907165527 1.26546639833691188e-09 0.241626083850860596
0.664325237274169922 3.67549368718300684e-09 0.21499963104724884
3.07723760604858398 1.01345260308804974e-11 0.172532647848129272
2.73565363883972168 5.29021271233887092e-10 0.128196597099304199
1.55288529396057129 2.32571761848987535e-09 0.132908225059509277
1.40621554851531982 2.54851761916086161e-09 0.170124843716621399
1.32320654392242432 2.67461341962871302e-09 0.238089308142662048
0.745804548263549805 3.55172158350569589e-09 0.248392850160598755
2.39228510856628418 1.05061870314671069e-09 0.187992841005325317
2.56991696357727051 7.80785325282806753e-10 0.230512410402297974
2.62994074821472168 6.89605705872509134e-10 0.221657797694206238
2.41628074645996094 1.01416808284682247e-09 0.118007257580757141
2.19743633270263672 1.34660593786861682e-09 0.159625232219696045
2.8883824348449707 2.97017077599548429e-10 0.126509994268417358
2.83525300025939941 3.77723879951830099e-10 0.183024078607559204
1.17161977291107178 2.90488277876477241e-09 0.213942691683769226
0.855630874633789062 3.38488903572908839e-09 0.209224522113800049
2.89770317077636719 2.82858403366503808e-10 0.248285934329032898
2.1019587516784668 1.4916421431365734e-09 0.214503467082977295
2.21087932586669922 1.32618516168747647e-09 0.0973345786333084106
1.11026525497436523 2.99808400328060998e-09 0.224123910069465637
1.6162874698638916 2.22940577110364302e-09 0.152065515518188477
2.18597912788391113 1.3640100160472457e-09 0.217052385210990906
2.07173442840576172 1.53755452814152704e-09 0.171537324786186218
1.00675463676452637 3.15532289185682657e-09 0.196064144372940063
2.4614861011505127 9.45498346283102364e-10 0.138073652982711792
1.89065265655517578 1.8126284917485691e-09 0.176496639847755432
1.16279423236846924 2.91828938792093595e-09 0.205696910619735718
2.453765869140625 9.57225632092217893e-10 0.22736513614654541
2.12420177459716797 1.45785339356052646e-09 0.0806770175695419312
2.69822001457214355 5.85885284731801903e-10 0.0929467231035232544
2.93781828880310059 2.21921203635844222e-10 0.0282750874757766724
2.60447454452514648 7.28290205920245626e-10 0.162608683109283447
2.74158334732055664 5.20013532234742115e-10 0.240289941430091858
0.749063968658447266 3.54677065494968247e-09 0.231620818376541138
0.79853510856628418 3.47162076863583025e-09 0.244994938373565674
2.83571100234985352 3.77028186449024361e-10 0.106053918600082397
2.04512619972229004 1.57797419575445019e-09 0.154006689786911011
2.74579620361328125 5.13614040187349019e-10 0.240091383457183838
1.58996546268463135 2.26939045333551803e-09 0.142959952354431152
0.926442146301269531 3.277322413453021e-09 0.215799868106842041
1.33208441734313965 2.66112731850398632e-09 0.184967353940010071
1.95627641677856445 1.71294223250129107e-09 0.173055529594421387
2.86544537544250488 3.31859900670750108e-10 0.03135642409324646
1.8353346586227417 1.89665994021481765e-09 0.135261774063110352
2.48350906372070312 9.12044217926677447e-10 0.227717697620391846
0.407804965972900391 4.06516376116883293e-09 0.248053446412086487
2.37033605575561523 1.08396047693304354e-09 0.144633680582046509
0.994022130966186523 3.17466408716882142e-09 0.180373817682266235
1.16601085662841797 2.91340307434495571e-09 0.23586602509021759
2.19216489791870117 1.35461353245602822e-09 0.199493616819381714
1.59353792667388916 2.26396368319115027e-09 0.133576095104217529
2.76605105400085449 4.82845818883248512e-10 0.201269358396530151
0.807385921478271484 3.4581759678076196e-09 0.227654889225959778
3.01103043556213379 1.10707304434853882e-10 0.226629495620727539
3.07219862937927246 1.77893325070677122e-11 0.0548874139785766602
1.83432459831237793 1.89819426843484962e-09 0.222236990928649902
2.78885889053344727 4.48199533042981102e-10 0.104448065161705017
0.631750583648681641 3.72497654943515499e-09 0.233563050627708435
1.97202444076538086 1.6890200349450879e-09 0.177419662475585938
1.39209485054016113 2.56996779413043441e-09 0.185456022620201111
2.90420103073120117 2.72987688010317697e-10 0.233913570642471313
3.06047248840332031 3.56018201030927628e-11 0.178185179829597473
0.47095036506652832 3.96924182410884896e-09 0.211935296654701233
2.60698127746582031 7.24482585034991189e-10 0.156084686517715454
3.08036351203918457 5.38619669698814363e-12 0.0251411646604537964
1.18057382106781006 2.89128121444548469e-09 0.234627306461334229
1.00278496742248535 3.16135317923738057e-09 0.21329382061958313
0.802712678909301758 3.46527495587167778e-09 0.229620069265365601
3.04894471168518066 5.31132256231803268e-11 0.0908978134393692017
2.44549965858459473 9.69782698589938263e-10 0.173590630292892456
2.09348011016845703 1.50452161840064491e-09 0.123740196228027344
2.1506955623626709 1.41760780891786453e-09 0.136279046535491943
3.04414248466491699 6.04080327426537167e-11 0.155513107776641846
1.82788467407226562 1.90797688759403172e-09 0.118035003542900085
2.1428217887878418 1.42956868565136119e-09 0.140222638845443726
2.42699456214904785 9.97892879439632452e-10 0.187342062592506409
2.89128899574279785 2.92601776141765413e-10 0.155786231160163879
2.62422919273376465 6.98281876765349807e-10 0.091262325644493103
2.33297061920166016 1.14072129520081944e-09 0.185304641723632812
1.90916156768798828 1.78451253773914686e-09 0.157566308975219727
2.30870556831359863 1.17758114370758449e-09 0.138830557465553284
0.929793357849121094 3.27223159679590481e-09 0.183623969554901123
2.57010173797607422 7.80504827435635207e-10 0.182159155607223511
1.55154812335968018 2.32774866049112461e-09 0.218061104416847229
2.8953251838684082 2.86470569488272986e-10 0.0452742874622344971
2.30046224594116211 1.19010334920233163e-09 0.15480002760887146
2.654998779296875 6.51541098850572098e-10 0.0478390008211135864
1.94052529335021973 1.73686909299419767e-09 0.195646271109580994
3.01905274391174316 9.85210246717826976e-11 0.0556609034538269043
0.636953592300415039 3.7170728717228485e-09 0.21072070300579071
2.9609687328338623 1.86754139930300767e-10 0.131753414869308472
2.01445889472961426 1.62455959795693161e-09 0.230088710784912109
1.99366044998168945 1.65615365865789954e-09 0.12958759069442749
2.99677157402038574 1.32367422578383298e-10 0.020139649510383606
3.0169670581817627 1.01689122400383525e-10 0.206755414605140686
2.86427092552185059 3.33643973560171503e-10 0.237058073282241821
2.15967679023742676 1.40396472225745583e-09 0.192534685134887695
2.4442903995513916 9.71619451561878122e-10 0.146319761872291565
2.96232247352600098 1.84697632188424166e-10 0.168163031339645386
2.1854255199432373 1.36485112101070172e-09 0.166355669498443604
1.53237950801849365 2.35686714589178337e-09 0.192321792244911194
1.83680999279022217 1.89441884401730931e-09 0.127548113465309143
2.74167013168334961 5.1988180427287034e-10 0.182764515280723572
2.64894270896911621 6.60740462343767376e-10 0.188604667782783508
2.99440503120422363 1.35962283098756131e-10 0.107446849346160889
2.9946296215057373 1.3562130585231813e-10 0.175023674964904785
2.3234705924987793 1.15515197407489723e-09 0.104167193174362183
1.59452986717224121 2.262456888502129e-09 0.236391067504882812
1.19521415233612061 2.86904144886079848e-09 0.167457610368728638
2.68312883377075195 6.08809447300018292e-10 0.130162924528121948
1.77727615833282471 1.98485428093420069e-09 0.206731826066970825
3.07268857955932617 1.70451118497449983e-11 0.132200315594673157
1.23471558094024658 2.80903655891506787e-09 0.199038445949554443
2.99861884117126465 1.29561417150370062e-10 0.0711945891380310059
0.347136735916137695 4.15732204217533763e-09 0.222796052694320679
1.53118085861206055 2.35868791165216862e-09 0.206377714872360229
2.17082643508911133 1.38702760388298429e-09 0.15059429407119751
1.72767198085784912 2.06020600579392976e-09 0.243600577116012573
3.00040078163146973 1.26854596271819275e-10 0.237471908330917358
2.67178082466125488 6.26048046736826791e-10 0.11214311420917511
1.8027951717376709 1.9460895117617838e-09 0.120699763298034668
2.77378606796264648 4.71095773502128168e-10 0.242818817496299744
0.551223039627075195 3.84730292068979907e-09 0.218627661466598511
1.01082897186279297 3.14913362053914625e-09 0.229817047715187073
2.3083345890045166 1.17814447087027929e-09 0.120398178696632385
1.29874801635742188 2.71176725519239881e-09 0.176550686359405518
3.02895784378051758 8.34747201916563597e-11 0.052542760968208313
2.00902605056762695 1.63281210774357533e-09 0.21219848096370697
2.96497941017150879 1.80661707815943373e-10 0.178011387586593628
2.23927187919616699 1.28305521762683838e-09 0.161280795931816101
1.61517548561096191 2.23109486441330773e-09 0.242874443531036377
2.63109087944030762 6.87858381365202831e-10 0.243967846035957336
2.95485711097717285 1.96037894251155365e-10 0.217546418309211731
1.84565973281860352 1.88097559750133314e-09 0.189292535185813904
1.28107285499572754 2.73861688881993359e-09 0.207406744360923767
1.77056491374969482 1.99504923692472858e-09 0.193871334195137024
