ply
format ascii 1.0
element vertex 723
property float x
property float y
property float z
end_header
0.123904213309288025 0.150000005960464478 0.0127414008602499962
0.139130309224128723 0.150000005960464478 0.00528746657073497772
0.0224459469318389893 0.150000005960464478 0.000599253922700881958
0.116090789437294006 0.150000005960464478 0.00294521264731884003
0.108133174479007721 0.150000005960464478 0.00552330072969198227
0.0971596390008926392 0.150000005960464478 0.00439559901133179665
0.138690635561943054 0.150000005960464478 0.00463441992178559303
0.0769545435905456543 0.150000005960464478 0.00616152212023735046
0.148052871227264404 0.150000005960464478 0.0199446976184844971
0.0458775982260704041 0.150000005960464478 0.00283860322088003159
0.121329963207244873 0.150000005960464478 0.00165421841666102409
0.0970749557018280029 0.150000005960464478 0.0117258746176958084
0.118077799677848816 0.150000005960464478 0.00896402448415756226
0.0623827129602432251 0.150000005960464478 0.00610658247023820877
0.0609020963311195374 0.150000005960464478 0.002717580646276474
0.127275526523590088 0.150000005960464478 0.017338799312710762
0.145809471607208252 0.150000005960464478 0.00154756789561361074
0.123555704951286316 0.150000005960464478 0.00415027420967817307
0.137900069355964661 0.150000005960464478 0.0137070035561919212
0.114066079258918762 0.150000005960464478 0.011623060330748558
0.0910270959138870239 0.150000005960464478 0.00813044048845767975
0.070401318371295929 0.150000005960464478 0.00543838366866111755
0.121852882206439972 0.150000005960464478 0.015625443309545517
0.0664536803960800171 0.150000005960464478 0.00685489550232887268
0.114775270223617554 0.150000005960464478 0.00742268981412053108
0.107780322432518005 0.150000005960464478 0.0120336338877677917
0.117794312536716461 0.150000005960464478 0.00152976717799901962
0.0935003757476806641 0.150000005960464478 0.00506906211376190186
0.125233232975006104 0.150000005960464478 0.0171112604439258575
0.116259366273880005 0.150000005960464478 0.00160643132403492928
0.123664364218711853 0.150000005960464478 0.00186164421029388905
0.07221192866563797 0.150000005960464478 0.00310152862221002579
0.0339196473360061646 0.150000005960464478 0.000515300780534744263
0.046825110912322998 0.150000005960464478 0.00490618497133255005
0.0893129706382751465 0.150000005960464478 0.00260793603956699371
0.0545612722635269165 0.150000005960464478 0.00770582724362611771
0.128157585859298706 0.150000005960464478 0.00200708489865064621
0.0967137813568115234 0.150000005960464478 0.0105884969234466553
0.113436482846736908 0.150000005960464478 0.0126363374292850494
0.0928783118724822998 0.150000005960464478 0.00674260873347520828
0.0765505507588386536 0.150000005960464478 0.00829620379954576492
0.132149577140808105 0.150000005960464478 0.0113044148311018944
0.0295303165912628174 0.150000005960464478 0.00334461592137813568
0.134808406233787537 0.150000005960464478 0.00144680589437484741
0.134804844856262207 0.150000005960464478 0.0154347401112318039
0.0666789859533309937 0.150000005960464478 0.00853324495255947113
0.035933859646320343 0.150000005960464478 0.000815425068140029907
0.109536692500114441 0.150000005960464478 0.00305788079276680946
0.11721763014793396 0.150000005960464478 0.00549068860709667206
0.129141181707382202 0.150000005960464478 0.0157831143587827682
0.102744787931442261 0.150000005960464478 0.0052615506574511528
0.0795806720852851868 0.150000005960464478 0.000572987832129001617
0.0942245721817016602 0.150000005960464478 0.00814509205520153046
0.0604859814047813416 0.150000005960464478 0.00641717668622732162
0.129439130425453186 0.150000005960464478 0.0105754705145955086
0.14624863862991333 0.150000005960464478 0.0159370843321084976
0.0871807485818862915 0.150000005960464478 0.00580548029392957687
0.0631164312362670898 0.150000005960464478 0.00118870846927165985
0.0961242169141769409 0.150000005960464478 0.00877580419182777405
0.0765461176633834839 0.150000005960464478 0.0100704822689294815
0.0855001956224441528 0.150000005960464478 0.00960184633731842041
0.0530239641666412354 0.150000005960464478 0.00107679422944784164
0.145033583045005798 0.150000005960464478 0.0114121250808238983
0.115973293781280518 0.150000005960464478 0.00281809596344828606
0.131308898329734802 0.150000005960464478 0.0171036683022975922
0.10977182537317276 0.150000005960464478 0.00220216065645217896
0.0807308182120323181 0.150000005960464478 0.00241169147193431854
0.0717276707291603088 0.150000005960464478 0.0029657464474439621
0.032939620316028595 0.150000005960464478 0.00207113102078437805
0.146206960082054138 0.150000005960464478 0.0142071964219212532
0.144103989005088806 0.150000005960464478 0.0162722654640674591
0.0654168426990509033 0.150000005960464478 0.00436312239617109299
0.111869931221008301 0.150000005960464478 0.00947815272957086563
0.0816947594285011292 0.150000005960464478 0.0041594402864575386
0.101954847574234009 0.150000005960464478 0.0123817641288042068
0.0866657420992851257 0.150000005960464478 0.00138198211789131165
0.0322022512555122375 0.150000005960464478 0.000546995550394058228
0.0381436347961425781 0.150000005960464478 0.00228180177509784698
0.147281795740127563 0.150000005960464478 0.000812802114523947239
0.147445082664489746 0.150000005960464478 0.013032739982008934
0.11962534487247467 0.150000005960464478 0.00339133897796273232
0.0890793800354003906 0.150000005960464478 0.00785541720688343048
0.114669419825077057 0.150000005960464478 0.0138483326882123947
0.108811795711517334 0.150000005960464478 0.00104249455034732819
0.146630614995956421 0.150000005960464478 0.00845263898372650146
0.141823559999465942 0.150000005960464478 0.00629718741402029991
0.0921114087104797363 0.150000005960464478 0.00529487989842891693
0.119770124554634094 0.150000005960464478 0.00121539970859885216
0.147811040282249451 0.150000005960464478 0.0169554390013217926
0.119818985462188721 0.150000005960464478 0.0157787241041660309
0.0462641045451164246 0.150000005960464478 8.15205276012420654e-05
0.0859035328030586243 0.150000005960464478 0.00982474908232688904
0.127557888627052307 0.150000005960464478 0.00147536792792379856
0.0553974360227584839 0.150000005960464478 0.000519775785505771637
0.0991672351956367493 0.150000005960464478 0.00235134502872824669
0.00741399824619293213 0.150000005960464478 0.000495621934533119202
0.0788665935397148132 0.150000005960464478 0.00577407144010066986
0.0242360383272171021 0.150000005960464478 0.00298440642654895782
0.0850197598338127136 0.150000005960464478 0.008235931396484375
0.0643053203821182251 0.150000005960464478 0.00581745896488428116
0.103510268032550812 0.150000005960464478 0.0129449758678674698
0.0428704619407653809 0.150000005960464478 0.00402258522808551788
0.119837217032909393 0.150000005960464478 0.00974490679800510406
0.0871838629245758057 0.150000005960464478 0.00170527398586273193
0.129695549607276917 0.150000005960464478 0.016101473942399025
0.128662824630737305 0.150000005960464478 0.0094165559858083725
0.0909605473279953003 0.150000005960464478 0.0117684053257107735
0.11166679859161377 0.150000005960464478 0.0153777953237295151
0.148084729909896851 0.150000005960464478 0.0129680531099438667
0.140126600861549377 0.150000005960464478 0.015321691520512104
0.100569307804107666 0.150000005960464478 0.000292847864329814911
0.139937028288841248 0.150000005960464478 0.0144787654280662537
0.0341887623071670532 0.150000005960464478 0.00198108144104480743
0.0898412764072418213 0.150000005960464478 0.0127294007688760757
0.126447901129722595 0.150000005960464478 0.0117271430790424347
0.122927233576774597 0.150000005960464478 0.0166784767061471939
0.0964315831661224365 0.150000005960464478 0.00434272363781929016
0.115025520324707031 0.150000005960464478 0.00431912066414952278
0.0977865904569625854 0.150000005960464478 0.0096919843927025795
0.137746319174766541 0.150000005960464478 0.00190141261555254459
0.1085653156042099 0.150000005960464478 0.00101117044687271118
0.143754526972770691 0.150000005960464478 0.000537837913725525141
0.12266094982624054 0.150000005960464478 0.00767866382375359535
0.0656829029321670532 0.150000005960464478 0.00454614683985710144
0.106746867299079895 0.150000005960464478 0.0151722542941570282
0.103009991347789764 0.150000005960464478 0.00704780034720897675
0.117928795516490936 0.150000005960464478 0.00772270094603300095
0.118082717061042786 0.150000005960464478 0.0141318123787641525
0.144778326153755188 0.150000005960464478 0.0180108062922954559
0.132215112447738647 0.150000005960464478 0.00524328090250492096
0.0891881063580513 0.150000005960464478 0.00226004514843225479
0.0733324587345123291 0.150000005960464478 0.00613530352711677551
0.0984136611223220825 0.150000005960464478 0.0107295382767915726
0.143457010388374329 0.150000005960464478 0.015089062973856926
0.100957185029983521 0.150000005960464478 0.00043053971603512764
0.0678872764110565186 0.150000005960464478 0.00557503756135702133
0.0423508733510971069 0.150000005960464478 0.00390679016709327698
0.0674686655402183533 0.150000005960464478 0.00528623815625905991
0.139452993869781494 0.150000005960464478 0.015004478394985199
0.038117431104183197 0.150000005960464478 0.0045600011944770813
0.0694613680243492126 0.150000005960464478 0.00370382331311702728
0.0961902886629104614 0.150000005960464478 0.00123841874301433563
0.0377022698521614075 0.150000005960464478 6.66528940200805664e-05
0.0255691707134246826 0.150000005960464478 0.00327451713383197784
0.0983640104532241821 0.150000005960464478 4.16659750044345856e-05
0.132908254861831665 0.150000005960464478 0.0169983245432376862
0.129990726709365845 0.150000005960464478 0.0169949140399694443
0.0855456963181495667 0.150000005960464478 0.000730070285499095917
0.118413589894771576 0.150000005960464478 0.0140105243772268295
0.0231719911098480225 0.150000005960464478 0.0019927099347114563
0.0584876388311386108 0.150000005960464478 0.00391130521893501282
0.0466360077261924744 0.150000005960464478 0.00419336184859275818
0.119450189173221588 0.150000005960464478 0.0174138974398374557
0.115811079740524292 0.150000005960464478 0.0119666103273630142
0.0930272787809371948 0.150000005960464478 0.00528346747159957886
0.0772154107689857483 0.150000005960464478 0.0034764530137181282
0.116691052913665771 0.150000005960464478 0.00564208580181002617
0.127530604600906372 0.150000005960464478 0.000331297516822814941
0.067261427640914917 0.150000005960464478 0.009323914535343647
0.0866739004850387573 0.150000005960464478 0.00141415558755397797
0.145275279879570007 0.150000005960464478 0.00231386604718863964
0.123037256300449371 0.150000005960464478 0.0156482867896556854
0.121281228959560394 0.150000005960464478 0.01615096814930439
0.0615910589694976807 0.150000005960464478 0.00547716394066810608
0.0751406848430633545 0.150000005960464478 0.00932532269507646561
0.0612101778388023376 0.150000005960464478 0.00476921442896127701
0.0458713620901107788 0.150000005960464478 0.00128484703600406647
0.104356557130813599 0.150000005960464478 0.00634298799559473991
0.10879892110824585 0.150000005960464478 0.00673391157761216164
0.135170027613639832 0.150000005960464478 0.00816478393971920013
0.118694499135017395 0.150000005960464478 0.00795423053205013275
0.0939127057790756226 0.150000005960464478 0.00345854833722114563
0.0926572680473327637 0.150000005960464478 0.00816343352198600769
0.0996917486190795898 0.150000005960464478 0.00318934489041566849
0.135309681296348572 0.150000005960464478 0.00552776455879211426
0.0259073302149772644 0.150000005960464478 0.00328874588012695312
0.147225707769393921 0.150000005960464478 0.00970302149653434753
0.107619747519493103 0.150000005960464478 0.00707375956699252129
0.124521136283874512 0.150000005960464478 0.00273835519328713417
0.0585163906216621399 0.150000005960464478 0.000790489837527275085
0.0848791971802711487 0.150000005960464478 0.00744321383535861969
0.084995657205581665 0.150000005960464478 0.00603333953768014908
0.0876641348004341125 0.150000005960464478 0.00700070895254611969
0.0955860614776611328 0.150000005960464478 0.00312910880893468857
0.117805123329162598 0.150000005960464478 0.00849450379610061646
0.134325206279754639 0.150000005960464478 0.0143399061635136604
0.105018913745880127 0.150000005960464478 0.00251412950456142426
0.0781489238142967224 0.150000005960464478 0.0112182097509503365
0.0526989027857780457 0.150000005960464478 0.00409809313714504242
0.0499570146203041077 0.150000005960464478 0.000629472546279430389
0.0758209973573684692 0.150000005960464478 0.00213630776852369308
0.0941977575421333313 0.150000005960464478 0.0126613620668649673
0.116239823400974274 0.150000005960464478 0.0156866684556007385
0.112272992730140686 0.150000005960464478 0.010810432955622673
0.0923372656106948853 0.150000005960464478 0.00796354375779628754
0.110387213528156281 0.150000005960464478 0.0149018373340368271
0.105271920561790466 0.150000005960464478 0.0135392574593424797
0.122484505176544189 0.150000005960464478 0.00405630562454462051
0.107562251389026642 0.150000005960464478 0.0067346617579460144
0.122712090611457825 0.150000005960464478 0.017605319619178772
0.112874031066894531 0.150000005960464478 0.00414643436670303345
0.115311875939369202 0.150000005960464478 0.00825877860188484192
0.124612145125865936 0.150000005960464478 0.0149756297469139099
0.146521672606468201 0.150000005960464478 0.00662002526223659515
0.081445060670375824 0.150000005960464478 0.00727199669927358627
0.0973520874977111816 0.150000005960464478 0.00586192356422543526
0.0116661190986633301 0.150000005960464478 1.21947377920150757e-05
0.0843382701277732849 0.150000005960464478 0.00638610962778329849
0.149512484669685364 0.150000005960464478 0.0212264116853475571
0.0778672173619270325 0.150000005960464478 0.00733028724789619446
0.0829868018627166748 0.150000005960464478 0.00372703280299901962
0.0424297302961349487 0.150000005960464478 0.000250281766057014465
0.0863466784358024597 0.150000005960464478 0.00878202728927135468
0.128459155559539795 0.150000005960464478 0.0115771088749170303
0.133353427052497864 0.150000005960464478 0.00638072146102786064
0.111649759113788605 0.150000005960464478 0.00233816774562001228
0.121227964758872986 0.150000005960464478 0.010305529460310936
0.130057811737060547 0.150000005960464478 0.018480321392416954
0.144651651382446289 0.150000005960464478 0.0177044272422790527
0.124426901340484619 0.150000005960464478 0.00935451500117778778
0.0583869293332099915 0.150000005960464478 0.00229842308908700943
0.104868233203887939 0.150000005960464478 0.0148428827524185181
0.00860697031021118164 0.150000005960464478 0.00072862580418586731
0.0659737735986709595 0.150000005960464478 0.00911477208137512207
0.13431847095489502 0.150000005960464478 0.010852571576833725
0.0574055016040802002 0.150000005960464478 0.000989662483334541321
0.107866600155830383 0.150000005960464478 0.0102198682725429535
0.110853224992752075 0.150000005960464478 0.0141418315470218658
0.125877276062965393 0.150000005960464478 0.0119721563532948494
0.0299957916140556335 0.150000005960464478 0.0032840874046087265
0.141329050064086914 0.150000005960464478 0.015307488851249218
0.0697986260056495667 0.150000005960464478 0.00185462646186351776
0.016881067305803299 0.150000005960464478 0.0134583730250597
0.0825659409165382385 0.150000005960464478 0.0210338830947875977
0.0604360960423946381 0.150000005960464478 0.0169641394168138504
0.0200155209749937057 0.150000005960464478 0.0132147800177335739
0.0561487264931201935 0.150000005960464478 0.0096154501661658287
0.0359327942132949829 0.150000005960464478 0.0190760772675275803
0.0510745756328105927 0.150000005960464478 0.00977779924869537354
0.055428091436624527 0.150000005960464478 0.0141162332147359848
0.111336827278137207 0.150000005960464478 0.0186757799237966537
0.0495810173451900482 0.150000005960464478 0.0168967880308628082
0.0405936650931835175 0.150000005960464478 0.0101312138140201569
0.013462982140481472 0.150000005960464478 0.0218293443322181702
0.0927281826734542847 0.150000005960464478 0.0143568925559520721
0.0901312679052352905 0.150000005960464478 0.020075654610991478
0.025390351191163063 0.150000005960464478 0.0211245734244585037
0.0770294442772865295 0.150000005960464478 0.021836085245013237
0.00737196579575538635 0.150000005960464478 0.00308313034474849701
0.0117081888020038605 0.150000005960464478 0.0186455324292182922
0.0271496381610631943 0.150000005960464478 0.0211796686053276062
0.111084513366222382 0.150000005960464478 0.0198979564011096954
0.00305574922822415829 0.150000005960464478 0.00940628629177808762
0.101872704923152924 0.150000005960464478 0.0216917525976896286
0.0860883742570877075 0.150000005960464478 0.0200488381087779999
0.034258522093296051 0.150000005960464478 0.0171094071120023727
0.0534441284835338593 0.150000005960464478 0.0141909429803490639
0.0420044846832752228 0.150000005960464478 0.00731811672449111938
0.0803632438182830811 0.150000005960464478 0.0122800068929791451
0.0549946539103984833 0.150000005960464478 0.0155832171440124512
0.0653473734855651855 0.150000005960464478 0.0106287095695734024
0.0120488153770565987 0.150000005960464478 0.00490058586001396179
0.0720323696732521057 0.150000005960464478 0.0180938728153705597
0.0443533286452293396 0.150000005960464478 0.0122689027339220047
0.0221360679715871811 0.150000005960464478 0.00720174424350261688
0.0196174513548612595 0.150000005960464478 0.00496808998286724091
0.120470583438873291 0.150000005960464478 0.0186765864491462708
0.0612184815108776093 0.150000005960464478 0.0104637043550610542
0.0499921888113021851 0.150000005960464478 0.014749675989151001
0.0197587329894304276 0.150000005960464478 0.00810847245156764984
0.0135705433785915375 0.150000005960464478 0.0176109056919813156
0.0973206609487533569 0.150000005960464478 0.0218677110970020294
0.0559931211173534393 0.150000005960464478 0.0167864635586738586
0.026971546933054924 0.150000005960464478 0.00799486134201288223
0.0928029865026473999 0.150000005960464478 0.0160324424505233765
0.00810329616069793701 0.150000005960464478 0.0174452066421508789
0.0544328652322292328 0.150000005960464478 0.00911410711705684662
0.0459757596254348755 0.150000005960464478 0.0167483910918235779
0.00393729936331510544 0.150000005960464478 0.0187981612980365753
0.0705046206712722778 0.150000005960464478 0.0217978488653898239
0.0540082827210426331 0.150000005960464478 0.0185047350823879242
0.0194231364876031876 0.150000005960464478 0.00409134477376937866
0.0598010644316673279 0.150000005960464478 0.0143079375848174095
0.0126474220305681229 0.150000005960464478 0.0179594103246927261
0.0282160639762878418 0.150000005960464478 0.00709267612546682358
0.0457218736410140991 0.150000005960464478 0.0154043808579444885
0.0538771636784076691 0.150000005960464478 0.00981057342141866684
0.0755252242088317871 0.150000005960464478 0.0134241711348295212
0.0854474455118179321 0.150000005960464478 0.0177310314029455185
0.0526466034352779388 0.150000005960464478 0.016341550275683403
0.0808682143688201904 0.150000005960464478 0.0134311635047197342
0.0117247924208641052 0.150000005960464478 0.0139964576810598373
0.0672864466905593872 0.150000005960464478 0.0128531167283654213
0.029302302747964859 0.150000005960464478 0.0180695541203022003
0.00243934616446495056 0.150000005960464478 0.0155688170343637466
0.0724748969078063965 0.150000005960464478 0.0216771475970745087
0.0165948960930109024 0.150000005960464478 0.0097976047545671463
0.0392149649560451508 0.150000005960464478 0.00729214772582054138
0.0427872128784656525 0.150000005960464478 0.0147654842585325241
0.0350010916590690613 0.150000005960464478 0.00859787315130233765
0.0252535771578550339 0.150000005960464478 0.0203725285828113556
0.0117383729666471481 0.150000005960464478 0.00597492419183254242
0.0187003519386053085 0.150000005960464478 0.0206846054643392563
0.0589612461626529694 0.150000005960464478 0.00942197069525718689
0.0160682257264852524 0.150000005960464478 0.0105066839605569839
0.0652575790882110596 0.150000005960464478 0.0161493998020887375
0.0495931617915630341 0.150000005960464478 0.0159863494336605072
0.0427442491054534912 0.150000005960464478 0.0107631999999284744
0.0136539293453097343 0.150000005960464478 0.0169824827462434769
0.0119233736768364906 0.150000005960464478 0.0197803899645805359
0.0420658625662326813 0.150000005960464478 0.00737575162202119827
0.145101785659790039 0.150000005960464478 0.0215277485549449921
0.0723620355129241943 0.150000005960464478 0.0178233645856380463
0.092869490385055542 0.150000005960464478 0.0217267312109470367
0.0134255262091755867 0.150000005960464478 0.0161315873265266418
0.00651426287367939949 0.150000005960464478 0.0108499089255928993
0.0149509189650416374 0.150000005960464478 0.0119493231177330017
0.123588666319847107 0.150000005960464478 0.0207265466451644897
0.00812728796154260635 0.150000005960464478 0.00511618703603744507
0.00999295525252819061 0.150000005960464478 0.00955925881862640381
0.0449284985661506653 0.150000005960464478 0.0142338685691356659
0.0263169053941965103 0.150000005960464478 0.0124474810436367989
0.0240421686321496964 0.150000005960464478 0.00837186351418495178
0.0202452391386032104 0.150000005960464478 0.00444020144641399384
0.0286065731197595596 0.150000005960464478 0.0097123337909579277
0.122196100652217865 0.150000005960464478 0.0181111134588718414
0.0756165012717247009 0.150000005960464478 0.0122888274490833282
0.0736751183867454529 0.150000005960464478 0.0161272957921028137
0.00680408906191587448 0.150000005960464478 0.0145598212257027626
0.0264312382787466049 0.150000005960464478 0.0204700697213411331
0.00928143411874771118 0.150000005960464478 0.0156122082844376564
0.0913133919239044189 0.150000005960464478 0.016432369127869606
0.00105364352930337191 0.150000005960464478 0.00606528483331203461
0.01069599948823452 0.150000005960464478 0.0197198353707790375
0.0254828371107578278 0.150000005960464478 0.00905113480985164642
0.0268081016838550568 0.150000005960464478 0.00835807062685489655
0.0731008946895599365 0.150000005960464478 0.017095860093832016
0.00267012510448694229 0.150000005960464478 0.0160721726715564728
0.0192153211683034897 0.150000005960464478 0.0125600229948759079
0.0285676531493663788 0.150000005960464478 0.0188889242708683014
0.110908783972263336 0.150000005960464478 0.0162248760461807251
0.0248475782573223114 0.150000005960464478 0.0116783110424876213
0.0122622856870293617 0.150000005960464478 0.00297642312943935394
0.0531427152454853058 0.150000005960464478 0.0167645290493965149
0.0384544879198074341 0.150000005960464478 0.0104390308260917664
0.0265162382274866104 0.150000005960464478 0.0205519963055849075
0.0550829246640205383 0.150000005960464478 0.0184904113411903381
0.0135951908305287361 0.150000005960464478 0.00645532086491584778
0.0174128450453281403 0.150000005960464478 0.0167643316090106964
0.015636395663022995 0.150000005960464478 0.0209346301853656769
0.0632643997669219971 0.150000005960464478 0.0171674434095621109
0.0276469346135854721 0.150000005960464478 0.0107803763821721077
0.0377958081662654877 0.150000005960464478 0.0116418562829494476
0.00506673660129308701 0.150000005960464478 0.0157706122845411301
0.0369370318949222565 0.150000005960464478 0.0167007371783256531
0.0552149228751659393 0.150000005960464478 0.0181205905973911285
0.0134913576766848564 0.150000005960464478 0.0196292698383331299
0.133726686239242554 0.150000005960464478 0.0195313096046447754
0.0902373343706130981 0.150000005960464478 0.0214268527925014496
0.0226831361651420593 0.150000005960464478 0.0205807778984308243
0.0285903271287679672 0.150000005960464478 0.0145350517705082893
0.08541126549243927 0.150000005960464478 0.017662564292550087
0.013018488883972168 0.150000005960464478 0.0169258564710617065
0.038847215473651886 0.150000005960464478 0.0211241468787193298
0.126646503806114197 0.150000005960464478 0.0188165530562400818
0.0989200249314308167 0.150000005960464478 0.0215629395097494125
0.0162618551403284073 0.150000005960464478 0.0112498961389064789
0.0483843162655830383 0.150000005960464478 0.01334394421428442
0.0480419918894767761 0.150000005960464478 0.00784056726843118668
0.0170270428061485291 0.150000005960464478 0.012709788978099823
0.0179622601717710495 0.150000005960464478 0.0184458903968334198
0.0547521002590656281 0.150000005960464478 0.0173921138048171997
0.0803679525852203369 0.150000005960464478 0.0181004013866186142
0.0416582264006137848 0.150000005960464478 0.0163642335683107376
0.0570238009095191956 0.150000005960464478 0.0189678668975830078
0.0321284830570220947 0.150000005960464478 0.0166579317301511765
0.0966768935322761536 0.150000005960464478 0.0217497386038303375
0.0072334962897002697 0.150000005960464478 0.00163337774574756622
0.0978397354483604431 0.150000005960464478 0.0189971905201673508
0.0218231957405805588 0.150000005960464478 0.0218247193843126297
0.115298226475715637 0.150000005960464478 0.0191400870680809021
0.0218061544001102448 0.150000005960464478 0.0213777255266904831
0.0627728253602981567 0.150000005960464478 0.00962833408266305923
0.078068166971206665 0.150000005960464478 0.0192398577928543091
0.018320256844162941 0.150000005960464478 0.0168098490685224533
0.0157823804765939713 0.150000005960464478 0.00862986594438552856
0.000158384005771949887 0.150000005960464478 0.0186737142503261566
0.00617053965106606483 0.150000005960464478 0.0064602559432387352
0.0981655269861221313 0.150000005960464478 0.0157437939196825027
0.0481016151607036591 0.150000005960464478 0.00924527738243341446
0.0772796422243118286 0.150000005960464478 0.0136739602312445641
0.0982609167695045471 0.150000005960464478 0.0212081018835306168
0.0137419924139976501 0.150000005960464478 0.0140052633360028267
0.0419316813349723816 0.150000005960464478 0.00927503407001495361
0.101855427026748657 0.150000005960464478 0.0166943222284317017
0.0712665840983390808 0.150000005960464478 0.0140783609822392464
0.0933173969388008118 0.150000005960464478 0.0142208393663167953
0.0246126148849725723 0.150000005960464478 0.00835595466196537018
0.042950555682182312 0.150000005960464478 0.0137458015233278275
0.0421968437731266022 0.150000005960464478 0.0166873596608638763
0.0402616411447525024 0.150000005960464478 0.0083134109154343605
0.00248056277632713318 0.150000005960464478 0.0147460559383034706
0.0306007936596870422 0.150000005960464478 0.0140462499111890793
0.0150545760989189148 0.150000005960464478 0.00529390014708042145
0.0223393402993679047 0.150000005960464478 0.00800464767962694168
0.138736262917518616 0.150000005960464478 0.0209461338818073273
0.0478375069797039032 0.150000005960464478 0.0157940592616796494
0.0407746508717536926 0.150000005960464478 0.0201708618551492691
0.128115534782409668 0.150000005960464478 0.0207069218158721924
0.112080849707126617 0.150000005960464478 0.0197099484503269196
0.0283720176666975021 0.150000005960464478 0.0138858184218406677
0.0348719768226146698 0.150000005960464478 0.00672701373696327209
0.058137744665145874 0.150000005960464478 0.0206963326781988144
0.0679406896233558655 0.150000005960464478 0.0162723436951637268
0.0223408658057451248 0.150000005960464478 0.00701914634555578232
0.0334326401352882385 0.150000005960464478 0.00748431216925382614
0.0300504341721534729 0.150000005960464478 0.0192814022302627563
0.138390988111495972 0.150000005960464478 0.0209179949015378952
0.0585641451179981232 0.150000005960464478 0.0191310513764619827
0.131157442927360535 0.150000005960464478 0.021532619372010231
0.00618347013369202614 0.150000005960464478 0.00562774203717708588
0.117268048226833344 0.150000005960464478 0.0201009679585695267
0.011699112132191658 0.150000005960464478 0.0109940432012081146
0.1154656782746315 0.150000005960464478 0.0212876386940479279
0.0412722118198871613 0.150000005960464478 0.01208510622382164
0.123209297657012939 0.150000005960464478 0.0191645883023738861
0.0374246984720230103 0.150000005960464478 0.0130208330228924751
0.0525863319635391235 0.150000005960464478 0.0196423400193452835
0.0226662028580904007 0.150000005960464478 0.00347776152193546295
0.0602027885615825653 0.150000005960464478 0.0154367368668317795
0.143007993698120117 0.150000005960464478 0.0211452245712280273
0.0432882495224475861 0.150000005960464478 0.0127906417474150658
0.00906501617282629013 0.150000005960464478 0.012693832628428936
0.0695279389619827271 0.150000005960464478 0.0132391741499304771
0.0632491707801818848 0.150000005960464478 0.0178386736661195755
0.096835695207118988 0.150000005960464478 0.0213472805917263031
0.0546012632548809052 0.150000005960464478 0.0207996293902397156
0.00176361401099711657 0.150000005960464478 0.0212609805166721344
0.0368731804192066193 0.150000005960464478 0.0112167205661535263
0.127124190330505371 0.150000005960464478 0.0203354600816965103
0.00761664053425192833 0.150000005960464478 0.0142240151762962341
0.0862951502203941345 0.150000005960464478 0.0166162829846143723
0.0398600958287715912 0.150000005960464478 0.0107584986835718155
0.0768365412950515747 0.150000005960464478 0.016653137281537056
0.0347852185368537903 0.150000005960464478 0.00632438808679580688
0.101746551692485809 0.150000005960464478 0.0154368225485086441
0.0470463111996650696 0.150000005960464478 0.0204274989664554596
0.0698918923735618591 0.150000005960464478 0.0147141832858324051
0.0561781786382198334 0.150000005960464478 0.020122552290558815
0.00414526602253317833 0.150000005960464478 0.00678960420191287994
0.0781228542327880859 0.150000005960464478 0.0148448813706636429
0.0519927777349948883 0.150000005960464478 0.0124631850048899651
0.021584121510386467 0.150000005960464478 0.00453542359173297882
0.0334471799433231354 0.150000005960464478 0.0167573187500238419
0.0417490005493164062 0.150000005960464478 0.017129063606262207
0.0532101951539516449 0.150000005960464478 0.0111085232347249985
0.0567135326564311981 0.150000005960464478 0.019785270094871521
0.0309243034571409225 0.150000005960464478 0.00784424133598804474
0.0764868110418319702 0.150000005960464478 0.0115701900795102119
0.0382521823048591614 0.150000005960464478 0.0145310778170824051
0.00345763261429965496 0.150000005960464478 0.00636127591133117676
0.0411980897188186646 0.150000005960464478 0.0120971137657761574
0.0281560327857732773 0.150000005960464478 0.0139504866674542427
0.00675635691732168198 0.150000005960464478 0.0197460688650608063
0.0828681737184524536 0.150000005960464478 0.0195983815938234329
0.0300003327429294586 0.150000005960464478 0.0130110140889883041
0.02668764628469944 0.150000005960464478 0.0118306875228881836
0.0213561728596687317 0.150000005960464478 0.0167647451162338257
0.0746933445334434509 0.150000005960464478 0.0160797405987977982
0.0637989118695259094 0.150000005960464478 0.0211204774677753448
0.00873208977282047272 0.150000005960464478 0.0036306772381067276
0.0341997705399990082 0.150000005960464478 0.0173561759293079376
0.042188890278339386 0.150000005960464478 0.021894361823797226
0.0482827909290790558 0.150000005960464478 0.0191993676126003265
0.0345825031399726868 0.150000005960464478 0.0145135456696152687
0.00897339079529047012 0.150000005960464478 0.00748984422534704208
0.0630221143364906311 0.150000005960464478 0.0129153002053499222
0.131678313016891479 0.150000005960464478 0.0205789431929588318
0.00198478344827890396 0.150000005960464478 0.0158202704042196274
0.0104380231350660324 0.150000005960464478 0.00227284617722034454
0.116297878324985504 0.150000005960464478 0.0212792735546827316
0.128235340118408203 0.150000005960464478 0.020689522847533226
0.0524171106517314911 0.150000005960464478 0.0146537264809012413
0.0495104417204856873 0.150000005960464478 0.0209336169064044952
0.0197976678609848022 0.150000005960464478 0.0127103514969348907
0.0129239475354552269 0.150000005960464478 0.00304606929421424866
0.0662014707922935486 0.150000005960464478 0.0150986220687627792
0.0560102052986621857 0.150000005960464478 0.0122622000053524971
0.039876595139503479 0.150000005960464478 0.00690150074660778046
0.0590632073581218719 0.150000005960464478 0.0126874009147286415
0.0861458927392959595 0.150000005960464478 0.0214462298899888992
0.0148503109812736511 0.150000005960464478 0.0217346698045730591
0.106247417628765106 0.150000005960464478 0.0157177671790122986
0.0109021235257387161 0.150000005960464478 0.00746728479862213135
0.0940806120634078979 0.150000005960464478 0.0165308024734258652
0.0876670405268669128 0.150000005960464478 0.020018232986330986
0.0190112963318824768 0.150000005960464478 0.00420948490500450134
0.0700199231505393982 0.150000005960464478 0.0211826041340827942
0.0539944656193256378 0.150000005960464478 0.0144244618713855743
0.137552574276924133 0.150000005960464478 0.0207838844507932663
0.0411560311913490295 0.150000005960464478 0.011867128312587738
0.0551688447594642639 0.150000005960464478 0.0199853889644145966
0.0947962328791618347 0.150000005960464478 0.0201986655592918396
0.0961170122027397156 0.150000005960464478 0.0141000049188733101
0.062883719801902771 0.150000005960464478 0.0159152522683143616
0.0590382777154445648 0.150000005960464478 0.017492370679974556
0.0766533762216567993 0.150000005960464478 0.0176490023732185364
0.136895686388015747 0.150000005960464478 0.0202192999422550201
0.0400444753468036652 0.150000005960464478 0.0164895281195640564
0.0407480970025062561 0.150000005960464478 0.0208197124302387238
0.0912635177373886108 0.150000005960464478 0.0156479310244321823
0.0348629839718341827 0.150000005960464478 0.0148933101445436478
0.0518540777266025543 0.150000005960464478 0.0186823252588510513
0.0419357717037200928 0.150000005960464478 0.0135301472619175911
-4.99600361081320443e-16 0.118429392576217651 0.00887490063905715942
-4.99600361081320443e-16 0.142333418130874634 0.00509712006896734238
-4.99600361081320443e-16 0.042292177677154541 0.00535180047154426575
-4.99600361081320443e-16 0.13798309862613678 0.00333583913743495941
-4.99600361081320443e-16 0.0768631845712661743 0.00804167706519365311
-4.99600361081320443e-16 0.121309340000152588 0.00690597668290138245
-4.99600361081320443e-16 0.0722153931856155396 0.00709008984267711639
-4.99600361081320443e-16 0.127294033765792847 0.00582493003457784653
-4.99600361081320443e-16 0.102473795413970947 0.00250881211832165718
-4.99600361081320443e-16 0.137865170836448669 0.0198192782700061798
-4.99600361081320443e-16 0.065645560622215271 0.00286062527447938919
-4.99600361081320443e-16 0.1076522096991539 0.00824101362377405167
-4.99600361081320443e-16 0.103661209344863892 0.00412488635629415512
-4.99600361081320443e-16 0.0482189208269119263 0.00439596362411975861
-4.99600361081320443e-16 0.144265010952949524 0.000745843281038105488
-4.99600361081320443e-16 0.0129317194223403931 0.00130341947078704834
-4.99600361081320443e-16 0.0370219498872756958 0.00354294478893280029
-4.99600361081320443e-16 0.0448266416788101196 0.00398348737508058548
-4.99600361081320443e-16 0.147635295987129211 0.00225222809240221977
-4.99600361081320443e-16 0.0560281500220298767 0.00422849785536527634
-4.99600361081320443e-16 0.114702463150024414 0.0107400864362716675
-4.99600361081320443e-16 0.121473371982574463 0.00173018034547567368
-4.99600361081320443e-16 0.145860284566879272 0.00720929261296987534
-4.99600361081320443e-16 0.147398114204406738 0.00668290536850690842
-4.99600361081320443e-16 0.0964085906744003296 0.00278915371745824814
-4.99600361081320443e-16 0.0917679518461227417 0.00757044926285743713
-4.99600361081320443e-16 0.0861802846193313599 0.00913999415934085846
-4.99600361081320443e-16 0.033915303647518158 0.00283236056566238403
-4.99600361081320443e-16 0.115473061800003052 0.000755187124013900757
-4.99600361081320443e-16 0.114988401532173157 0.015543350949883461
-4.99600361081320443e-16 0.143656790256500244 0.00379977887496352196
-4.99600361081320443e-16 0.113928914070129395 4.96283173561096191e-05
-4.99600361081320443e-16 0.147729828953742981 0.0118878921493887901
-4.99600361081320443e-16 0.133299410343170166 0.0119582638144493103
-4.99600361081320443e-16 0.138391703367233276 0.0121504776179790497
-4.99600361081320443e-16 0.0617829635739326477 0.00525465607643127441
-4.99600361081320443e-16 0.0820363014936447144 0.00951893441379070282
-4.99600361081320443e-16 0.0827670246362686157 0.000796634703874588013
-4.99600361081320443e-16 0.0813830196857452393 0.00897288043051958084
-4.99600361081320443e-16 0.119088947772979736 0.00123254582285881042
-4.99600361081320443e-16 0.105284065008163452 0.00242463778704404831
-4.99600361081320443e-16 0.136785790324211121 0.0116345817223191261
-4.99600361081320443e-16 0.0927515104413032532 0.00059510301798582077
-4.99600361081320443e-16 0.0179043114185333252 0.00106601417064666748
-4.99600361081320443e-16 0.130628973245620728 0.0115264803171157837
-4.99600361081320443e-16 0.14349830150604248 0.016431715339422226
-4.99600361081320443e-16 0.140615865588188171 0.0138839222490787506
-4.99600361081320443e-16 0.0739816278219223022 0.0070214560255408287
-4.99600361081320443e-16 0.103418007493019104 0.00979714840650558472
-4.99600361081320443e-16 0.116137146949768066 0.0160866696387529373
-4.99600361081320443e-16 0.0309995189309120178 0.000605182722210884094
-4.99600361081320443e-16 0.148372799158096313 0.0120614394545555115
-4.99600361081320443e-16 0.0559026449918746948 0.00704694632440805435
-4.99600361081320443e-16 0.102687492966651917 0.00277624744921922684
-4.99600361081320443e-16 0.122844614088535309 0.00403434503823518753
-4.99600361081320443e-16 0.0260104313492774963 0.00172584131360054016
-4.99600361081320443e-16 0.0998888015747070312 0.011373201385140419
-4.99600361081320443e-16 0.0281092673540115356 0.00359731167554855347
-4.99600361081320443e-16 0.0351688563823699951 0.00265926681458950043
-4.99600361081320443e-16 0.051945321261882782 0.00367010757327079773
-4.99600361081320443e-16 0.1228012815117836 0.0157546307891607285
-4.99600361081320443e-16 0.0723455101251602173 0.00240948237478733063
-4.99600361081320443e-16 0.0380679070949554443 0.00432271510362625122
-4.99600361081320443e-16 0.145406424999237061 0.0175209343433380127
-4.99600361081320443e-16 0.147528558969497681 0.0177749376744031906
-4.99600361081320443e-16 0.115319535136222839 0.00122167309746146202
-4.99600361081320443e-16 0.115127772092819214 0.0132755395025014877
-4.99600361081320443e-16 0.103154599666595459 0.0101734064519405365
-4.99600361081320443e-16 0.0987823903560638428 0.00807299651205539703
-4.99600361081320443e-16 0.0752553343772888184 0.00797973666340112686
-4.99600361081320443e-16 0.03354683518409729 0.00461808405816555023
-4.99600361081320443e-16 0.133163824677467346 0.0178999081254005432
-4.99600361081320443e-16 0.0895998179912567139 0.00806796178221702576
-4.99600361081320443e-16 0.0997304916381835938 0.00111080287024378777
-4.99600361081320443e-16 0.148135170340538025 0.0119860861450433731
-4.99600361081320443e-16 0.06507149338722229 0.0090082148090004921
-4.99600361081320443e-16 0.147262826561927795 0.00549405720084905624
-4.99600361081320443e-16 0.0937119722366333008 0.0107543421909213066
-4.99600361081320443e-16 0.109054818749427795 0.00967912562191486359
-4.99600361081320443e-16 0.148885324597358704 0.000278350547887384892
-4.99600361081320443e-16 0.14666806161403656 0.0197662357240915298
-4.99600361081320443e-16 0.0462126657366752625 0.00585463177412748337
-4.99600361081320443e-16 0.148305639624595642 0.0113487988710403442
-4.99600361081320443e-16 0.0666242688894271851 0.00620285235345363617
-4.99600361081320443e-16 0.071658015251159668 0.00333478860557079315
-4.99600361081320443e-16 0.0360891520977020264 0.00169552303850650787
-4.99600361081320443e-16 0.0389706417918205261 0.00417073257267475128
-4.99600361081320443e-16 0.120056860148906708 0.0150392055511474609
-4.99600361081320443e-16 0.13132159411907196 0.0117116402834653854
-4.99600361081320443e-16 0.0988155379891395569 0.0143543444573879242
-4.99600361081320443e-16 0.0527961850166320801 0.0054223332554101944
-4.99600361081320443e-16 0.0701216310262680054 0.0046428535133600235
-4.99600361081320443e-16 0.0955236181616783142 0.0119561441242694855
-4.99600361081320443e-16 0.095834583044052124 0.00977575872093439102
-4.99600361081320443e-16 0.116151109337806702 0.00822097714990377426
-4.99600361081320443e-16 0.12301153689622879 0.0128681622445583344
-4.99600361081320443e-16 0.145129278302192688 0.0175763294100761414
-4.99600361081320443e-16 0.0438458770513534546 0.00268470868468284607
-4.99600361081320443e-16 0.14249090850353241 0.0202742684632539749
-4.99600361081320443e-16 0.0944443643093109131 0.00901408866047859192
-4.99600361081320443e-16 0.133865043520927429 0.0133173679932951927
-4.99600361081320443e-16 0.108452290296554565 0.0140569359064102173
-4.99600361081320443e-16 0.0475612282752990723 0.00632274337112903595
-4.99600361081320443e-16 0.125604450702667236 0.0103721190243959427
-4.99600361081320443e-16 0.0887973755598068237 0.00212219636887311935
-4.99600361081320443e-16 0.146087571978569031 0.0114942677319049835
-4.99600361081320443e-16 0.0724800154566764832 0.00550163350999355316
-4.99600361081320443e-16 0.141180932521820068 0.000343571649864315987
-4.99600361081320443e-16 0.120770007371902466 0.0122756753116846085
-4.99600361081320443e-16 0.120819836854934692 0.00744317797943949699
-4.99600361081320443e-16 0.143129795789718628 0.0201279409229755402
-4.99600361081320443e-16 0.144124686717987061 0.0059305843897163868
-4.99600361081320443e-16 0.0482524782419204712 0.000531652942299842834
-4.99600361081320443e-16 0.0794142857193946838 0.00775211676955223083
-4.99600361081320443e-16 0.101066097617149353 0.0110543575137853622
-4.99600361081320443e-16 0.118882961571216583 0.0140019487589597702
-4.99600361081320443e-16 0.096772320568561554 0.00833137426525354385
-4.99600361081320443e-16 0.0300155282020568848 0.00208310037851333618
-4.99600361081320443e-16 0.076448880136013031 0.00197775941342115402
-4.99600361081320443e-16 0.11424671858549118 0.0134946247562766075
-4.99600361081320443e-16 0.110894694924354553 0.00819306820631027222
-4.99600361081320443e-16 0.109042659401893616 0.00223812554031610489
-4.99600361081320443e-16 0.0770985633134841919 0.000609481707215309143
-4.99600361081320443e-16 0.0634817555546760559 0.00589518249034881592
-4.99600361081320443e-16 0.0814149826765060425 0.00648235063999891281
-4.99600361081320443e-16 0.0823014974594116211 0.0110857496038079262
-4.99600361081320443e-16 0.112578779458999634 0.0124523937702178955
-4.99600361081320443e-16 0.131962999701499939 0.00436911545693874359
-4.99600361081320443e-16 0.145427435636520386 0.015407465398311615
-4.99600361081320443e-16 0.106055781245231628 0.010159740224480629
-4.99600361081320443e-16 0.0672383755445480347 0.00294533558189868927
-4.99600361081320443e-16 0.0702102556824684143 0.00648326054215431213
-4.99600361081320443e-16 0.136424511671066284 0.00595565978437662125
-4.99600361081320443e-16 0.103878870606422424 0.00345218554139137268
-4.99600361081320443e-16 0.0273811370134353638 0.000537306070327758789
-4.99600361081320443e-16 0.146828711032867432 0.016030631959438324
-4.99600361081320443e-16 0.0837306156754493713 0.00860115792602300644
-4.99600361081320443e-16 0.0839734673500061035 0.00477093551307916641
-4.99600361081320443e-16 0.139818340539932251 0.00792771764099597931
-4.99600361081320443e-16 0.144693285226821899 0.000740458548534661531
-4.99600361081320443e-16 0.0759329348802566528 0.00676200538873672485
-4.99600361081320443e-16 0.134768545627593994 0.00222241482697427273
-4.99600361081320443e-16 0.106298968195915222 0.0138443354517221451
-4.99600361081320443e-16 0.0689048543572425842 0.000992751680314540863
-4.99600361081320443e-16 0.132871776819229126 0.00884966552257537842
-4.99600361081320443e-16 0.0746057033538818359 0.00859405100345611572
-4.99600361081320443e-16 0.120786041021347046 0.0123685672879219055
-4.99600361081320443e-16 0.134672597050666809 0.0029062218964099884
-4.99600361081320443e-16 0.105176240205764771 0.00453637773171067238
-4.99600361081320443e-16 0.136140227317810059 0.0178368408232927322
-4.99600361081320443e-16 0.137487873435020447 0.0069408477284014225
-4.99600361081320443e-16 0.127171590924263 0.00920072663575410843
-4.99600361081320443e-16 0.122963279485702515 0.00319197401404380798
-4.99600361081320443e-16 0.125095590949058533 0.00147520657628774643
-4.99600361081320443e-16 0.10979926586151123 0.0106704104691743851
-4.99600361081320443e-16 0.137091964483261108 0.00651851855218410492
-4.99600361081320443e-16 0.126908957958221436 0.0145386410877108574
-4.99600361081320443e-16 0.129296362400054932 0.0046679256483912468
-4.99600361081320443e-16 0.0546010658144950867 0.00232005305588245392
-4.99600361081320443e-16 0.0303471460938453674 0.00429544970393180847
-4.99600361081320443e-16 0.100952491164207458 0.00726036820560693741
-4.99600361081320443e-16 0.148557484149932861 0.0179219227284193039
-4.99600361081320443e-16 0.0593975633382797241 0.00368692073971033096
-4.99600361081320443e-16 0.0730205774307250977 0.00399344414472579956
-4.99600361081320443e-16 0.0684590786695480347 0.00830560550093650818
-4.99600361081320443e-16 0.0966634824872016907 0.0126311909407377243
-4.99600361081320443e-16 0.0323679223656654358 0.00265494175255298615
-4.99600361081320443e-16 0.0391124635934829712 0.00315101444721221924
-4.99600361081320443e-16 0.135112389922142029 0.00926230940967798233
-4.99600361081320443e-16 0.0770216211676597595 0.00263937748968601227
-4.99600361081320443e-16 0.1216229647397995 0.0153867537155747414
-4.99600361081320443e-16 0.14484916627407074 0.00887426175177097321
-4.99600361081320443e-16 0.0961209684610366821 0.0131296422332525253
-4.99600361081320443e-16 0.0941856801509857178 0.00834470987319946289
-4.99600361081320443e-16 0.143396452069282532 0.0200211051851511002
-4.99600361081320443e-16 0.126225844025611877 0.00499844690784811974
-4.99600361081320443e-16 0.012709394097328186 9.55630093812942505e-05
-4.99600361081320443e-16 0.0849537327885627747 0.00630422681570053101
-4.99600361081320443e-16 0.113571062684059143 0.0112871807068586349
-4.99600361081320443e-16 0.108637228608131409 0.00633006449788808823
-4.99600361081320443e-16 0.0513400658965110779 0.00255061127245426178
-4.99600361081320443e-16 0.0753601118922233582 0.00842838920652866364
-4.99600361081320443e-16 0.119604736566543579 0.00607852498069405556
-4.99600361081320443e-16 0.136599525809288025 0.00361966690979897976
-4.99600361081320443e-16 0.111609086394309998 0.00689978664740920067
-4.99600361081320443e-16 0.100937947630882263 0.0109240394085645676
-4.99600361081320443e-16 0.106185100972652435 0.0102744903415441513
-4.99600361081320443e-16 0.104849182069301605 0.00619327137246727943
-4.99600361081320443e-16 0.145091071724891663 0.00893282145261764526
-4.99600361081320443e-16 0.0269647166132926941 0.00346562452614307404
-4.99600361081320443e-16 0.0975909680128097534 0.0142213627696037292
-4.99600361081320443e-16 0.0831108391284942627 0.011064537800848484
-4.99600361081320443e-16 0.133711934089660645 0.018273601308465004
-4.99600361081320443e-16 0.083332546055316925 0.00441403966397047043
-4.99600361081320443e-16 0.0745502784848213196 0.00383410882204771042
-4.99600361081320443e-16 0.116794884204864502 0.0116590447723865509
-4.99600361081320443e-16 0.0889921635389328003 0.000130473636090755463
-4.99600361081320443e-16 0.0803816542029380798 0.00210388284176588058
-4.99600361081320443e-16 0.0236735343933105469 9.21282917261123657e-05
-4.99600361081320443e-16 0.0862075760960578918 0.00674173329025506973
-4.99600361081320443e-16 0.0525366887450218201 0.00750187411904335022
-4.99600361081320443e-16 0.0633378475904464722 0.00548340007662773132
-4.99600361081320443e-16 0.0914298444986343384 0.0112860836088657379
-4.99600361081320443e-16 0.055549919605255127 0.00537809263914823532
-4.99600361081320443e-16 0.054915301501750946 0.00338535383343696594
-4.99600361081320443e-16 0.0568093955516815186 0.00312901008874177933
-4.99600361081320443e-16 0.126862481236457825 0.0154847446829080582
-4.99600361081320443e-16 0.102412566542625427 0.00915620569139719009
-4.99600361081320443e-16 0.0549046918749809265 0.00208838656544685364
