ply
format ascii 1.0
element vertex 707
property float x
property float y
property float z
end_header
-0.00694427778944373131 -0.0517429932951927185 0.0329068191349506378
-0.00665810424834489822 -0.0352552235126495361 0.0329415649175643921
-0.00745074264705181122 -0.0246747080236673355 0.0328453183174133301
-0.00490048807114362717 -0.0228445939719676971 0.0331549756228923798
-0.00660865101963281631 -0.0136463381350040436 0.0329475663602352142
-0.00257350830361247063 -0.0404550135135650635 0.0334375277161598206
-0.0045674438588321209 -0.0259572770446538925 0.0331954173743724823
-0.00770314550027251244 -0.0449430309236049652 0.0328146740794181824
-0.00792875140905380249 -0.0154312644153833389 0.0327872782945632935
-0.00496252160519361496 -0.0318819135427474976 0.0331474468111991882
-0.0076070898212492466 -0.0472409091889858246 0.0328263379633426666
-0.00535756070166826248 -0.00984794367104768753 0.0330994762480258942
-0.00324308592826128006 -0.000987761421129107475 0.0333562195301055908
-0.000144211429869756103 -0.0118451556190848351 0.0337324924767017365
-0.000916522287297993898 -0.0326615683734416962 0.0336387194693088531
-0.00242138002067804337 -0.0106259733438491821 0.0334559939801692963
-0.000975416856817901134 -0.0393773019313812256 0.0336315706372261047
-0.000513674342073500156 -0.0185363199561834335 0.0336876325309276581
-0.000670353998430073261 -0.0362092815339565277 0.0336686111986637115
-0.00591902574524283409 -0.0150425564497709274 0.0330313034355640411
-0.00458352826535701752 -0.021184941753745079 0.0331934615969657898
-0.000715081696398556232 -0.00948415603488683701 0.0336631760001182556
-0.00185826851520687342 -0.0250031016767024994 0.0335243716835975647
-0.00100497365929186344 -0.0196662042289972305 0.0336279794573783875
-8.11454665381461382e-05 -0.0484861806035041809 0.0337401553988456726
-0.00220601074397563934 -0.028860144317150116 0.0334821455180644989
-0.000394265458453446627 -0.00844757352024316788 0.0337021313607692719
-0.00215495307929813862 -0.0385282710194587708 0.033488348126411438
-0.00482720788568258286 -0.000925806467421352863 0.0331638716161251068
-0.000369583663996309042 -0.0350808762013912201 0.0337051302194595337
-0.00017147978360299021 -0.0410666316747665405 0.0337291881442070007
-0.00222329981625080109 -0.0206971783190965652 0.0334800481796264648
-0.00599860399961471558 -0.00946840457618236542 0.0330216400325298309
-0.00249177566729485989 -0.00948494486510753632 0.0334474444389343262
-0.000922224018722772598 -0.00974159222096204758 0.0336380228400230408
-0.000192615771084092557 -0.00213650986552238464 0.0337266139686107635
-0.000460008712252601981 -0.00657134968787431717 0.033694148063659668
-0.00375633500516414642 -0.0184453427791595459 0.0332939028739929199
-5.75145531911402941e-06 -0.024663437157869339 0.0337493084371089935
-0.000659869634546339512 -0.0293778125196695328 0.0336698815226554871
-0.00368267111480236053 -0.0229820683598518372 0.033302847295999527
-0.00158286374062299728 -0.0462212450802326202 0.0335578136146068573
-0.0029175004456192255 -0.0288400296121835709 0.0333957560360431671
-0.00627130316570401192 -0.0054331580176949501 0.032988525927066803
0.00739452894777059555 -0.0486001558601856232 0.0328521318733692169
0.00464939512312412262 -0.0142446216195821762 0.0331854596734046936
0.0076867896132171154 -0.0103567382320761681 0.0328166522085666656
0.00557630276307463646 -0.0188164319843053818 0.0330729112029075623
0.00372733501717448235 -0.0214816685765981674 0.0332974158227443695
0.00772416265681385994 -0.00441780034452676773 0.032812114804983139
0.00771268690004944801 -0.0161521229892969131 0.0328135080635547638
0.00470700580626726151 -0.00849693361669778824 0.0331784635782241821
0.00673460913822054863 -0.0245016012340784073 0.0329322665929794312
0.00603428622707724571 -0.0105875888839364052 0.0330173037946224213
0.00745030539110302925 -0.0449793189764022827 0.0328453592956066132
0.00695651164278388023 -0.0427832230925559998 0.0329053178429603577
0.00489070219919085503 -0.0350800119340419769 0.0331561565399169922
0.00415587984025478363 -0.0168730691075325012 0.0332453809678554535
0.00556736532598733902 -0.00941069703549146652 0.0330739989876747131
0.00198728172108530998 -0.0106888078153133392 0.0335086993873119354
0.00181259703822433949 -0.0116576347500085831 0.0335299111902713776
0.00546552427113056183 -0.00585411675274372101 0.0330863632261753082
0.00682483846321702003 -0.00941815692931413651 0.0329213105142116547
0.00740382680669426918 -0.0418116450309753418 0.0328510068356990814
0.00470093730837106705 -0.00846925098448991776 0.0331792011857032776
0.00658117141574621201 -0.0313219912350177765 0.0329508967697620392
0.00322244199924170971 -0.0167150255292654037 0.0333587229251861572
0.00743961101397871971 -0.0113707408308982849 0.0328466631472110748
0.00699857110157608986 -0.041463904082775116 0.0329002104699611664
0.00677205855026841164 -0.0426079891622066498 0.0329277142882347107
0.00304674496874213219 -0.0183454733341932297 0.0333800539374351501
0.00607372308149933815 -0.0105291148647665977 0.0330125130712985992
0.00593755068257451057 -0.03273044154047966 0.0330290459096431732
0.00617275899276137352 -0.0109862703830003738 0.0330004878342151642
0.00704437168315052986 -0.0226267576217651367 0.0328946523368358612
0.00304940878413617611 -0.00402882276102900505 0.0333797335624694824
0.00483095459640026093 -0.0193195678293704987 0.033163413405418396
0.00667055277153849602 -0.0484278164803981781 0.0329400412738323212
0.00516717927530407906 -0.0510285496711730957 0.0331225842237472534
0.00280118640512228012 -0.0526921190321445465 0.0334098674356937408
0.00501406192779541016 -0.0393847189843654633 0.0331411771476268768
0.00619401782751083374 -0.0560093745589256287 0.0329978987574577332
0.00484339380636811256 -0.0449468418955802917 0.033161897212266922
0.00230418541468679905 -0.0504235140979290009 0.0334702134132385254
0.00211151852272450924 -0.0441756471991539001 0.0334936082363128662
0.00169847789220511913 -0.0197773687541484833 0.0335437655448913574
0.00162476568948477507 -0.0357747673988342285 0.0335527136921882629
0.000957514159381389618 -0.026294659823179245 0.0336337350308895111
0.00061290455050766468 -0.00939035415649414062 0.0336755812168121338
0.00383291393518447876 -0.0358360782265663147 0.0332845933735370636
0.00700915371999144554 -0.0553294382989406586 0.032898925244808197
0.000439298630226403475 -0.00391487637534737587 0.0336966589093208313
0.00104316056240350008 -0.0279048141092061996 0.0336233340203762054
0.00293516973033547401 -0.0378443300724029541 0.0333935990929603577
0.00509310374036431313 -0.0471818186342716217 0.0331315770745277405
0.00487847905606031418 -0.0384111180901527405 0.03315763920545578
0.00383669580332934856 -0.0461132563650608063 0.0332841351628303528
0.00464999163523316383 -0.0579753592610359192 0.0331853777170181274
0.000605398905463516712 -0.0358931124210357666 0.03367648646235466
0.00382688967511057854 -0.0566587634384632111 0.0332853235304355621
0.00756523618474602699 -0.0573985129594802856 0.0328314043581485748
0.0018769135931506753 -0.0356948040425777435 0.0335220955312252045
0.00374688790179789066 -0.0345940478146076202 0.0332950390875339508
0.00375836854800581932 -0.0338968299329280853 0.033293645828962326
0.00398542685434222221 -0.0299712549895048141 0.0332660786807537079
0.00269114505499601364 -0.0479777529835700989 0.0334232300519943237
0.00234625069424510002 -0.056899435818195343 0.0334651060402393341
0.00305762095376849174 -0.0288802087306976318 0.0333787351846694946
0.00434707477688789368 -0.0362956486642360687 0.0332221649587154388
0.011990964412689209 -0.0129079902544617653 0.031284872442483902
0.0137756951153278351 -0.00187548284884542227 0.0306080188602209091
0.0107045089825987816 -0.0119736706838011742 0.031772758811712265
0.0109483739361166954 -0.000132691493490710855 0.0316802822053432465
0.00964780990034341812 -0.00768714118748903275 0.0321735143661499023
0.0130112143233418465 -0.024557892233133316 0.0308979358524084091
0.0132971452549099922 -0.0166651438921689987 0.030789501965045929
0.0135913090780377388 -0.0361040569841861725 0.0306779295206069946
0.014905308373272419 -0.0224311891943216324 0.0301796030253171921
0.00940947607159614563 -0.00553605519235134125 0.0322639048099517822
0.00897418428212404251 -0.00182448024861514568 0.0324289910495281219
0.0104215927422046661 -0.00575892394408583641 0.0318800583481788635
0.0148979518562555313 -0.0337327495217323303 0.0301823876798152924
0.0156404543668031693 -0.0145590277388691902 0.0299008022993803024
0.0153658529743552208 -0.0374600030481815338 0.0300049334764480591
0.0148993600159883499 -0.00998123642057180405 0.0301818642765283585
0.0110652819275856018 -0.0218088533729314804 0.0316359326243400574
0.0116738127544522285 -0.000666851003188639879 0.0314051583409309387
0.0108642764389514923 -0.0199699830263853073 0.0317121632397174835
0.00979875307530164719 -0.00923594553023576736 0.0321162678301334381
0.00958669371902942657 -0.0013505744282156229 0.0321966968476772308
0.0154434172436594963 -0.0172892678529024124 0.02997552789747715
0.0122999111190438271 -0.0050169285386800766 0.0311677083373069763
0.015005224384367466 -0.0147790210321545601 0.0301417130976915359
0.01103928592056036 -0.00966704357415437698 0.0316457971930503845
0.0149500584229826927 -0.00373012106865644455 0.030162641778588295
0.0133319031447172165 -0.0279616992920637131 0.0307763144373893738
0.0102776084095239639 -0.0166645515710115433 0.0319346599280834198
0.0139215365052223206 -0.0359979011118412018 0.0305526908487081528
0.0141227832064032555 -0.0260375421494245529 0.0304763726890087128
0.0143123622983694077 -0.0328109301626682281 0.0304044727236032486
0.011564992368221283 -0.0113366162404417992 0.0314464233815670013
0.0122663099318742752 -0.0156583227217197418 0.0311804451048374176
0.0100864823907613754 -0.0428367406129837036 0.0320071317255496979
0.0114300176501274109 -0.038700401782989502 0.0314975976943969727
0.0134988054633140564 -0.0530580617487430573 0.0307130031287670135
0.0101493429392576218 -0.0390577316284179688 0.0319832935929298401
0.0112862549722194672 -0.0567997023463249207 0.0315521098673343658
0.012773420661687851 -0.0422375127673149109 0.0309881102293729782
0.0147214718163013458 -0.0511048436164855957 0.0302493087947368622
0.0124060027301311493 -0.0340722724795341492 0.0311274584382772446
0.0145444180816411972 -0.0518846027553081512 0.030316455289721489
0.0100446119904518127 -0.0541134513914585114 0.0320230051875114441
0.00958628766238689423 -0.032487865537405014 0.0321968346834182739
0.0136679839342832565 -0.0563266649842262268 0.0306488405913114548
0.00953536480665206909 -0.0116834044456481934 0.0322161577641963959
0.0152888651937246323 -0.0573144182562828064 0.0300341211259365082
0.00817248690873384476 -0.0413408912718296051 0.0327330157160758972
0.010305771604180336 -0.0532666146755218506 0.0319239608943462372
0.0106398705393075943 -0.0423088297247886658 0.031797260046005249
0.00838666968047618866 -0.0100429905578494072 0.032651800662279129
0.0108093125745654106 -0.0282596834003925323 0.0317330062389373779
0.0084201619029045105 -0.0188801251351833344 0.0326390936970710754
0.0107430499047040939 -0.0421538949012756348 0.0317581295967102051
0.00830879807472229004 -0.0435860604047775269 0.0326813161373138428
0.00845665298402309418 -0.0229298286139965057 0.0326252542436122894
0.00917890667915344238 -0.0497072972357273102 0.032351326197385788
0.0132469683885574341 -0.0551844090223312378 0.0308085121214389801
0.00922688748687505722 -0.0563632622361183167 0.0323331244289875031
0.0098225809633731842 -0.0250753164291381836 0.032107226550579071
0.0122365448623895645 -0.0555326007306575775 0.0311917141079902649
0.0112954322248697281 -0.0487641356885433197 0.0315486341714859009
0.00845736730843782425 -0.0308653637766838074 0.0326249785721302032
0.00966316927224397659 -0.042773224413394928 0.0321676731109619141
0.0117958905175328255 -0.0528366267681121826 0.0313588343560695648
0.0221219249069690704 -0.0351060070097446442 0.0254406128078699112
0.019789915531873703 -0.0346415936946868896 0.0270502828061580658
0.0221559982746839523 -0.0475531481206417084 0.0254170820116996765
0.0217554997652769089 -0.0109458016231656075 0.0256935581564903259
0.0199014525860548019 -0.0271884389221668243 0.0269732996821403503
0.0178970582783222198 -0.0185853783041238785 0.0283568426966667175
0.0208296105265617371 -0.0401971563696861267 0.0263326279819011688
0.0220409315079450607 -0.0323494747281074524 0.0254965219646692276
0.0201505925506353378 -0.000653152237646281719 0.0268013551831245422
0.0210947953164577484 -0.0325814411044120789 0.0261495914310216904
0.0216333083808422089 -0.0267956610769033432 0.0257778894156217575
0.0182550139725208282 -0.00811144057661294937 0.0281097721308469772
0.0212898962199687958 -0.0313106440007686615 0.0260149221867322922
0.0175306946039199829 -0.0138891721144318581 0.0286097284406423569
0.0201588291674852371 -0.0231506098061800003 0.0267956499010324478
0.0221573654562234879 -0.0349650904536247253 0.0254161488264799118
0.0162020344287157059 -0.00291347270831465721 0.0295268464833498001
0.0216711051762104034 -0.0316878259181976318 0.0257517937570810318
0.0203697383403778076 -0.0135815376415848732 0.0266500785946846008
0.0196017231792211533 -0.00631875032559037209 0.0271802078932523727
0.0215633809566497803 -0.0237792693078517914 0.0258261580020189285
0.0212421156466007233 -0.0026991991326212883 0.026047930121421814
0.0164848640561103821 -0.00238230591639876366 0.0293316226452589035
0.0169766694307327271 -0.011159299872815609 0.0289921462535858154
0.0167414098978042603 -0.00824838597327470779 0.029154537245631218
0.0177830643951892853 -0.015432385727763176 0.0284355282783508301
0.0197942312806844711 -0.0334780551493167877 0.0270473044365644455
0.0217999871820211411 -0.0396735109388828278 0.0256628263741731644
0.0207301955670118332 -0.00345606077462434769 0.0264012813568115234
0.0204783454537391663 -0.0229263529181480408 0.0265751034021377563
0.0194875672459602356 -0.00491844071075320244 0.0272590052336454391
0.0196873359382152557 -0.0149676892906427383 0.0271211061626672745
0.0161221902817487717 -0.0567902028560638428 0.0295819099992513657
0.0184246301651000977 -0.032647155225276947 0.0279926732182502747
0.0166807454079389572 -0.0499556213617324829 0.0291963722556829453
0.018175218254327774 -0.0553327612578868866 0.0281648077070713043
0.0159762967377901077 -0.0538214892148971558 0.0296826157718896866
0.0159821957349777222 -0.0171248465776443481 0.0296785775572061539
0.0196823049336671829 -0.0451933443546295166 0.0271245520561933517
0.0181361865252256393 -0.0367387086153030396 0.0281917676329612732
0.0177057981491088867 -0.0425057113170623779 0.0284888371825218201
0.0211660545319318771 -0.0553549192845821381 0.0261003840714693069
0.0200667344033718109 -0.0423463955521583557 0.0268592014908790588
0.0159263666719198227 -0.0443141907453536987 0.0297170877456665039
0.0165801849216222763 -0.0120411179959774017 0.0292658209800720215
0.018697516992688179 -0.0454651862382888794 0.0278043001890182495
0.0168488509953022003 -0.0311462767422199249 0.0290803555399179459
0.0169944334775209427 -0.0434004440903663635 0.0289798546582460403
0.0195418242365121841 -0.0371957719326019287 0.0272215250879526138
0.0166654661297798157 -0.0509664714336395264 0.0292069185525178909
0.015806291252374649 -0.0333316251635551453 0.0297999810427427292
0.0162327848374843597 -0.0454839058220386505 0.0295055825263261795
0.0168021824210882187 -0.0224294550716876984 0.029112575575709343
0.0166466552764177322 -0.0578763969242572784 0.0292198974639177322
0.0167839769273996353 -0.0404080823063850403 0.0291251260787248611
0.0161611028015613556 -0.0249780528247356415 0.0295550785958766937
0.0175455641001462936 -0.0309452787041664124 0.0285994503647089005
0.0165237896144390106 -0.016858493909239769 0.0293047409504652023
0.0160680282860994339 -0.017265884205698967 0.0296193305402994156
0.0171838458627462387 -0.0556767918169498444 0.0288491025567054749
0.0157705694437026978 -0.00734372111037373543 0.0298246592283248901
0.0162208322435617447 -0.0544171109795570374 0.0295138247311115265
0.016611611470580101 -0.0348148941993713379 0.029244106262922287
0.0194695703685283661 -0.0364992469549179077 0.0272713992744684219
0.0197464767843484879 -0.0374063476920127869 0.0270802639424800873
0.0271713156253099442 -0.0203364305198192596 0.019854370504617691
0.0242129620164632797 -0.000949777662754058838 0.0231936890631914139
0.0267316289246082306 -0.00567617127671837807 0.0203506946563720703
0.0276199076324701309 -0.0262272879481315613 0.0193480066955089569
0.0238959435373544693 -0.0103956721723079681 0.0235515162348747253
0.0264765508472919464 -0.0233126748353242874 0.0206385944038629532
0.0259003415703773499 -0.0275941528379917145 0.0212889928370714188
0.0267499908804893494 -0.0112692378461360931 0.0203299615532159805
0.0256782211363315582 -0.0116012115031480789 0.0215397384017705917
0.0274969786405563354 -0.0247379280626773834 0.0194867681711912155
0.0248651579022407532 -0.0124031081795692444 0.0224574953317642212
0.0242188796401023865 -0.00030174743733368814 0.0231870114803314209
0.0260093826800584793 -0.00592750776559114456 0.0211659446358680725
0.0272566303610801697 -0.023773806169629097 0.0197580661624670029
0.026216164231300354 -0.0121320076286792755 0.0209325272589921951
0.0254477765411138535 -0.0274896584451198578 0.0217998325824737549
0.0263199154287576675 -0.0262753851711750031 0.0208153948187828064
0.0255261827260255814 -0.0286561939865350723 0.0217113308608531952
0.0276536475867033005 -0.0279391836374998093 0.0193099211901426315
0.0273081529885530472 -0.0275009907782077789 0.019699903205037117
0.0265384335070848465 -0.020119883120059967 0.0205687470734119415
0.0246518272906541824 -0.00308069586753845215 0.0226983111351728439
0.027383832260966301 -0.0442349277436733246 0.0196144543588161469
0.026598786935210228 -0.00832895375788211823 0.0205006375908851624
0.0270290113985538483 -0.017842685803771019 0.0200150031596422195
0.0250344555824995041 -0.00788039155304431915 0.0222664047032594681
0.0270010959357023239 -0.00391957350075244904 0.020046532154083252
0.0272049084305763245 -0.0411314703524112701 0.0198164228349924088
0.0268902536481618881 -0.0333273597061634064 0.0201716069132089615
0.0260155126452445984 -0.00745644047856330872 0.0211590230464935303
0.0274478774517774582 -0.011372867040336132 0.019542209804058075
0.027279246598482132 -0.00921199377626180649 0.0197325590997934341
0.0236609503626823425 -0.0110953329131007195 0.023816768079996109
0.0236464682966470718 -0.0411905422806739807 0.0238330718129873276
0.0236623641103506088 -0.0378663241863250732 0.0238151326775550842
0.0240348260849714279 -0.0564124658703804016 0.023394683375954628
0.0250700842589139938 -0.0505701154470443726 0.0222261268645524979
0.0265105962753295898 -0.0452421307563781738 0.0206001326441764832
0.0242466628551483154 -0.0500888228416442871 0.0231555774807929993
0.023755982518196106 -0.0267962738871574402 0.0237094778567552567
0.0265700221061706543 -0.0474302209913730621 0.0205330494791269302
0.026990693062543869 -0.0511459819972515106 0.0200582090765237808
0.0231121368706226349 -0.057061411440372467 0.0244361832737922668
0.0234450194984674454 -0.0437442176043987274 0.0240604560822248459
0.023792218416929245 -0.0212513655424118042 0.0236685816198587418
0.0228323303163051605 -0.0274862777441740036 0.0247520618140697479
0.0224407296627759933 -0.0426655896008014679 0.025194067507982254
0.0235936455428600311 -0.018423229455947876 0.0238927267491817474
0.0253109559416770935 -0.0352869555354118347 0.0219542607665061951
0.0251420121639966965 -0.04599718376994133 0.0221449453383684158
0.0227581597864627838 -0.0273590609431266785 0.024835783988237381
0.0240603480488061905 -0.0486648902297019958 0.0233658868819475174
0.0270626768469810486 -0.0516573004424571991 0.0199769530445337296
0.0248539373278617859 -0.0274093747138977051 0.0224701389670372009
0.0229591503739356995 -0.026549413800239563 0.0246089138090610504
0.0238468628376722336 -0.0196816511452198029 0.0236069019883871078
0.0240659285336732864 -0.0435944274067878723 0.0233595948666334152
0.0242385435849428177 -0.0422119610011577606 0.0231647565960884094
0.0257017537951469421 -0.0423997417092323303 0.0215131305158138275
0.0257127787917852402 -0.0366045944392681122 0.0215006936341524124
0.0260230973362922668 -0.0496572107076644897 0.0211503989994525909
0.022785065695643425 -0.00637787580490112305 0.0248054433614015579
0.0225323028862476349 -0.0500240027904510498 0.0250906907021999359
0.0242730565369129181 -0.041763603687286377 0.0231257975101470947
0.0230070389807224274 -0.0374641790986061096 0.024554843083024025
0.0301592741161584854 -0.0143389608711004257 0.0146306427195668221
0.0294471681118011475 -0.00303609762340784073 0.0159874726086854935
0.0292515829205513 -0.00502994144335389137 0.0163601227104663849
0.0297002699226140976 -0.0241483002901077271 0.0155051751062273979
0.0299907159060239792 -0.0276984069496393204 0.0149517673999071121
0.0304724555462598801 -0.0216631274670362473 0.0140339024364948273
0.0294053107500076294 -0.00404426315799355507 0.0160672217607498169
0.0291958227753639221 -0.0194975472986698151 0.0164663307368755341
0.0312592238187789917 -0.0481268689036369324 0.0125347757712006569
0.0302074681967496872 -0.0314349345862865448 0.0145387686789035797
0.0295286625623703003 -0.0202534273266792297 0.0158321540802717209
0.0304099433124065399 -0.0403244197368621826 0.01415296271443367
0.0302911866456270218 -0.0178481824696063995 0.014379291795194149
0.030398588627576828 -0.0315989293158054352 0.014174620620906353
0.0302894450724124908 -0.0201832279562950134 0.014382602646946907
0.0284649301320314407 -0.0093599315732717514 0.0178589541465044022
0.0306446067988872528 -0.0413697697222232819 0.0137058449909090996
0.0301999170333147049 -0.0241944883018732071 0.0145531743764877319
0.0282061602920293808 -0.00272388337180018425 0.018352016806602478
0.0289513356983661652 -0.00851549021899700165 0.0169321876019239426
0.0303153526037931442 -0.0134687535464763641 0.0143332593142986298
0.031519327312707901 -0.0254907570779323578 0.0120392488315701485
0.0313491225242614746 -0.0114663364365696907 0.0123635828495025635
0.0303150247782468796 -0.00324121140874922276 0.014333910308778286
0.0304832980036735535 -0.00786567199975252151 0.0140132801607251167
0.0301275663077831268 -0.00686185667291283607 0.0146910743787884712
0.0311352834105491638 -0.0168951414525508881 0.0127710048109292984
0.0290969423949718475 -0.00881386734545230865 0.0166547596454620361
0.0311013571918010712 -1.36414300868636928e-05 0.0128356870263814926
0.0310605801641941071 -0.00811484735459089279 0.0129133593291044235
0.0313886478543281555 -0.0157565493136644363 0.0122882574796676636
0.0308809448033571243 -0.0330679193139076233 0.0132555644959211349
0.0282087866216897964 -0.0452089831233024597 0.0183469075709581375
0.0304000135511159897 -0.0436830222606658936 0.0141718769446015358
0.0288293007761240005 -0.0230529382824897766 0.017164669930934906
0.02902989462018013 -0.027257455512881279 0.0167824588716030121
0.029436914250254631 -0.042679615318775177 0.0160069093108177185
0.0291466712951660156 -0.0236552879214286804 0.0165599677711725235
0.0280164368450641632 -0.0367284528911113739 0.0187134183943271637
0.0299086831510066986 -0.0369636155664920807 0.0151080451905727386
0.0286516714841127396 -0.0231923442333936691 0.0175031106919050217
0.028697378933429718 -0.0442930608987808228 0.0174159742891788483
0.0290995799005031586 -0.0553786158561706543 0.0166496168822050095
0.0294778216630220413 -0.0354558713734149933 0.0159289855509996414
0.028113899752497673 -0.0379659198224544525 0.0185277163982391357
0.0281903836876153946 -0.0134608941152691841 0.0183820463716983795
0.0292661115527153015 -0.0560011379420757294 0.0163323152810335159
0.028468061238527298 -0.0458346568048000336 0.0178529005497694016
0.0301482062786817551 -0.0550352707505226135 0.0146516244858503342
0.0283031035214662552 -0.0418354570865631104 0.0181672107428312302
0.0290029235184192657 -0.0421292558312416077 0.0168338138610124588
0.0292558223009109497 -0.0547251850366592407 0.0163519233465194702
0.0299858879297971725 -0.0376919135451316833 0.0149609399959445
0.0282804779708385468 -0.0425572991371154785 0.0182103142142295837
0.0278259553015232086 -0.0181904751807451248 0.019076397642493248
0.029380161315202713 -0.0485347285866737366 0.0161150284111499786
0.0287088267505168915 -0.0191333182156085968 0.0173942260444164276
0.0304810553789138794 -0.0457466691732406616 0.0140174552798271179
0.0277812425047159195 -0.0456800125539302826 0.0191615242511034012
0.0288288667798042297 -0.0406961292028427124 0.0171654503792524338
0.0288455784320831299 -0.0508596599102020264 0.0171335861086845398
0.030609404668211937 -0.0468225739896297455 0.0137729067355394363
0.0287676658481359482 -0.0303320325911045074 0.0172820892184972763
0.0287019144743680954 -0.033660590648651123 0.0174073595553636551
0.0329474583268165588 -0.0351808331906795502 0.00632560718804597855
0.0321510545909404755 -0.00860236585140228271 0.00955687835812568665
0.0325971394777297974 -0.00483091967180371284 0.00774705037474632263
0.0327074900269508362 -0.0315424017608165741 0.00729921180754899979
0.0323004983365535736 -0.00656601740047335625 0.00895057898014783859
0.0332271791994571686 -0.0190714690834283829 0.00519080460071563721
0.0325345546007156372 -0.0169140566140413284 0.008000912144780159
0.0332796759903430939 -0.04698195680975914 0.00497767748311161995
0.0334372222423553467 -0.0350253619253635406 0.00433855177834630013
0.0334551446139812469 -0.0532140247523784637 0.0042657461017370224
0.033195842057466507 -0.0147991590201854706 0.00531797716394066811
0.0332568846642971039 -0.0141474045813083649 0.00507031101733446121
0.0330487750470638275 -0.0390887260437011719 0.00591453304514288902
0.0327528901398181915 -0.0153451161459088326 0.00711510423570871353
0.0325790531933307648 -0.00361772836185991764 0.00782044790685176849
0.032434999942779541 -0.00130513135809451342 0.00840491242706775665
0.0334333479404449463 -0.0187983252108097076 0.0043543628416955471
0.0326462350785732269 -0.0124838622286915779 0.0075478358194231987
0.0324584357440471649 -0.00346399960108101368 0.00830981507897377014
0.0325357057154178619 -0.0210123974829912186 0.00799623318016529083
0.0325728096067905426 -0.0289420764893293381 0.00784565135836601257
0.0327773541212081909 -0.0239100921899080276 0.00701580056920647621
0.0331367254257202148 -0.0377849414944648743 0.00555769912898540497
0.0327031835913658142 -0.00967849511653184891 0.00731680635362863541
0.0324997082352638245 -0.000594984740018844604 0.00814237631857395172
0.0328025594353675842 -0.00493285898119211197 0.00691363262012600899
0.0325659029185771942 -0.0251571368426084518 0.00787368603050708771
0.0331331528723239899 -0.00312859052792191505 0.00557237258180975914
0.0334495902061462402 -0.0425930097699165344 0.0042883213609457016
0.0327501408755779266 -0.0159829612821340561 0.00712624099105596542
0.0322501175105571747 -0.00260015367530286312 0.00915500335395336151
0.0329593643546104431 -0.0386546999216079712 0.00627728644758462906
0.033503897488117218 -0.0189286135137081146 0.00108272419311106205
0.0335038714110851288 -0.0398689471185207367 0.00271165883168578148
0.0335038714110851288 -0.0400746352970600128 0.00318486010655760765
0.0335039161145687103 -0.00720730749890208244 0.000247425050474703312
0.033503897488117218 -0.0195672754198312759 0.00334189645946025848
0.0335038788616657257 -0.0342688113451004028 0.00310383806936442852
0.0335039086639881134 -0.0109037589281797409 -0.0019902130588889122
0.0335039086639881134 -0.0122179165482521057 0.000131262000650167465
0.0335039049386978149 -0.0133468043059110641 0.00217438256368041039
0.0335039198398590088 -0.00302093126811087132 0.00058403227012604475
0.0335038676857948303 -0.0445622988045215607 0.00404132576659321785
0.0335039235651493073 -0.00092305551515892148 0.00136535894125699997
0.033503897488117218 -0.0189292114228010178 0.000827743439003825188
0.0335039049386978149 -0.0138303888961672783 0.00289832241833209991
0.0335038788616657257 -0.0340014956891536713 0.00229588733054697514
0.0335038788616657257 -0.0346128828823566437 0.00101416138932108879
0.0335038900375366211 -0.0268188063055276871 0.00200217124074697495
0.0335039235651493073 -0.000607593043241649866 0.00221729767508804798
0.0335038751363754272 -0.0391309969127178192 0.00172364851459860802
0.0335038676857948303 -0.0424734875559806824 0.00230224104598164558
0.0335038863122463226 -0.0296776145696640015 0.00227614934556186199
0.033503897488117218 -0.019238002598285675 -0.000288388691842556
0.0335038900375366211 -0.0257875956594944 0.00128322606906294823
0.0335039123892784119 -0.00745564652606844902 0.000397294876165688038
0.0335038900375366211 -0.0264083966612815857 0.000302505679428577423
0.0335039123892784119 -0.0078924279659986496 0.000377975055016577244
0.0335039123892784119 -0.00898326653987169266 -0.000786363380029797554
0.033503897488117218 -0.0201711338013410568 0.000795442145317792892
0.0335039049386978149 -0.01578504778444767 -6.34393654763698578e-06
0.0335038863122463226 -0.0286386329680681229 0.00184663338586688042
0.0335039161145687103 -0.00459122471511363983 0.00234720157459378242
0.0335039049386978149 -0.0152438487857580185 0.00372940837405622005
0.0335038825869560242 -0.0309218298643827438 0.00213686283677816391
0.0323616564273834229 -0.0407033674418926239 0.00870226230472326279
0.0327432230114936829 -0.0423153787851333618 0.0071541639044880867
0.0323540009558200836 -0.0424125678837299347 0.00873330887407064438
0.0331797190010547638 -0.0560802966356277466 0.00538316927850246429
0.0318856686353683472 -0.0563812479376792908 0.0106333335861563683
0.032286275178194046 -0.0282288827002048492 0.00900817476212978363
0.0318087078630924225 -0.027676071971654892 0.0109457336366176605
0.0318325944244861603 -0.025592409074306488 0.0108488379046320915
0.0317293107509613037 -0.0109244640916585922 0.0112679526209831238
0.0320237390697002411 -0.0212234277278184891 0.0100733451545238495
0.031605154275894165 -0.0379888638854026794 0.0117715317755937576
0.0326016843318939209 -0.0518499128520488739 0.00772836385294795036
0.032931797206401825 -0.0568137802183628082 0.00638902094215154648
0.0325408466160297394 -0.0387899018824100494 0.00797527655959129333
0.0319644846022129059 -0.0453819781541824341 0.0103136319667100906
0.0325248688459396362 -0.0563335195183753967 0.00804000440984964371
0.0319526195526123047 -0.0150246629491448402 0.0103619396686553955
0.0322268381714820862 -0.0264085680246353149 0.00924933142960071564
0.0320611633360385895 -0.0262006968259811401 0.00992148555815219879
0.0332047417759895325 -0.0524266175925731659 0.0052816709503531456
0.0319783315062522888 -0.0174442995339632034 0.0102576008066534996
0.0321579352021217346 -0.0411300808191299438 0.00952879153192043304
0.0327606499195098877 -0.0384357869625091553 0.00708348909392952919
0.0321767665445804596 -0.0220967512577772141 0.00945249106734991074
0.0320904999971389771 -0.0343413129448890686 0.00980241969227790833
0.0324304737150669098 -0.0480472259223461151 0.00842302665114402771
0.03201250359416008 -0.0161346979439258575 0.0101189613342285156
0.032582748681306839 -0.0575583800673484802 0.00780516583472490311
0.0331733748316764832 -0.0494853854179382324 0.00540895015001296997
0.032215949147939682 -0.0473662428557872772 0.00929338112473487854
0.0323793105781078339 -0.057422243058681488 0.00863054860383272171
0.0321227721869945526 -0.032275322824716568 0.00967149436473846436
0.0320810414850711823 -0.011297120712697506 -0.00984092336148023605
0.0326385311782360077 -0.0248543787747621536 -0.00757902767509222031
0.0325883515179157257 -0.0119140520691871643 -0.0077826743945479393
0.0330031104385852814 -0.0250551719218492508 -0.0060998573899269104
0.0325353220105171204 -0.0153574803844094276 -0.00799781456589698792
0.0326653756201267242 -0.0190971698611974716 -0.00747012905776500702
0.0329918265342712402 -0.0281727667897939682 -0.00614563655108213425
0.0329515859484672546 -0.00726565252989530563 -0.00630900124087929726
0.0331861972808837891 -0.00970778055489063263 -0.00535713415592908859
0.0330880396068096161 -0.0122930640354752541 -0.00575534719973802567
0.0333704091608524323 -0.0161836612969636917 -0.00460971705615520477
0.0330457352101802826 -0.0191237311810255051 -0.00592695828527212143
0.0332054458558559418 -0.0256943982094526291 -0.00527895055711269379
0.0334942974150180817 -0.00450055254623293877 -0.00410714838653802872
0.0331468954682350159 -0.0265957638621330261 -0.00551650626584887505
0.0330839790403842926 -0.0398632101714611053 -0.00577169237658381462
0.0325132980942726135 -0.0243659261614084244 -0.00808712001889944077
0.0323565118014812469 -0.00063238461734727025 -0.00872334465384483337
0.0324898846447467804 -0.0262122917920351028 -0.00818210188299417496
0.0324790142476558685 -0.0102300792932510376 -0.00822628382593393326
0.0327806659042835236 -0.015169510617852211 -0.00700241327285766602
0.0329990498721599579 -0.0310332830995321274 -0.00611631665378808975
0.033460032194852829 -0.0199335720390081406 -0.00424609147012233734
0.0330337733030319214 -0.0233093984425067902 -0.00597547087818384171
0.0322176180779933929 -0.0175854247063398361 -0.00928678642958402634
0.0334834195673465729 -0.0114178992807865143 -0.00415123952552676201
0.0333320461213588715 -0.045233607292175293 -0.00476520182564854622
0.0330881811678409576 -0.0293505266308784485 -0.00575470319017767906
0.0324360951781272888 -0.00935483351349830627 -0.00840041227638721466
0.033290814608335495 -0.0169759225100278854 -0.00493264384567737579
0.032493147999048233 -0.00172673759516328573 -0.00816899444907903671
0.0320557989180088043 -0.000514003389980643988 -0.00994338281452655792
0.0335038714110851288 -0.0395718216896057129 -0.00294749811291694641
0.0335038825869560242 -0.0318603143095970154 -0.00230789906345307827
0.0335039012134075165 -0.0163176245987415314 -0.00283384392969310284
0.0335038527846336365 -0.0539246425032615662 -0.00379875185899436474
0.0335039198398590088 -0.0048699425533413887 -0.00351348472759127617
0.0335038602352142334 -0.0477042794227600098 -0.00179738132283091545
0.0335038527846336365 -0.0561827868223190308 -0.00268256803974509239
0.0335038527846336365 -0.0558103471994400024 0.00323150167241692543
0.0335038788616657257 -0.0348117351531982422 -0.000371059402823448181
0.0335038639605045319 -0.0457073487341403961 0.000270366668701171875
0.0335039086639881134 -0.0108861522749066353 -0.00295095075853168964
0.0335038937628269196 -0.0216446779668331146 -0.00178609113208949566
0.0335038937628269196 -0.0246315449476242065 -0.00387932476587593555
0.0335038863122463226 -0.0298080760985612869 -2.96365469694137573e-05
0.0335038788616657257 -0.0340136773884296417 0.000244780443608760834
0.0335038863122463226 -0.0298787504434585571 -0.00331828859634697437
0.0335038565099239349 -0.0526146367192268372 0.0023477654904127121
0.0335038863122463226 -0.0281786583364009857 -0.00161016965284943581
0.0335038900375366211 -0.0247329622507095337 -0.00336452201008796692
0.0335038937628269196 -0.023715585470199585 -0.00348418252542614937
0.0335038714110851288 -0.0396758913993835449 0.00102114444598555565
0.0335038825869560242 -0.0319790542125701904 -0.00140840886160731316
0.033503849059343338 -0.0566622801125049591 -0.00249558012001216412
0.0335038639605045319 -0.0475305691361427307 -0.00159540213644504547
0.0335038825869560242 -0.0320259332656860352 -0.00126179726794362068
0.0335038639605045319 -0.0477257035672664642 0.000406706240028142929
0.0335038937628269196 -0.0215784646570682526 -0.00379541772417724133
0.0335038714110851288 -0.0382693856954574585 -0.00343422731384634972
0.0335039012134075165 -0.0172308366745710373 -0.00348861259408295155
0.0335038751363754272 -0.0358173474669456482 -0.00172535981982946396
0.0335038676857948303 -0.0453492775559425354 0.00219997763633728027
0.0335038825869560242 -0.0327139273285865784 -0.00291432300582528114
0.031702820211648941 -0.0175795089453458786 -0.0113753834739327431
0.0317348092794418335 -0.0539445318281650543 -0.0112453997135162354
0.0318108834326267242 -0.041789274662733078 -0.0109368413686752319
0.0321081876754760742 -0.021711595356464386 -0.00973073113709688187
0.0316829495131969452 -0.0402810126543045044 -0.0114558832719922066
0.0327641740441322327 -0.0542222708463668823 -0.00706910807639360428
0.0321145877242088318 -0.0484828464686870575 -0.00970460660755634308
0.0318769775331020355 -0.0477978773415088654 -0.0106686390936374664
0.0330267511308193207 -0.0493414700031280518 -0.00600381521508097649
0.0330328196287155151 -0.0454604029655456543 -0.00597921991720795631
0.0318716764450073242 -0.0408890731632709503 -0.0106902001425623894
0.0318407490849494934 -0.0343341827392578125 -0.0108157023787498474
0.032295767217874527 -0.036238495260477066 -0.00896961521357297897
0.031618557870388031 -0.015592869371175766 -0.0117172738537192345
0.0322159342467784882 -0.056288592517375946 -0.00929339323192834854
0.0318130217492580414 -0.0249407868832349777 -0.0109282545745372772
0.0323176570236682892 -0.0473030433058738708 -0.00888074003159999847
0.0320137850940227509 -0.0572266839444637299 -0.0101135354489088058
0.0318120047450065613 -0.0251108836382627487 -0.0109323738142848015
0.0324337668716907501 -0.0407017655670642853 -0.0084096984937787056
0.0324521809816360474 -0.0443663150072097778 -0.00833497568964958191
0.0325983315706253052 -0.0450880303978919983 -0.0077420184388756752
0.0322738103568553925 -0.048227306455373764 -0.00905861798673868179
0.0324278064072132111 -0.0474430546164512634 -0.00843384489417076111
0.032033924013376236 -0.033203471451997757 -0.0100319590419530869
0.0326301530003547668 -0.0573916435241699219 -0.00761283794417977333
0.0325032547116279602 -0.0498867705464363098 -0.00812772009521722794
0.0323643162846565247 -0.0451095253229141235 -0.00869144406169652939
0.0317563004791736603 -0.0422618426382541656 -0.0111582828685641289
0.031724981963634491 -0.0481520593166351318 -0.0112853031605482101
0.0326870232820510864 -0.0445083454251289368 -0.0073821735568344593
0.0330828651785850525 -0.0570949316024780273 -0.00577611802145838737
0.0297670047730207443 -0.0266899857670068741 -0.0153780179098248482
0.0294811222702264786 -0.0262495018541812897 -0.0159227214753627777
0.0297455079853534698 -0.000215604857658036053 -0.0154190408065915108
0.0290727540850639343 -0.0151026304811239243 -0.0167008321732282639
0.0287902038544416428 -0.00303306966088712215 -0.0172392129898071289
0.0298928022384643555 -0.0130157452076673508 -0.0151383634656667709
0.0288780722767114639 -0.0141796953976154327 -0.0170717667788267136
0.0309502240270376205 -0.00276350765489041805 -0.0131236407905817032
0.0278531815856695175 -0.0540763996541500092 -0.019024435430765152
0.0285595487803220749 -0.00226518278941512108 -0.0176786892116069794
0.031036771833896637 -0.00329411681741476059 -0.0129587370902299881
0.0312907770276069641 -0.0027707577683031559 -0.0124747715890407562
0.0284492149949073792 -0.0346798710525035858 -0.0178888365626335144
0.027835385873913765 -0.0295470207929611206 -0.0190584007650613785
0.0296495687216520309 -0.0143650686368346214 -0.0156018044799566269
0.0289970599114894867 -0.0082034580409526825 -0.0168450698256492615
0.028176385909318924 -0.0409691408276557922 -0.0184086542576551437
0.0309524498879909515 -0.0011021073441952467 -0.0131194032728672028
0.0278696715831756592 -0.0321984589099884033 -0.0189930703490972519
0.029521796852350235 -0.0311071295291185379 -0.0158452112227678299
0.0288934968411922455 -0.0360165201127529144 -0.0170423220843076706
0.0287047829478979111 -0.0218069404363632202 -0.0174019224941730499
0.0290848389267921448 -0.0374786220490932465 -0.0166777484118938446
0.028765261173248291 -0.00753114372491836548 -0.0172867272049188614
0.0283578485250473022 -0.0405665189027786255 -0.0180629044771194458
0.0292505323886871338 -0.00984795019030570984 -0.0163621138781309128
0.0292684324085712433 -0.0049250149168074131 -0.0163280218839645386
0.0280239768326282501 -0.0455352626740932465 -0.0186990313231945038
0.0290227495133876801 -0.0370730012655258179 -0.0167960505932569504
0.0292185097932815552 -0.0289374813437461853 -0.0164230819791555405
0.0280746184289455414 -0.0389248095452785492 -0.0186025593429803848
0.0289605632424354553 -0.0185002218931913376 -0.0169145818799734116
0.0295012705028057098 -0.0212581884115934372 -0.0158843435347080231
0.0314227454364299774 -0.0153908971697092056 -0.0122232940047979355
0.0304041206836700439 -0.0244952626526355743 -0.0141641050577163696
0.0285355877131223679 -0.0575280152261257172 -0.0177242085337638855
0.0302987769246101379 -0.0433656089007854462 -0.0143647650256752968
0.0314065366983413696 -0.0288210157305002213 -0.0122541431337594986
0.0303306616842746735 -0.0405268073081970215 -0.0143040213733911514
0.0304397400468587875 -0.0223404783755540848 -0.0140962377190589905
0.0307622198015451431 -0.0510005950927734375 -0.0134817315265536308
0.0307285301387310028 -0.0419983789324760437 -0.0135459424927830696
0.0314917005598545074 -0.00657831365242600441 -0.0120919318869709969
0.0303236730396747589 -0.0419529452919960022 -0.0143173374235630035
0.0308047719299793243 -0.0364467762410640717 -0.0134006906300783157
0.0303258504718542099 -0.0308699849992990494 -0.0143132181838154793
0.0296559296548366547 -0.0526617541909217834 -0.0155895818024873734
0.0297616571187973022 -0.0499071553349494934 -0.0153881488367915154
0.0299591962248086929 -0.0397676602005958557 -0.0150117911398410797
0.028258124366402626 -0.055499054491519928 -0.0182528737932443619
0.0309837758541107178 -0.0148450657725334167 -0.0130596859380602837
0.0296071283519268036 -0.035167694091796875 -0.015682615339756012
0.0309472605586051941 -0.0129739996045827866 -0.0131292669102549553
0.0304153822362422943 -0.0408809259533882141 -0.0141426045447587967
0.0301828291267156601 -0.0489943400025367737 -0.0145856747403740883
0.028614511713385582 -0.0518761910498142242 -0.0175738483667373657
0.0282332990318536758 -0.0522320568561553955 -0.0183001887053251266
0.0307485107332468033 -0.0225435253232717514 -0.0135079231113195419
0.0299266278743743896 -0.0576475001871585846 -0.0150738004595041275
0.0289310608059167862 -0.0442661158740520477 -0.0169707350432872772
0.0310574900358915329 -0.0402124002575874329 -0.012919166125357151
0.0298286918550729752 -0.047818012535572052 -0.015260426327586174
0.0315173231065273285 -0.0541556999087333679 -0.0120429983362555504
0.0283138938248157501 -0.0531465187668800354 -0.0181466229259967804
0.0299993474036455154 -0.034243457019329071 -0.0149353053420782089
0.0297899413853883743 -0.0541064441204071045 -0.0153342448174953461
0.0250686537474393845 -0.0239552147686481476 -0.0222277790307998657
0.0238594561815261841 -0.00339284748770296574 -0.0235927123576402664
0.0244662109762430191 -0.0322442315518856049 -0.0229077860713005066
0.0244601331651210785 -0.0318619199097156525 -0.0229146480560302734
0.0226632598787546158 -0.0462112277746200562 -0.0249428749084472656
0.0248325169086456299 -0.0305629540234804153 -0.0224943161010742188
0.0243218671530485153 -0.00551003636792302132 -0.0230707544833421707
0.0226143151521682739 -0.0449656136333942413 -0.0249981265515089035
0.0228345673531293869 -0.0498102754354476929 -0.0247495062649250031
0.0233396701514720917 -0.0147593747824430466 -0.024179413914680481
0.0257936995476484299 -0.00950590893626213074 -0.0214093942195177078
0.0230248216539621353 -0.0367938503623008728 -0.0245347730815410614
0.0240184273570775986 -0.033740948885679245 -0.0234132278710603714
0.0245223604142665863 -0.00354389939457178116 -0.0228444468230009079
0.0225126966834068298 -0.0477120839059352875 -0.0251128263771533966
0.0242404229938983917 -0.021277211606502533 -0.0231626629829406738
0.0228176210075616837 -0.0392170809209346771 -0.0247686486691236496
0.0231525935232639313 -0.0170769281685352325 -0.0243905745446681976
0.0265070386230945587 -0.0064742392860352993 -0.0206042062491178513
0.0237557794898748398 -0.000131589753436855972 -0.0237097442150115967
0.0234116502106189728 -0.043513912707567215 -0.0240981224924325943
0.0238067246973514557 -0.0256868395954370499 -0.0236522015184164047
0.0238387305289506912 -0.0186445098370313644 -0.0236160848289728165
0.0231261532753705978 -0.00892798975110054016 -0.0244204327464103699
0.0233645327389240265 -0.0392537340521812439 -0.0241513140499591827
0.0236067958176136017 -0.00418022042140364647 -0.0238779056817293167
0.0236043259501457214 -0.0325475111603736877 -0.0238806530833244324
0.0268415417522192001 -0.00393820134922862053 -0.0202266331762075424
0.0227403715252876282 -0.0364076383411884308 -0.0248558502644300461
0.0242067258805036545 -0.00559988152235746384 -0.02320072241127491
0.0237206630408763885 -0.0290995258837938309 -0.0237493403255939484
0.0223829727619886398 -0.0243676602840423584 -0.0252592861652374268
0.0240268241614103317 -0.0376406162977218628 -0.0234037432819604874
0.0275029391050338745 -0.0251866206526756287 -0.0194800402969121933
0.0268534030765295029 -0.0198774673044681549 -0.0202132202684879303
0.0268959756940603256 -0.0234130639582872391 -0.0201651602983474731
0.0250732153654098511 -0.0296801123768091202 -0.0222226232290267944
0.0275905672460794449 -0.0191942006349563599 -0.0193811338394880295
0.0270868074148893356 -0.0473382920026779175 -0.019949721172451973
0.0253748241811990738 -0.0450088977813720703 -0.0218821559101343155
0.0276608746498823166 -0.00498713087290525436 -0.0193017944693565369
0.0263387281447649002 -0.0163617394864559174 -0.0207941737025976181
0.0257183294743299484 -0.0411828719079494476 -0.0214944221079349518
0.0265593938529491425 -0.0155596537515521049 -0.0205450933426618576
0.0245289746671915054 -0.0395133532583713531 -0.0228369291871786118
0.0251129530370235443 -0.0404344499111175537 -0.0221777539700269699
0.0276861563324928284 -0.00807661470025777817 -0.0192732531577348709
0.0262346062809228897 -0.0546196699142456055 -0.0209116488695144653
0.0248237736523151398 -0.0509882867336273193 -0.0225041545927524567
0.0265911556780338287 -0.045940011739730835 -0.0205091983079910278
0.025789894163608551 -0.0514555014669895172 -0.0214136280119419098
0.0260865427553653717 -0.032274290919303894 -0.0210788082331418991
0.0258062146604061127 -0.03126545250415802 -0.0213952362537384033
0.0267853010445833206 -0.0118300653994083405 -0.0202901028096675873
0.0237190499901771545 -0.0560410097241401672 -0.0237511210143566132
0.0270918421447277069 -0.0273608975112438202 -0.0199440661817789078
0.0276853460818529129 -0.0564516596496105194 -0.0192740987986326218
0.0239009037613868713 -0.0497063882648944855 -0.0235458575189113617
0.0275089181959629059 -0.0405643358826637268 -0.0194732677191495895
0.0258102770894765854 -0.0245574023574590683 -0.0213906615972518921
0.0238925609737634659 -0.0425332300364971161 -0.0235552862286567688
0.0230188965797424316 -0.0542426072061061859 -0.0245414339005947113
0.0249674469232559204 -0.0471972525119781494 -0.0223419833928346634
0.0254828594624996185 -0.0424925833940505981 -0.0217602122575044632
0.0265654716640710831 -0.0154997864738106728 -0.02053823322057724
0.0275797918438911438 -0.0357372574508190155 -0.0193932745605707169
0.0219017006456851959 -0.000815108534879982471 -0.0255926512181758881
0.0171764325350522995 -0.0409500822424888611 -0.0288542322814464569
0.0163530744612216949 -0.00808232463896274567 -0.0294225849211215973
0.0158398784697055817 -0.0181413572281599045 -0.0297768097370862961
0.0158895067870616913 -0.00508792931213974953 -0.0297425650060176849
0.0207761246711015701 -0.00869405455887317657 -0.0263695754110813141
0.016202826052904129 -0.0200292393565177917 -0.0295262839645147324
0.019250866025686264 -0.00652425875887274742 -0.0274223871529102325
0.0186910703778266907 -0.0274351183325052261 -0.0278087668120861053
0.0172856897115707397 -0.038904339075088501 -0.0287788193672895432
0.0194930005818605423 -0.00644251471385359764 -0.0272552520036697388
0.0172148812562227249 -0.0151935713365674019 -0.0288277175277471542
0.016756134107708931 -0.0183898918330669403 -0.0291443653404712677
0.0158032216131687164 -0.0190057419240474701 -0.0298021137714385986
