ply
format ascii 1.0
element vertex 755
property float x
property float y
property float z
end_header
0.325422406196594238 1.62458944320678711 0.0185078829526901245
0.344821304082870483 0.724156618118286133 0.0677465870976448059
0.343373477458953857 0.791360914707183838 0.0904361531138420105
0.349917352199554443 0.48761633038520813 0.0937718302011489868
0.353286415338516235 0.331235051155090332 0.0616362877190113068
0.34589463472366333 0.674337089061737061 0.047512739896774292
0.350851207971572876 0.444269508123397827 0.0210660435259342194
0.360164940357208252 0.0119570028036832809 0.0504059605300426483
0.344975113868713379 0.717018365859985352 0.0844435542821884155
0.360193610191345215 0.0106255263090133667 0.0954265221953392029
0.357318758964538574 0.144066736102104187 0.137981846928596497
0.34625890851020813 0.657427787780761719 0.0457874462008476257
0.327003657817840576 1.5511927604675293 0.0311105996370315552
0.35665401816368103 0.174921572208404541 0.137513980269432068
0.357335895299911499 0.143272280693054199 0.0808673501014709473
0.359450668096542358 0.0451110973954200745 0.00505858520045876503
0.328864246606826782 1.46483063697814941 0.00626641511917114258
0.337217271327972412 1.07711148262023926 0.0143893733620643616
0.354628711938858032 0.268930584192276001 0.158000186085700989
0.336465835571289062 1.11198961734771729 0.0145905837416648865
0.360265910625457764 0.00727037340402603149 0.067628711462020874
0.351876109838485718 0.396696418523788452 0.130909845232963562
0.345437616109848022 0.695549607276916504 0.0576048269867897034
0.355441480875015259 0.231204643845558167 0.0576144754886627197
0.342432022094726562 0.835060060024261475 0.0984739065170288086
0.340836107730865479 0.909137427806854248 0.0723586529493331909
0.341690361499786377 0.869484961032867432 0.0162655934691429138
0.349459439516067505 0.508870303630828857 0.0619161836802959442
0.339495211839675903 0.971375942230224609 0.0835236385464668274
0.349815249443054199 0.492354601621627808 0.102862827479839325
0.348889946937561035 0.535305023193359375 0.143199846148490906
0.350507080554962158 0.460241854190826416 0.0399498865008354187
0.34887358546257019 0.53606414794921875 0.132823750376701355
0.333502739667892456 1.24952685832977295 0.0554238259792327881
0.357270568609237671 0.14630456268787384 0.0740504413843154907
0.359185546636581421 0.0574176274240016937 0.0785100087523460388
0.33882567286491394 1.00245428085327148 0.00238391757011413574
0.348395466804504395 0.558255851268768311 0.0310819558799266815
0.352205425500869751 0.381410986185073853 0.0564314983785152435
0.350284397602081299 0.470579057931900024 0.118510961532592773
0.355682939291000366 0.219996079802513123 0.154632776975631714
0.337761282920837402 1.05185949802398682 0.0268195867538452148
0.333249270915985107 1.2612922191619873 0.0213728547096252441
0.357439488172531128 0.138463482260704041 0.0421569682657718658
0.354781568050384521 0.261835217475891113 0.0985493361949920654
0.352946341037750244 0.347020268440246582 0.151126250624656677
0.342844098806381226 0.815932750701904297 0.00311312079429626465
0.353719741106033325 0.31112140417098999 0.15507352352142334
0.326953619718551636 1.55351555347442627 0.0260145664215087891
0.353751391172409058 0.309652984142303467 0.0219614505767822266
0.325698107481002808 1.61179172992706299 0.000278368592262268066
0.356536120176315308 0.18039509654045105 0.0537352487444877625
0.329621940851211548 1.42966103553771973 0.0132718533277511597
0.335128933191299438 1.17404472827911377 0.0619859248399734497
0.335654467344284058 1.14965105056762695 0.0457888171076774597
0.34582221508026123 0.677698194980621338 0.0699828490614891052
0.354891806840896606 0.256717503070831299 0.136349350214004517
0.351155012845993042 0.430167257785797119 0.00710842013359069824
0.358203232288360596 0.103012487292289734 0.0454664528369903564
0.356127500534057617 0.199361145496368408 0.0760861039161682129
0.346547901630401611 0.644013941287994385 0.018726639449596405
0.350721448659896851 0.45029151439666748 0.0613486357033252716
0.338337898254394531 1.02509558200836182 0.0310984700918197632
0.355271726846694946 0.23908330500125885 0.0464855730533599854
0.328846514225006104 1.46565401554107666 0.00343552231788635254
0.348940461874008179 0.532959699630737305 0.0678827166557312012
0.35566025972366333 0.221049681305885315 0.0110868681222200394
0.351227760314941406 0.426790207624435425 0.0988729745149612427
0.349553316831588745 0.504513323307037354 0.088649846613407135
0.332953482866287231 1.27502214908599854 0.0425473600625991821
0.33861956000328064 1.01202166080474854 0.0240585058927536011
0.349718481302261353 0.496846526861190796 0.136620312929153442
0.351359248161315918 0.420687109231948853 0.0950331538915634155
0.328066319227218628 1.50186800956726074 0.0393980890512466431
0.351314127445220947 0.422781676054000854 0.152045324444770813
0.354553759098052979 0.272409647703170776 0.0158315561711788177
0.349769562482833862 0.494476020336151123 0.115969538688659668
0.341287791728973389 0.888170778751373291 0.0888373926281929016
0.34686356782913208 0.629362642765045166 0.127773702144622803
0.358035117387771606 0.110815703868865967 0.121184572577476501
0.349461078643798828 0.508794546127319336 0.135459482669830322
0.350276976823806763 0.470923691987991333 0.11864791065454483
0.337455064058303833 1.06607365608215332 0.0223649442195892334
0.345890998840332031 0.674505293369293213 0.108276210725307465
0.330273240804672241 1.39942967891693115 0.0103610605001449585
0.329144567251205444 1.45181918144226074 0.0133749544620513916
0.34494936466217041 0.718212902545928955 0.0998262092471122742
0.353839486837387085 0.305563032627105713 0.152911633253097534
0.355286568403244019 0.238395184278488159 0.0443596765398979187
0.332983255386352539 1.27364051342010498 0.0602704435586929321
0.350189954042434692 0.474962592124938965 0.103928275406360626
0.344103485345840454 0.757476449012756348 0.0124541744589805603
0.335335373878479004 1.16446197032928467 0.00108923017978668213
0.34236598014831543 0.838125109672546387 0.0156958550214767456
0.336280852556228638 1.12057614326477051 0.0255373790860176086
0.341328412294387817 0.886285722255706787 0.00229520350694656372
0.345132559537887573 0.709709107875823975 0.0211517587304115295
0.323991090059280396 1.69102585315704346 0.00807951390743255615
0.350268393754959106 0.471321463584899902 0.0375723764300346375
0.337569117546081543 1.06077992916107178 0.0198683813214302063
0.327483892440795898 1.52890145778656006 0.0273941159248352051
0.348418653011322021 0.557180464267730713 0.0566953755915164948
0.322210162878036499 1.77369070053100586 0.0095409005880355835
0.356711506843566895 0.172254085540771484 0.0212323777377605438
0.348777323961257935 0.540531337261199951 0.0109947510063648224
0.339570522308349609 0.967880308628082275 0.0834656432271003723
0.36021345853805542 0.00970454420894384384 0.130368664860725403
0.359440773725509644 0.0455696545541286469 0.0974294617772102356
0.342671364545822144 0.823950529098510742 0.00938505679368972778
0.356331467628479004 0.189894378185272217 0.133546799421310425
0.357373297214508057 0.141535252332687378 0.108069032430648804
0.354905009269714355 0.256105691194534302 0.162679091095924377
0.351954847574234009 0.393041789531707764 0.114861592650413513
0.328217118978500366 1.49486744403839111 0.0367896854877471924
0.358973711729049683 0.0672490447759628296 0.00161272194236516953
0.340812087059020996 0.910252034664154053 0.0919728130102157593
0.327102720737457275 1.54659485816955566 0.0345283001661300659
0.353291988372802734 0.330976188182830811 0.12797844409942627
0.354647934436798096 0.268038183450698853 0.140312314033508301
0.334559768438339233 1.2004626989364624 0.0356359630823135376
0.349436819553375244 0.509920656681060791 0.120576553046703339
0.344004690647125244 0.762061595916748047 0.089414253830909729
0.342910468578338623 0.812851548194885254 0.0368967205286026001
0.354902267456054688 0.256232082843780518 0.123037122189998627
0.356869548559188843 0.164918363094329834 0.0789132267236709595
0.351432263851165771 0.417298078536987305 0.0869476348161697388
0.330335468053817749 1.39654099941253662 0.000632509589195251465
0.359380662441253662 0.0483607575297355652 0.0893400758504867554
0.350136011838912964 0.477466285228729248 0.10550130158662796
0.350436210632324219 0.463532298803329468 0.00274539366364479065
0.344074249267578125 0.758833348751068115 0.0735626667737960815
0.355474233627319336 0.229683771729469299 0.145351290702819824
0.327871948480606079 1.51088964939117432 0.0168762505054473877
0.348514825105667114 0.552716851234436035 0.102030038833618164
0.35806196928024292 0.109569117426872253 0.0881647467613220215
0.347253650426864624 0.611255526542663574 0.0188381671905517578
0.359123528003692627 0.0602958202362060547 0.0143109802156686783
0.349922239780426025 0.487388432025909424 0.145034328103065491
0.33188927173614502 1.32441854476928711 0.0354293137788772583
0.338972359895706177 0.995645105838775635 0.0344291478395462036
0.355703294277191162 0.219050899147987366 0.0425087139010429382
0.343632698059082031 0.779327690601348877 0.0186582505702972412
0.355903208255767822 0.209772765636444092 0.0695096105337142944
0.359375953674316406 0.0485796332359313965 0.0178037639707326889
0.353160291910171509 0.337089329957962036 0.138763740658760071
0.351539820432662964 0.412305980920791626 0.104942187666893005
0.353041768074035645 0.34259071946144104 0.0741149336099624634
0.359539419412612915 0.0409912653267383575 0.14759652316570282
0.34352409839630127 0.784369468688964844 0.0997915118932723999
0.350858837366104126 0.443914473056793213 0.149825245141983032
0.355347394943237305 0.235570535063743591 0.0998771190643310547
0.350488662719726562 0.461096674203872681 0.117288798093795776
0.359850227832794189 0.0265641435980796814 0.0422728471457958221
0.351815313100814819 0.399518817663192749 0.0134319663047790527
0.358745723962783813 0.0778326839208602905 0.0663971081376075745
0.330110907554626465 1.40696501731872559 0.00278459489345550537
0.348347485065460205 0.560484170913696289 0.0782035738229751587
0.343552976846694946 0.783028125762939453 0.0520105957984924316
0.352800607681274414 0.353785097599029541 0.0941563323140144348
0.358587920665740967 0.0851564481854438782 0.0542206987738609314
0.340124934911727905 0.942147016525268555 0.0264364853501319885
0.335476040840148926 1.15793323516845703 0.0298351496458053589
0.328230738639831543 1.49423623085021973 0.00476309657096862793
0.346330612897872925 0.654100000858306885 0.0289053469896316528
0.339191049337387085 0.985494673252105713 0.0285116583108901978
0.35783800482749939 0.119965888559818268 0.0220434423536062241
0.326070100069046021 1.59452593326568604 0.0240283310413360596
0.345520615577697754 0.691696822643280029 0.0110488459467887878
0.336418271064758301 1.11419832706451416 0.0360888689756393433
0.345930963754653931 0.672650992870330811 0.015663444995880127
0.347918331623077393 0.580403506755828857 0.124645590782165527
0.358030170202255249 0.111045576632022858 0.0939377695322036743
0.34309840202331543 0.804128885269165039 0.00896017998456954956
0.35838848352432251 0.0944134220480918884 0.1504393070936203
0.350592911243438721 0.456258684396743774 0.0188653953373432159
0.354964703321456909 0.25333443284034729 0.127381205558776855
0.356783509254455566 0.168911710381507874 0.10673242062330246
0.357409656047821045 0.139847829937934875 0.182329773902893066
0.321125686168670654 1.82402777671813965 0.00264777243137359619
0.337197035551071167 1.07805037498474121 0.0266421809792518616
0.35671687126159668 0.172004982829093933 0.100647293031215668
0.331208378076553345 1.35602343082427979 0.0103112906217575073
0.355421483516693115 0.232132419943809509 0.0717733055353164673
0.356791675090789795 0.168531894683837891 0.0234281141310930252
0.335237115621566772 1.16902351379394531 0.0655933767557144165
0.33250272274017334 1.29594409465789795 0.043615877628326416
0.341934561729431152 0.858149468898773193 0.0549395754933357239
0.328392148017883301 1.48674392700195312 0.00825004279613494873
0.336491882801055908 1.11078095436096191 0.0667451098561286926
0.351925671100616455 0.394396841526031494 0.0358163788914680481
0.355016440153121948 0.250932753086090088 0.170467734336853027
0.35864865779876709 0.0823372378945350647 0.18488486111164093
0.352129697799682617 0.384925514459609985 0.0623873509466648102
0.347567260265350342 0.596698403358459473 0.0168245509266853333
0.358752071857452393 0.0775367841124534607 0.00848742108792066574
0.354531407356262207 0.273447155952453613 0.125842809677124023
0.351291865110397339 0.42381584644317627 0.0858947485685348511
0.331681489944458008 1.33406305313110352 0.0208754092454910278
0.346656262874603271 0.638984262943267822 0.108126789331436157
0.358159512281417847 0.105042010545730591 0.080323539674282074
0.337498933076858521 1.06403720378875732 0.0747456029057502747
0.354611903429031372 0.26971060037612915 0.0690232887864112854
0.344005614519119263 0.762018501758575439 0.0926342234015464783
0.357389658689498901 0.140776142477989197 0.0862687975168228149
0.34487488865852356 0.721669554710388184 0.0739739835262298584
0.358429670333862305 0.0925021171569824219 0.0996810644865036011
0.327435284852981567 1.5311582088470459 0.00726729631423950195
0.356283366680145264 0.192126482725143433 0.0849316194653511047
0.338952630758285522 0.996561169624328613 0.0646964684128761292
0.354205340147018433 0.28858107328414917 0.0630729570984840393
0.343459427356719971 0.787370264530181885 0.116462454199790955
0.331736326217651367 1.33151793479919434 0.0386800616979598999
0.356155186891555786 0.198076009750366211 0.0579493194818496704
0.34116700291633606 0.893777549266815186 0.047623850405216217
0.34100574254989624 0.90126335620880127 0.0681509673595428467
0.355559617280960083 0.225719988346099854 0.130874127149581909
0.338344573974609375 1.02478456497192383 0.0910101607441902161
0.34108203649520874 0.897722184658050537 0.0288603231310844421
0.331900596618652344 1.32389259338378906 0.00165508687496185303
0.354098588228225708 0.293536633253097534 0.0698356777429580688
0.33277323842048645 1.28338766098022461 0.0388851314783096313
0.351997017860412598 0.391084730625152588 0.134214743971824646
0.340287595987319946 0.934596538543701172 0.0681287571787834167
0.357387244701385498 0.140887945890426636 0.0392023958265781403
0.342295914888381958 0.841377556324005127 0.0409071445465087891
0.326742649078369141 1.56330752372741699 0.0284784138202667236
0.351914286613464355 0.394923895597457886 0.139876633882522583
0.359671622514724731 0.0348554402589797974 0.177406758069992065
0.34200054407119751 0.855087995529174805 0.0910918042063713074
0.35650712251663208 0.181739956140518188 0.0624891594052314758
0.358142495155334473 0.105831697583198547 0.124104738235473633
0.347108423709869385 0.617996633052825928 0.0728057697415351868
0.34904170036315918 0.528261184692382812 0.0113935358822345734
0.358132332563400269 0.106303960084915161 0.0588886365294456482
0.34197235107421875 0.856396496295928955 0.0270402878522872925
0.334493786096572876 1.20352578163146973 0.0180037915706634521
0.357423692941665649 0.139196723699569702 0.0183934625238180161
0.359655290842056274 0.0356124117970466614 0.144006147980690002
0.351381212472915649 0.419668048620223999 0.00588617101311683655
0.356608092784881592 0.177053824067115784 0.0884081423282623291
0.322999954223632812 1.73703098297119141 0.00585132837295532227
0.333014190196990967 1.27220320701599121 0.0546879470348358154
0.336766928434371948 1.09801459312438965 0.0241699144244194031
0.357658147811889648 0.12831425666809082 0.0893353670835494995
0.3540840744972229 0.294210046529769897 0.0920620262622833252
0.356184333562850952 0.19672296941280365 0.111971110105514526
0.343411922454833984 0.789575397968292236 0.0298548042774200439
0.355132699012756348 0.24553680419921875 0.0684242844581604004
0.337373733520507812 1.06984877586364746 0.0561370924115180969
0.329919993877410889 1.41582560539245605 0.0302787870168685913
0.341789543628692627 0.864881277084350586 0.106152616441249847
0.359824061393737793 0.0277793742716312408 0.163557201623916626
0.340868353843688965 0.907639920711517334 0.10045681893825531
0.358534127473831177 0.0876534357666969299 0.164724811911582947
0.355666697025299072 0.220749929547309875 0.0382248051464557648
0.359784632921218872 0.0296095125377178192 0.116129830479621887
0.3592337965965271 0.0551778040826320648 0.145826220512390137
0.356457024812698364 0.184066236019134521 0.121122822165489197
0.354407995939254761 0.279175072908401489 0.00759064778685569763
0.334890902042388916 1.18509328365325928 0.0427230149507522583
0.326990813016891479 1.55178844928741455 0.002455100417137146
0.339615195989608765 0.965807855129241943 0.0518751218914985657
0.345581889152526855 0.688853681087493896 0.0713749676942825317
0.347829669713973999 0.584518551826477051 0.00550723448395729065
0.3418235182762146 0.863303959369659424 0.0357981547713279724
0.355154275894165039 0.244535624980926514 0.0925117358565330505
0.354929178953170776 0.254983067512512207 0.00455144606530666351
0.356879234313964844 0.164468303322792053 0.122008383274078369
0.35400041937828064 0.298093616962432861 0.0764437317848205566
0.35691457986831665 0.162827402353286743 0.120288945734500885
0.359428614377975464 0.0461346060037612915 0.0020421869121491909
0.352441519498825073 0.370451897382736206 0.0194461159408092499
0.354822695255279541 0.259925514459609985 0.0142305642366409302
0.347760170698165894 0.587744951248168945 0.0194816626608371735
0.352331042289733887 0.375579506158828735 0.102337397634983063
0.337507396936416626 1.0636444091796875 0.0619810149073600769
0.357133835554122925 0.152651190757751465 0.1418466717004776
0.344521999359130859 0.738049983978271484 0.104622356593608856
0.347823947668075562 0.584784924983978271 0.133733868598937988
0.347128778696060181 0.617052316665649414 0.0592774301767349243
0.347480416297912598 0.600729405879974365 0.115493103861808777
0.33154749870300293 1.34028291702270508 0.0196582227945327759
0.353933066129684448 0.301219254732131958 0.00631987676024436951
0.351801007986068726 0.400183022022247314 0.12469501793384552
0.338771462440490723 1.00497007369995117 0.0440116971731185913
0.346300691366195679 0.655488371849060059 0.0302154049277305603
0.341777056455612183 0.865460336208343506 0.00846474617719650269
0.358297467231750488 0.0986384972929954529 0.0243008062243461609
0.340338945388793945 0.932213246822357178 0.0655078813433647156
0.349059402942657471 0.527439355850219727 0.127725526690483093
0.348364859819412231 0.559676706790924072 0.000533238053321838379
0.351115435361862183 0.4320048987865448 0.13469657301902771
0.358218222856521606 0.102316737174987793 0.138099879026412964
0.359753966331481934 0.0310322605073451996 0.148154363036155701
0.358110219240188599 0.107330270111560822 0.0815094485878944397
0.342288076877593994 0.841740787029266357 0.0385732352733612061
0.331203669309616089 1.35624170303344727 0.0356130897998809814
0.347088992595672607 0.618898212909698486 0.13079516589641571
0.343945682048797607 0.764800786972045898 0.00835411250591278076
0.339541226625442505 0.969241142272949219 0.0644440129399299622
0.360096931457519531 0.0151138510555028915 0.196316301822662354
0.355681866407394409 0.220045581459999084 0.0818204805254936218
0.359547942876815796 0.0405953079462051392 0.182219669222831726
0.351877719163894653 0.396621853113174438 0.156893283128738403
0.335638165473937988 1.15040814876556396 0.0151727199554443359
0.353180199861526489 0.336164593696594238 0.00309039652347564697
0.34485703706741333 0.722498059272766113 0.0625920817255973816
0.33801192045211792 1.04022586345672607 0.0758231580257415771
0.336237877607345581 1.12257111072540283 0.0521363317966461182
0.333633303642272949 1.24346721172332764 0.0174447000026702881
0.33416217565536499 1.21891844272613525 0.026913180947303772
0.355903744697570801 0.209747001528739929 0.0796195939183235168
0.353933513164520264 0.301199048757553101 0.0674542039632797241
0.339791834354400635 0.957608819007873535 0.0230039656162261963
0.348167538642883301 0.568836569786071777 0.0928831994533538818
0.348611682653427124 0.548220992088317871 0.119198471307754517
0.354722887277603149 0.264558672904968262 0.0326478183269500732
0.354156672954559326 0.290840297937393188 0.0589303895831108093
0.345458030700683594 0.694602608680725098 0.0741770640015602112
0.33113938570022583 1.35922670364379883 0.0323957353830337524
0.3411521315574646 0.894467830657958984 0.0276699662208557129
0.340322434902191162 0.932979941368103027 0.00859947502613067627
0.34278416633605957 0.818714559078216553 0.0269669145345687866
0.347404778003692627 0.604240596294403076 0.0327775478363037109
0.34339633584022522 0.790300071239471436 0.069278225302696228
0.360187321901321411 0.0109185371547937393 0.182382971048355103
0.336852192878723145 1.09405648708343506 0.035432666540145874
0.338311314582824707 1.0263296365737915 0.0452018529176712036
0.332547456026077271 1.29386770725250244 0.0361018478870391846
0.342267006635665894 0.842718720436096191 0.064570985734462738
0.339274883270263672 0.981603026390075684 0.0422269478440284729
0.341712892055511475 0.868438601493835449 0.0829555019736289978
0.33527490496635437 1.16726851463317871 0.0375302508473396301
0.359100073575973511 0.0613841526210308075 0.0978680253028869629
0.355454891920089722 0.230581328272819519 0.15014098584651947
0.338116049766540527 1.0353931188583374 0.0427355542778968811
0.333365440368652344 1.25590050220489502 0.045077785849571228
0.359382718801498413 0.0482652634382247925 0.00774960732087492943
0.351707994937896729 0.404500216245651245 0.0618919655680656433
0.360092341899871826 0.0153268873691558838 0.0950002968311309814
0.359391003847122192 0.0478807054460048676 0.0983811542391777039
0.355706453323364258 0.218904569745063782 0.0969350561499595642
0.341847211122512817 0.862204313278198242 0.0245250239968299866
0.346221238374710083 0.659177064895629883 0.0887732580304145813
0.354743897914886475 0.26358407735824585 0.138468757271766663
0.358138561248779297 0.106014333665370941 0.168273672461509705
0.34686693549156189 0.62920534610748291 0.126518279314041138
0.323395520448684692 1.71867084503173828 0.000935256481170654297
0.353699475526809692 0.312061846256256104 0.0115755461156368256
0.355808109045028687 0.214185848832130432 0.150828331708908081
0.351683825254440308 0.405621618032455444 0.0512098073959350586
0.355584621429443359 0.224560096859931946 0.141496717929840088
0.341792166233062744 0.864760339260101318 0.0963824987411499023
0.352842420339584351 0.351843208074569702 0.154431954026222229
0.359053909778594971 0.0635275468230247498 0.115826226770877838
0.352954983711242676 0.346618533134460449 0.117894157767295837
0.346877396106719971 0.628720760345458984 0.039929315447807312
0.34964713454246521 0.500158131122589111 0.123986780643463135
0.360194295644760132 0.0105940569192171097 0.151709869503974915
0.354013383388519287 0.297492027282714844 0.148290008306503296
0.340001106262207031 0.9478951096534729 0.0491979941725730896
0.35754096508026123 0.133753478527069092 0.149909749627113342
0.355022639036178589 0.250645607709884644 0.144410192966461182
0.337497532367706299 1.0641014575958252 0.00964438170194625854
0.350539177656173706 0.458752095699310303 0.0494910404086112976
0.331702888011932373 1.33307051658630371 0.0476961880922317505
0.329131513833999634 1.45242464542388916 0.01657085120677948
0.350054532289505005 0.481247812509536743 0.031115461140871048
0.338926106691360474 0.997792422771453857 0.0169030651450157166
0.359915345907211304 0.0235423296689987183 0.00589421112090349197
0.343653559684753418 0.778360426425933838 0.0956659018993377686
0.35495111346244812 0.253965616226196289 0.110216841101646423
0.330792248249053955 1.37533855438232422 0.0266960412263870239
0.327278971672058105 1.53841423988342285 0.0188532620668411255
0.357082873582839966 0.15501578152179718 0.0518747568130493164
0.354364544153213501 0.28119245171546936 0.161075934767723083
0.337793350219726562 1.05037140846252441 0.0466446131467819214
0.32592359185218811 1.60132527351379395 0.0280597805976867676
0.358182191848754883 0.103988863527774811 0.141840249300003052
0.354482799768447876 0.275702595710754395 0.150580823421478271
0.331809937953948975 1.32810163497924805 0.0148865431547164917
0.342756509780883789 0.819997429847717285 0.083492770791053772
0.334456533193588257 1.20525538921356201 0.00105373561382293701
0.354812800884246826 0.260385423898696899 0.157172024250030518
0.3312225341796875 1.35536634922027588 0.0352825820446014404
0.35617750883102417 0.197040066123008728 0.138297855854034424
0.353320330381393433 0.329660296440124512 0.0517198480665683746
0.349067836999893188 0.527046680450439453 0.0902242064476013184
0.351487189531326294 0.414749294519424438 0.138463854789733887
0.358510643243789673 0.0887443497776985168 0.0533104762434959412
0.343285858631134033 0.795428097248077393 0.00919983536005020142
0.336614161729812622 1.10510563850402832 0.0466051548719406128
0.348709642887115479 0.543673515319824219 0.0705208107829093933
0.336344033479690552 1.11764323711395264 0.00645077228546142578
0.347433865070343018 0.602891325950622559 0.103828363120555878
0.352366179227828979 0.373948991298675537 0.0269428007304668427
0.355430573225021362 0.231709852814674377 0.159724310040473938
0.35504719614982605 0.249504953622817993 0.0972956269979476929
0.338912367820739746 0.998429954051971436 0.0370110943913459778
0.322349339723587036 1.76723039150238037 0.0104170292615890503
0.346010148525238037 0.668975412845611572 0.103002741932868958
0.345852822065353394 0.676278114318847656 0.0089276731014251709
0.342702239751815796 0.822517216205596924 0.0335189253091812134
0.327529847621917725 1.52676820755004883 0.000420257449150085449
0.339462548494338989 0.972892463207244873 0.073089994490146637
0.330684542655944824 1.38033843040466309 0.028852805495262146
0.35996013879776001 0.0214636512100696564 0.125204667448997498
0.355051189661026001 0.249319538474082947 0.0395698323845863342
0.346188992261886597 0.66067349910736084 0.0836627483367919922
0.339936375617980957 0.95089876651763916 0.0399903878569602966
0.325951278209686279 1.60004103183746338 0.0109191387891769409
0.338780432939529419 1.00455474853515625 0.0172099247574806213
0.333993375301361084 1.22675299644470215 0.0368000715970993042
0.347907453775405884 0.580908596515655518 0.0481303185224533081
0.349177539348602295 0.521955370903015137 0.126458778977394104
0.336170464754104614 1.12569999694824219 0.0674258247017860413
0.357673555612564087 0.127598002552986145 0.175086706876754761
0.336860835552215576 1.09365570545196533 0.0308507233858108521
0.327192544937133789 1.54242479801177979 0.0152958780527114868
0.348388880491256714 0.558562278747558594 0.0743903666734695435
0.338641077280044556 1.01102221012115479 0.0312351509928703308
0.338339120149612427 1.02503859996795654 0.0792294815182685852
0.344377398490905762 0.744762182235717773 0.0153676718473434448
0.348594784736633301 0.549005270004272461 0.125435128808021545
0.35223764181137085 0.379915237426757812 0.0822296142578125
0.340692996978759766 0.915778875350952148 0.0795005187392234802
0.355288445949554443 0.23830801248550415 0.0315836817026138306
0.353374570608139038 0.327143311500549316 0.0151727870106697083
0.357380926609039307 0.141180947422981262 0.119900397956371307
0.340807944536209106 0.910443484783172607 0.0950437188148498535
0.351184934377670288 0.428778290748596191 0.0359951220452785492
0.359544128179550171 0.0407733172178268433 0.0929804295301437378
0.352743417024612427 0.35643884539604187 0.12131926417350769
0.344751358032226562 0.727403581142425537 0.0502529218792915344
0.355620592832565308 0.222890317440032959 0.0337080061435699463
0.3551502525806427 0.244722560048103333 0.0534585863351821899
0.344582796096801758 0.73522794246673584 0.0641823187470436096
0.351092517375946045 0.433068990707397461 0.0312980860471725464
0.355320453643798828 0.236821591854095459 0.144761934876441956
0.333659350872039795 1.24225771427154541 0.00534179806709289551
0.341636240482330322 0.8719978928565979 0.0192528963088989258
0.340722948312759399 0.914388775825500488 0.0939985886216163635
0.354646205902099609 0.268118083477020264 0.0112293753772974014
0.326164454221725464 1.59014594554901123 0.0136076807975769043
0.340398132801055908 0.929466187953948975 0.0216209292411804199
0.359631240367889404 0.0367300920188426971 0.0276476722210645676
0.340556353330612183 0.922121942043304443 0.0384792312979698181
0.343873471021652222 0.768152534961700439 0.0200228691101074219
0.356172949075698853 0.197251498699188232 0.0947087258100509644
0.347976386547088623 0.577709496021270752 0.10541379451751709
0.352460384368896484 0.36957666277885437 0.119835034012794495
0.354918777942657471 0.255466669797897339 0.106463544070720673
0.357101291418075562 0.1541605144739151 0.100100323557853699
0.330183923244476318 1.40357506275177002 0.0132740139961242676
0.344271570444107056 0.749674379825592041 0.0464970692992210388
0.349286109209060669 0.516915559768676758 0.0839552581310272217
0.347636103630065918 0.593502998352050781 0.0628086552023887634
0.342244803905487061 0.843749403953552246 0.0815610885620117188
0.335035175085067749 1.17839717864990234 0.00737808644771575928
0.351058006286621094 0.434670507907867432 0.095093265175819397
0.332108259201049805 1.31425487995147705 0.0427670329809188843
0.34686318039894104 0.629380702972412109 0.036549493670463562
0.356378316879272461 0.187719672918319702 0.0189515445381402969
0.357510536909103394 0.135165438055992126 0.142877787351608276
0.333939015865325928 1.22927629947662354 0.00830638408660888672
0.336608022451400757 1.10539007186889648 0.00794724375009536743
0.326737970113754272 1.56352508068084717 0.00685451924800872803
0.348494589328765869 0.553655922412872314 0.0555203333497047424
0.349247604608535767 0.5187034010887146 0.0759690925478935242
0.339763164520263672 0.958938658237457275 0.052979983389377594
0.351905137300491333 0.395348727703094482 0.00391456857323646545
0.354738533496856689 0.263833105564117432 0.111277028918266296
0.359811484813690186 0.0283630732446908951 0.0650832727551460266
0.357137054204940796 0.152501210570335388 0.0688864812254905701
0.346592843532562256 0.641928374767303467 0.0812100023031234741
0.328446120023727417 1.48423898220062256 0.0396760255098342896
0.336834371089935303 1.09488368034362793 0.00613981485366821289
0.336862862110137939 1.09356069564819336 0.0152266696095466614
0.35428282618522644 0.284984767436981201 0.0571468397974967957
0.353718191385269165 0.311192750930786133 0.0919302701950073242
0.354464620351791382 0.276546329259872437 0.0659758150577545166
0.355785906314849854 0.215217113494873047 0.0375663861632347107
0.328319966793060303 1.49009394645690918 0.0407756417989730835
0.354577481746673584 0.27130734920501709 0.1573200523853302
0.355647027492523193 0.221663728356361389 0.057115405797958374
0.335974663496017456 1.13478899002075195 0.0703460127115249634
0.353805065155029297 0.307161599397659302 0.163730219006538391
0.351672500371932983 0.406147241592407227 0.000957459211349487305
0.354486286640167236 0.275540560483932495 0.0148510150611400604
0.351683288812637329 0.405646741390228271 0.107825577259063721
0.353198051452636719 0.335336476564407349 0.107116147875785828
0.356523513793945312 0.180979415774345398 0.10585930198431015
0.355545550584793091 0.226373910903930664 0.0487359240651130676
0.345219165086746216 0.70568925142288208 0.0143166705965995789
0.348634421825408936 0.5471649169921875 0.116512656211853027
0.356731057167053223 0.171346694231033325 0.046525217592716217
0.355092734098434448 0.247392341494560242 0.124608144164085388
0.35018998384475708 0.474960476160049438 0.145585566759109497
0.344565659761428833 0.736023247241973877 0.10589367151260376
0.349835008382797241 0.491437613964080811 0.125728785991668701
0.327785104513168335 1.51492083072662354 0.00192837417125701904
0.35400390625 0.297931551933288574 0.143057897686958313
0.339234828948974609 0.983462631702423096 0.0444432720541954041
0.359402745962142944 0.0473357364535331726 0.0919600799679756165
0.337248861789703369 1.07564437389373779 0.0325621515512466431
0.337369024753570557 1.07006657123565674 0.0434757396578788757
0.338121324777603149 1.03514742851257324 0.0599022805690765381
0.357062041759490967 0.155982807278633118 0.0470280200242996216
0.358667433261871338 0.0814667493104934692 0.12972491979598999
0.355677574872970581 0.220244720578193665 0.11749422550201416
0.355440586805343628 0.23124578595161438 0.0114544946700334549
0.351389110088348389 0.419301211833953857 0.0931957513093948364
0.350086629390716553 0.479758620262145996 0.0900387391448020935
0.338632553815841675 1.01141870021820068 0.0914329662919044495
0.350905418395996094 0.441753268241882324 0.152746856212615967
0.344626307487487793 0.733207583427429199 0.0319297462701797485
0.335169434547424316 1.17216503620147705 0.0346846356987953186
0.342165768146514893 0.847418010234832764 0.0906723886728286743
0.328135818243026733 1.49864184856414795 0.0176651477813720703
0.358700543642044067 0.0799294188618659973 0.0924050211906433105
0.345228254795074463 0.705267965793609619 0.123364195227622986
0.357042640447616577 0.156882986426353455 0.0759599506855010986
0.331058591604232788 1.36297571659088135 0.0270180404186248779
0.347463011741638184 0.601538479328155518 0.102344833314418793
0.325079560279846191 1.6405034065246582 0.0125398486852645874
0.350717931985855103 0.450454801321029663 0.132709354162216187
0.334300845861434937 1.21248114109039307 0.00661611557006835938
0.344353616237640381 0.745866239070892334 0.0917249396443367004
0.356821238994598389 0.167160451412200928 0.15807497501373291
0.348263680934906006 0.564373612403869629 0.0310787521302700043
0.350151658058166504 0.476739466190338135 0.114443570375442505
0.343463510274887085 0.78718101978302002 0.0926884263753890991
0.351635754108428955 0.407853394746780396 0.140587553381919861
0.344655424356460571 0.731856167316436768 0.0329732969403266907
0.33001023530960083 1.41163742542266846 0.0470584332942962646
0.347419947385787964 0.603536725044250488 0.075053386390209198
0.357034504413604736 0.157261595129966736 0.113233767449855804
0.359387904405593872 0.0480238385498523712 0.0554744526743888855
0.342173397541046143 0.847064077854156494 0.0384578481316566467
0.336893707513809204 1.09212911128997803 0.0396910607814788818
0.3334006667137146 1.25426554679870605 0.0538868606090545654
0.334867596626281738 1.18617558479309082 0.0115848928689956665
0.340588599443435669 0.920625209808349609 0.0445144474506378174
0.351957052946090698 0.392939239740371704 0.0318164825439453125
0.35658419132232666 0.17816375195980072 0.00469904765486717224
0.35111469030380249 0.432039380073547363 0.0182005800306797028
0.354131042957305908 0.292030155658721924 0.148451909422874451
0.338732719421386719 1.00676846504211426 0.0843216478824615479
0.334555983543395996 1.20063948631286621 0.017094150185585022
0.340512782335281372 0.924144923686981201 0.0452188774943351746
0.337312549352645874 1.07268869876861572 0.0190162286162376404
0.357264965772628784 0.146563917398452759 0.128717958927154541
0.353983014822006226 0.298901259899139404 0.13274700939655304
0.329967737197875977 1.41361057758331299 0.0456824600696563721
0.343613415956497192 0.78022313117980957 0.0313491672277450562
0.34983941912651062 0.491233617067337036 0.0627902597188949585
0.329795032739639282 1.42162668704986572 0.028089180588722229
0.358848035335540771 0.0730835646390914917 0.00505929440259933472
0.360176712274551392 0.0114097502082586288 0.0246225111186504364
0.341905295848846436 0.859509050846099854 0.0964501276612281799
0.359442472457885742 0.0454907529056072235 0.0433470755815505981
0.348622053861618042 0.54773944616317749 0.0905965566635131836
0.338383704423904419 1.02296841144561768 0.0603215470910072327
0.34443625807762146 0.742029309272766113 0.0397988557815551758
0.356406927108764648 0.18639063835144043 0.178989022970199585
0.355532616376876831 0.226974397897720337 0.117518603801727295
0.35063016414642334 0.45452958345413208 0.122838526964187622
0.34806475043296814 0.573607087135314941 0.0170045830309391022
0.350535988807678223 0.458900809288024902 0.0372125990688800812
0.357598245143890381 0.131093904376029968 0.157900616526603699
0.355755090713500977 0.216647326946258545 0.0598704814910888672
0.329558223485946655 1.43261861801147461 0.0399483293294906616
0.338292032480239868 1.02722346782684326 0.0784690752625465393
0.348422229290008545 0.557013869285583496 0.12442384660243988
0.36006474494934082 0.0166078098118305206 0.145292729139328003
0.334527194499969482 1.20197558403015137 0.0549713969230651855
0.353901654481887817 0.302677005529403687 0.0182375423610210419
0.356528252363204956 0.180759593844413757 0.144251197576522827
0.341840386390686035 0.862521052360534668 0.0826605707406997681
0.335698574781417847 1.14760339260101318 0.0595085397362709045
0.344546914100646973 0.736894071102142334 0.0355393216013908386
0.36018449068069458 0.0110487602651119232 0.01441149041056633
0.358801096677780151 0.075261920690536499 0.144671201705932617
0.343490034341812134 0.785950124263763428 0.0734782665967941284
0.355929642915725708 0.208545148372650146 0.0185233596712350845
0.338503330945968628 1.01741695404052734 0.0355921611189842224
0.328855395317077637 1.46524143218994141 0.0400786399841308594
0.346896380186080933 0.627838611602783203 0.0971718877553939819
0.345433443784713745 0.695744156837463379 0.0188675746321678162
0.329527735710144043 1.43403375148773193 0.0233108997344970703
0.358721226453781128 0.0789695009589195251 0.0354816094040870667
0.349909305572509766 0.487989276647567749 0.0147390365600585938
0.359382003545761108 0.0482985638082027435 0.131261721253395081
0.33049774169921875 1.38900923728942871 0.0400711596012115479
0.358584165573120117 0.0853313356637954712 0.121414884924888611
0.349797189235687256 0.493192613124847412 0.0958511382341384888
0.355359762907028198 0.234997153282165527 0.141818016767501831
0.333486288785934448 1.25029098987579346 0.024208366870880127
0.342021673917770386 0.854106366634368896 0.0365535244345664978
0.331414073705673218 1.34647560119628906 0.0522455573081970215
0.333241969347000122 1.26163160800933838 0.0461876988410949707
0.353310436010360718 0.330120235681533813 0.123758941888809204
0.328673273324966431 1.47369515895843506 0.0414043962955474854
0.330788403749465942 1.37551748752593994 0.0437631905078887939
0.342767775058746338 0.819474577903747559 0.0108092650771141052
0.356895297765731812 0.163722425699234009 0.0975215137004852295
0.333442032337188721 1.25234532356262207 0.0659119337797164917
0.353504776954650879 0.321098864078521729 0.000156018882989883423
0.357263475656509399 0.14663347601890564 0.155299931764602661
0.349525094032287598 0.505822896957397461 0.136081591248512268
0.344707459211349487 0.729442000389099121 0.108941785991191864
0.349218308925628662 0.520062506198883057 0.127047508955001831
0.330011069774627686 1.4115983247756958 0.0221423804759979248
0.353416740894317627 0.325186282396316528 0.0351034067571163177
0.332358032464981079 1.30266070365905762 0.0360569655895233154
0.354441195726394653 0.277633398771286011 0.057904459536075592
0.346348971128463745 0.653247416019439697 0.0588242337107658386
0.352633744478225708 0.361529797315597534 0.0876738205552101135
0.337295860052108765 1.0734630823135376 0.0816583633422851562
0.347269028425216675 0.610541999340057373 0.112280942499637604
0.348166823387145996 0.56886899471282959 0.105831131339073181
0.342511475086212158 0.83137136697769165 0.110968992114067078
0.354109376668930054 0.293036401271820068 0.00724157318472862244
0.357026576995849609 0.157629072666168213 0.089140281081199646
0.340231060981750488 0.937220752239227295 0.0621140450239181519
0.358652234077453613 0.0821716785430908203 0.165012061595916748
0.347023516893386841 0.621937870979309082 0.0890391319990158081
0.34912535548210144 0.524378061294555664 0.0191110149025917053
0.360004901885986328 0.0193846523761749268 0.135497897863388062
0.340943813323974609 0.904137790203094482 0.0924317091703414917
0.343361914157867432 0.79189753532409668 0.0792386457324028015
0.357965469360351562 0.114048376679420471 0.0833203867077827454
0.354616284370422363 0.269507229328155518 0.140047475695610046
0.358799129724502563 0.0753532350063323975 0.0546893440186977386
0.357278764247894287 0.145923689007759094 0.0960831120610237122
0.35772937536239624 0.125006988644599915 0.142844542860984802
0.340667277574539185 0.916972756385803223 0.0371847972273826599
0.349213302135467529 0.520295023918151855 0.0715182721614837646
0.349233388900756836 0.519363641738891602 0.118794843554496765
0.356523722410202026 0.180969759821891785 0.0465134754776954651
0.359378606081008911 0.0484564118087291718 0.101710662245750427
0.357604652643203735 0.1307964026927948 0.0845319256186485291
0.332711249589920044 1.28626585006713867 0.00474987924098968506
0.346193373203277588 0.660470008850097656 0.00658473372459411621
0.351141899824142456 0.430776029825210571 0.036011960357427597
0.344590455293655396 0.734872937202453613 0.0151636600494384766
0.33049437403678894 1.38916492462158203 0.0192946940660476685
0.331231176853179932 1.3549654483795166 0.0225011259317398071
0.35793536901473999 0.115445658564567566 0.0274562537670135498
0.353811115026473999 0.306879609823226929 0.137353032827377319
0.335221827030181885 1.16973280906677246 0.00822774320840835571
0.359400719404220581 0.0474296733736991882 0.0998924076557159424
0.357949227094650269 0.114802375435829163 0.186822086572647095
0.359631627798080444 0.0367109440267086029 0.169396594166755676
0.356225907802581787 0.19479350745677948 0.0112435910850763321
0.359211385250091553 0.0562177225947380066 0.146866977214813232
0.346443861722946167 0.648844003677368164 0.0977767333388328552
0.349375814199447632 0.512751400470733643 0.1334046870470047
0.34582868218421936 0.677398502826690674 0.0486318320035934448
0.355062782764434814 0.248782247304916382 0.12413005530834198
0.355883598327636719 0.210682764649391174 0.132161304354667664
0.356854647397994995 0.165609315037727356 0.179358869791030884
0.342252641916275024 0.843385994434356689 0.0183250308036804199
0.329343527555465698 1.44258379936218262 0.0138284415006637573
0.352685123682022095 0.359145373106002808 0.0220586918294429779
0.327181607484817505 1.54293334484100342 0.0215378254652023315
0.342574864625930786 0.828428804874420166 0.0440069437026977539
0.345328867435455322 0.700598418712615967 0.0648733600974082947
0.337614208459854126 1.0586860179901123 0.0659097284078598022
0.347282469272613525 0.60991746187210083 0.120290942490100861
0.342570066452026367 0.828651487827301025 0.0982488319277763367
0.356427460908889771 0.185438349843025208 0.153944611549377441
0.352377533912658691 0.373421996831893921 0.132615968585014343
0.35141107439994812 0.418282151222229004 0.137976810336112976
0.336957722902297974 1.08915805816650391 0.0721991732716560364
0.353895813226699829 0.302948921918869019 0.127397522330284119
0.339278191328048706 0.981450319290161133 0.0720076411962509155
0.338484078645706177 1.0183100700378418 0.0906693413853645325
0.359403014183044434 0.0473227277398109436 0.0267838258296251297
0.323936492204666138 1.69356083869934082 0.0166484415531158447
0.337285459041595459 1.07394635677337646 0.0805717706680297852
0.337482810020446777 1.06478488445281982 0.0124095380306243896
0.340705633163452148 0.915192604064941406 0.0322318524122238159
0.344741225242614746 0.727874457836151123 0.110257089138031006
0.349164783954620361 0.522547662258148193 0.0535913370549678802
0.350622206926345825 0.454899221658706665 0.101883113384246826
0.329911172389984131 1.41623520851135254 0.00778146088123321533
0.348894327878952026 0.535101056098937988 0.0728593617677688599
0.347930401563644409 0.579842925071716309 0.0773524492979049683
0.347050011157989502 0.620708346366882324 0.0142145305871963501
0.338792413473129272 1.0039985179901123 0.0585127398371696472
0.341305077075958252 0.887368977069854736 0.0440925285220146179
0.342431575059890747 0.835080146789550781 0.0543686896562576294
0.348357617855072021 0.560013115406036377 0.0920213907957077026
0.349357664585113525 0.513594985008239746 0.0171216763556003571
0.359466403722763062 0.0443804450333118439 0.096139661967754364
0.335873156785964966 1.13950037956237793 0.0544735342264175415
0.351019322872161865 0.43646588921546936 0.0157336518168449402
0.351639509201049805 0.407678544521331787 0.143174782395362854
0.358210086822509766 0.10269494354724884 0.0547570995986461639
0.336795508861541748 1.0966876745223999 0.031221345067024231
0.349812030792236328 0.492503970861434937 0.0269565097987651825
0.341355472803115845 0.885029971599578857 0.0487354323267936707
0.350493431091308594 0.460876017808914185 0.138937726616859436
0.355519890785217285 0.227564692497253418 0.097760416567325592
0.348053395748138428 0.574133932590484619 0.12598690390586853
0.350535869598388672 0.458905547857284546 0.0219669081270694733
0.34494483470916748 0.718423902988433838 0.0846694260835647583
0.357708156108856201 0.125992745161056519 0.158640295267105103
0.354376167058944702 0.280652523040771484 0.14406488835811615
0.334918498992919922 1.18381190299987793 0.0520914644002914429
0.326019406318664551 1.5968780517578125 0.0221327692270278931
0.339956939220428467 0.949944674968719482 0.0550596490502357483
0.34880375862121582 0.539305329322814941 0.0450703836977481842
0.344013631343841553 0.761646628379821777 0.0374753400683403015
0.32914501428604126 1.4517979621887207 0.0287619084119796753
0.347645789384841919 0.59305417537689209 0.00245955586433410645
0.329202651977539062 1.44912302494049072 0.0377607643604278564
0.349630147218704224 0.500947058200836182 0.0826992243528366089
0.329432487487792969 1.43845486640930176 0.00133301317691802979
0.341571331024169922 0.87501072883605957 0.00765373557806015015
0.359192788600921631 0.0570812858641147614 0.0477281920611858368
0.327976793050765991 1.50602257251739502 0.0212008208036422729
0.356622785329818726 0.176371783018112183 0.0349846333265304565
0.341991931200027466 0.855487585067749023 0.0819333270192146301
0.352011024951934814 0.390433937311172485 0.0730780810117721558
0.353867083787918091 0.304282784461975098 0.025531575083732605
0.357447832822799683 0.138076335191726685 0.180984795093536377
0.338575839996337891 1.01405000686645508 0.0828236937522888184
0.339322596788406372 0.979388177394866943 0.0344463065266609192
0.331944882869720459 1.32183802127838135 0.0562516450881958008
0.348939985036849976 0.532982409000396729 0.138196229934692383
0.333683103322982788 1.24115538597106934 0.0409305691719055176
0.349431872367858887 0.510150611400604248 0.0343154892325401306
0.337703883647918701 1.05452466011047363 0.0157365202903747559
0.358390927314758301 0.0942999571561813354 0.149401739239692688
0.357563287019729614 0.132716715335845947 0.0234144739806652069
0.352677911520004272 0.359479188919067383 0.146388009190559387
0.340090036392211914 0.943766176700592041 0.0537821128964424133
0.345393270254135132 0.69760894775390625 0.0857286155223846436
0.342552393674850464 0.829472005367279053 0.0215913951396942139
0.355441749095916748 0.231191053986549377 0.0802080333232879639
0.336720883846282959 1.10015130043029785 0.0118932947516441345
0.352098584175109863 0.386369884014129639 0.00620376318693161011
0.348703444004058838 0.543960988521575928 0.0530462488532066345
0.356845438480377197 0.16603657603263855 0.0133038740605115891
0.358312308788299561 0.0979497730731964111 0.0774876177310943604
0.348960965871810913 0.532008469104766846 0.0603979155421257019
0.342716634273529053 0.821849048137664795 0.0989229753613471985
0.358832329511642456 0.0738128125667572021 0.0508033670485019684
0.329165756702423096 1.45083522796630859 0.0409646481275558472
0.341669082641601562 0.870472192764282227 0.0457522347569465637
0.351853221654891968 0.397759497165679932 0.0376728437840938568
0.349541246891021729 0.505072951316833496 0.111649900674819946
0.345597118139266968 0.688145935535430908 0.0134241059422492981
