ply
format ascii 1.0
element vertex 715
property float x
property float y
property float z
end_header
-0.0319432057440280914 -0.0155214201658964157 0.0475428365170955658
-0.0300073921680450439 -0.00870100967586040497 0.0501232929527759552
-0.0300805941224098206 -0.0108289429917931557 0.0491764135658740997
-0.0341174714267253876 -0.013051716610789299 0.0492453314363956451
-0.0289634242653846741 -0.00817539170384407043 0.0500831231474876404
0.0540233626961708069 0.0562844201922416687 0.00114955008029937744
0.0526294521987438202 0.0510101579129695892 0.0014954395592212677
0.0507608465850353241 0.0436768792569637299 0.00123602314852178097
0.0498496890068054199 0.0399749726057052612 0.000762656331062316895
0.0528688356280326843 0.0516350045800209045 0.000663251616060733795
0.0536406636238098145 0.0551361069083213806 0.00206900201737880707
0.0515661798417568207 0.0487080849707126617 0.00649349391460418701
0.051387641578912735 0.0478744134306907654 0.00610289163887500763
0.0507089234888553619 0.0448553226888179779 0.00503083830699324608
0.0525620058178901672 0.0525940358638763428 0.00657089846208691597
0.0505302771925926208 0.0440819524228572845 0.00480720633640885353
0.0498587898910045624 0.0407076217234134674 0.00268094940111041069
-0.0700673758983612061 0.0107832420617341995 0.0538474880158901215
-0.0690114870667457581 0.00991185009479522705 0.0540912151336669922
-0.0747165307402610779 0.00954409316182136536 0.054025452584028244
-0.0759301632642745972 0.00997994095087051392 0.0538847558200359344
-0.0657230690121650696 0.0175837613642215729 0.0522904098033905029
-0.0652653872966766357 0.0154664646834135056 0.0528248250484466553
-0.0735411494970321655 0.0112600885331630707 0.0536347217857837677
-0.0661490336060523987 0.0151170678436756134 0.0528867170214653015
-0.0662743151187896729 0.0103136748075485229 0.0540672130882740021
-0.0753444060683250427 0.018096601590514183 0.0519002377986907959
-0.0797071978449821472 0.0130434827879071236 0.0530261136591434479
-0.0787693485617637634 0.0174991600215435028 0.0519535988569259644
-0.0684958025813102722 0.0188122857362031937 0.0519115924835205078
-0.0777705088257789612 0.0180387292057275772 0.0518479906022548676
-0.0796909555792808533 0.0124199427664279938 0.0531802475452423096
-0.0701826214790344238 0.0180377699434757233 0.0520562492311000824
0.00747136212885379791 0.00972228869795799255 0.0446828342974185944
0.00887314882129430771 0.0100055411458015442 0.0439101681113243103
0.00443651527166366577 0.00527815055102109909 0.0441165082156658173
0.00806768890470266342 0.00939199700951576233 0.0440906547009944916
0.00669352896511554718 0.00673947669565677643 0.0434600114822387695
0.00266769272275269032 0.00154225388541817665 0.0431167855858802795
0.00832690950483083725 0.00478939712047576904 0.0412269793450832367
0.00147692195605486631 0.00115989241749048233 0.0436902865767478943
0.00611356087028980255 0.000691141001880168915 0.040312986820936203
0.00541572459042072296 -0.00230606738477945328 0.0390282087028026581
0.00834986008703708649 0.00132902129553258419 0.0391890592873096466
0.00937325134873390198 0.00587818771600723267 0.0411630496382713318
0.0113112721592187881 0.00595831684768199921 0.0399127602577209473
0.00954153481870889664 0.00979252159595489502 0.0433383099734783173
0.00740178581327199936 -0.000995081150904297829 0.0384651944041252136
0.0118261929601430893 0.00674453470855951309 0.0400276593863964081
0.0138793196529150009 0.00890692509710788727 0.0399173907935619354
0.00980956293642520905 0.00030684273224323988 0.0376146212220191956
0.0166825763881206512 0.00800880417227745056 0.0375162176787853241
0.00884336605668067932 -0.00187354418449103832 0.0369868800044059753
0.0108727328479290009 0.00515880156308412552 0.0397389642894268036
-0.0475365221500396729 0.00682599097490310669 0.0545989871025085449
-0.0477441176772117615 0.0105307837948203087 0.0545989871025085449
-0.0494715645909309387 0.0110768266022205353 0.0545989871025085449
-0.0497091449797153473 0.00642467569559812546 0.0545989871025085449
-0.0435889735817909241 0.00455293897539377213 0.0545989871025085449
-0.057623542845249176 -0.00117650884203612804 0.0545989871025085449
-0.0505663119256496429 -0.000560234766453504562 0.0545989871025085449
-0.0476338937878608704 0.00711393076926469803 0.0545989871025085449
-0.0496946424245834351 0.00704692257568240166 0.0545989871025085449
-0.0552410781383514404 0.00050356623250991106 0.0545989871025085449
-0.0566719882190227509 0.00699388887733221054 0.0545989871025085449
-0.0563884489238262177 0.00792515743523836136 0.0545989871025085449
-0.0498961731791496277 0.0118063623085618019 0.0545989871025085449
-0.0600739941000938416 -0.00197990890592336655 0.0545989871025085449
-0.0592519417405128479 -0.000298009254038333893 0.0545989871025085449
-0.0521550551056861877 0.0119872512295842171 0.0545989871025085449
-0.0596149489283561707 0.00368755124509334564 0.0545989871025085449
-0.0544690638780593872 0.0095697697252035141 0.0545989871025085449
-0.0585911273956298828 0.00595120852813124657 0.0545989871025085449
-0.017104683443903923 -0.00164979696273803711 0.0496362410485744476
-0.0117054814472794533 0.00313698919489979744 0.0497406348586082458
-0.017551962286233902 -0.00488264951854944229 0.0484835542738437653
-0.015011494979262352 -0.00101317930966615677 0.0491849631071090698
-0.0141750648617744446 0.00358044914901256561 0.0507548898458480835
-0.0163363087922334671 -0.00133780483156442642 0.0495021678507328033
-0.0156388673931360245 0.00165811437182128429 0.0504746623337268829
-0.0116076963022351265 0.00281359395012259483 0.0495771132409572601
-0.00932109076529741287 -0.00449733342975378036 0.0458547323942184448
-0.0131850577890872955 -0.00635372009128332138 0.0464130043983459473
-0.00839764997363090515 0.00361454207450151443 0.0488143227994441986
-0.0109535176306962967 -0.00219435174949467182 0.0473358482122421265
-0.00539816450327634811 0.00467447424307465553 0.0482272244989871979
-0.00657467357814311981 -0.00125655066221952438 0.0462328940629959106
-0.00190169457346200943 0.00046690087765455246 0.0453473366796970367
-0.00799035653471946716 0.00479429634287953377 0.0491524115204811096
-0.00295505858957767487 0.00200689723715186119 0.0463248193264007568
0.0246040821075439453 0.00485462509095668793 0.0262679010629653931
0.0208133161067962646 0.0116006359457969666 0.0361060984432697296
0.0220648515969514847 0.0120680844411253929 0.0349122174084186554
0.0269067604094743729 0.019411502406001091 0.0345128327608108521
0.024542633444070816 0.0159703493118286133 0.0348178967833518982
0.0270070768892765045 0.0204151645302772522 0.0351537019014358521
0.0232816562056541443 0.00733362045139074326 0.0297957658767700195
0.0273814462125301361 0.017934674397110939 0.0327990204095840454
0.0263277478516101837 0.0204391926527023315 0.036013476550579071
0.0257212445139884949 0.00937100499868392944 0.0283270925283432007
0.0245936624705791473 0.0116527993232011795 0.031463276594877243
0.0231507960706949234 0.0152861988171935081 0.0360203646123409271
0.031354166567325592 0.0211078040301799774 0.0302971210330724716
0.0303438752889633179 0.0192114096134901047 0.030102856457233429
0.0266936291009187698 0.0123350843787193298 0.0293822456151247025
0.029948648065328598 0.0227559134364128113 0.0332945026457309723
0.0282360948622226715 0.012493843212723732 0.0275926738977432251
0.0283502358943223953 0.0186498891562223434 0.0321442447602748871
0.0258103255182504654 0.0076978784054517746 0.0269412696361541748
0.0278190560638904572 0.0154075510799884796 0.0303304586559534073
0.0259558819234371185 0.00727882655337452888 0.026441521942615509
0.0306184850633144379 0.0196918807923793793 0.0301289819180965424
0.0308360457420349121 0.0153888585045933723 0.0265791658312082291
0.0276451911777257919 0.0166065618395805359 0.0314598642289638519
0.0297528114169836044 0.0184075087308883667 0.0302221495658159256
-0.0296136997640132904 0.00866130087524652481 0.0544679276645183563
-0.0366219617426395416 -0.00290134409442543983 0.0528809987008571625
-0.0333690084517002106 0.00159838423132896423 0.0534326285123825073
-0.0361840389668941498 -0.0032297428697347641 0.0527560152113437653
-0.0310256201773881912 0.0059184785932302475 0.0540600530803203583
-0.0367677398025989532 -0.00465003307908773422 0.0525263138115406036
-0.0371006540954113007 -0.00375448539853096008 0.0527590885758399963
-0.0370698422193527222 0.00060336897149682045 0.0536847002804279327
-0.0348648205399513245 0.00540086859837174416 0.0544313080608844757
-0.0278519932180643082 0.00605649314820766449 0.0536913387477397919
-0.0355671383440494537 -0.00860600732266902924 0.0515319332480430603
-0.0289279334247112274 -0.00465329503640532494 0.0515420623123645782
-0.0242057535797357559 -0.00187712814658880234 0.0515417531132698059
-0.0335602164268493652 -0.00662675686180591583 0.0517022982239723206
-0.0280287470668554306 -0.0015936773270368576 0.0520818307995796204
-0.0271260961890220642 0.00746409408748149872 0.0539004914462566376
-0.0246968157589435577 -0.00194628629833459854 0.0515886098146438599
-0.0247597265988588333 -0.0024765748530626297 0.0514833964407444
-0.0335781127214431763 -0.00784626416862010956 0.0514444410800933838
-0.0745782777667045593 0.0312743894755840302 0.0455644354224205017
-0.0745327100157737732 0.0280741211026906967 0.0472467243671417236
-0.0752239003777503967 0.0285688526928424835 0.0469467192888259888
-0.0778819918632507324 0.0247392430901527405 0.0488014817237854004
-0.0770474225282669067 0.0270907208323478699 0.0476160533726215363
-0.0742618367075920105 0.0292683523148298264 0.046635754406452179
-0.0753728896379470825 0.0216339528560638428 0.0505777373909950256
-0.0708376467227935791 0.02083541639149189 0.0512615926563739777
-0.0672410652041435242 0.0234739016741514206 0.0500867627561092377
-0.0742334127426147461 0.0217548087239265442 0.0505808256566524506
-0.0710467025637626648 0.0227738581597805023 0.0502320155501365662
-0.0691811367869377136 0.0208245366811752319 0.0513640046119689941
-0.0714131221175193787 0.0237304512411355972 0.0497085675597190857
0.00308154360391199589 0.00984229333698749542 0.0467019118368625641
0.00521752750501036644 0.0123593676835298538 0.0467265471816062927
0.00283108535222709179 0.019613947719335556 0.0501848086714744568
0.00232117739506065845 0.0182151664048433304 0.0499026402831077576
0.000176945759449154139 0.00689210416749119759 0.046832062304019928
0.000442332180682569742 0.0110879009589552879 0.0481796972453594208
0.000588730094023048878 0.0148274339735507965 0.0494165197014808655
0.00253744563087821007 0.0065769231878221035 0.0457869656383991241
0.00286286999471485615 0.00904150959104299545 0.0465113334357738495
0.000226982272579334676 0.0190263446420431137 0.0510138943791389465
-0.0036894350778311491 0.00951362866908311844 0.0492728687822818756
-0.00421240273863077164 0.00534545164555311203 0.0480369329452514648
-0.000589910196140408516 0.0100682396441698074 0.0482359156012535095
-0.000560578715521842241 0.0101750446483492851 0.0482612699270248413
-0.001387958531267941 0.00371581688523292542 0.046352725476026535
0.000569452298805117607 0.0193087942898273468 0.0509759038686752319
-0.00378705584444105625 0.00392026361078023911 0.0473747849464416504
-0.000546495022717863321 0.0143405217677354813 0.0496980473399162292
-0.0643145665526390076 0.0169881656765937805 0.0525361970067024231
-0.058218587189912796 0.0209108926355838776 0.0521097853779792786
-0.0551131144165992737 0.0242820940911769867 0.0515707246959209442
-0.0613932907581329346 0.017088254913687706 0.0527490787208080292
-0.063602060079574585 0.0198374707251787186 0.0519258789718151093
-0.0590179301798343658 0.016590142622590065 0.0530580282211303711
-0.0543122254312038422 0.0243406388908624649 0.0516217947006225586
-0.0504686422646045685 0.0156786665320396423 0.0539633855223655701
-0.0558591336011886597 0.0121180135756731033 0.0543619915843009949
-0.0593147203326225281 0.0132864145562052727 0.053808506578207016
-0.0587372183799743652 0.0117372721433639526 0.0542183965444564819
-0.0588045567274093628 0.0116720180958509445 0.0542282462120056152
-0.0548070110380649567 0.0224278848618268967 0.0520301684737205505
-0.0549109131097793579 0.0216718539595603943 0.0521990023553371429
-0.0540615767240524292 0.0184685289859771729 0.053018670529127121
-0.0509852580726146698 0.0153265763074159622 0.054004129022359848
-0.0181170571595430374 0.0184324495494365692 0.0545503385365009308
-0.0126244248822331429 0.00992349348962306976 0.052065972238779068
-0.0199807193130254745 0.00596825359389185905 0.0524853616952896118
-0.017164766788482666 0.00378007837571203709 0.0516235306859016418
-0.0146224731579422951 0.0124066760763525963 0.0528537556529045105
-0.0129179311916232109 0.0114774545654654503 0.0524069555103778839
-0.0142105761915445328 0.00985725224018096924 0.0523054003715515137
-0.0189383216202259064 0.00513266678899526596 0.0521614886820316315
-0.0191214252263307571 0.00785943120718002319 0.0527070946991443634
-0.024572545662522316 0.00987948384135961533 0.0539557002484798431
-0.0248824059963226318 0.00561677291989326477 0.0531974583864212036
-0.0231223441660404205 0.0139444507658481598 0.0544953308999538422
-0.0237626545131206512 0.00744425365701317787 0.0533657483756542206
-0.0275293104350566864 0.00837304349988698959 0.0541400499641895294
-0.0244430899620056152 0.00869877263903617859 0.053711477667093277
-0.024389956146478653 0.0133431451395153999 0.0545828007161617279
0.0165891759097576141 0.0107701569795608521 0.0390606001019477844
0.0128039699047803879 0.0168738178908824921 0.0447730869054794312
0.016995500773191452 0.0126880835741758347 0.0396469123661518097
0.0158574134111404419 0.0174751393496990204 0.0427405573427677155
0.0178541392087936401 0.0176131203770637512 0.0412924513220787048
0.0143771106377243996 0.0149811059236526489 0.0426991693675518036
0.0168162472546100616 0.0243857204914093018 0.045235808938741684
0.0151263214647769928 0.0110663892701268196 0.0403067432343959808
0.0202642343938350677 0.0292662829160690308 0.0448992997407913208
0.0173415672034025192 0.0116759166121482849 0.0389129370450973511
0.0205748919397592545 0.029423421248793602 0.0447372421622276306
0.0255829505622386932 0.0243976246565580368 0.0386009737849235535
0.0200913716107606888 0.0140502853319048882 0.0379369519650936127
0.0258954353630542755 0.0240276586264371872 0.0381918139755725861
0.0224010758101940155 0.0266039222478866577 0.0420396178960800171
0.0228628851473331451 0.0258104447275400162 0.041319921612739563
0.0244443193078041077 0.0236824844032526016 0.0391300581395626068
0.0223554186522960663 0.018283376470208168 0.038195386528968811
0.0279297269880771637 0.0239967145025730133 0.0366365052759647369
0.0253105703741312027 0.0199129767715930939 0.0367166735231876373
0.0257976539433002472 0.0222941283136606216 0.0374577566981315613
0.0221545286476612091 0.0175299756228923798 0.0379963405430316925
0.0225162208080291748 0.0161837711930274963 0.0370948091149330139
-0.041005011647939682 0.0159883610904216766 0.0545989871025085449
-0.0448611751198768616 0.00946790631860494614 0.0545989871025085449
-0.0452184565365314484 0.0124767627567052841 0.0545989871025085449
-0.0408791974186897278 0.00888103898614645004 0.0545989871025085449
-0.0442439168691635132 0.00985071901232004166 0.0545989871025085449
-0.0410858616232872009 0.0124384071677923203 0.0545989871025085449
-0.0441029295325279236 0.0097493976354598999 0.0545989871025085449
-0.0412603169679641724 0.0121523141860961914 0.0545989871025085449
-0.0346293486654758453 0.0135908760130405426 0.0545989871025085449
-0.0405878946185112 0.00670563662424683571 0.0545989871025085449
-0.0315014757215976715 0.0113808196038007736 0.0545989871025085449
-0.037415236234664917 0.0167300496250391006 0.0545989871025085449
-0.0311466101557016373 0.013189246878027916 0.0545989871025085449
-0.035911165177822113 0.00990900769829750061 0.0545989871025085449
-0.0325360186398029327 0.0120611805468797684 0.0545989871025085449
-0.0374355688691139221 0.0122792059555649757 0.0545989871025085449
-0.0719604045152664185 0.0393951311707496643 0.0388346612453460693
-0.0734780281782150269 0.0376850515604019165 0.0402001142501831055
-0.0745197460055351257 0.0366652794182300568 0.0410009026527404785
-0.0722199752926826477 0.0329335480928421021 0.0445335432887077332
-0.0738874226808547974 0.0376644358038902283 0.0401780381798744202
-0.0723672732710838318 0.0392767935991287231 0.0388994067907333374
-0.079076327383518219 0.0368060655891895294 0.0404271781444549561
-0.0764470547437667847 0.0394282713532447815 0.038363192230463028
-0.0733149796724319458 0.0415495447814464569 0.0367925353348255157
-0.0759552121162414551 0.0389762893319129944 0.0388120785355567932
-0.0789448171854019165 0.0344650596380233765 0.0425140894949436188
-0.00392925180494785309 0.0158714093267917633 0.0514933057129383087
-0.00122584309428930283 0.0212934166193008423 0.0518716014921665192
-0.00207160133868455887 0.0219628158956766129 0.0521379411220550537
-0.0010104253888130188 0.0192892961204051971 0.0515055879950523376
-0.0069525502622127533 0.0182996131479740143 0.0524511411786079407
-0.00832623429596424103 0.021042458713054657 0.053152959793806076
-0.00791630614548921585 0.0255657732486724854 0.0538121834397315979
-0.00534762442111968994 0.0214714333415031433 0.0526680685579776764
-0.00951811671257019043 0.0251944735646247864 0.0540500804781913757
-0.0123673314228653908 0.0144806923344731331 0.0528384149074554443
-0.013849516399204731 0.0216028150171041489 0.054272577166557312
-0.00937262922525405884 0.0258997082710266113 0.0541376695036888123
-0.0117659131065011024 0.0249538961797952652 0.0544295236468315125
-0.0131822461262345314 0.0157941430807113647 0.0532037504017353058
-0.0127137443050742149 0.0224026050418615341 0.0541911423206329346
-0.0630766898393630981 0.0256375931203365326 0.0496857166290283203
-0.0601805411279201508 0.0252382010221481323 0.0503840222954750061
-0.0596857108175754547 0.0258940830826759338 0.0501418597996234894
-0.0615992993116378784 0.0258365478366613388 0.0498409196734428406
-0.0616513267159461975 0.02829013392329216 0.04860716313123703
-0.0586177073419094086 0.03003707155585289 0.0482577309012413025
-0.0567458309233188629 0.030923791229724884 0.0481375753879547119
-0.0671788230538368225 0.0254748128354549408 0.0490602776408195496
-0.0683653727173805237 0.0318858586251735687 0.0456555634737014771
-0.0618220940232276917 0.033684317022562027 0.045885041356086731
-0.061502847820520401 0.033802378922700882 0.0458811074495315552
-0.0644762814044952393 0.0271067172288894653 0.0487112328410148621
-0.0630826428532600403 0.0275028254836797714 0.0487535931169986725
-0.029415033757686615 0.0189342498779296875 0.0545989871025085449
-0.0310918465256690979 0.0246031060814857483 0.0545989871025085449
-0.0314096175134181976 0.0217708516865968704 0.0545989871025085449
-0.0286390259861946106 0.02249879390001297 0.0545989871025085449
-0.0298962090164422989 0.0159205999225378036 0.0545989871025085449
-0.0284787081182003021 0.023413579910993576 0.0545989871025085449
-0.0291410069912672043 0.0106147211045026779 0.0545989871025085449
-0.0277093369513750076 0.0242283139377832413 0.0545989871025085449
-0.0278362128883600235 0.0111621590331196785 0.0545989871025085449
-0.0280839614570140839 0.0137022249400615692 0.0545989871025085449
-0.0252835582941770554 0.0243908911943435669 0.0545989871025085449
-0.0273995492607355118 0.0129653830081224442 0.0545989871025085449
-0.0241561774164438248 0.0197361186146736145 0.0545989871025085449
-0.0190976895391941071 0.0190505683422088623 0.0545989871025085449
0.00340573978610336781 0.0242350716143846512 0.0512234792113304138
0.00282297702506184578 0.0229406021535396576 0.0511274896562099457
0.0080340113490819931 0.0268881432712078094 0.0498793236911296844
0.00404334953054785728 0.0251577496528625488 0.0511921793222427368
0.00752158742398023605 0.0176532529294490814 0.047558855265378952
0.00489256903529167175 0.0219398103654384613 0.0499224066734313965
0.00975408777594566345 0.0163888875395059586 0.0462078750133514404
0.00970539357513189316 0.0332391113042831421 0.050883270800113678
0.00822999048978090286 0.0224145837128162384 0.048555910587310791
0.00718907918781042099 0.0177130177617073059 0.0477245673537254333
0.0129806473851203918 0.0213582143187522888 0.0461323931813240051
0.0123949693515896797 0.0231431443244218826 0.046888154000043869
0.0126710664480924606 0.0182922966778278351 0.0454245954751968384
0.0162284392863512039 0.032202553004026413 0.0476698949933052063
0.0137418676167726517 0.0243565812706947327 0.0466188713908195496
0.0143319405615329742 0.0259686820209026337 0.0467993021011352539
0.0165398977696895599 0.0326065495610237122 0.047641705721616745
0.011270567774772644 0.0228058993816375732 0.0472995750606060028
0.0125900302082300186 0.035158548504114151 0.0501189343631267548
0.0129714813083410263 0.0211643185466527939 0.046082962304353714
0.0123247094452381134 0.0295704714953899384 0.0486947260797023773
-0.0405872538685798645 0.025454934686422348 0.0530395247042179108
-0.0430799908936023712 0.0243363175541162491 0.0529653839766979218
-0.0456170365214347839 0.0213599633425474167 0.0532819107174873352
-0.0453906133770942688 0.0225756298750638962 0.0530510284006595612
-0.0432017333805561066 0.0170869752764701843 0.0544962994754314423
-0.0428503639996051788 0.0270146690309047699 0.0524229295551776886
-0.0423563383519649506 0.0209285188466310501 0.0537830106914043427
-0.0508180148899555206 0.020245775580406189 0.0528670549392700195
-0.0482817366719245911 0.0274048205465078354 0.0516583137214183807
-0.0486891418695449829 0.021454889327287674 0.0528762489557266235
-0.0516274422407150269 0.0255832970142364502 0.051627080887556076
-0.0470245741307735443 0.0202409122139215469 0.0533440038561820984
-0.0485099963843822479 0.027378542348742485 0.0516352839767932892
-0.0781353190541267395 0.0423959866166114807 0.0349933058023452759
-0.0727010816335678101 0.0471311397850513458 0.0290089212357997894
-0.0754128992557525635 0.0417231135070323944 0.0364068225026130676
-0.0720901265740394592 0.0463586784899234772 0.0302264764904975891
-0.0738371759653091431 0.0492174439132213593 0.0258033201098442078
-0.0776674821972846985 0.0452862977981567383 0.0308813583105802536
-0.078635193407535553 0.0477125011384487152 0.027210453525185585
-0.0753297805786132812 0.0478870347142219543 0.0274902358651161194
-0.0246707424521446228 0.0294810961931943893 0.0545989871025085449
-0.0220959056168794632 0.0251725092530250549 0.0545989871025085449
-0.0234099067747592926 0.0271098650991916656 0.0545989871025085449
-0.0196482948958873749 0.0286041777580976486 0.0545989871025085449
-0.0220582578331232071 0.0268068145960569382 0.0545989871025085449
-0.0205629188567399979 0.02510104700922966 0.0545989871025085449
-0.0144490115344524384 0.0237653795629739761 0.0545989871025085449
-0.018568260595202446 0.0244577638804912567 0.0545989871025085449
-0.0178544372320175171 0.0309712179005146027 0.0545989871025085449
-0.0163728129118680954 0.0295744985342025757 0.0545989871025085449
-0.0142593830823898315 0.0288919620215892792 0.0545989871025085449
-0.0148067642003297806 0.0319021455943584442 0.0545989871025085449
-0.0110438186675310135 0.0269858017563819885 0.0545989871025085449
-0.0182507224380970001 0.0330662764608860016 0.0545989871025085449
-0.0688857659697532654 0.0340139344334602356 0.0439803898334503174
-0.0632118880748748779 0.0446903891861438751 0.0366341695189476013
-0.0646402910351753235 0.0429172031581401825 0.0377129092812538147
-0.0636879727244377136 0.0443384312093257904 0.0367922894656658173
-0.0654519200325012207 0.0431610383093357086 0.0372714288532733917
-0.0623985826969146729 0.0425092168152332306 0.0387085713446140289
-0.0653510540723800659 0.0393021702766418457 0.0405523143708705902
-0.0626117512583732605 0.0409599058330059052 0.0399520657956600189
-0.0632297247648239136 0.0393035933375358582 0.0411679930984973907
-0.0624830089509487152 0.0359916538000106812 0.0441758409142494202
-0.0608926787972450256 0.0368405953049659729 0.0439229682087898254
-0.0596762672066688538 0.0386279188096523285 0.0427706651389598846
-0.0378519780933856964 0.0257038883864879608 0.0534032359719276428
-0.0370438173413276672 0.031598113477230072 0.0524151027202606201
-0.0373652651906013489 0.0342757143080234528 0.0518568344414234161
-0.0373042784631252289 0.0240143388509750366 0.0538102835416793823
-0.0388693846762180328 0.0330210216343402863 0.0518555603921413422
-0.0361640490591526031 0.0346632190048694611 0.0519742518663406372
-0.0306753441691398621 0.0258715003728866577 0.0545115582644939423
-0.0346348024904727936 0.0258670374751091003 0.0538834072649478912
-0.0318562574684619904 0.0321565456688404083 0.0531334131956100464
-0.0332803130149841309 0.0284595433622598648 0.0536074936389923096
-0.0325328707695007324 0.0282387007027864456 0.0537680648267269135
0.0042934897355735302 0.0322329290211200714 0.052181050181388855
0.00323471147567033768 0.0364438742399215698 0.0529503151774406433
0.0028818806167691946 0.0380295552313327789 0.0532303303480148315
0.0084967445582151413 0.0336228311061859131 0.0514755398035049438
0.00571678252890706062 0.034321073442697525 0.0521519333124160767
0.0066824532113969326 0.0329707227647304535 0.0517732985317707062
0.00097090710187330842 0.031355392187833786 0.0527674220502376556
0.0070466422475874424 0.0344880148768424988 0.051893334835767746
0.0081293964758515358 0.0354292504489421844 0.0517872385680675507
0.000993367284536361694 0.0266394596546888351 0.0521510504186153412
-0.00784264225512742996 0.0297756455838680267 0.0544198676943778992
-0.000652013637591153383 0.0321188420057296753 0.0532084479928016663
-0.00134228810202330351 0.0230514053255319595 0.0521778985857963562
-0.00373105471953749657 0.0257313139736652374 0.0530288740992546082
-0.00200177659280598164 0.0363965630531311035 0.0540477000176906586
-0.00621302053332328796 0.0299452953040599823 0.0540984533727169037
-0.00164272123947739601 0.0397398732602596283 0.05440564826130867
-0.00687514897435903549 0.0273767635226249695 0.0539048574864864349
-0.0517593882977962494 0.0332953557372093201 0.0483164936304092407
-0.0483747348189353943 0.0333487242460250854 0.049196440726518631
-0.051988355815410614 0.0296939760446548462 0.0498909503221511841
-0.049599040299654007 0.0357941202819347382 0.0477587580680847168
-0.0497453883290290833 0.0288690794259309769 0.0508647821843624115
-0.0500431731343269348 0.0379279665648937225 0.0466709956526756287
-0.0552796013653278351 0.0365322418510913849 0.0459060072898864746
-0.0558248981833457947 0.032169688493013382 0.0477416589856147766
-0.0542221702635288239 0.031617775559425354 0.0484204776585102081
-0.0546047091484069824 0.0326414033770561218 0.0478533841669559479
-0.0530573725700378418 0.0363081060349941254 0.0466014556586742401
-0.076781347393989563 0.0547016412019729614 0.00540561554953455925
-0.0755456238985061646 0.0550515502691268921 0.00365582830272614956
-0.0784952789545059204 0.0547910407185554504 0.00309927482157945633
-0.0788916945457458496 0.0509802475571632385 0.019872516393661499
-0.0785270631313323975 0.0534432865679264069 0.013484954833984375
-0.0778044611215591431 0.0507595017552375793 0.0207734443247318268
-0.0760928094387054443 0.0529713928699493408 0.0154431527480483055
-0.0784797146916389465 0.0539185293018817902 0.0102993538603186607
-0.0777013599872589111 0.0543112531304359436 0.00777797074988484383
-0.0771644264459609985 0.0544398389756679535 0.00721083860844373703
-0.0759101957082748413 0.0516760163009166718 0.0189123433083295822
-0.0729265958070755005 0.0497701019048690796 0.0248128548264503479
-0.0761044323444366455 0.0506747551262378693 0.0214954912662506104
-0.0741178840398788452 0.0528050884604454041 0.0164608694612979889
-0.0310922730714082718 0.0419644154608249664 0.0516715683043003082
-0.0317261293530464172 0.0406210795044898987 0.0517719835042953491
-0.0300196148455142975 0.0356633551418781281 0.0528959557414054871
-0.0324920713901519775 0.0353082045912742615 0.0524933077394962311
-0.0313984081149101257 0.0398690998554229736 0.0519552901387214661
-0.0288276150822639465 0.0372365266084671021 0.0528620965778827667
-0.0270445030182600021 0.0320109650492668152 0.0540438853204250336
-0.0239351969212293625 0.0394215099513530731 0.0534178093075752258
-0.0279602017253637314 0.0335142090916633606 0.0536289215087890625
-0.0288492180407047272 0.0366657599806785583 0.0529508888721466064
-0.0272525604814291 0.0324809327721595764 0.0539287179708480835
-0.0258009526878595352 0.0317828468978404999 0.0543125420808792114
-0.0685128942131996155 0.0505802072584629059 0.0261007137596607208
-0.0705039948225021362 0.045255415141582489 0.0324910730123519897
-0.0693439468741416931 0.0487323440611362457 0.0282517485320568085
-0.0706523880362510681 0.0492162592709064484 0.0269627291709184647
-0.0633597820997238159 0.0452316924929618835 0.035921141505241394
-0.0671740397810935974 0.0445371270179748535 0.0350643619894981384
-0.0692165642976760864 0.0444017909467220306 0.0342795439064502716
-0.066135995090007782 0.0474527664482593536 0.0315404422581195831
-0.0633031576871871948 0.0449160188436508179 0.0363830514252185822
-0.0461437217891216278 0.0346081182360649109 0.0492399744689464569
-0.0492564328014850616 0.0405809246003627777 0.045777883380651474
-0.0461217164993286133 0.0356577858328819275 0.0488240309059619904
-0.0462433658540248871 0.0350951403379440308 0.0490098260343074799
-0.0437952615320682526 0.0339526273310184479 0.0502987764775753021
-0.0429897196590900421 0.041775774210691452 0.0474157631397247314
-0.042775910347700119 0.0425117388367652893 0.0471912361681461334
-0.0402999483048915863 0.0406656749546527863 0.0487733930349349976
-0.0405117608606815338 0.0371671877801418304 0.0501128733158111572
-0.0101523231714963913 0.0449113883078098297 0.0545989871025085449
-0.00176511239260435104 0.0411606356501579285 0.0545989871025085449
-0.0063624279573559761 0.0419473797082901001 0.0545989871025085449
-0.00904946215450763702 0.0370785146951675415 0.0545989871025085449
-0.00646772049367427826 0.043188873678445816 0.0545989871025085449
-0.0125830164179205894 0.0464337058365345001 0.0545989871025085449
-0.010209803469479084 0.0359493792057037354 0.0545989871025085449
-0.00718455715104937553 0.0387300886213779449 0.0545989871025085449
-0.0134474541991949081 0.0413179472088813782 0.0545989871025085449
-0.0158531386405229568 0.0426116622984409332 0.0545989871025085449
-0.0120997270569205284 0.0331244245171546936 0.0545989871025085449
-0.0151813533157110214 0.0438886620104312897 0.0545989871025085449
-0.0130733605474233627 0.0447761304676532745 0.0545989871025085449
-0.0136512722820043564 0.039804261177778244 0.0545989871025085449
-0.0144370626658201218 0.0365256480872631073 0.0545989871025085449
-0.0582462809979915619 0.045304030179977417 0.0382851734757423401
-0.0587690025568008423 0.0447099916636943817 0.038504868745803833
-0.057611364871263504 0.041898287832736969 0.0411824062466621399
-0.059750482439994812 0.040935855358839035 0.0409556329250335693
-0.051728077232837677 0.0402562469244003296 0.0450942106544971466
-0.0511872917413711548 0.0411532856523990631 0.0446503758430480957
-0.0573037043213844299 0.0387848019599914551 0.0437080226838588715
-0.0554012060165405273 0.04296155646443367 0.0413639135658740997
-0.0357511416077613831 0.0409469082951545715 0.050454065203666687
-0.0363743789494037628 0.0401327721774578094 0.0504888519644737244
-0.0375238098204135895 0.0489108934998512268 0.0469935312867164612
-0.0357343070209026337 0.0436387956142425537 0.0495286323130130768
-0.0328437536954879761 0.043862510472536087 0.0505972988903522491
-0.039291970431804657 0.0450733006000518799 0.047621261328458786
-0.0407544821500778198 0.0429812222719192505 0.047765776515007019
-0.0402665399014949799 0.0484009161591529846 0.0460825972259044647
-0.0408655367791652679 0.0454289242625236511 0.0468741841614246368
-0.0710322856903076172 0.0566623732447624207 0.000506251584738492966
-0.0688612759113311768 0.0567366220057010651 0.00579356122761964798
-0.0710846185684204102 0.0565550662577152252 0.00120531953871250153
-0.0683352351188659668 0.0563143454492092133 0.0105234058573842049
-0.0734553113579750061 0.0553433224558830261 0.0042883455753326416
-0.0692515075206756592 0.055703241378068924 0.012833302840590477
-0.0737177357077598572 0.0542063973844051361 0.0124846631661057472
-0.0693864449858665466 0.0546694695949554443 0.0155328074470162392
-0.0728246122598648071 0.0532565675675868988 0.0161004643887281418
-0.0720631629228591919 0.0517745576798915863 0.0204762257635593414
-0.0695056319236755371 0.0524058453738689423 0.0211065858602523804
-0.0674587786197662354 0.0545146279036998749 0.0175895430147647858
-0.0689646229147911072 0.0532633252441883087 0.0194243546575307846
-0.0701135396957397461 0.0514748543500900269 0.0229152664542198181
-0.0507086366415023804 0.0454708226025104523 0.0419728346168994904
-0.0498433634638786316 0.0491567105054855347 0.0399573370814323425
-0.050581078976392746 0.0486283674836158752 0.0398958288133144379
-0.0465293265879154205 0.0447412431240081787 0.0448559224605560303
-0.0525941625237464905 0.0504263192415237427 0.0375222302973270416
-0.0548085607588291168 0.0487375818192958832 0.0374076180160045624
-0.0539951920509338379 0.0459429249167442322 0.0397748053073883057
-0.0545386411249637604 0.0460762567818164825 0.0393737219274044037
-0.0183168668299913406 0.0471386611461639404 0.0535869412124156952
-0.0175254624336957932 0.0494936294853687286 0.0534482896327972412
-0.0188642200082540512 0.0394728817045688629 0.0544658228754997253
-0.0186583641916513443 0.0444443263113498688 0.0538644231855869293
-0.0182160697877407074 0.0433106124401092529 0.0541046708822250366
-0.0163773763924837112 0.0437160767614841461 0.0544395595788955688
-0.0180933810770511627 0.0428801290690898895 0.0541863590478897095
-0.0270964391529560089 0.0493376478552818298 0.0514515675604343414
-0.0246113426983356476 0.0470007210969924927 0.0522783584892749786
-0.0296756178140640259 0.0444266684353351593 0.0515449792146682739
-0.0227444414049386978 0.040988437831401825 0.0534515567123889923
-0.029528200626373291 0.0452656485140323639 0.0514672324061393738
-0.0235274191945791245 0.046650029718875885 0.0525522641837596893
-0.0614936389029026031 0.0477053560316562653 0.0340321548283100128
-0.0609626919031143188 0.052788611501455307 0.0280509963631629944
-0.0577800944447517395 0.0497677028179168701 0.0341850817203521729
-0.0599745623767375946 0.0488326437771320343 0.0337391011416912079
-0.0629544183611869812 0.0484658591449260712 0.0320015475153923035
-0.0635583177208900452 0.0520420074462890625 0.0270729400217533112
-0.0623051971197128296 0.0472971834242343903 0.0339454114437103271
-0.0654951408505439758 0.0515662543475627899 0.0262411348521709442
-0.00403653224930167198 0.0676476806402206421 0.0545989871025085449
-0.00514230271801352501 0.0686454400420188904 0.0545989871025085449
-0.00282904645428061485 0.076382860541343689 0.0545989871025085449
0.00363211147487163544 0.0793861150741577148 0.0545989871025085449
-0.00232054549269378185 0.0710817426443099976 0.0545989871025085449
-0.0041037779301404953 0.0798991695046424866 0.0545989871025085449
-0.00518692145124077797 0.0681794360280036926 0.0545989871025085449
-0.000911846640519797802 0.0774320513010025024 0.0545989871025085449
-0.00565960537642240524 0.0697430148720741272 0.0545989871025085449
0.0014310106635093689 0.0662760883569717407 0.0545989871025085449
0.00426483899354934692 0.0697377920150756836 0.0545989871025085449
0.00256938557140529156 0.0648629218339920044 0.0545989871025085449
0.00667775282636284828 0.0761174857616424561 0.0545989871025085449
0.006262180395424366 0.0660370215773582458 0.0545989871025085449
0.000829934142529964447 0.0703587979078292847 0.0545989871025085449
-0.00228023482486605644 0.0662834569811820984 0.0545989871025085449
-0.00601049093529582024 0.064374387264251709 0.0545989871025085449
0.00567033328115940094 0.0652040392160415649 0.0545989871025085449
0.00680045690387487411 0.073292270302772522 0.0545989871025085449
-0.00481989188119769096 0.0639319866895675659 0.0545989871025085449
0.0016971915028989315 0.0608396902680397034 0.0545989871025085449
-0.00234986213035881519 0.0478269718587398529 0.0545989871025085449
-0.00160410651005804539 0.0528166703879833221 0.0545989871025085449
-0.000431127380579710007 0.0560517050325870514 0.0545989871025085449
-0.00283764279447495937 0.0570396967232227325 0.0545989871025085449
-0.00213807448744773865 0.0573171265423297882 0.0545989871025085449
0.00251162564381957054 0.059491284191608429 0.0545989871025085449
0.00272566359490156174 0.0535257011651992798 0.0545989871025085449
-0.00524721760302782059 0.062920205295085907 0.0545989871025085449
-8.07715114206075668e-05 0.0481931194663047791 0.0545989871025085449
-0.00770168239250779152 0.0521752424538135529 0.0545989871025085449
-0.00969934836030006409 0.0534004382789134979 0.0545989871025085449
-0.00841877423226833344 0.0524254664778709412 0.0545989871025085449
-0.00525889778509736061 0.0512463748455047607 0.0545989871025085449
-0.00273281941190361977 0.0471876040101051331 0.0545989871025085449
-0.00840575993061065674 0.0550081171095371246 0.0545989871025085449
-0.010152546688914299 0.0547854676842689514 0.0545989871025085449
-0.00679253740236163139 0.049328535795211792 0.0545989871025085449
-0.00506102247163653374 0.0557488054037094116 0.0545989871025085449
-0.0448023341596126556 0.0528525784611701965 0.0410079210996627808
-0.0438658259809017181 0.0519467964768409729 0.042164146900177002
-0.0410964600741863251 0.0517217740416526794 0.0441492162644863129
-0.0461241677403450012 0.0524679720401763916 0.0403480120003223419
-0.0474586263298988342 0.0547002330422401428 0.0381501168012619019
-0.0468241423368453979 0.0537688247859477997 0.039119180291891098
-0.04869852215051651 0.0560036487877368927 0.0365584157407283783
-0.0555649362504482269 0.0553742200136184692 0.0299066435545682907
-0.0539456307888031006 0.0540560260415077209 0.0328863449394702911
-0.0540953241288661957 0.0533448420464992523 0.0335384085774421692
-0.0572888590395450592 0.0519289970397949219 0.0321328714489936829
-0.0587795563042163849 0.0531022101640701294 0.0294346865266561508
-0.0360785834491252899 0.0548867136240005493 0.0459174886345863342
-0.0343968495726585388 0.0565997101366519928 0.0461990572512149811
-0.0375354625284671783 0.0524727441370487213 0.0459304042160511017
-0.0336410924792289734 0.0516188964247703552 0.0479137450456619263
-0.0288369953632354736 0.0471447892487049103 0.0513051226735115051
-0.031940113753080368 0.0541218705475330353 0.0479857809841632843
-0.0329463295638561249 0.0552943646907806396 0.0472104512155056
-0.0288206562399864197 0.0501443371176719666 0.0504840649664402008
-0.0297765489667654037 0.0454683452844619751 0.0513465031981468201
-0.0307472459971904755 0.0540495887398719788 0.0485410280525684357
-0.06513214111328125 0.0594375953078269958 0.00178168434649705887
-0.0653774961829185486 0.0590389035642147064 0.00340883387252688408
-0.0642348900437355042 0.060038391500711441 0.00147914770059287548
-0.0642219260334968567 0.0583909861743450165 0.0124571835622191429
-0.0675433054566383362 0.0571457594633102417 0.00740841357037425041
-0.0656715929508209229 0.0575583875179290771 0.0123138697817921638
-0.066186562180519104 0.0547359474003314972 0.0186395719647407532
-0.064362160861492157 0.0577031709253787994 0.0143177611753344536
-0.0647818669676780701 0.0568756274878978729 0.0156426988542079926
-0.0619830973446369171 0.0560905300080776215 0.0211903583258390427
-0.0640979111194610596 0.0532042942941188812 0.0249375849962234497
-0.0640517324209213257 0.0537849664688110352 0.0236746296286582947
-0.00938725657761096954 0.0733351334929466248 0.0537465624511241913
-0.00970781128853559494 0.0657493174076080322 0.0539130568504333496
-0.0135975480079650879 0.0693076774477958679 0.05284157395362854
-0.0161063503473997116 0.0687084048986434937 0.0522440895438194275
-0.0162315908819437027 0.0660267174243927002 0.0523000136017799377
-0.0104357190430164337 0.0704634189605712891 0.053581632673740387
-0.00679819332435727119 0.0720567628741264343 0.0544245019555091858
-0.0103980237618088722 0.0657707005739212036 0.0537426508963108063
-0.00787624623626470566 0.0678951889276504517 0.0542940087616443634
-0.0186394918709993362 0.0703766047954559326 0.0515672937035560608
-0.0178030263632535934 0.0802498906850814819 0.0514536835253238678
-0.0147063573822379112 0.0714319720864295959 0.0525002442300319672
-0.00806703697890043259 0.0799443498253822327 0.0538574531674385071
-0.0132943792268633842 0.0784108862280845642 0.052621740847826004
-0.0110464422032237053 0.076541408896446228 0.0532349161803722382
-0.0130889201536774635 0.0758588165044784546 0.0527547858655452728
-0.0078785354271531105 0.0794496163725852966 0.0539197996258735657
-0.0193220265209674835 0.0588248856365680695 0.052190583199262619
-0.013405640609562397 0.0485856831073760986 0.0544439405202865601
-0.0199533235281705856 0.0635811164975166321 0.0516366176307201385
-0.0212006773799657822 0.0578703992068767548 0.0518349781632423401
-0.0196083169430494308 0.0597267001867294312 0.0520467683672904968
-0.0156700331717729568 0.0525413267314434052 0.0535783618688583374
-0.0232691410928964615 0.0568322986364364624 0.0514423474669456482
-0.0181916877627372742 0.0581807568669319153 0.0525088086724281311
-0.0128846308216452599 0.0513922758400440216 0.0543250367045402527
-0.0119981113821268082 0.0507824383676052094 0.054583575576543808
-0.0123703610152006149 0.0645163357257843018 0.0533216372132301331
-0.0135825779289007187 0.0576262213289737701 0.0536291040480136871
-0.0108604701235890388 0.0620969682931900024 0.0538801252841949463
-0.012462591752409935 0.0556588917970657349 0.0540581531822681427
-0.0149580705910921097 0.0558795556426048279 0.0534584075212478638
-0.0137821510434150696 0.0511218458414077759 0.0541392676532268524
-0.0137060536071658134 0.0578176826238632202 0.053583979606628418
-0.0516357235610485077 0.0570490621030330658 0.032399449497461319
-0.0511986427009105682 0.0537969283759593964 0.0359862856566905975
-0.0478018186986446381 0.057520005851984024 0.0361455678939819336
-0.055271640419960022 0.0595217831432819366 0.026056414470076561
-0.0550440438091754913 0.0567717850208282471 0.0289340242743492126
-0.053887341171503067 0.0603289008140563965 0.0268000904470682144
-0.0596090815961360931 0.0644626617431640625 0.00052848918130621314
-0.0606383979320526123 0.0635395124554634094 7.06873834133148193e-05
-0.0619737394154071808 0.0610713846981525421 0.00625716056674718857
-0.0624486170709133148 0.0602363124489784241 0.00911633763462305069
-0.0627991706132888794 0.0596493668854236603 0.0110497772693634033
-0.0630915388464927673 0.0603946931660175323 0.00451261736452579498
-0.0587825439870357513 0.0577288791537284851 0.0232315212488174438
-0.0581311360001564026 0.0588962845504283905 0.0219728685915470123
-0.0598008111119270325 0.05997462198138237 0.0169501453638076782
-0.0621853210031986237 0.0568762160837650299 0.0191765390336513519
-0.0610062405467033386 0.0580856688320636749 0.0187294371426105499
-0.0605969540774822235 0.0596954338252544403 0.0161629058420658112
-0.042127758264541626 0.0552946627140045166 0.0415948443114757538
-0.0443368852138519287 0.0597788318991661072 0.037831135094165802
-0.0425684303045272827 0.0547719672322273254 0.0415047258138656616
-0.0358102768659591675 0.0576950162649154663 0.0452610775828361511
-0.0397276841104030609 0.0608254857361316681 0.0408344753086566925
-0.0377368144690990448 0.0556715652346611023 0.0447450876235961914
-0.0355474948883056641 0.0586621984839439392 0.0450092442333698273
-0.0390458293259143829 0.0577376000583171844 0.042790435254573822
-0.0221763662993907928 0.074205249547958374 0.0496115498244762421
-0.0205697659403085709 0.0720405355095863342 0.0506017804145812988
-0.0221845488995313644 0.0738236010074615479 0.0496335513889789581
-0.0184823907911777496 0.0763766020536422729 0.0513960830867290497
-0.019255882129073143 0.0731427222490310669 0.0512137897312641144
-0.0264761559665203094 0.071576826274394989 0.0475413091480731964
-0.0234632361680269241 0.0677560418844223022 0.0493818745017051697
-0.0261236894875764847 0.0698215663433074951 0.0478467196226119995
-0.0248844623565673828 0.0614605024456977844 0.0498169511556625366
-0.0248909350484609604 0.0568323619663715363 0.0506570935249328613
-0.0259565245360136032 0.0579432621598243713 0.0499265156686306
-0.0248641278594732285 0.0595110952854156494 0.0501822531223297119
-0.0238288603723049164 0.0566753968596458435 0.0512121021747589111
-0.0220326893031597137 0.0631955936551094055 0.0509142354130744934
-0.0244475249201059341 0.0618363134562969208 0.0499650314450263977
-0.0284049846231937408 0.0781986042857170105 0.0460754670202732086
-0.0271767564117908478 0.0795834586024284363 0.0466231703758239746
-0.0275517348200082779 0.0762952789664268494 0.04665326327085495
-0.0280719008296728134 0.0771832689642906189 0.0463197752833366394
-0.0290243830531835556 0.077410183846950531 0.0458054617047309875
-0.023449605330824852 0.0768909305334091187 0.0487599931657314301
-0.0310648828744888306 0.0576677098870277405 0.0474448129534721375
-0.0276301167905330658 0.0595111772418022156 0.048811301589012146
-0.0288081802427768707 0.0576198473572731018 0.048572048544883728
-0.0261112749576568604 0.0571638680994510651 0.0499918349087238312
-0.031306050717830658 0.0680577307939529419 0.0454319864511489868
-0.0307799149304628372 0.0604714155197143555 0.0470751561224460602
-0.0573571324348449707 0.0663057565689086914 0.00677453028038144112
-0.0576595067977905273 0.0665640980005264282 0.00372080644592642784
-0.0589717961847782135 0.065293431282043457 0.000526966527104377747
-0.0561505928635597229 0.0630100369453430176 0.0186444856226444244
-0.0568892285227775574 0.0584126710891723633 0.0251708012074232101
-0.0553562790155410767 0.0627271980047225952 0.0207188520580530167
-0.0588184408843517303 0.0645035803318023682 0.0052463822066783905
-0.0596416480839252472 0.0629540532827377319 0.00868468545377254486
-0.0601230710744857788 0.0618540793657302856 0.0117934029549360275
-0.0575322657823562622 0.0640352815389633179 0.0141085805371403694
-0.0599993243813514709 0.0613558702170848846 0.0138552319258451462
-0.0589099712669849396 0.06170634925365448 0.0154155772179365158
-0.0527911409735679626 0.0628269463777542114 0.0258990712463855743
-0.050848938524723053 0.063457295298576355 0.0278242789208889008
-0.0488641038537025452 0.0596725381910800934 0.0331680700182914734
-0.0478157401084899902 0.0600566491484642029 0.0341738201677799225
-0.0474606789648532867 0.0605574622750282288 0.0342318415641784668
-0.0493402741849422455 0.0637331828474998474 0.0294826924800872803
-0.0469667427241802216 0.061499573290348053 0.0341254621744155884
-0.0364912077784538269 0.0742446929216384888 0.0399468392133712769
-0.0369956344366073608 0.0732136741280555725 0.0396208800375461578
-0.0397136807441711426 0.0722498223185539246 0.0373307690024375916
-0.0354876630008220673 0.074553169310092926 0.0407978929579257965
-0.0313650667667388916 0.0790042728185653687 0.0439239740371704102
-0.0343552865087985992 0.0751542448997497559 0.0417287945747375488
-0.0361194461584091187 0.0702733844518661499 0.0408389121294021606
-0.0365659147500991821 0.0675134509801864624 0.0413143076002597809
-0.0397045277059078217 0.0716615244746208191 0.0374125279486179352
-0.0362325012683868408 0.0703432410955429077 0.0407228395342826843
-0.0366983041167259216 0.069042600691318512 0.0407331958413124084
-0.0341073274612426758 0.0646115317940711975 0.044263843446969986
-0.0354996174573898315 0.0782201141119003296 0.0403611026704311371
-0.0334369726479053497 0.080010339617729187 0.0419759377837181091
-0.0400284752249717712 0.0769866853952407837 0.0365019775927066803
-0.0371918193995952606 0.0773445218801498413 0.0389673523604869843
-0.0352998264133930206 0.0768145173788070679 0.0407010503113269806
-0.0391984768211841583 0.0670794323086738586 0.0392453111708164215
-0.0392119474709033966 0.0638484209775924683 0.0402278676629066467
-0.0391090698540210724 0.0619200021028518677 0.0409070923924446106
