ply
format ascii 1.0
element vertex 711
property float x
property float y
property float z
end_header
0.00103908684104681015 0.0963944271206855774 -0.0313777178525924683
-0.00621819496154785156 0.0964669585227966309 -0.0325266383588314056
0.0110680116340517998 0.0962942019104957581 -0.0150593724101781845
-0.00289084296673536301 0.0964337140321731567 -0.0363100990653038025
-0.00303597399033606052 0.09643515944480896 -0.0410491414368152618
0.00265974621288478374 0.096378229558467865 -0.0295106824487447739
-0.00246908236294984818 0.0964294970035552979 -0.0363843329250812531
0.0256801433861255646 0.0961481556296348572 0.0145108141005039215
0.00220962380990386009 0.0963827371597290039 -0.0314608663320541382
0.00806104391813278198 0.0963242575526237488 -0.0190393738448619843
-0.00560271553695201874 0.0964608117938041687 -0.0326085016131401062
0.0275350753217935562 0.0961296185851097107 0.018862185999751091
-0.00527955777943134308 0.0964575782418251038 -0.0355962105095386505
0.0275387726724147797 0.0961295813322067261 0.0186125487089157104
0.0184885803610086441 0.0962200313806533813 0.00011609075590968132
0.00707685388624668121 0.0963340848684310913 -0.0167213659733533859
-0.0049287993460893631 0.0964540764689445496 -0.0375750772655010223
0.0119353765621781349 0.0962855294346809387 -0.0133516192436218262
-0.004521932452917099 0.0964500084519386292 -0.0386266112327575684
0.00752795999869704247 0.0963295772671699524 -0.0185027066618204117
0.000912411138415336609 0.0963956937193870544 -0.020995674654841423
0.00859740283340215683 0.0963188931345939636 -0.0178372953087091446
0.0170331168919801712 0.0962345823645591736 -0.000799874775111675262
-0.00380246713757514954 0.0964428186416625977 -0.0359339639544487
0.0165422149002552032 0.0962394848465919495 -0.00467543350532650948
0.029205668717622757 0.0961129292845726013 0.0200155396014451981
0.0168974380940198898 0.0962359383702278137 -0.00217312388122081757
0.00485554151237010956 0.0963562875986099243 -0.0236015543341636658
0.0119405845180153847 0.0962854772806167603 -0.0086239231750369072
0.0149672068655490875 0.0962552279233932495 0.000582762062549591064
-0.00333029031753540039 0.0964381024241447449 -0.0348161160945892334
0.0172376558184623718 0.0962325409054756165 0.00113606173545122147
-0.0100743081420660019 0.0965055078268051147 -0.0406696125864982605
0.0038226032629609108 0.0963666141033172607 -0.0260453559458255768
-0.000646472908556461334 0.0964112803339958191 -0.034382697194814682
-0.00696423463523387909 0.0964744165539741516 -0.0409011021256446838
-0.0053804740309715271 0.0964585915207862854 -0.0302034448832273483
-0.00464059226214885712 0.096451200544834137 -0.0395576953887939453
0.00279518309980630875 0.0963768810033798218 -0.0242225881665945053
0.0114757800474762917 0.0962901264429092407 -0.00774617120623588562
0.00542554492130875587 0.0963505879044532776 -0.0248975828289985657
0.00334673188626766205 0.0963713675737380981 -0.0179443545639514923
0.0133500881493091583 0.0962713882327079773 -0.00513103604316711426
0.00827101431787014008 0.0963221490383148193 -0.0111758187413215637
0.0126092098653316498 0.0962787941098213196 -0.0103331729769706726
0.011042008176445961 0.0962944552302360535 -0.00468340888619422913
0.014731735922396183 0.0962575823068618774 -0.00581979565322399139
-0.00199478305876255035 0.0964247509837150574 -0.033860228955745697
-0.00658438727259635925 0.0964706242084503174 -0.0425137504935264587
-0.00554252415895462036 0.0964602082967758179 -0.032262854278087616
0.00826160330325365067 0.0963222458958625793 -0.019716944545507431
0.0110715273767709732 0.0962941646575927734 -0.00687375664710998535
0.0167935192584991455 0.0962369814515113831 0.00717683043330907822
-0.0159548856317996979 0.0965642780065536499 -0.0381786748766899109
0.0114743858575820923 0.0962901413440704346 -0.000649678520858287811
0.0117033785209059715 0.096287854015827179 0.00137461721897125244
-0.0191838741302490234 0.096596546471118927 -0.0397719964385032654
-0.00342237204313278198 0.0964390188455581665 -0.015934281051158905
-0.00530495960265398026 0.0964578390121459961 -0.0254663266241550446
-0.00473193172365427017 0.0964521095156669617 -0.0262954197824001312
-0.0147678311914205551 0.0965524092316627502 -0.0292500369250774384
0.0138542577624320984 0.0962663516402244568 0.00492981448769569397
-0.00747084338217973709 0.0964794829487800598 -0.0297578442841768265
0.00228825770318508148 0.09638194739818573 -0.00871404260396957397
-0.00585813494399189949 0.0964633598923683167 -0.0281739681959152222
-0.0175679475069046021 0.0965803936123847961 -0.0372135043144226074
-0.0232448838651180267 0.0966371297836303711 -0.0360116437077522278
0.00124330422841012478 0.0963923931121826172 -0.0179990995675325394
0.00380628835409879684 0.0963667780160903931 -0.0140821691602468491
-0.0163136422634124756 0.0965678617358207703 -0.0403601452708244324
-0.0109921172261238098 0.096514679491519928 -0.0357535779476165771
0.00547998212277889252 0.0963500440120697021 -0.00750483013689517975
0.00632234662771224976 0.0963416323065757751 -0.00991968438029289246
0.0162693820893764496 0.0962422192096710205 0.0066164117306470871
-0.0108264610171318054 0.096513018012046814 -0.0327683612704277039
0.00297422334551811218 0.0963750854134559631 -0.00728093832731246948
-0.0208501368761062622 0.0966132059693336487 -0.0375795885920524597
0.000838045030832290649 0.0963964387774467468 -0.0173982791602611542
0.00231083668768405914 0.0963817238807678223 -0.0117839835584163666
-0.00179203040897846222 0.096422731876373291 -0.0139518268406391144
-0.00606851093471050262 0.0964654684066772461 -0.0190350934863090515
-0.0161933749914169312 0.0965666621923446655 -0.0285914987325668335
-0.0207332521677017212 0.0966120362281799316 -0.0364481210708618164
-0.0115314088761806488 0.0965200662612915039 -0.0329569801688194275
0.00581071153283119202 0.0963467434048652649 -0.00629420951008796692
-0.00946605950593948364 0.0964994281530380249 -0.0326525792479515076
-0.00751375453546643257 0.0964799076318740845 -0.0301452092826366425
0.00698067061603069305 0.0963350534439086914 -0.00305835716426372528
-0.0140345487743616104 0.0965450778603553772 -0.0346441194415092468
-0.0104067251086235046 0.0965088307857513428 -0.0354384332895278931
0.0239543542265892029 0.0961654037237167358 0.0172077305614948273
0.0172559656202793121 0.0962323546409606934 0.00476472405716776848
0.0194280631840229034 0.0962106510996818542 0.0105620408430695534
0.00432036444544792175 0.0963616371154785156 -0.0140839079394936562
-0.0131645677611231804 0.0965363830327987671 -0.0369142889976501465
0.000937044620513916016 0.096395447850227356 -0.00871057435870170593
-0.0161834433674812317 0.0965665653347969055 -0.0316542573273181915
0.0132241109386086464 0.0962726473808288574 0.00233046524226665497
0.0161705035716295242 0.0962432026863098145 0.00605057273060083389
-0.00607739761471748352 0.0964655578136444092 -0.0284206531941890717
-0.0153958108276128769 0.096558690071105957 -0.0388855524361133575
0.026378285139799118 0.0961411893367767334 0.0181960035115480423
-0.0198358669877052307 0.0966030657291412354 -0.0347710512578487396
0.00509842205792665482 0.0963538587093353271 -0.00987770315259695053
0.017464812844991684 0.0962302684783935547 0.00775151606649160385
0.0188156422227621078 0.0962167680263519287 0.00830159522593021393
0.00389017164707183838 0.0963659361004829407 -0.0146957887336611748
-0.00288086477667093277 0.0964336097240447998 -0.022257242351770401
-0.00770966336131095886 0.0964818671345710754 -0.0181266479194164276
-0.0134513266384601593 0.0965392589569091797 -0.0309922061860561371
0.0125657990574836731 0.0962792262434959412 0.00361885316669940948
-0.0145301409065723419 0.0965500324964523315 -0.0295018814504146576
-0.0163739994168281555 0.0965684577822685242 -0.0282182898372411728
-0.0170577000826597214 0.0965752974152565002 -0.0318757444620132446
0.00486813299357891083 0.0963561609387397766 -0.00844004936516284943
-0.00929479673504829407 0.0964977070689201355 -0.0244868993759155273
-0.00217041652649641037 0.0964265093207359314 -0.0224583894014358521
-0.00658723898231983185 0.0964706465601921082 -0.0216510239988565445
-0.0219720788300037384 0.0966244116425514221 -0.0208986680954694748
-0.0270932801067829132 0.0966755971312522888 -0.0253497660160064697
0.0118900863453745842 0.0962859839200973511 0.00574219832196831703
-0.012915266677737236 0.0965338945388793945 -0.0149277150630950928
-0.0224576927721500397 0.0966292619705200195 -0.0225530192255973816
-0.00869583245366811752 0.0964917242527008057 -0.0162296481430530548
-0.0198679044842720032 0.0966033861041069031 -0.0215882714837789536
-0.0183331891894340515 0.0965880453586578369 -0.0173848941922187805
0.0101641621440649033 0.0963032320141792297 0.00564342457801103592
-0.0177774708718061447 0.0965824946761131287 -0.0228141266852617264
-0.0261839590966701508 0.0966665074229240417 -0.0352781601250171661
0.0306386537849903107 0.0960986018180847168 0.0260429177433252335
-0.00944507494568824768 0.0964992120862007141 -0.01197793148458004
-0.0263452827930450439 0.0966681167483329773 -0.02780955471098423
-0.0295777525752782822 0.0967004299163818359 -0.032071869820356369
0.000209677964448928833 0.0964027196168899536 -0.00426685065031051636
-0.00681963656097650528 0.0964729711413383484 -0.0134841874241828918
0.00698227807879447937 0.0963350310921669006 0.00220550596714019775
-0.0148267392069101334 0.0965529978275299072 -0.0196198709309101105
0.0188194140791893005 0.0962167307734489441 0.0154183199629187584
-0.00321156647987663746 0.096436917781829834 -0.0122812632471323013
-0.000282972119748592377 0.0964076444506645203 -0.00822425726801156998
0.00603157654404640198 0.0963445380330085754 0.00224535912275314331
-0.00061504170298576355 0.0964109674096107483 -0.00162758864462375641
-0.0192470867186784744 0.0965971723198890686 -0.0245918817818164825
0.00391451083123683929 0.0963656976819038391 -0.000477077439427375793
-0.0202211029827594757 0.096606910228729248 -0.0222163926810026169
-0.0272871647030115128 0.096677534282207489 -0.0322197899222373962
-0.0242244340479373932 0.0966469272971153259 -0.0239791553467512131
0.0327484942972660065 0.0960775166749954224 0.0280787516385316849
-0.0172634012997150421 0.0965773537755012512 -0.0285340175032615662
0.00111796706914901733 0.0963936373591423035 -0.0045297183096408844
-0.00425792485475540161 0.0964473709464073181 -0.007817036472260952
-0.0240474231541156769 0.0966451540589332581 -0.0252287350594997406
0.00637705065310001373 0.0963410809636116028 0.000664074905216693878
-0.0153554864227771759 0.0965582802891731262 -0.0252323504537343979
-0.00938140880316495895 0.0964985787868499756 -0.0194643735885620117
-0.00383697636425495148 0.0964431613683700562 -0.00991808529943227768
-0.0150705128908157349 0.0965554341673851013 -0.0215528830885887146
-0.0184329859912395477 0.0965890362858772278 -0.0286514405161142349
-0.0237218216061592102 0.0966418981552124023 -0.0221710950136184692
0.00703295599669218063 0.0963345244526863098 0.00180362723767757416
0.0226925890892744064 0.0961780250072479248 0.0178528577089309692
0.00454759271815419197 0.0963593646883964539 -0.00399446673691272736
0.0172286760061979294 0.0962326303124427795 0.0128571959212422371
-0.0243512429296970367 0.096648193895816803 -0.0267621073871850967
0.0167480725795030594 0.0962374284863471985 0.013555256649851799
-0.000549443066120147705 0.096410311758518219 -0.0044073350727558136
0.015795290470123291 0.0962469503283500671 0.0115359034389257431
-0.0257934536784887314 0.0966626033186912537 -0.0338593423366546631
-0.014581494964659214 0.0965505465865135193 -0.0222791433334350586
0.0223987102508544922 0.0961809605360031128 0.0173020940274000168
-0.010057421401143074 0.0965053364634513855 -0.0156005881726741791
0.0140178035944700241 0.0962647125124931335 0.0100584942847490311
-0.0149686951190233231 0.0965544134378433228 -0.0150182023644447327
-0.00244490825571119785 0.0964292511343955994 -0.0116634154692292213
-0.00107573717832565308 0.0964155644178390503 -0.00189957767724990845
-0.0321537703275680542 0.0967261716723442078 -0.0302370470017194748
-0.000674584880471229553 0.0964115634560585022 -0.00759179238229990005
-0.0262446701526641846 0.0966671109199523926 -0.0262698903679847717
0.0158483795821666718 0.0962464213371276855 0.0106340078637003899
-0.00604530610144138336 0.0964652374386787415 -0.0110102426260709763
-0.00900143757462501526 0.0964947789907455444 -0.011546766385436058
-0.0229433663189411163 0.0966341122984886169 -0.0287327896803617477
-0.017136652022600174 0.0965760797262191772 -0.0166384726762771606
-0.0212157610803842545 0.0966168493032455444 -0.031045764684677124
0.00376506336033344269 0.0963671877980232239 0.00158634968101978302
-0.0102685932070016861 0.096507437527179718 -0.0122065357863903046
0.0259186159819364548 0.0961457788944244385 0.0237410068511962891
-0.0181657914072275162 0.0965863689780235291 -0.0120380744338035583
-0.0258321091532707214 0.0966629907488822937 -0.0152835818007588387
-0.00289572775363922119 0.0964337587356567383 0.00285931117832660675
0.0119745982810854912 0.0962851345539093018 0.0121792154386639595
-0.00619224458932876587 0.0964667052030563354 -0.000215360894799232483
0.00574924610555171967 0.0963473543524742126 0.00981668941676616669
0.00834567472338676453 0.0963214114308357239 0.00756327062845230103
-0.0249054767191410065 0.0966537296772003174 -0.018005717545747757
-0.0251401495188474655 0.0966560766100883484 -0.0150089077651500702
-0.026918850839138031 0.0966738462448120117 -0.0243575721979141235
-0.02481122687458992 0.0966527834534645081 -0.0202436521649360657
-0.0327787771821022034 0.0967324227094650269 -0.021826455369591713
-0.0289222709834575653 0.096693873405456543 -0.0244990196079015732
-0.0198615472763776779 0.0966033190488815308 -0.0109660392627120018
-0.0127917863428592682 0.0965326577425003052 -0.00517079979181289673
-0.00581932999193668365 0.0964629799127578735 -0.00257652159780263901
0.00643895752727985382 0.096340470016002655 0.00877342838793992996
-0.0310844928026199341 0.096715487539768219 -0.0234480481594800949
-0.0337348133325576782 0.0967419743537902832 -0.0191582590341567993
-0.0159658808261156082 0.0965643823146820068 -0.0135910753160715103
0.0278917104005813599 0.0961260572075843811 0.0244390442967414856
-0.0013823285698890686 0.096418626606464386 0.00437131337821483612
-0.0194089896976947784 0.096598796546459198 -0.0179922264069318771
-0.0337335318326950073 0.0967419594526290894 -0.025937788188457489
-0.010336998850107193 0.0965081304311752319 -0.00994602404534816742
-0.0252416320145130157 0.096657097339630127 -0.0115373600274324417
0.0209961943328380585 0.0961949750781059265 0.0183718353509902954
-0.00158948451280593872 0.0964207053184509277 -0.00118275382556021214
0.0116835013031959534 0.096288047730922699 0.0129546467214822769
-0.0262712594121694565 0.0966673791408538818 -0.0154953058809041977
-0.0137753784656524658 0.0965424925088882446 -0.00885345973074436188
-0.0331779196858406067 0.0967364087700843811 -0.0229939650744199753
-0.0167369581758975983 0.0965720862150192261 -0.00908052921295166016
-0.0287928562611341476 0.0966925844550132751 -0.0172158200293779373
-0.0201974604278802872 0.0966066792607307434 -0.00942952930927276611
-0.0157332476228475571 0.0965620577335357666 -0.00907183811068534851
-0.00398445501923561096 0.0964446365833282471 -0.00254493998363614082
-0.00195494852960109711 0.0964243561029434204 0.000896384939551353455
-0.00778867118060588837 0.0964826568961143494 -0.00519957486540079117
-0.025006558746099472 0.096654742956161499 -0.0136956721544265747
0.00688154622912406921 0.0963360443711280823 0.00891784671694040298
-0.0351978614926338196 0.0967565998435020447 -0.0198377016931772232
-0.034894213080406189 0.0967535674571990967 -0.0202373191714286804
0.000590847805142402649 0.0963989049196243286 0.00484745576977729797
0.0118695786222815514 0.0962861925363540649 0.0125435264781117439
-0.0143419001251459122 0.0965481549501419067 -0.00756051205098628998
-0.0278177876025438309 0.0966828390955924988 -0.0200798381119966507
0.00110007636249065399 0.0963938161730766296 0.0010688824113458395
0.00159794092178344727 0.0963888466358184814 0.00211910763755440712
-0.0338075831532478333 0.0967426970601081848 -0.0272709093987941742
-0.0153402667492628098 0.0965581387281417847 -0.00855057686567306519
-0.00306262262165546417 0.0964354276657104492 -8.72192904353141785e-05
-0.0165269356220960617 0.0965699926018714905 -0.00931375473737716675
-0.0242161825299263 0.0966468378901481628 -0.0151627548038959503
-0.0163287874311208725 0.0965680107474327087 -0.0103461965918540955
-0.00828795507550239563 0.0964876487851142883 -0.00680137192830443382
-0.0172084067016839981 0.0965768024325370789 -0.0145154688507318497
-0.0290512330830097198 0.0966951698064804077 -0.0155175197869539261
-0.0146860033273696899 0.0965515971183776855 -0.00590601004660129547
-0.0174457896500825882 0.0965791791677474976 -0.012946651317179203
-0.0289420764893293381 0.0966940745711326599 -0.0233237408101558685
-0.0179362557828426361 0.0965840741991996765 -0.0122650321573019028
-0.031451001763343811 0.0967191457748413086 -0.0212577786296606064
-0.0349331572651863098 0.0967539548873901367 -0.0183298774063587189
-0.0243986211717128754 0.0966486632823944092 -0.0113957636058330536
-0.0312450733035802841 0.0967170894145965576 -0.0214189197868108749
-0.0142970550805330276 0.0965477079153060913 -0.00527287274599075317
-0.0384032875299453735 0.0967886298894882202 -0.0167096853256225586
-0.0296502932906150818 0.0967011526226997375 -0.013530263677239418
-0.0185467414557933807 0.0965901836752891541 -0.00238944217562675476
-0.0035945456475019455 0.0964407399296760559 0.00461248401552438736
-0.0144071429967880249 0.0965488031506538391 0.00301445275545120239
-0.00890212878584861755 0.0964937880635261536 0.00526781938970088959
-0.0138031430542469025 0.0965427681803703308 -0.00246221036650240421
-0.0293719656765460968 0.096698373556137085 -0.0119259543716907501
-0.0248320978134870529 0.0966529920697212219 -0.00663012824952602386
-0.0400744229555130005 0.0968053340911865234 -0.0137600414454936981
-0.00301568768918514252 0.0964349508285522461 0.00889516621828079224
-0.0186337213963270187 0.0965910479426383972 -0.00331612210720777512
0.0151682663708925247 0.096253223717212677 0.0180648844689130783
-0.0251675751060247421 0.0966563522815704346 -0.00553736835718154907
-0.0315368734300136566 0.0967200100421905518 -0.0152510907500982285
-0.0237297080457210541 0.0966419801115989685 -0.0102323871105909348
-0.00908611249178647995 0.0964956283569335938 0.00188494939357042313
-0.00844245962798595428 0.0964891985058784485 0.00234401971101760864
-0.0104735959321260452 0.096509493887424469 0.00367070361971855164
-0.0343471616506576538 0.0967480987310409546 -0.0155466422438621521
-0.0280162207782268524 0.0966848209500312805 -0.00430383346974849701
-0.0104483366012573242 0.0965092405676841736 0.00548501871526241302
-0.0161428004503250122 0.0965661555528640747 -0.00346651766449213028
-0.0232137143611907959 0.0966368243098258972 -0.00856381841003894806
-0.034340493381023407 0.0967480242252349854 -0.0122602805495262146
-0.0340997502207756042 0.0967456251382827759 -0.0170027241110801697
-0.0363633260130882263 0.0967682451009750366 -0.0161058548837900162
0.00338241644203662872 0.0963710099458694458 0.0130910696461796761
-0.00749242119491100311 0.0964796990156173706 0.00172435259446501732
0.00991894491016864777 0.0963056832551956177 0.0133630624040961266
0.0253988001495599747 0.0961509719491004944 0.023557126522064209
-0.0270035844296216965 0.096674703061580658 -0.00847307592630386353
0.00678961910307407379 0.0963369607925415039 0.0135749811306595802
-0.0327437222003936768 0.0967320650815963745 -0.0132618118077516556
-0.0235000532120466232 0.096639685332775116 -0.00507212057709693909
0.0054501676931977272 0.0963503420352935791 0.0108272014185786247
-0.0210172403603792191 0.0966148674488067627 -0.00446316786110401154
-0.0249885953962802887 0.0966545641422271729 -0.00296684913337230682
-0.00413354672491550446 0.0964461266994476318 0.00727820489555597305
-0.0275070294737815857 0.0966797247529029846 -0.00276509113609790802
-0.0188517943024635315 0.0965932309627532959 8.07289034128189087e-05
-0.0376947894692420959 0.0967815518379211426 -0.0183692630380392075
-0.0162494443356990814 0.0965672209858894348 0.00288952700793743134
-0.00761367753148078918 0.0964809134602546692 0.0015951839741319418
-0.0150153497233986855 0.096554882824420929 -0.00312658911570906639
-0.0235910341143608093 0.0966405943036079407 -0.00337290018796920776
-0.0310056675225496292 0.0967146977782249451 -0.0143841598182916641
-0.0309068523347377777 0.0967137068510055542 -0.0116008389741182327
-0.0186432637274265289 0.0965911448001861572 -0.00393062923103570938
0.0176710281521081924 0.0962282046675682068 0.0189688168466091156
-0.0192176830023527145 0.0965968817472457886 -0.00227586925029754639
-0.00531065836548805237 0.0964578911662101746 0.00343017862178385258
-0.0280555468052625656 0.0966852158308029175 -0.00791795738041400909
-0.0257648937404155731 0.0966623201966285706 -0.00313856080174446106
-0.0313619151711463928 0.0967182591557502747 -0.00839499104768037796
-0.0123317856341600418 0.0965280607342720032 0.00158577039837837219
-0.0296550728380680084 0.096701204776763916 -0.0114259002730250359
0.0143081219866871834 0.0962618142366409302 0.0174660999327898026
0.00861450470983982086 0.0963187217712402344 0.0118970153853297234
-0.0259041562676429749 0.0966637134552001953 -0.00971288979053497314
-0.0146195590496063232 0.0965509340167045593 0.00210899114608764648
-0.0243156123906373978 0.0966478362679481506 -0.00168620981276035309
0.0122347194701433182 0.0962825417518615723 0.0152195729315280914
-0.0408180207014083862 0.0968127697706222534 -0.0126993432641029358
0.0217165667563676834 0.0961877703666687012 0.0210455358028411865
-0.0316835939884185791 0.0967214703559875488 -0.0101604163646697998
-0.0369935855269432068 0.0967745408415794373 -0.00125972926616668701
-0.039110083132982254 0.096795693039894104 -0.00315419398248195648
0.00614397507160902023 0.0963434129953384399 0.0153754707425832748
-0.00144611019641160965 0.0964192748069763184 0.0128368958830833435
-0.0261290185153484344 0.0966659560799598694 0.00159112736582756042
0.0184944681823253632 0.0962199792265892029 0.0221067313104867935
-0.0342442803084850311 0.0967470631003379822 -0.00504785869270563126
-0.0223851054906845093 0.0966285392642021179 0.00775848887860774994
-0.033575110137462616 0.0967403799295425415 0.000203594565391540527
-0.0121388137340545654 0.0965261310338973999 0.0111431600525975227
-0.0191262923181056976 0.0965959653258323669 0.00592548400163650513
-0.029452882707118988 0.0966991782188415527 0.00541778653860092163
-0.0328358858823776245 0.0967329889535903931 -0.00388816092163324356
-0.0384599454700946808 0.0967891961336135864 -0.00530374143272638321
-0.0265695992857217789 0.0966703593730926514 0.00469626858830451965
-0.0347280353307723999 0.0967518985271453857 0.00171689875423908234
-0.0203539542853832245 0.0966082364320755005 0.00359841762110590935
-0.0342416837811470032 0.0967470407485961914 0.00344789959490299225
-0.0332095883786678314 0.0967367216944694519 -0.00458707287907600403
0.0148915685713291168 0.0962559878826141357 0.0203877296298742294
-0.0411786437034606934 0.0968163684010505676 -0.00298886001110076904
-0.01533534936606884 0.0965580865740776062 0.00827960669994354248
-0.00528732966631650925 0.096457652747631073 0.00971363484859466553
-0.0363544672727584839 0.0967681556940078735 0.00164795853197574615
-0.0366181880235671997 0.0967707931995391846 -0.000228049233555793762
-0.0301167815923690796 0.0967058092355728149 0.00412484072148799896
0.0162360407412052155 0.0962425470352172852 0.0211384762078523636
0.010721154510974884 0.0962976664304733276 0.0173850841820240021
-0.0154972756281495094 0.0965597033500671387 0.00443680677562952042
-0.0359251312911510468 0.0967638641595840454 -0.00364561472088098526
-0.0369590483605861664 0.0967741981148719788 -0.000581447035074234009
0.00476018711924552917 0.0963572412729263306 0.0180750042200088501
-0.0299441814422607422 0.0967040881514549255 0.00366111472249031067
-0.0316552072763442993 0.0967211946845054626 -0.0036669380497187376
-0.0391028523445129395 0.0967956259846687317 -0.00577299576252698898
-0.003988645039498806 0.0964446812868118286 0.011160675436258316
-0.0402477532625198364 0.0968070626258850098 -0.0038959067314863205
-0.0419628694653511047 0.0968242064118385315 -0.000841835513710975647
-0.0295165665447711945 0.0966998115181922913 -0.000459094531834125519
-0.0383749082684516907 0.0967883467674255371 -0.00587922008708119392
-0.0425785332918167114 0.0968303605914115906 -0.00273121707141399384
-0.0252401251345872879 0.0966570749878883362 0.00188474729657173157
-0.0294019915163516998 0.0966986715793609619 -0.00246909307315945625
0.00249838642776012421 0.0963798463344573975 0.0135969184339046478
-0.0228413902223110199 0.0966331064701080322 0.0067391078919172287
0.0304165855050086975 0.0961008220911026001 0.0278182588517665863
-0.0235721170902252197 0.0966404080390930176 0.00184867391362786293
-0.0368421263992786407 0.0967730283737182617 0.00101825036108493805
-0.0312284082174301147 0.0967169255018234253 0.00160486064851284027
-0.0118726668879389763 0.0965234711766242981 0.0075497850775718689
-0.0427488312125205994 0.0968320593237876892 -0.00631087459623813629
-0.0411688610911369324 0.0968162715435028076 -0.00575532857328653336
-0.0329469405114650726 0.0967340990900993347 -0.00186736229807138443
0.0094788968563079834 0.0963100790977478027 0.0174437165260314941
-0.00796551071107387543 0.0964844226837158203 0.00955003779381513596
-0.0263500772416591644 0.0966681689023971558 -0.000287490431219339371
-0.00739876553416252136 0.0964787602424621582 0.0102174282073974609
-0.0400738678872585297 0.0968053266406059265 -0.00837299972772598267
0.0166847892105579376 0.096238061785697937 0.0208940636366605759
-0.0358814410865306854 0.0967634245753288269 -0.0053348117507994175
-0.0377059206366539001 0.0967816635966300964 -0.00698979850858449936
-0.0356412976980209351 0.0967610329389572144 -0.00497989216819405556
-0.0334411710500717163 0.0967390388250350952 -6.70617446303367615e-05
-0.00360451918095350266 0.0964408367872238159 0.0172217506915330887
-0.0127587886527180672 0.0965323299169540405 0.0133640635758638382
-0.0203997436910867691 0.0966086983680725098 0.0154273053631186485
-0.0300829317420721054 0.0967054739594459534 0.0110361296683549881
-0.0244645923376083374 0.0966493263840675354 0.010906025767326355
-0.0070238504558801651 0.0964750126004219055 0.0176123473793268204
0.0105100218206644058 0.0962997749447822571 0.0229906309396028519
-0.0400348827242851257 0.0968049392104148865 0.0112240705639123917
-0.0112479850649833679 0.0965172350406646729 0.0148030202835798264
-0.0424139052629470825 0.0968287140130996704 0.00329204136505723
-0.0414482578635215759 0.0968190655112266541 0.0082609253004193306
0.00770765636116266251 0.0963277816772460938 0.0213033072650432587
-0.0348379835486412048 0.0967530012130737305 0.00530664669349789619
0.00654305703938007355 0.0963394194841384888 0.0223280973732471466
-0.0119299804791808128 0.0965240448713302612 0.0122897662222385406
-0.0246279388666152954 0.0966509580612182617 0.00845126248896121979
-0.00530325435101985931 0.0964578241109848022 0.0174243133515119553
0.0139518668875098228 0.0962653756141662598 0.0231205299496650696
-0.0382172651588916779 0.0967867672443389893 0.0115861911326646805
-0.0260712932795286179 0.0966653823852539062 0.0105908457189798355
-0.035664822906255722 0.096761263906955719 0.00759837031364440918
-0.0265255309641361237 0.0966699197888374329 0.014629698358476162
-0.0282366666942834854 0.096687018871307373 0.0109356669709086418
-0.0421434007585048676 0.0968260094523429871 0.00337956566363573074
-0.0221491716802120209 0.09662618488073349 0.0109712332487106323
-0.0396391227841377258 0.0968009829521179199 0.00511826062574982643
-0.0354844033718109131 0.0967594608664512634 0.0096520623192191124
-0.0433731898665428162 0.0968383029103279114 0.000708004517946392298
-0.0305251441895961761 0.0967098996043205261 0.0119552724063396454
-0.0215466562658548355 0.0966201648116111755 0.0107739223167300224
-0.0114550422877073288 0.0965192988514900208 0.0124543625861406326
-0.0301602650433778763 0.0967062488198280334 0.0103008309379220009
-0.00623054150491952896 0.0964670851826667786 0.0158258937299251556
0.0214840583503246307 0.0961901023983955383 0.0255682915449142456
0.00549441017210483551 0.0963499024510383606 0.0221331231296062469
-0.0322956182062625885 0.0967275872826576233 0.00921259447932243347
-0.0140234054997563362 0.0965449735522270203 0.012358006089925766
0.00538511015474796295 0.0963509902358055115 0.0217333268374204636
-0.0314767062664031982 0.0967194065451622009 0.00687993038445711136
-0.0367859750986099243 0.0967724621295928955 0.0108135547488927841
-0.0432162508368492126 0.0968367382884025574 0.00665353983640670776
-0.0432881414890289307 0.0968374535441398621 0.00325868604704737663
-0.00180801749229431152 0.0964228883385658264 0.0175994057208299637
-0.0178082752972841263 0.0965828001499176025 0.0113116893917322159
-0.0303247272968292236 0.0967078879475593567 0.0138504859060049057
-0.0212441608309745789 0.0966171398758888245 0.0098133087158203125
-0.0101546049118041992 0.0965063050389289856 0.0171752460300922394
-0.0424205213785171509 0.0968287810683250427 0.00622006505727767944
-0.0236735846847295761 0.0966414213180541992 0.0104276407510042191
-0.0336477272212505341 0.0967411026358604431 0.00539696542546153069
-0.0292662084102630615 0.0966973081231117249 0.0132832936942577362
-0.00357926078140735626 0.0964405909180641174 0.0192443821579217911
-0.0360584445297718048 0.0967651978135108948 0.0107320155948400497
-0.0385318920016288757 0.096789918839931488 0.00831565074622631073
-0.0316533371806144714 0.0967211723327636719 0.00873380061239004135
-0.00277397409081459045 0.0964325442910194397 0.0203640535473823547
-0.0310757160186767578 0.0967153981328010559 0.0124889090657234192
-0.0336152762174606323 0.0967407822608947754 0.0132528627291321754
-0.0389435403048992157 0.09679403156042099 0.0124245518818497658
0.0104123074561357498 0.096300758421421051 0.0262370239943265915
-0.0291354358196258545 0.0966960042715072632 0.0164630543440580368
-0.00383380847051739693 0.0964431315660476685 0.0209152586758136749
-0.0285210274159908295 0.0966898649930953979 0.0177516229450702667
-0.0118345282971858978 0.0965230986475944519 0.023897755891084671
-0.000424932688474655151 0.0964090600609779358 0.0255729854106903076
-0.0278875771909952164 0.0966835394501686096 0.018817458301782608
-0.00537861883640289307 0.0964585766196250916 0.0245976448059082031
-0.0194956641644239426 0.0965996682643890381 0.0212537646293640137
0.0259165894240140915 0.0961457937955856323 0.0278777778148651123
-0.0153473317623138428 0.096558205783367157 0.0177045650780200958
-0.000522882677614688873 0.0964100435376167297 0.0221408084034919739
-0.0394000709056854248 0.0967985987663269043 0.0165244825184345245
0.00015821307897567749 0.0964032337069511414 0.0241033714264631271
-0.0148927532136440277 0.0965536534786224365 0.0209784004837274551
0.0189950671046972275 0.0962149724364280701 0.027304820716381073
-0.0277900658547878265 0.0966825634241104126 0.0207931362092494965
-0.0205426923930644989 0.0966101288795471191 0.0174118932336568832
0.0241183415055274963 0.0961637645959854126 0.0276278033852577209
-0.037773430347442627 0.0967823341488838196 0.0194088835269212723
-0.0406330414116382599 0.0968109145760536194 0.0157181322574615479
-0.0376564674079418182 0.0967811718583106995 0.019688015803694725
-0.00334662757813930511 0.0964382663369178772 0.0221113171428442001
0.0114192720502614975 0.0962906926870346069 0.0263744927942752838
-0.017473096027970314 0.0965794473886489868 0.0201686471700668335
-0.0239292215555906296 0.0966439768671989441 0.0186228416860103607
0.00367559678852558136 0.0963680818676948547 0.0254806056618690491
0.0024642373900860548 0.096380189061164856 0.0222241543233394623
-0.00495385751128196716 0.096454329788684845 0.0229285620152950287
-0.00393027113750576973 0.0964440926909446716 0.0210437662899494171
-0.0313021689653396606 0.0967176631093025208 0.0141715817153453827
-0.0365832895040512085 0.0967704430222511292 0.0164416860789060593
-0.00203612633049488068 0.0964251682162284851 0.0244973823428153992
0.017422109842300415 0.0962306931614875793 0.0257889367640018463
-0.0150187723338603973 0.0965549200773239136 0.0215092077851295471
-0.015127742663025856 0.0965560078620910645 0.0184341352432966232
-0.0267076846212148666 0.0966717451810836792 0.019619431346654892
-0.0235013384371995926 0.0966397002339363098 0.0165006592869758606
-0.0231807902455329895 0.0966364964842796326 0.0217226371169090271
0.00582788325846195221 0.0963465720415115356 0.0248844437301158905
0.00853001605719327927 0.0963195636868476868 0.0253007952123880386
-0.0370096489787101746 0.0967747047543525696 0.0200211144983768463
-0.034425884485244751 0.0967488810420036316 0.0196133628487586975
-0.036163918673992157 0.096766255795955658 0.0161230266094207764
-0.0218523629009723663 0.0966232195496559143 0.0207671783864498138
0.00241654645651578903 0.0963806658983230591 0.0229789204895496368
0.00907084345817565918 0.0963141545653343201 0.0256301853805780411
-0.0254601612687110901 0.0966592729091644287 0.0212102383375167847
0.0152076017111539841 0.0962528213858604431 0.029776914045214653
-0.00519009027630090714 0.0964566841721534729 0.0263860486447811127
-0.0288070254027843475 0.0966927260160446167 0.028960375115275383
0.0106900539249181747 0.0962979793548583984 0.029135238379240036
-0.0053720325231552124 0.0964585095643997192 0.0273989196866750717
-0.0109555171802639961 0.0965143144130706787 0.0258998069912195206
-0.0212830342352390289 0.0966175273060798645 0.0259561948478221893
-0.00338639318943023682 0.0964386612176895142 0.0266637261956930161
-0.0166507214307785034 0.0965712293982505798 0.0249813124537467957
-0.0198963489383459091 0.0966036692261695862 0.0285599604249000549
-0.0127254854887723923 0.0965320020914077759 0.0261372402310371399
-0.020879499614238739 0.0966134890913963318 0.0265052709728479385
-0.0266181491315364838 0.0966708436608314514 0.028370194137096405
-0.0354915931820869446 0.0967595353722572327 0.024225085973739624
-0.00174250826239585876 0.0964222326874732971 0.0297004487365484238
-0.0305284727364778519 0.0967099294066429138 0.0245313346385955811
-0.0315519720315933228 0.0967201590538024902 0.0255755484104156494
-0.0147423073649406433 0.0965521559119224548 0.0284455567598342896
0.0183018576353788376 0.0962219014763832092 0.0285280924290418625
-0.00887929648160934448 0.0964935645461082458 0.0295342784374952316
-0.0223917160183191299 0.0966286063194274902 0.0294227059930562973
-0.0288849659264087677 0.0966935008764266968 0.0222940817475318909
-0.0173702500760555267 0.0965784192085266113 0.0239201243966817856
-0.0229423455893993378 0.0966341122984886169 0.0273095238953828812
0.0255176164209842682 0.0961497798562049866 0.0290713701397180557
0.0140243824571371078 0.0962646529078483582 0.0294177159667015076
-0.0170700624585151672 0.096575416624546051 0.0279271900653839111
-0.00835505500435829163 0.0964883193373680115 0.027577543631196022
-0.0250207725912332535 0.0966548845171928406 0.0272381827235221863
-0.0114107206463813782 0.0965188592672348022 0.0285423696041107178
-0.0284878164529800415 0.0966895371675491333 0.0278004985302686691
-0.00149985775351524353 0.0964198037981987 0.0294521115720272064
-0.0212352871894836426 0.0966170430183410645 0.0288371145725250244
-0.0119843482971191406 0.0965245962142944336 0.0264542438089847565
-0.0301735270768404007 0.0967063829302787781 0.0270830169320106506
-0.0187416262924671173 0.0965921282768249512 0.0279121864587068558
-0.0267764702439308167 0.0966724231839179993 0.0297558903694152832
-0.0308815091848373413 0.0967134535312652588 0.0274215526878833771
-0.0025105911772698164 0.0964299067854881287 0.0257295817136764526
-0.0292769763618707657 0.0966974198818206787 0.0225731860846281052
-0.0035502677783370018 0.0964403003454208374 0.0267249643802642822
-0.00911691784858703613 0.0964959338307380676 0.0289876796305179596
0.01125311478972435 0.096292346715927124 0.0326766297221183777
-0.00843848288059234619 0.09648914635181427 0.0337996073067188263
-0.00246778316795825958 0.096429482102394104 0.0319683998823165894
-0.0273991748690605164 0.0966786518692970276 0.0307550672441720963
-0.0258323550224304199 0.0966629981994628906 0.0306363143026828766
-0.0040987059473991394 0.0964457765221595764 0.0330256372690200806
-0.0268044564872980118 0.0966727063059806824 0.0333307348191738129
-0.0161232631653547287 0.0965659543871879578 0.03227996826171875
-0.0113627724349498749 0.0965183824300765991 0.0340224802494049072
0.0194304939359426498 0.0962106212973594666 0.0306053850799798965
-0.0157730802893638611 0.0965624526143074036 0.0331314504146575928
0.0146963717415928841 0.0962579324841499329 0.0303136352449655533
0.0129603855311870575 0.0962752848863601685 0.031908918172121048
0.0214003846049308777 0.0961909294128417969 0.0300115831196308136
0.0119857080280780792 0.0962850227952003479 0.0307570602744817734
-0.00531564606353640556 0.096457943320274353 0.0301568098366260529
0.012121245265007019 0.0962836742401123047 0.0318558551371097565
-0.0256430860608816147 0.096661098301410675 0.0305246841162443161
0.0209465213119983673 0.0961954668164253235 0.0306906662881374359
-0.0274842530488967896 0.0966795012354850769 0.0310319997370243073
0.000251818448305130005 0.096402294933795929 0.0328348763287067413
0.0144005827605724335 0.0962608903646469116 0.0304603949189186096
-0.020167304202914238 0.0966063737869262695 0.0342447869479656219
-0.00166293233633041382 0.0964214354753494263 0.034152396023273468
0.0339256152510643005 0.0960657522082328796 0.0299765225499868393
-0.0121049005538225174 0.0965257957577705383 0.0312299411743879318
0.00715380534529685974 0.0963333174586296082 0.0310369953513145447
-0.0111627932637929916 0.0965163856744766235 0.0335696116089820862
-0.0124056357890367508 0.0965288057923316956 0.0348896905779838562
0.00750499777495861053 0.096329808235168457 0.0329621993005275726
-0.0126797538250684738 0.0965315401554107666 0.0352389998733997345
0.0241738501936197281 0.0961632207036018372 0.0299307797104120255
-0.0201522782444953918 0.0966062247753143311 0.0341323874890804291
-0.0223268475383520126 0.0966279506683349609 0.0319088660180568695
0.0162774305790662766 0.0962421372532844543 0.0344098508358001709
0.0169389061629772186 0.096235521137714386 0.0332337990403175354
-0.0017777993343770504 0.0964225828647613525 0.0349089615046977997
0.00751838646829128265 0.0963296741247177124 0.0337326973676681519
4.99617308378219604e-05 0.0964043214917182922 0.0364979691803455353
-0.00277448724955320358 0.0964325442910194397 0.0355136729776859283
-0.0178054235875606537 0.0965827703475952148 0.0370285511016845703
-0.00406564399600028992 0.0964454486966133118 0.0392757914960384369
0.0196308977901935577 0.096208617091178894 0.0325474552810192108
-0.0178722403943538666 0.096583440899848938 0.0378073789179325104
0.0137714352458715439 0.0962671786546707153 0.0347186848521232605
0.00785918068140745163 0.0963262692093849182 0.0345536433160305023
-0.0040055103600025177 0.0964448451995849609 0.0390067137777805328
-0.0141662983223795891 0.0965464040637016296 0.0375258177518844604
-0.013640514574944973 0.0965411439538002014 0.037324223667383194
-0.0046644601970911026 0.0964514389634132385 0.0387674383819103241
-0.0164316855370998383 0.0965690389275550842 0.0405916348099708557
0.0080832894891500473 0.0963240265846252441 0.033635992556810379
0.0241792593151330948 0.0961631610989570618 0.0314343906939029694
-0.0118321999907493591 0.0965230688452720642 0.0360767766833305359
0.0236743036657571793 0.0961682051420211792 0.0326194055378437042
0.0279221348464488983 0.0961257517337799072 0.0312872529029846191
-0.0120886974036693573 0.096525631844997406 0.036309514194726944
-0.00460264459252357483 0.0964508205652236938 0.0362616106867790222
0.0221021287143230438 0.0961839184165000916 0.0316965542733669281
-0.00958286039531230927 0.0965005978941917419 0.0430635437369346619
0.0178702473640441895 0.0962262153625488281 0.0341328084468841553
-0.00479417294263839722 0.0964527353644371033 0.0432096533477306366
0.0138299092650413513 0.0962665975093841553 0.0375210270285606384
0.00114040635526180267 0.0963934212923049927 0.0406862236559391022
0.0196276549249887466 0.0962086543440818787 0.0346298255026340485
-0.00273033417761325836 0.0964321047067642212 0.0415545254945755005
0.0127362562343478203 0.0962775275111198425 0.0357402637600898743
0.0223900824785232544 0.096181042492389679 0.0331617631018161774
0.0142709203064441681 0.0962621867656707764 0.0365301482379436493
0.00123794912360608578 0.0963924452662467957 0.0384124517440795898
0.0253203399479389191 0.0961517542600631714 0.0323437340557575226
0.00702653871849179268 0.0963345915079116821 0.0373541153967380524
0.00155561883002519608 0.0963892713189125061 0.0388657413423061371
0.0170877091586589813 0.0962340384721755981 0.0348135530948638916
-0.004105372354388237 0.0964458510279655457 0.0395997092127799988
0.00426948070526123047 0.0963621437549591064 0.0403521917760372162
0.0183648020029067993 0.0962212681770324707 0.0356852225959300995
0.00152498797979205847 0.09638957679271698 0.0426673106849193573
0.00935779884457588196 0.0963112935423851013 0.0415537022054195404
-0.000835674814879894257 0.0964131653308868408 0.0445059947669506073
0.0108331460505723953 0.0962965488433837891 0.0413685962557792664
0.019901912659406662 0.0962059050798416138 0.0360387377440929413
0.0014581829309463501 0.0963902398943901062 0.0431644022464752197
0.0304919183254241943 0.0961000695824623108 0.0317406617105007172
0.025772659108042717 0.0961472317576408386 0.0342293567955493927
0.010898759588599205 0.0962958857417106628 0.0423927120864391327
0.01365654356777668 0.0962683260440826416 0.0407206118106842041
0.0041159503161907196 0.0963636785745620728 0.0420706160366535187
0.0142825990915298462 0.0962620750069618225 0.0417518243193626404
0.0160786975175142288 0.0962441191077232361 0.0404450222849845886
0.0217865314334630966 0.0961870700120925903 0.0374818556010723114
0.0124950520694255829 0.0962799340486526489 0.0426763296127319336
0.0155143653973937035 0.0962497591972351074 0.041727505624294281
0.032168261706829071 0.0960833132266998291 0.0314400792121887207
0.0231964569538831711 0.0961729809641838074 0.038890201598405838
0.025987137109041214 0.0961450859904289246 0.0364625304937362671
0.0425502508878707886 0.0959795489907264709 0.0157836265861988068
0.0422153584659099579 0.0959829017519950867 0.0171911995857954025
0.0436125323176383972 0.0959689393639564514 0.0116557283326983452
0.0444141291081905365 0.0959609225392341614 0.010069659911096096
0.0433286316692829132 0.0959717780351638794 0.00954720471054315567
0.0383733958005905151 0.0960213020443916321 0.021747685968875885
0.0449644923210144043 0.0959554240107536316 0.00885793287307024002
0.0419078506529331207 0.0959859713912010193 0.0134213371202349663
0.0448411479592323303 0.0590998046100139618 0.00701459497213363647
0.0458149909973144531 0.0865226238965988159 0.00125176273286342621
0.0457585416734218597 0.0807074233889579773 0.00123801920562982559
0.0456152074038982391 0.0674175173044204712 0.00132457353174686432
0.0456326045095920563 0.0645396411418914795 0.00094443117268383503
0.0452596358954906464 0.0638149380683898926 0.00395630020648241043
0.045575801283121109 0.0670688450336456299 0.00162037787958979607
0.0454533956944942474 0.065903685986995697 0.00253252382390201092
0.0447686351835727692 0.0654058977961540222 0.00813081208616495132
0.0444627963006496429 0.0585645511746406555 0.0100863715633749962
0.0450496263802051544 0.0677344053983688354 0.00600839965045452118
0.0459200143814086914 0.0894333869218826294 0.000626429915428161621
0.0456286370754241943 0.0762932002544403076 0.00194447953253984451
0.045019097626209259 0.062440723180770874 0.00582410208880901337
0.0445731058716773987 0.0590241067111492157 0.00921575445681810379
0.0458165258169174194 0.0860179513692855835 0.00119758863002061844
0.0456461459398269653 0.0830764621496200562 0.00235862052068114281
0.0454078838229179382 0.0570088289678096771 0.00217526080086827278
0.0458737537264823914 0.0869086384773254395 0.000799603760242462158
0.0452619306743144989 0.0702701881527900696 0.0044687073677778244
0.0453863628208637238 0.0801181495189666748 0.00425452180206775665
0.0456022247672080994 0.0698730573058128357 0.00163360428996384144
0.0454749874770641327 0.0585009902715682983 0.0017454392509534955
0.0452764406800270081 0.0598451085388660431 0.00349114369601011276
0.0455769188702106476 0.0780835002660751343 0.00251775793731212616
0.0453822538256645203 0.0711437538266181946 0.00354969361796975136
0.0453361570835113525 0.0680499076843261719 0.00367470527999103069
0.0453477315604686737 0.0572992898523807526 0.00269449828192591667
0.0453388914465904236 0.0759559199213981628 0.00430287839844822884
0.0455933883786201477 0.0834638476371765137 0.00282496772706508636
0.0449935160577297211 0.0923855453729629517 0.00849942117929458618
0.044685807079076767 0.0773509293794631958 0.00979608763009309769
0.0454733185470104218 0.0952561050653457642 0.004784376360476017
0.0455062054097652435 0.085174955427646637 0.00368376076221466064
0.0445328913629055023 0.0615866780281066895 0.0097578633576631546
0.0450021177530288696 0.0761018246412277222 0.00708834454417228699
0.0452152639627456665 0.093617953360080719 0.00677470443770289421
0.0450720228254795074 0.0738087445497512817 0.00632389402016997337
0.0449148416519165039 0.0736829638481140137 0.00760799553245306015
0.0445131324231624603 0.0640473887324333191 0.010123109444975853
0.0447740443050861359 0.0684643164277076721 0.0083379773423075676
0.0457016117870807648 0.0892660915851593018 0.00241126865148544312
0.0448452495038509369 0.0913725942373275757 0.00963710527867078781
0.0456212721765041351 0.0938621461391448975 0.00345116527751088142
0.045569252222776413 0.0906344354152679443 0.00361391482874751091
0.044862356036901474 0.0765535980463027954 0.0082765091210603714
0.0447384379804134369 0.0752713754773139954 0.00919147208333015442
0.044877469539642334 0.0899033993482589722 0.00925080478191375732
0.0448402278125286102 0.0882853344082832336 0.00942433997988700867
0.0451044812798500061 0.095224231481552124 0.00781924836337566376
0.0453752987086772919 0.0917793363332748413 0.00530542805790901184
0.0446554496884346008 0.0718958824872970581 0.00959708448499441147
0.0445971116423606873 0.0753356218338012695 0.0103606283664703369
0.0448446869850158691 0.0948677957057952881 0.00992939993739128113
0.0453579574823379517 0.0884103327989578247 0.0051709604449570179
0.0443945452570915222 0.0596416927874088287 0.0107371062040328979
0.0459696315228939056 0.0939931496977806091 0.000593092292547225952
0.0446368381381034851 0.0655723884701728821 0.00922987982630729675
0.0455822981894016266 0.0897225812077522278 0.00343143614009022713
0.0450271889567375183 0.083593025803565979 0.0074984375387430191
0.0447755567729473114 0.0853622704744338989 0.00971632543951272964
0.041537601500749588 0.0771959647536277771 0.0187705513089895248
0.0430014729499816895 0.088826984167098999 0.0152173321694135666
0.0442210063338279724 0.0937808305025100708 0.0121323838829994202
0.0410334691405296326 0.092619679868221283 0.0205062162131071091
0.0440101958811283112 0.09590139240026474 0.0127441044896841049
0.040871836245059967 0.0835146456956863403 0.0206924602389335632
0.0408861152827739716 0.0927607566118240356 0.0208984464406967163
0.0411237850785255432 0.0630856379866600037 0.0194898173213005066
0.0407151095569133759 0.0693368762731552124 0.0207320861518383026
0.0407652668654918671 0.0798340439796447754 0.0208764467388391495
0.043695937842130661 0.0870355814695358276 0.0133390575647354126
0.0418336689472198486 0.0949467644095420837 0.0184576921164989471
0.042959064245223999 0.0809806287288665771 0.0151223884895443916
0.0410483516752719879 0.0890771523118019104 0.0203736219555139542
