ply
format ascii 1.0
element vertex 703
property float x
property float y
property float z
end_header
0.00428251363337039948 -0.0424587465822696686 -0.0104676876217126846
0.00323686748743057251 -0.0425400808453559875 -0.0108789354562759399
0.00899181421846151352 -0.0420261695981025696 -0.00891445111483335495
0.0101720057427883148 -0.0414283499121665955 -0.0107327820733189583
0.0272485204041004181 -0.0387327596545219421 -0.0101841632276773453
0.0300525948405265808 -0.0395080707967281342 -0.00141585804522037506
0.00195909058675169945 -0.0436730794608592987 -0.00596707779914140701
0.00369003787636756897 -0.0434154383838176727 -0.00569437956437468529
0.0232698637992143631 -0.0404533408582210541 -0.00297274580225348473
0.00039741283399052918 -0.0437921993434429169 -0.00707385456189513206
0.00849911198019981384 -0.042649097740650177 -0.0053206905722618103
0.00139771751128137112 -0.0435796640813350677 -0.00739973271265625954
0.0018741954118013382 -0.0439033247530460358 -0.00432751420885324478
0.0218968652188777924 -0.040756765753030777 -0.0024365806020796299
0.00252588232979178429 -0.0434799268841743469 -0.00670410878956317902
0.0176107250154018402 -0.0412701480090618134 -0.00405807839706540108
0.0105705475434660912 -0.0423257723450660706 -0.00510835414752364159
0.0165667422115802765 -0.0416385531425476074 -0.00260452507063746452
0.0103224562481045723 -0.0424708090722560883 -0.00432625506073236465
0.000331511342665180564 -0.0439629592001438141 -0.00586168374866247177
0.00930568203330039978 -0.0426836907863616943 -0.00401899451389908791
0.019269915297627449 -0.0410749614238739014 -0.0034034443087875843
0.0271753035485744476 -0.039993584156036377 -0.0014342868234962225
0.00563690299168229103 -0.0431938990950584412 -0.00486934836953878403
0.0136759048327803612 -0.0421179682016372681 -0.0026867440901696682
0.0210674740374088287 -0.0409798026084899902 -0.00181077572051435709
0.0266571994870901108 -0.0399855263531208038 -0.00216289213858544827
0.000344028609106317163 -0.0438217706978321075 -0.00691802194342017174
0.00586510449647903442 -0.0429682210087776184 -0.00628959992900490761
0.027226744219660759 -0.0400052480399608612 -0.00127944641280919313
0.0272838473320007324 -0.0376366898417472839 -0.0133818499743938446
0.00345711177214980125 -0.0412939414381980896 -0.014855576679110527
0.0272093750536441803 -0.0380777046084403992 -0.012349344789981842
0.0138920452445745468 -0.0391319990158081055 -0.0155627159401774406
0.0197643190622329712 -0.0384686700999736786 -0.0146248564124107361
0.0326289795339107513 -0.037441737949848175 -0.0115411682054400444
0.0284065306186676025 -0.0375763103365898132 -0.013042151927947998
0.0181391611695289612 -0.0393214784562587738 -0.0132687389850616455
0.00637594237923622131 -0.0397160351276397705 -0.0174028351902961731
0.0329375714063644409 -0.0371906720101833344 -0.0120138535276055336
0.011313416063785553 -0.0391840636730194092 -0.0165520627051591873
0.0251313056796789169 -0.0384046286344528198 -0.0124586820602416992
0.0275253858417272568 -0.0380001142621040344 -0.0124000143259763718
0.0368217639625072479 -0.0368930324912071228 -0.011052827350795269
0.0378003716468811035 -0.0366653315722942352 -0.0111793717369437218
0.000398766249418258667 -0.0411567352712154388 -0.0165093131363391876
0.00256615504622459412 -0.040092766284942627 -0.018140748143196106
0.00441578542813658714 -0.0409968793392181396 -0.0151582090184092522
0.00553679279983043671 -0.0407417118549346924 -0.0152894910424947739
0.0146473944187164307 -0.0393553264439105988 -0.0146969230845570564
0.0109437461942434311 -0.0401075668632984161 -0.0144823901355266571
0.00684530846774578094 -0.0399135798215866089 -0.0167229622602462769
0.0117814391851425171 -0.0393161475658416748 -0.0160308070480823517
0.016193978488445282 -0.0390845946967601776 -0.0146817658096551895
0.00411409139633178711 -0.0400129146873950958 -0.0176641736179590225
0.0044765714555978775 -0.0406048409640789032 -0.0160783883184194565
0.0164329670369625092 -0.0394848249852657318 -0.013612174428999424
0.0151718501001596451 -0.039166375994682312 -0.0149263162165880203
0.011761869303882122 -0.0397965572774410248 -0.0148794613778591156
0.0179589148610830307 -0.0291843712329864502 -0.0295287277549505234
0.0358000844717025757 -0.0279374662786722183 -0.0267365369945764542
0.00553978700190782547 -0.030580081045627594 -0.0309887565672397614
0.0106095615774393082 -0.0287615489214658737 -0.0315370261669158936
0.0162534043192863464 -0.0286346320062875748 -0.0304086096584796906
0.0282949544489383698 -0.0281962119042873383 -0.0281546544283628464
0.0257999897003173828 -0.0287345163524150848 -0.028211638331413269
0.0085791517049074173 -0.0298529528081417084 -0.0309847332537174225
0.0216884985566139221 -0.0281218141317367554 -0.0296798422932624817
0.00130986282601952553 -0.0309891588985919952 -0.0315467901527881622
0.0229405350983142853 -0.0285060126334428787 -0.0290516596287488937
0.0371835269033908844 -0.0276376698166131973 -0.0267061404883861542
0.000221403432078659534 -0.0297904163599014282 -0.0328852944076061249
0.0210572481155395508 -0.0291741900146007538 -0.0288547333329916
0.037233203649520874 -0.02771746926009655 -0.0266220644116401672
0.0359137803316116333 -0.0280875228345394135 -0.026573963463306427
0.000997572788037359715 -0.0301129743456840515 -0.0324185453355312347
0.016633765771985054 -0.0288323257118463516 -0.0301435720175504684
0.0185290928930044174 -0.0294628459960222244 -0.0291477981954813004
0.0183467641472816467 -0.0292906928807497025 -0.0293457601219415665
0.00143957010004669428 -0.0294968746602535248 -0.0328856110572814941
0.00363838090561330318 -0.030749395489692688 -0.0312529541552066803
0.0359484963119029999 -0.0278654284775257111 -0.0267698168754577637
0.00315311457961797714 -0.028879186138510704 -0.0330737084150314331
0.00418962445110082626 -0.0309593044221401215 -0.030939033254981041
0.015356958843767643 -0.0288625620305538177 -0.0303974542766809464
0.0361127741634845734 -0.0276796482503414154 -0.0269038230180740356
0.0124256294220685959 -0.0296200532466173172 -0.0303498301655054092
0.0147259142249822617 -0.0291340276598930359 -0.0302878767251968384
0.0340734608471393585 -0.0386779531836509705 -0.00253275968134403229
0.0388287603855133057 -0.0375156626105308533 -0.00521609745919704437
0.0330704711377620697 -0.038981173187494278 -0.00152807356789708138
0.0338710770010948181 -0.0381413698196411133 -0.00684603489935398102
0.0396068841218948364 -0.037092205137014389 -0.00741749908775091171
0.025205390527844429 -0.0395541675388813019 -0.0072842608205974102
0.0252782925963401794 -0.0394188165664672852 -0.00821329373866319656
0.0288611240684986115 -0.0391310937702655792 -0.00579288508743047714
0.0445997901260852814 -0.0358923636376857758 -0.0100798755884170532
0.0337523557245731354 -0.0379161126911640167 -0.00870004668831825256
0.0224492475390434265 -0.0404970422387123108 -0.00369510892778635025
0.0390661954879760742 -0.0374338217079639435 -0.00552996154874563217
0.0344895236194133759 -0.038373313844203949 -0.00430073356255888939
0.0389584749937057495 -0.0375780500471591949 -0.00457849027588963509
0.0257790274918079376 -0.0397823117673397064 -0.00482513615861535072
0.0160810165107250214 -0.0410707108676433563 -0.00752684008330106735
0.0247253309935331345 -0.0396819710731506348 -0.00693426281213760376
0.0355054885149002075 -0.0375386103987693787 -0.00930402055382728577
0.0232591051608324051 -0.0402041077613830566 -0.00486970553174614906
0.0391085855662822723 -0.0373988822102546692 -0.00573956780135631561
0.0405526310205459595 -0.0366848409175872803 -0.00928235426545143127
0.0296433176845312119 -0.0392139516770839691 -0.00416395347565412521
0.0324102193117141724 -0.0388862006366252899 -0.00309220608323812485
0.0311468373984098434 -0.0388509184122085571 -0.00497870426625013351
0.0198019444942474365 -0.0403390452265739441 -0.00828324537724256516
0.0337193943560123444 -0.0380351655185222626 -0.00784289091825485229
0.0315738581120967865 -0.0391123630106449127 -0.00245600519701838493
0.0212060082703828812 -0.0401014015078544617 -0.0082782357931137085
0.0256925448775291443 -0.0399735011160373688 -0.00349162518978118896
0.0389738455414772034 -0.0372586809098720551 -0.00697152409702539444
0.0212449301034212112 -0.0400669649243354797 -0.00848847813904285431
0.0267733335494995117 -0.0394356697797775269 -0.00616898154839873314
0.0277939289808273315 -0.0394310243427753448 -0.00489541003480553627
0.034279555082321167 -0.0379988700151443481 -0.00739882607012987137
0.0394813716411590576 -0.0372775718569755554 -0.00617800233885645866
0.0275561120361089706 -0.0389922745525836945 -0.00851500779390335083
0.0238594282418489456 -0.0400239303708076477 -0.00546114146709442139
0.03071584552526474 -0.0384852364659309387 -0.00829398632049560547
0.038656480610370636 -0.0379281193017959595 -0.00232101092115044594
0.0147385988384485245 -0.041431281715631485 -0.0065241190604865551
0.0326161794364452362 -0.0390956848859786987 -0.0012454744428396225
0.0164508819580078125 -0.0411629416048526764 -0.00635578995570540428
0.028306223452091217 -0.0389216020703315735 -0.0080870920792222023
0.0203650854527950287 -0.0402106679975986481 -0.00853101629763841629
0.0362178981304168701 -0.0379766859114170074 -0.00508097372949123383
0.020629609003663063 -0.0407517813146114349 -0.00410383241251111031
0.0246439501643180847 -0.0398512110114097595 -0.00576004572212696075
0.0382447391748428345 -0.0376196913421154022 -0.00517905689775943756
0.0388726256787776947 -0.0371934995055198669 -0.00759374070912599564
0.0320784375071525574 -0.0381750874221324921 -0.00888990703970193863
0.0112418364733457565 -0.0420317724347114563 -0.00647127069532871246
0.0308393500745296478 -0.0389098003506660461 -0.00492816278710961342
0.030409814789891243 -0.0392532013356685638 -0.00288459565490484238
0.038095034658908844 -0.0372938215732574463 -0.00783290062099695206
0.0308523215353488922 -0.0385879278182983398 -0.0073431897908449173
0.0112905390560626984 -0.0419195294380187988 -0.00725678075104951859
0.0286985207349061966 -0.0393920652568340302 -0.00402982858940958977
0.0277844797819852829 -0.0394457206130027771 -0.0047964882105588913
0.0384811200201511383 -0.0370394885540008545 -0.0092592630535364151
0.0162395797669887543 -0.0411477051675319672 -0.00674184504896402359
0.016702212393283844 -0.0411014966666698456 -0.0064977169968187809
0.00668816734105348587 -0.0426963753998279572 -0.00728929415345191956
0.00821630191057920456 -0.0425417572259902954 -0.00649795914068818092
0.02565007284283638 -0.0394218191504478455 -0.00771391391754150391
0.0276232622563838959 -0.0389709323644638062 -0.00859013106673955917
0.0253067798912525177 -0.0395043566823005676 -0.0075305495411157608
0.0214081481099128723 -0.0401952601969242096 -0.00730996904894709587
0.0402017273008823395 -0.0375097393989562988 -0.00350038567557930946
0.0398522317409515381 -0.0371079593896865845 -0.00698388274759054184
0.034750375896692276 -0.0387372300028800964 -0.00121694942936301231
0.0419434122741222382 -0.0363809317350387573 -0.00979501940310001373
0.0327083021402359009 -0.0384937673807144165 -0.00567472819238901138
0.0210425108671188354 -0.0405822470784187317 -0.00485519971698522568
0.0303057394921779633 -0.0392730720341205597 -0.0028679240494966507
0.0281765684485435486 -0.0305131152272224426 -0.0256265867501497269
0.0181651096791028976 -0.0315248928964138031 -0.0269925910979509354
0.0233503542840480804 -0.0313981585204601288 -0.0257673263549804688
0.0394173674285411835 -0.0283338706940412521 -0.0254524089395999908
0.00780717283487319946 -0.0331283435225486755 -0.0276804231107234955
0.00574738346040248871 -0.0336974449455738068 -0.0274910889565944672
0.0301785767078399658 -0.0300698243081569672 -0.0256674550473690033
0.019052138552069664 -0.0324099063873291016 -0.0256013590842485428
0.0129714123904705048 -0.0332590304315090179 -0.0261253099888563156
0.0276793483644723892 -0.0307644754648208618 -0.0254323389381170273
0.0113262059167027473 -0.0334646068513393402 -0.0262985602021217346
0.00616185646504163742 -0.0350104942917823792 -0.0256687439978122711
0.0117810610681772232 -0.0335569009184837341 -0.0260563120245933533
0.0255362503230571747 -0.0304325539618730545 -0.0264395792037248611
0.00786000490188598633 -0.0333903767168521881 -0.0273247640579938889
0.00373095832765102386 -0.034928642213344574 -0.0264272596687078476
0.0178990717977285385 -0.0323573388159275055 -0.0259790625423192978
0.0159564614295959473 -0.0329590626060962677 -0.0257157944142818451
0.00505398167297244072 -0.0350678414106369019 -0.025891084223985672
0.0237493030726909637 -0.0310815833508968353 -0.0260729193687438965
0.0184792894870042801 -0.0320965088903903961 -0.0261634010821580887
0.0172123126685619354 -0.0322175845503807068 -0.0263453535735607147
0.00045506749302148819 -0.0359370037913322449 -0.0259915739297866821
0.0124890720471739769 -0.0337137766182422638 -0.0256620105355978012
0.00122317671775817871 -0.0346518829464912415 -0.0274604056030511856
0.00339310988783836365 -0.0354172326624393463 -0.0258811116218566895
0.0311134159564971924 -0.0298751778900623322 -0.0256704464554786682
0.0350084006786346436 -0.0290456954389810562 -0.0257070064544677734
0.0248543322086334229 -0.0312238205224275589 -0.0255912356078624725
0.0873396247625350952 -0.0302753839641809464 -0.00272329431027173996
0.0729233399033546448 -0.0326211676001548767 -0.00202535791322588921
0.0637525320053100586 -0.0340602099895477295 -0.00203094072639942169
0.0691683739423751831 -0.0332143604755401611 -0.0019940454512834549
0.0558939799666404724 -0.0353613533079624176 -0.0014610891230404377
0.0834089219570159912 -0.0309309512376785278 -0.00239805527962744236
0.0670522749423980713 -0.0335191972553730011 -0.00222522346302866936
0.0613374970853328705 -0.0344387628138065338 -0.00203583273105323315
0.0876126661896705627 -0.0301526226103305817 -0.00339834019541740417
0.0636189132928848267 -0.0341807045042514801 -0.00119015260133892298
0.072056107223033905 -0.0326773785054683685 -0.00270073697902262211
0.0627565234899520874 -0.0342772006988525391 -0.00151869177352637053
0.083323948085308075 -0.0307512432336807251 -0.00402908911928534508
0.0764127224683761597 -0.0319039672613143921 -0.00345668545924127102
0.0639884248375892639 -0.0339953377842903137 -0.00226615974679589272
0.0777172297239303589 -0.0317420326173305511 -0.00309459958225488663
0.0612163878977298737 -0.034496162086725235 -0.00171150569804012775
0.0587635822594165802 -0.034867655485868454 -0.00182612310163676739
0.0681964606046676636 -0.0334259346127510071 -0.00149557518307119608
0.0624657049775123596 -0.0343447849154472351 -0.00133339478634297848
0.0391934625804424286 -0.0201307181268930435 -0.0323053821921348572
0.037107512354850769 -0.0192002598196268082 -0.0331678055226802826
0.0421560779213905334 -0.0191085226833820343 -0.0322749614715576172
0.0400879904627799988 -0.0135363740846514702 -0.0354996882379055023
0.0189142785966396332 -0.0164193268865346909 -0.0379710681736469269
0.0264586620032787323 -0.0194863900542259216 -0.0350038520991802216
0.0366794690489768982 -0.0194560009986162186 -0.0331171303987503052
0.0387348607182502747 -0.0165171418339014053 -0.0342323780059814453
0.0356748700141906738 -0.0183902420103549957 -0.0338472574949264526
0.0306352563202381134 -0.0181787014007568359 -0.0348930023610591888
0.0212005991488695145 -0.0192584171891212463 -0.036098625510931015
0.0142153277993202209 -0.0188259966671466827 -0.0376190468668937683
0.0315700694918632507 -0.0180064067244529724 -0.0348068289458751678
0.0276505164802074432 -0.0184478349983692169 -0.035311330109834671
0.0434514135122299194 -0.0190832652151584625 -0.0320467576384544373
0.0401844047009944916 -0.0180699136108160019 -0.033171236515045166
0.0392893180251121521 -0.0151683464646339417 -0.0348166003823280334
0.0355107784271240234 -0.0190949682146310806 -0.0335186347365379333
0.0180301256477832794 -0.0181544926017522812 -0.037251301109790802
0.0386567115783691406 -0.0183534938842058182 -0.0333110317587852478
0.0148906446993350983 -0.0174154248088598251 -0.0382122546434402466
0.0346981659531593323 -0.0155718866735696793 -0.0354654006659984589
0.0302950330078601837 -0.0164641439914703369 -0.0358301401138305664
0.0313098058104515076 -0.0169684085994958878 -0.0353842787444591522
0.0252785179764032364 -0.018897736445069313 -0.0355234965682029724
0.0364960096776485443 -0.0164390448480844498 -0.034688856452703476
0.0262488983571529388 -0.0190298557281494141 -0.0352755635976791382
0.0438375324010848999 -0.0157760307192802429 -0.0336604192852973938
0.0314247496426105499 -0.0180606488138437271 -0.0348062291741371155
0.0340464226901531219 -0.0189975220710039139 -0.0338408350944519043
0.0443613380193710327 -0.0170284677296876907 -0.0329246297478675842
0.0259864721447229385 -0.017863985151052475 -0.0359185896813869476
0.0422635786235332489 -0.0193911083042621613 -0.0321109369397163391
0.0446163192391395569 -0.0196792259812355042 -0.0315262265503406525
0.0396707057952880859 -0.0144028626382350922 -0.0351357460021972656
0.0299852117896080017 -0.0160346254706382751 -0.0361067019402980804
0.0299359075725078583 -0.0168910566717386246 -0.035679403692483902
0.0221194848418235779 -0.0170319285243749619 -0.0370623320341110229
0.042092006653547287 -0.0179185960441827774 -0.0328933298587799072
0.0359070040285587311 -0.0171795524656772614 -0.0344210825860500336
0.0253193303942680359 -0.0155655341222882271 -0.0372141487896442413
0.0385790541768074036 -0.016595860943198204 -0.0342212580144405365
0.0416386164724826813 -0.0145726799964904785 -0.0346829481422901154
0.021059919148683548 -0.0164831317961215973 -0.0375392213463783264
0.0432202145457267761 -0.0150065207853913307 -0.0341674908995628357
0.0280879400670528412 -0.0160983875393867493 -0.0364273115992546082
0.035675443708896637 -0.0190103072673082352 -0.0335311368107795715
0.0399282574653625488 -0.0187812019139528275 -0.0328564047813415527
0.0333130285143852234 -0.017108917236328125 -0.0349398478865623474
0.0166897010058164597 -0.016820371150970459 -0.0381807014346122742
0.00879618804901838303 -0.0186931006610393524 -0.0386953391134738922
0.0205333344638347626 -0.0164130609482526779 -0.0376729369163513184
0.0305869914591312408 -0.0175976250320672989 -0.0351981259882450104
0.0356787405908107758 -0.0165045224130153656 -0.0348075889050960541
0.0241015609353780746 -0.0188307501375675201 -0.0357766821980476379
0.0149241415783762932 -0.0174204763025045395 -0.0382034480571746826
0.0226596556603908539 -0.0171921271830797195 -0.0368801578879356384
0.0310478843748569489 -0.0161557868123054504 -0.0358471758663654327
0.0442394167184829712 -0.0136594679206609726 -0.0346643254160881042
0.0220079086720943451 -0.0185205191373825073 -0.0363244414329528809
0.0257359370589256287 -0.0173784084618091583 -0.0362126901745796204
0.0192505009472370148 -0.0187496040016412735 -0.0367208756506443024
0.0306823179125785828 -0.0147928586229681969 -0.0366098284721374512
0.0138267762959003448 -0.0172266196459531784 -0.0385064780712127686
0.0192198194563388824 -0.0179447848349809647 -0.0371367596089839935
0.0279886256903409958 -0.0164092853665351868 -0.0362873449921607971
0.00941003952175378799 -0.0076125413179397583 -0.0422182455658912659
0.00141202192753553391 -0.010591200552880764 -0.0429007932543754578
0.0257858224213123322 -0.00623287446796894073 -0.0397745445370674133
0.00791916530579328537 -0.010199669748544693 -0.041895013302564621
0.0118035674095153809 -0.00743859773501753807 -0.0418549254536628723
0.00666883541271090508 -0.0101862344890832901 -0.0421079285442829132
0.0381910130381584167 -0.00541340513154864311 -0.0378733277320861816
0.0185596738010644913 -0.00851594842970371246 -0.0404816977679729462
0.00730921607464551926 -0.0102013694122433662 -0.0419970527291297913
0.0122481975704431534 -0.00882406998425722122 -0.0414731130003929138
0.00890751369297504425 -0.00870548095554113388 -0.0420603193342685699
0.0209241714328527451 -0.00682664941996335983 -0.0404592007398605347
0.0369709357619285583 -0.00549934431910514832 -0.0380591340363025665
0.021725483238697052 -0.00737505778670310974 -0.0402030721306800842
0.00812894944101572037 -0.0101340031251311302 -0.0418743491172790527
0.00162887899205088615 -0.00802777521312236786 -0.0434326790273189545
0.0302301924675703049 -0.00653152773156762123 -0.0389621034264564514
0.00275551248341798782 -0.00958758965134620667 -0.0428977087140083313
0.00323409400880336761 -0.0100248465314507484 -0.0427204184234142303
0.00231313705444335938 -0.00941806565970182419 -0.0430095680058002472
0.00950397085398435593 -0.00727053498849272728 -0.0422782935202121735
0.0331518314778804779 -0.00580024207010865211 -0.0386336706578731537
0.026711978018283844 -0.00625522714108228683 -0.0396140813827514648
0.0137921655550599098 -0.00837319716811180115 -0.0413138307631015778
0.014257451519370079 -0.0081261172890663147 -0.0412904843688011169
0.032595071941614151 -0.00606604618951678276 -0.0386682227253913879
0.0261202491819858551 -0.00660003535449504852 -0.0396369956433773041
0.015052303671836853 -0.00845237821340560913 -0.0410846918821334839
0.00494146067649126053 -0.0106384633108973503 -0.0422977060079574585
0.034071117639541626 -0.0135193895548582077 -0.0365523993968963623
0.0202779658138751984 -0.0154380062595009804 -0.038151964545249939
0.0112516507506370544 -0.0165178403258323669 -0.0392715111374855042
0.0162081196904182434 -0.0149927269667387009 -0.0390428677201271057
0.0254408642649650574 -0.0152300084009766579 -0.0373419187963008881
0.0163758303970098495 -0.0147675490006804466 -0.0391070283949375153
0.00639065355062484741 -0.0149041106924414635 -0.0407837368547916412
0.000328307854942977428 -0.0184188392013311386 -0.0403802208602428436
0.0103855244815349579 -0.0170654039829969406 -0.0391950495541095734
0.0379897691309452057 -0.0137761430814862251 -0.0357658304274082184
0.000965795537922531366 -0.016954055055975914 -0.040876295417547226
0.00022560461366083473 -0.0180846322327852249 -0.0405364781618118286
0.0363061688840389252 -0.0133553044870495796 -0.0362323969602584839
0.00668608583509922028 -0.0161175895482301712 -0.0402298159897327423
0.00839130114763975143 -0.0158502776175737381 -0.040044538676738739
0.0122993364930152893 -0.0169150065630674362 -0.0389251410961151123
0.0112165836617350578 -0.015103059820830822 -0.0398636199533939362
0.0255907662212848663 -0.0151225905865430832 -0.0373603925108909607
0.00669763609766960144 -0.0166291166096925735 -0.0400159284472465515
0.00605567730963230133 -0.0172837395220994949 -0.0398562103509902954
0.0380175933241844177 -0.01362624391913414 -0.0358230918645858765
0.0193869136273860931 -0.0147899417206645012 -0.0385750718414783478
0.00121120677795261145 -0.018080495297908783 -0.0403671115636825562
0.0175493769347667694 -0.0163480155169963837 -0.0382486693561077118
0.0228271353989839554 -0.0147220902144908905 -0.0380060076713562012
0.0152121949940919876 -0.0155275464057922363 -0.0389942154288291931
0.0180780179798603058 -0.0154032958671450615 -0.0385482199490070343
0.00848213862627744675 -0.0149795832112431526 -0.040389426052570343
0.0242472551763057709 -0.0145722860470414162 -0.037821546196937561
0.0183769073337316513 -0.00874423421919345856 -0.0404586941003799438
0.0419783592224121094 -0.0101029286161065102 -0.0361016280949115753
0.0404448658227920532 -0.00887291878461837769 -0.0366585850715637207
0.0410910472273826599 -0.0113323992118239403 -0.0359582751989364624
0.0130531406030058861 -0.0114756189286708832 -0.0407128371298313141
0.0438608750700950623 -0.00457786628976464272 -0.0371053591370582581
0.0380263626575469971 -0.0110100097954273224 -0.0365590564906597137
0.0193794388324022293 -0.0100735481828451157 -0.0399686023592948914
0.0426085740327835083 -0.00646103266626596451 -0.0368675515055656433
0.0441644750535488129 -0.00789336953312158585 -0.0362582318484783173
0.0395595058798789978 -0.00766338873654603958 -0.037099931389093399
0.0412883609533309937 -0.00915808603167533875 -0.0364461131393909454
0.0255697499960660934 -0.00751555012539029121 -0.039524860680103302
0.0201896354556083679 -0.00997662544250488281 -0.0398534685373306274
0.0248366203159093857 -0.00916296243667602539 -0.0392549261450767517
0.0113698039203882217 -0.0104658231139183044 -0.0412425659596920013
0.0400886312127113342 -0.0126793328672647476 -0.0358064025640487671
0.0212826021015644073 -0.0102195367217063904 -0.0396085232496261597
0.0362489037215709686 -0.00963974371552467346 -0.0371913276612758636
0.0120976641774177551 -0.011319315992295742 -0.0409135222434997559
0.0294396877288818359 -0.00976354815065860748 -0.0383246541023254395
0.0395920015871524811 -0.0117463711649179459 -0.036115013062953949
0.0348965339362621307 -0.0113742174580693245 -0.0370062738656997681
0.0395744852721691132 -0.00806526746600866318 -0.0370009765028953552
0.0282798521220684052 -0.00754524348303675652 -0.0390548482537269592
0.0407796837389469147 -0.00760921835899353027 -0.0369045138359069824
0.0369452312588691711 -0.0107952570542693138 -0.0367952287197113037
0.00851515680551528931 -0.011279708705842495 -0.0415349230170249939
0.0261324234306812286 -0.0121496245265007019 -0.0383172035217285156
0.0365354977548122406 -0.00831497740000486374 -0.0374601408839225769
0.0294718071818351746 -0.00801032222807407379 -0.0387397073209285736
0.0376409217715263367 -0.0111438697203993797 -0.0365927815437316895
0.041372980922460556 -0.00538293318822979927 -0.0373371876776218414
0.0302015021443367004 -0.00918651837855577469 -0.0383329465985298157
0.038631729781627655 -0.0113514121621847153 -0.0363737642765045166
0.016452249139547348 -0.0104723181575536728 -0.0403729192912578583
0.0371307916939258575 -0.0112652434036135674 -0.0366507954895496368
0.043301016092300415 -0.0111060086637735367 -0.0356351137161254883
0.0104337651282548904 -0.01140553317964077 -0.0411770381033420563
0.014728086069226265 -0.00944287702441215515 -0.0409143343567848206
0.0411292649805545807 -0.00596310105174779892 -0.0372396521270275116
0.0328503511846065521 -0.00652204034850001335 -0.0385196320712566376
0.0430139005184173584 -0.00755167333409190178 -0.0365367121994495392
0.0361073017120361328 -0.0117096323519945145 -0.0367190167307853699
0.00418727239593863487 -0.0109666017815470695 -0.0423492342233657837
0.0217095836997032166 -0.00873031094670295715 -0.0398928076028823853
0.0354027040302753448 -0.00978273153305053711 -0.0373015627264976501
0.0434252023696899414 -0.00748128443956375122 -0.0364833436906337738
0.0445685870945453644 -0.012566346675157547 -0.0350683256983757019
0.0351999513804912567 -0.0111451121047139168 -0.0370094068348407745
0.036288037896156311 -0.00859046261757612228 -0.0374363288283348083
0.018382614478468895 -0.010600709356367588 -0.0400124117732048035
0.043828282505273819 -0.0102915503084659576 -0.0357404127717018127
0.0256226956844329834 -0.010404110886156559 -0.038822956383228302
0.0408627949655056 -0.00918854027986526489 -0.0365114957094192505
0.0411627441644668579 -0.0123795336112380028 -0.0356948524713516235
0.0419047623872756958 -0.00882993359118700027 -0.0364195443689823151
0.0347288921475410461 -0.012177775613963604 -0.0368421599268913269
0.0379154644906520844 -0.0124902641400694847 -0.0362229347229003906
0.0300324782729148865 -0.0117985084652900696 -0.0377352871000766754
0.0307103507220745087 -0.0110536254942417145 -0.0377981811761856079
0.0396936014294624329 -0.0088969990611076355 -0.0367811247706413269
0.0437792912125587463 -0.0075358864851295948 -0.036409769207239151
0.0311359837651252747 -0.00691936910152435303 -0.0387171432375907898
0.0264393612742424011 -0.00734796980395913124 -0.0394165292382240295
0.0385591015219688416 -0.00977172981947660446 -0.0367650836706161499
0.0206908024847507477 -0.0307646468281745911 -0.0272660087794065475
0.0310698337852954865 -0.029062243178486824 -0.0266699157655239105
0.00405416544526815414 -0.033003833144903183 -0.0287558045238256454
0.0290662311017513275 -0.0288928002119064331 -0.0273285489529371262
0.00298764742910861969 -0.0321180820465087891 -0.0299745872616767883
0.0336842052638530731 -0.0288013126701116562 -0.0263365488499403
0.00952349603176116943 -0.0307791233062744141 -0.0298905204981565475
0.0206354483962059021 -0.0304345209151506424 -0.0276393648236989975
0.00720449723303318024 -0.0320794209837913513 -0.0290197823196649551
0.0144904237240552902 -0.0313572883605957031 -0.0280852261930704117
0.0123530011624097824 -0.0308453645557165146 -0.0291492454707622528
0.00610838271677494049 -0.031359449028968811 -0.0300646498799324036
0.0403940379619598389 -0.0279040317982435226 -0.0257293395698070526
0.00181702990084886551 -0.0330767408013343811 -0.0292051695287227631
0.010544290766119957 -0.0313044749200344086 -0.0290758516639471054
0.0277333445847034454 -0.0297063104808330536 -0.0267558936029672623
0.0215197727084159851 -0.0306268632411956787 -0.0272203758358955383
0.0154389655217528343 -0.0309777501970529556 -0.028275148943066597
0.00707603991031646729 -0.0311020743101835251 -0.0301167406141757965
0.00646002497524023056 -0.032277330756187439 -0.0289798155426979065
0.0198834836483001709 -0.0308208223432302475 -0.0273955799639225006
0.00288433581590652466 -0.0313968397676944733 -0.0307861119508743286
0.011311827227473259 -0.0312864556908607483 -0.0289140418171882629
0.0299962032586336136 -0.0288797393441200256 -0.0271229222416877747
0.0424033850431442261 -0.0275813285261392593 -0.0256064347922801971
0.0131574617698788643 -0.0314892902970314026 -0.0282563194632530212
0.0196435973048210144 -0.0306092146784067154 -0.0276832245290279388
0.00711131002753973007 -0.0323374718427658081 -0.028760204091668129
0.0107903201133012772 -0.0309261009097099304 -0.0294306036084890366
0.00232507684268057346 0.0171787869185209274 -0.0405472591519355774
0.0150210661813616753 0.0162652414292097092 -0.0387218296527862549
0.0260886028409004211 0.0147251393646001816 -0.0374386049807071686
0.0386438444256782532 0.0133395753800868988 -0.0358331203460693359
0.0271123461425304413 0.0146181834861636162 -0.037305198609828949
0.00360365770757198334 0.0171693526208400726 -0.0403292253613471985
0.0033095718827098608 0.0153812486678361893 -0.0411209277808666229
0.0147684607654809952 0.0158120021224021912 -0.0389534160494804382
0.0281477645039558411 0.0145713435485959053 -0.0371448695659637451
0.00649626227095723152 0.0158180557191371918 -0.0403868332505226135
0.00907921325415372849 0.0151316849514842033 -0.0402227751910686493
0.0139275733381509781 0.0147655773907899857 -0.0395328253507614136
0.00489551760256290436 0.0158046036958694458 -0.0406702719628810883
0.0172833502292633057 0.0150972548872232437 -0.0388129241764545441
0.0214195586740970612 0.014215477742254734 -0.0384601838886737823
0.0278062131255865097 0.0141711458563804626 -0.0373699255287647247
0.0187238194048404694 0.0150731317698955536 -0.0385728739202022552
0.00630555814132094383 0.0162372421473264694 -0.0402463041245937347
0.0193439628928899765 0.0159613359719514847 -0.0380973219871520996
0.00612768670544028282 0.0152379507198929787 -0.0406911037862300873
0.00575238373130559921 0.0174922645092010498 -0.0398224815726280212
0.0236233063042163849 0.0150522375479340553 -0.0377310514450073242
0.00789342634379863739 0.0176216252148151398 -0.0393972471356391907
0.0092470971867442131 0.0162319429218769073 -0.039737895131111145
0.0250191129744052887 0.0149838505312800407 -0.0375170893967151642
0.024846276268362999 0.0142377708107233047 -0.0378561243414878845
0.0149843320250511169 0.0158664193004369736 -0.0388934016227722168
0.000325149885611608624 0.0184774007648229599 -0.0403565093874931335
0.00518561201170086861 0.0180190186947584152 -0.0397026762366294861
0.0056342598982155323 0.0178451333194971085 -0.0396968238055706024
0.0310228615999221802 -0.0245244037359952927 -0.0307183228433132172
0.0421304777264595032 -0.0247995220124721527 -0.0280517451465129852
0.0447860658168792725 -0.0211740937083959579 -0.0305683892220258713
0.00270360009744763374 -0.0281314849853515625 -0.0338351987302303314
0.0386022813618183136 -0.0241681002080440521 -0.0293636340647935867
0.0209414437413215637 -0.0259695816785097122 -0.0316902510821819305
0.010069732554256916 -0.0281822755932807922 -0.0321793332695960999
0.0311890318989753723 -0.0237597506493330002 -0.0313353464007377625
0.0315247587859630585 -0.0274036377668380737 -0.0281481314450502396
0.0323831699788570404 -0.026673460379242897 -0.0285841599106788635
0.0198021791875362396 -0.0265292879194021225 -0.0314613692462444305
0.0354204922914505005 -0.024245651438832283 -0.0299938656389713287
0.0416121408343315125 -0.0217783227562904358 -0.0307468492537736893
0.0237600672990083694 -0.0274852551519870758 -0.0297780930995941162
0.00847106985747814178 -0.0278986226767301559 -0.032771669328212738
0.027393680065870285 -0.0273527428507804871 -0.0290959198027849197
0.0405504107475280762 -0.0257389191538095474 -0.027594907209277153
0.0240469742566347122 -0.0270106866955757141 -0.0301208142191171646
0.0273627694696187973 -0.0246373489499092102 -0.0314230099320411682
0.0396060273051261902 -0.0226240791380405426 -0.0304632857441902161
0.0242150481790304184 -0.025269797071814537 -0.0315716229379177094
0.0387140996754169464 -0.0219122245907783508 -0.0312668196856975555
0.0413826704025268555 -0.0252517592161893845 -0.0278290025889873505
0.0395543873310089111 -0.0222228392958641052 -0.0308174528181552887
0.0167264062911272049 -0.0277776475995779037 -0.0310679282993078232
0.0314567051827907562 -0.0277304984629154205 -0.0278837196528911591
0.0340632759034633636 -0.0234677959233522415 -0.0309556480497121811
0.0430469848215579987 -0.0252058114856481552 -0.0275039449334144592
0.0348231121897697449 -0.0225425325334072113 -0.0315799601376056671
0.0145495794713497162 -0.026835193857550621 -0.0323497727513313293
0.0381545871496200562 -0.0252546053379774094 -0.0285332072526216507
0.0216751731932163239 -0.0251884795725345612 -0.0321970954537391663
0.0398533232510089874 -0.0258909557014703751 -0.0276175830513238907
0.039898402988910675 -0.0236534811556339264 -0.0295196529477834702
0.0257088281214237213 -0.0277681481093168259 -0.0291097704321146011
0.0214269682765007019 -0.0274782814085483551 -0.0302947741001844406
0.0407657362520694733 -0.0232541542500257492 -0.0296710208058357239
0.0323402807116508484 -0.0231451895087957382 -0.03160848468542099
0.0370153188705444336 -0.0243516173213720322 -0.0295542050153017044
0.0249800663441419601 -0.0243727564811706543 -0.0321706868708133698
0.0406617410480976105 -0.0246021635830402374 -0.0285419002175331116
0.0331086330115795135 -0.0237956494092941284 -0.0308844652026891708
0.0352256037294864655 -0.0267393793910741806 -0.0279056169092655182
0.0334164202213287354 -0.0233101248741149902 -0.0312319770455360413
0.0339490361511707306 -0.0241668559610843658 -0.0303833018988370895
0.0140955932438373566 -0.0265229176729917526 -0.0327159985899925232
0.0341774299740791321 -0.0242122523486614227 -0.0302945151925086975
0.0282585378736257553 -0.0261482857167720795 -0.029935816302895546
0.0355971008539199829 -0.0224369298666715622 -0.0315007716417312622
0.0432584397494792938 -0.0227647256106138229 -0.0295435823500156403
0.0301348175853490829 -0.0237691923975944519 -0.0315580517053604126
0.0265199132263660431 -0.0239575542509555817 -0.0321884080767631531
0.0158869586884975433 -0.0277789533138275146 -0.0312505699694156647
0.0223266780376434326 -0.0260789748281240463 -0.0312935411930084229
0.0284769907593727112 -0.0276088416576385498 -0.0286399424076080322
0.0401300117373466492 -0.022948266938328743 -0.0300715640187263489
0.0439170412719249725 -0.023178882896900177 -0.0290455110371112823
0.0411384329199790955 -0.0256621073931455612 -0.027531823143362999
0.0405420474708080292 -0.0227738562971353531 -0.0301304049789905548
0.0137482844293117523 -0.0277152452617883682 -0.0317731685936450958
0.0237679630517959595 -0.0253090597689151764 -0.0316359438002109528
0.0318946130573749542 -0.0258484520018100739 -0.0293960832059383392
0.0427955500781536102 -0.026758706197142601 -0.0262320227921009064
0.0327591150999069214 -0.0263131391257047653 -0.028809763491153717
0.0351734459400177002 -0.0245526116341352463 -0.0297856442630290985
0.0200719423592090607 -0.0264611653983592987 -0.0314605236053466797
0.0228454042226076126 -0.0235447809100151062 -0.0332572944462299347
0.036625884473323822 -0.0217840690165758133 -0.0318029262125492096
0.0106992423534393311 -0.0251785740256309509 -0.0344763360917568207
0.0246907901018857956 -0.0231545213609933853 -0.0331810712814331055
0.0175045058131217957 -0.0239342395216226578 -0.0340457446873188019
0.014649328775703907 -0.0244455598294734955 -0.0342346467077732086
0.015865623950958252 -0.0242377053946256638 -0.0341465286910533905
0.0121177127584815025 -0.0254446957260370255 -0.0339833647012710571
0.0132116768509149551 -0.025106305256485939 -0.0340203158557415009
0.0284834913909435272 -0.022841431200504303 -0.0326492004096508026
0.0283438637852668762 -0.022649938240647316 -0.0328245609998703003
0.00550042418763041496 -0.0262952670454978943 -0.0346778370440006256
0.00138677365612238646 -0.0282976273447275162 -0.0339788235723972321
0.0409141145646572113 -0.0212941393256187439 -0.0313058719038963318
0.0146389473229646683 -0.025739230215549469 -0.0332440920174121857
0.0325493216514587402 -0.0220256596803665161 -0.0324474498629570007
0.0196347404271364212 -0.0240726489573717117 -0.0335058681666851044
0.0127396732568740845 -0.0243269801139831543 -0.0347144007682800293
0.0181212667375802994 -0.0249631255865097046 -0.033130694180727005
0.00823184847831726074 -0.0263791941106319427 -0.0340573787689208984
0.017308361828327179 -0.0248852856457233429 -0.0333559140563011169
0.0147356484085321426 -0.0253569222986698151 -0.0335177630186080933
0.0179365463554859161 -0.0238276589661836624 -0.0340395718812942505
0.0147372512146830559 -0.0255552772432565689 -0.0333652310073375702
0.0108307879418134689 -0.0249214526265859604 -0.0346468538045883179
0.0294388718903064728 -0.0227688811719417572 -0.0325103737413883209
0.0226727910339832306 -0.0240049324929714203 -0.0329393483698368073
0.0198726095259189606 -0.0248098596930503845 -0.0328917652368545532
0.0280080679804086685 -0.0229074545204639435 -0.0326953232288360596
0.0111192250624299049 0.0262362044304609299 -0.0335792899131774902
0.0101784979924559593 0.0244386512786149979 -0.0351501107215881348
0.0324258022010326385 0.0226119328290224075 -0.0320227257907390594
0.000806536059826612473 0.0260345116257667542 -0.0358334966003894806
0.00915095210075378418 0.0256445650011301041 -0.0344339683651924133
0.0267002135515213013 0.0230821408331394196 -0.0328275300562381744
0.00814261659979820251 0.0254397261887788773 -0.0347964204847812653
0.0134444022551178932 0.0250446833670139313 -0.0340202152729034424
0.00906243082135915756 0.0267658233642578125 -0.0335916168987751007
0.00413757003843784332 0.02603866346180439 -0.0351521819829940796
0.0175169687718153 0.0249477997422218323 -0.0332654714584350586
0.0044930633157491684 0.0260195601731538773 -0.0350944697856903076
0.0232475828379392624 0.0236728675663471222 -0.0330771319568157196
0.0109337260946631432 0.0263079609721899033 -0.0335619933903217316
0.00702653778716921806 0.0249955654144287109 -0.035364445298910141
0.0273575931787490845 0.023096596822142601 -0.0326826088130474091
0.0062907002866268158 0.0248644519597291946 -0.0356148555874824524
0.0138223767280578613 0.024625830352306366 -0.0342646650969982147
0.00352357234805822372 0.0263672322034835815 -0.0350250601768493652
0.000317417841870337725 0.0255438070744276047 -0.0363096036016941071
0.0321089997887611389 0.0222954899072647095 -0.0323300361633300781
0.0175838340073823929 0.024462258443236351 -0.0336244292557239532
0.00881673954427242279 0.0251716077327728271 -0.0348649173974990845
0.012881946749985218 0.0262771602720022202 -0.0331890098750591278
0.0155581887811422348 0.0244067534804344177 -0.0340793952345848083
0.0208071805536746979 0.0236810687929391861 -0.0335676521062850952
0.016778385266661644 0.0246324818581342697 -0.0336577855050563812
0.00254435068927705288 0.0260105598717927933 -0.0354980938136577606
0.00902219768613576889 0.0251842625439167023 -0.0348133817315101624
0.000550572818610817194 -0.0220555644482374191 -0.0384808182716369629
0.00188111246097832918 -0.0211751293390989304 -0.038692135363817215
0.0316785238683223724 -0.0208840016275644302 -0.0333119109272956848
0.0250442568212747574 -0.0200307480990886688 -0.0349877104163169861
0.0140357157215476036 -0.0206285677850246429 -0.0367202013731002808
0.0192092899233102798 -0.0206327140331268311 -0.0357575863599777222
0.0239850655198097229 -0.0200354456901550293 -0.0351819023489952087
0.00281725986860692501 -0.0212782584130764008 -0.0384646579623222351
0.0228414218872785568 -0.021108655259013176 -0.0348355360329151154
0.0117333941161632538 -0.0216709952801465988 -0.0366049669682979584
0.0159173309803009033 -0.0201026368886232376 -0.036644667387008667
0.00684165302664041519 -0.0210169702768325806 -0.0378535613417625427
0.0160206463187932968 -0.0195171292871236801 -0.0369302853941917419
0.00686063570901751518 -0.0195458326488733292 -0.0386158637702465057
0.0189797971397638321 -0.0211278591305017471 -0.0355424359440803528
0.00451444555073976517 -0.0205247402191162109 -0.038541838526725769
0.00127702625468373299 -0.0191897712647914886 -0.0398377925157546997
0.0348088592290878296 -0.0208473503589630127 -0.0327498540282249451
0.0151559459045529366 -0.0204096473753452301 -0.0366261973977088928
0.00280205043964087963 -0.0190834943205118179 -0.039610002189874649
0.0328858122229576111 -0.0205130130052566528 -0.0332809016108512878
0.00570931239053606987 -0.0198716595768928528 -0.0386599898338317871
0.0287961158901453018 -0.020532386377453804 -0.0340300537645816803
0.0224529486149549484 -0.0198124051094055176 -0.0355824381113052368
0.00922838505357503891 -0.0193252582103013992 -0.0382911264896392822
0.0154858892783522606 -0.0216534025967121124 -0.0359174869954586029
0.00441806251183152199 -0.0216849781572818756 -0.0379557497799396515
0.020079195499420166 -0.0202126335352659225 -0.035814773291349411
0.0373251549899578094 -0.0205536745488643646 -0.032435588538646698
0.0304783768951892853 -0.031094847247004509 -0.0241889338940382004
0.0406097695231437683 -0.0324523709714412689 -0.0194565504789352417
0.0303924418985843658 -0.0333560481667518616 -0.0211030002683401108
0.0205725785344839096 -0.033614765852689743 -0.0235241744667291641
0.0047359764575958252 -0.0358326807618141174 -0.0249520391225814819
0.0433219447731971741 -0.0315324962139129639 -0.0199548210948705673
0.0400422438979148865 -0.0304640457034111023 -0.022351948544383049
0.0197984501719474792 -0.033814597874879837 -0.0234682317823171616
0.0335246659815311432 -0.0297772251069545746 -0.0251398142427206039
0.0367246381938457489 -0.0318199656903743744 -0.0214251205325126648
0.0236379913985729218 -0.0327324345707893372 -0.0238709151744842529
0.0220984742045402527 -0.0337538011372089386 -0.0229014158248901367
0.0258665122091770172 -0.033279862254858017 -0.0224877167493104935
0.0180376749485731125 -0.0341205522418022156 -0.023545343428850174
0.0373501516878604889 -0.0301955603063106537 -0.0234825611114501953
0.0258513055741786957 -0.033103547990322113 -0.0227345321327447891
0.0135208889842033386 -0.0341718569397926331 -0.0247521139681339264
0.0393861047923564911 -0.0301375091075897217 -0.0229866467416286469
0.0399414785206317902 -0.0290438942611217499 -0.024333832785487175
0.00729931145906448364 -0.0350476726889610291 -0.0253068935126066208
0.0113993063569068909 -0.0347663797438144684 -0.0245343372225761414
0.0427245534956455231 -0.0299683474004268646 -0.0222752150148153305
0.0354912020266056061 -0.0319637395441532135 -0.0215761736035346985
0.0219346508383750916 -0.0344265885651111603 -0.0220223404467105865
0.0312525331974029541 -0.0316504575312137604 -0.0232057757675647736
0.0408423803746700287 -0.0290757156908512115 -0.0240352917462587357
0.0328585058450698853 -0.0318762511014938354 -0.0224410295486450195
0.0108432918787002563 -0.0347859151661396027 -0.0246647074818611145
0.0287041384726762772 -0.0324149727821350098 -0.0228748805820941925
0.0251931771636009216 -0.0314325578510761261 -0.0252190642058849335
0.0426955260336399078 -0.0291200857609510422 -0.023450193926692009
0.0283886939287185669 -0.0337890349328517914 -0.0210740882903337479
0.0341663472354412079 -0.0325842984020709991 -0.0210972707718610764
0.0382193252444267273 -0.029384903609752655 -0.0243518035858869553
0.0295664537698030472 -0.0310292541980743408 -0.0245370473712682724
0.0338062122464179993 -0.0306488927453756332 -0.0238612312823534012
0.0352875590324401855 -0.0297807231545448303 -0.024636460468173027
0.0375406704843044281 -0.0289872437715530396 -0.0250907000154256821
0.013772251084446907 -0.0345972441136837006 -0.0240959171205759048
0.0401139147579669952 -0.0323875769972801208 -0.0196858979761600494
0.0191676393151283264 -0.0333128347992897034 -0.0243367906659841537
0.029205959290266037 -0.0332427173852920532 -0.0215944182127714157
0.0430684611201286316 -0.0307371430099010468 -0.0211204998195171356
0.0315988510847091675 -0.0334605611860752106 -0.0206180717796087265
0.0434464067220687866 -0.0324998274445533752 -0.0185890775173902512
0.02365131676197052 -0.0334676057100296021 -0.022855931892991066
0.0323990359902381897 -0.0306733660399913788 -0.0242255162447690964
0.0262237843126058578 -0.0316859930753707886 -0.0245790164917707443
0.0354425534605979919 -0.0309471786022186279 -0.0229881890118122101
0.0323343910276889801 -0.0319386497139930725 -0.0225034225732088089
0.0399469435214996338 -0.0321090817451477051 -0.0201161839067935944
0.0429717637598514557 -0.0282290410250425339 -0.0245976895093917847
0.0444125086069107056 -0.0287221390753984451 -0.0235120020806789398
0.0405450575053691864 -0.0302384253591299057 -0.0225200895220041275
0.0297808907926082611 -0.0335242338478565216 -0.0210446063429117203
0.0422064140439033508 -0.0314216949045658112 -0.020422695204615593
0.0443609803915023804 -0.0316022373735904694 -0.0195650570094585419
0.0425162911415100098 -0.0294949077069759369 -0.0229853205382823944
0.0376020446419715881 -0.0295323897153139114 -0.0243235044181346893
0.0336022153496742249 -0.0315868519246578217 -0.0226287767291069031
0.0252739526331424713 -0.0314826592803001404 -0.0251273065805435181
0.0165664348751306534 -0.0344034582376480103 -0.0235722754150629044
0.0432746186852455139 -0.0323961488902568817 -0.018780270591378212
0.0376842916011810303 -0.0294551420956850052 -0.0244065001606941223
0.0388420559465885162 -0.0306172966957092285 -0.0224805623292922974
0.0350142717361450195 -0.0306609291583299637 -0.023503035306930542
0.0186087824404239655 -0.00509308557957410812 -0.0411210507154464722
0.00106118770781904459 -0.00480833742767572403 -0.0439868159592151642
0.00837664119899272919 -0.00498997606337070465 -0.0427838154137134552
0.0144423171877861023 -0.00473846122622489929 -0.0418392755091190338
0.00453960709273815155 -0.00551903992891311646 -0.0433326065540313721
0.0229130573570728302 -0.00475551746785640717 -0.040471736341714859
0.0147047247737646103 -0.00478219008073210716 -0.0417912229895591736
0.00414457963779568672 -0.0049902014434337616 -0.0434659011662006378
0.0404199063777923584 -0.00451734848320484161 -0.0376813821494579315
0.0246615558862686157 -0.0053851851262152195 -0.0401070192456245422
0.0230716504156589508 -0.00577135616913437843 -0.0403124392032623291
0.0235770903527736664 -0.0057797054760158062 -0.0402298718690872192
0.0141879534348845482 -0.00411019288003444672 -0.0419629849493503571
0.0399483703076839447 -0.00452725635841488838 -0.0377560779452323914
0.0355194136500358582 -0.00443108007311820984 -0.0384825877845287323
0.0253276340663433075 -0.00555482693016529083 -0.0399773307144641876
0.0366045497357845306 -0.0047183353453874588 -0.0382698699831962585
0.0270867068320512772 -0.00504498369991779327 -0.039760928601026535
0.00246592843905091286 -0.00425211526453495026 -0.0438336282968521118
0.01897391676902771 -0.00537363998591899872 -0.041025262326002121
0.0190343428403139114 -0.00628412980586290359 -0.0408956557512283325
0.0233597476035356522 -0.00537147931754589081 -0.0403186492621898651
0.000146585240145213902 -0.00597620569169521332 -0.043980475515127182
0.012690017931163311 -0.0058110835961997509 -0.0419804975390434265
