ply
format ascii 1.0
element vertex 715
property float x
property float y
property float z
end_header
-0.0252487286925315857 0.0171400345861911774 0.0168440788984298706
0.0189538206905126572 0.0161136239767074585 0.0177533999085426331
0.0364268533885478973 0.0166780687868595123 0.0172533448785543442
-0.048474535346031189 0.0178137104958295822 0.0162472538650035858
0.0382433794438838959 0.0147586371749639511 0.0189538132399320602
0.0412643104791641235 0.0147010032087564468 0.0190048720687627792
-0.00922096520662307739 0.0178319904953241348 0.0162310600280761719
0.0029251929372549057 0.0161672383546829224 0.0177059024572372437
-0.00437463074922561646 0.0172314513474702835 0.0167630910873413086
0.0150069929659366608 0.016872873529791832 0.0170807633548974991
-0.0356006324291229248 0.0174331441521644592 0.0165844075381755829
0.0468726605176925659 0.0170505791902542114 0.0169233307242393494
-0.0254536103457212448 0.0179276261478662491 0.0161463338881731033
-0.0141017064452171326 0.0176153015345335007 0.016423029825091362
-0.0189435109496116638 0.0177022349089384079 0.0163460131734609604
0.0317889824509620667 0.016840759664773941 0.0171092133969068527
-0.016307484358549118 0.0180605445057153702 0.0160285793244838715
0.0568777881562709808 0.0150033002719283104 0.0187370609492063522
0.00113222748041152954 0.0172352083027362823 0.0167597625404596329
0.0547553785145282745 0.0144350072368979454 0.0192405246198177338
0.029511747881770134 0.0156201105564832687 0.0181906148791313171
-0.0431873276829719543 0.0177096612751483917 0.0163394343107938766
0.0372241586446762085 0.0176870245486497879 0.0163594875484704971
-0.0501747168600559235 0.0179720204323530197 0.0161070041358470917
0.00369851663708686829 0.0173329822719097137 0.0166731420904397964
0.0387626774609088898 0.016599578782916069 0.0173228811472654343
0.023497503250837326 0.017362058162689209 0.0166473835706710815
0.00946721713989973068 0.0159269962459802628 0.017918737605214119
0.0465785302221775055 0.0155463200062513351 0.018255988135933876
0.0124611780047416687 0.0174358971416950226 0.0165819674730300903
0.0417802333831787109 0.0159249398857355118 0.0179205592721700668
0.0350307077169418335 0.0151912961155176163 0.018570510670542717
-0.00311743468046188354 0.0179738756269216537 0.01610536128282547
0.0455723218619823456 0.0156824924051761627 0.0181353483349084854
0.0195481069386005402 0.0166914686560630798 0.0172414742410182953
0.0150768831372261047 0.0206889379769563675 0.0122296921908855438
0.0308931358158588409 0.0213351845741271973 0.0112934401258826256
-0.0345474854111671448 0.0210441406816244125 0.011715092696249485
0.0376569181680679321 0.0209825858473777771 0.0118042696267366409
0.0445177033543586731 0.0204434581100940704 0.0125853326171636581
-0.0282644908875226974 0.0212778281420469284 0.0113765373826026917
0.0552842095494270325 0.0195602457970380783 0.0138648850843310356
-0.0335557460784912109 0.0208859648555517197 0.0119442502036690712
0.04100833460688591 0.0188818648457527161 0.0148476911708712578
0.0307932794094085693 0.0199196971952915192 0.0133441304787993431
-0.0485123135149478912 0.021341932937502861 0.0112836658954620361
0.0534063465893268585 0.0182716883718967438 0.0157316830009222031
0.0196439996361732483 0.0212864726781845093 0.0113640129566192627
0.0485782958567142487 0.0185348298400640488 0.0153504572808742523
0.0468954630196094513 0.0206810850650072098 0.0122410692274570465
-0.0202518627047538757 0.020441809669137001 0.0125877195969223976
0.0505773238837718964 0.0196010377258062363 0.0138057880103588104
0.00899213925004005432 0.0202939212322235107 0.0128019712865352631
0.0519979409873485565 0.0199968907982110977 0.0132322963327169418
-0.00761013105511665344 0.0204272232949733734 0.0126088503748178482
0.0294940117746591568 0.019227590411901474 0.0143468203023076057
-0.00504462048411369324 0.0210516322404146194 0.0117042381316423416
-0.0199713930487632751 0.0207225680351257324 0.0121809719130396843
-0.0454951860010623932 0.0212140455842018127 0.0114689432084560394
0.00170520320534706116 0.0201887562870979309 0.0129543300718069077
0.0367623902857303619 0.0198143944144248962 0.0134966876357793808
0.0555759444832801819 0.01953866146504879 0.0138961561024188995
0.0553017407655715942 0.0206435900181531906 0.0122953895479440689
0.0158622767776250839 0.0194032453000545502 0.0140923410654067993
0.0299414098262786865 0.0207822080701589584 0.012094566598534584
0.0489834994077682495 0.0183778554201126099 0.0155778750777244568
-0.0209791865199804306 0.0209852233529090881 0.0118004493415355682
-0.034714624285697937 0.0209195371717214584 0.0118956109508872032
0.0125639131292700768 0.0195877794176340103 0.0138249974697828293
0.0445595309138298035 0.0195221658796072006 0.0139200538396835327
0.0396250411868095398 0.0195070113986730576 0.0139420097693800926
-0.0125370025634765625 0.0206374619156122208 0.0123042687773704529
0.0492296032607555389 0.0186433643102645874 0.015193217433989048
-0.0266176760196685791 0.0207749474793672562 0.0121050868183374405
-0.0296431519091129303 0.0213478691875934601 0.0112750642001628876
0.0522013306617736816 0.020418969914317131 0.0126208085566759109
0.0168783701956272125 0.0207928735762834549 0.0120791150256991386
0.0351625792682170868 0.0190858487039804459 0.0145521685481071472
-0.000609600916504859924 0.020228387787938118 0.0128969131037592888
0.0569805875420570374 0.0183096230030059814 0.0156767275184392929
-0.00922142341732978821 0.020850546658039093 0.011995561420917511
0.0360604263842105865 0.0209948718547821045 0.0117864701896905899
0.024854954332113266 0.0199498124420642853 0.0133004998788237572
0.0122076664119958878 0.0200880281627178192 0.0131002599373459816
0.0160738527774810791 0.0211632717400789261 0.0115424999967217445
0.0201342850923538208 0.0200359392911195755 0.0131757250055670738
0.0566072538495063782 0.0201695840805768967 0.0129821049049496651
-0.0336365662515163422 0.0207182690501213074 0.0121871978044509888
0.00953824911266565323 0.0196430590003728867 0.0137449111789464951
0.0124597605317831039 0.0201674606651067734 0.0129851829260587692
0.0443793535232543945 0.0192642547190189362 0.0142937032505869865
-0.00195014476776123047 0.0211449954658746719 0.0115689774975180626
0.0322408862411975861 0.0192020907998085022 0.0143837630748748779
0.0513546839356422424 0.0184648539870977402 0.0154518336057662964
0.0435700342059135437 0.0190088525414466858 0.0146637158468365669
0.0403369702398777008 0.0202306192368268967 0.0128936814144253731
0.0316456928849220276 0.0194712653756141663 0.0139937940984964371
0.031679932028055191 0.0209450889378786087 0.0118585936725139618
-0.021134696900844574 0.0207740012556314468 0.0121064567938446999
0.0511578656733036041 0.0209736432880163193 0.0118172252550721169
0.0559920668601989746 0.0186384078115224838 0.015200398862361908
-0.0140329897403717041 0.0208520833402872086 0.0119933346286416054
-0.0223360490053892136 0.0212170574814081192 0.0114645771682262421
0.000659875571727752686 0.0211142264306545258 0.0116135552525520325
0.0439807996153831482 0.0198379978537559509 0.0134624913334846497
0.0408530943095684052 0.0211352277547121048 0.0115831298753619194
0.0285015441477298737 0.0205680932849645615 0.0124047640711069107
0.00593794137239456177 0.0202264897525310516 0.0128996651619672775
-0.00418072938919067383 0.0213610474020242691 0.0112559730187058449
0.0466699302196502686 0.0205161739140748978 0.0124799851328134537
-0.0115884207189083099 0.0210608653724193573 0.0116908624768257141
0.0532279536128044128 0.0203571300953626633 0.0127103989943861961
0.0431344136595726013 0.0185615122318267822 0.0153118018060922623
-0.0219842307269573212 0.0206472072750329971 0.0122901508584618568
0.0530054979026317596 0.0200158562511205673 0.0132048195227980614
0.0363332405686378479 0.0200226139277219772 0.0131950294598937035
0.0415401719510555267 0.0199800748378038406 0.0132566569373011589
0.0442781038582324982 0.0200583375990390778 0.0131432740017771721
0.0217212960124015808 0.0192259587347507477 0.0143491849303245544
0.0375079214572906494 0.021024724468588829 0.0117432205006480217
0.015833728015422821 0.0198877230286598206 0.0133904516696929932
0.0185440108180046082 0.0203466974198818207 0.0127255143597722054
0.0550998002290725708 0.0195466838777065277 0.0138845350593328476
0.0267994031310081482 0.0207803361117839813 0.0120972795411944389
0.0207268483936786652 0.0191354118287563324 0.0144803654402494431
0.0557040199637413025 0.0188523046672344208 0.0148905143141746521
0.00596517324447631836 0.0204119067639112473 0.0126310419291257858
0.0294460952281951904 0.0203661434352397919 0.0126973399892449379
-0.0131585076451301575 0.0210740640759468079 0.0116717405617237091
0.00864312052726745605 0.0204758476465940475 0.0125384079292416573
0.0424601621925830841 0.0199096202850341797 0.0133587280288338661
0.0471117347478866577 0.0211512930691242218 0.0115598542615771294
0.0559645891189575195 0.0185861717909574509 0.0152760753408074379
-0.00644343346357345581 0.0209579207003116608 0.0118400026112794876
-0.00618834048509597778 0.0207475554198026657 0.0121447686105966568
0.0160773470997810364 0.0205841567367315292 0.0123814940452575684
-0.017218220978975296 0.0205594636499881744 0.0124172680079936981
0.018649611622095108 0.0208951737731695175 0.0119309080764651299
0.0479962565004825592 0.0195145681500434875 0.0139310611411929131
-0.0226137135177850723 0.0207859668880701065 0.012089122086763382
0.0213364586234092712 0.0204933714121580124 0.0125130200758576393
0.0403223410248756409 0.0199323985725641251 0.0133257294073700905
0.0191284045577049255 0.0195694603025913239 0.0138515373691916466
0.0149113405495882034 0.0200214460492134094 0.0131967207416892052
0.00648812577128410339 0.0206828601658344269 0.0122384978458285332
-0.0113341081887483597 0.0208951942622661591 0.0119308782741427422
0.0235682837665081024 0.0197164919227361679 0.0136385243386030197
-0.0290521048009395599 0.0212307926267385483 0.0114446785300970078
-0.00513850152492523193 0.0213053859770298004 0.0113366134464740753
-0.0414892546832561493 0.0209930501878261566 0.0117891104891896248
-0.0110725536942481995 0.0205377489328384399 0.012448728084564209
0.0247146971523761749 0.0193092916160821915 0.0142284557223320007
-0.0337368138134479523 0.0212019477039575577 0.0114864679053425789
0.046291939914226532 0.0208063945174217224 0.0120595265179872513
0.0369486808776855469 0.0193347260355949402 0.0141916070133447647
-0.045000273734331131 0.0212094560265541077 0.0114755919203162193
-0.0437430739402770996 0.0210823956876993179 0.0116596706211566925
0.0356401987373828888 0.0204543806612491608 0.0125695057213306427
-0.00681252032518386841 0.0210340525954961777 0.0117297060787677765
0.0078533906489610672 0.0196264293044805527 0.0137690026313066483
0.0553270280361175537 0.0184418782591819763 0.0154851200059056282
0.0523862577974796295 0.0182259958237409592 0.0157978814095258713
0.0529727041721343994 0.0210874322801828384 0.0116523727774620056
0.030267663300037384 0.0198409315198659897 0.0134582407772541046
-0.0269374679774045944 0.0195676237344741821 0.0138541962951421738
-0.000175956636667251587 0.0184767208993434906 0.0154346423223614693
-0.00479407235980033875 0.0191117320209741592 0.0145146697759628296
0.00319204851984977722 0.0188110135495662689 0.0149503359571099281
-0.0124878883361816406 0.0194834675639867783 0.0139761175960302353
-0.0347783714532852173 0.0205081366002559662 0.0124916266649961472
0.0278973318636417389 0.0184784308075904846 0.0154321659356355667
-0.0460153296589851379 0.019919002428650856 0.0133451372385025024
-0.0481768101453781128 0.0206540115177631378 0.0122802946716547012
-0.0495539158582687378 0.0203719213604927063 0.0126889701932668686
-0.0413964837789535522 0.0189662463963031769 0.0147254420444369316
-0.0560227632522583008 0.0207112878561019897 0.0121973101049661636
-0.0308706406503915787 0.0191284138709306717 0.0144905019551515579
-0.021384023129940033 0.0196101963520050049 0.0137925185263156891
0.0390040464699268341 0.0184651594609022141 0.0154513940215110779
0.0284721739590167999 0.0185276474803686142 0.0153608629480004311
-0.022449735552072525 0.0203582514077425003 0.0127087738364934921
-0.051502913236618042 0.0207726266235113144 0.012108449824154377
-0.049055539071559906 0.0201143492013216019 0.0130621287971735001
-0.0543757826089859009 0.019189346581697464 0.0144022265449166298
-0.0567918941378593445 0.0190540477633476257 0.0145982410758733749
-0.0441827811300754547 0.0207360591739416122 0.0121614253148436546
-0.0566978529095649719 0.0191966462880373001 0.0143916504457592964
-0.0317712947726249695 0.0186044629663228989 0.0152495764195919037
-0.00717090815305709839 0.0188780985772609711 0.0148531468585133553
-0.0288618560880422592 0.0197779349982738495 0.013549506664276123
0.0172020606696605682 0.0190788749605417252 0.0145622715353965759
0.0128334052860736847 0.0188313387334346771 0.0149208893999457359
0.0248147733509540558 0.0188238415867090225 0.0149317523464560509
-0.00979752093553543091 0.0195964816957712173 0.0138123892247676849
0.0135265924036502838 0.0186705272644758224 0.0151538671925663948
-0.0502880290150642395 0.0184451136738061905 0.0154804335907101631
-0.0418001748621463776 0.0187299046665430069 0.0150678427889943123
-0.047572694718837738 0.0186068937182426453 0.0152460532262921333
-0.0546443238854408264 0.0205808822065591812 0.012386237271130085
-0.0303689707070589066 0.0183314904570579529 0.0156450476497411728
-0.0254733748733997345 0.018786013126373291 0.0149865569546818733
-0.0508520901203155518 0.0184958726167678833 0.0154068963602185249
-0.0501463450491428375 0.0208297818899154663 0.0120256450027227402
-0.0322739295661449432 0.0184453148394823074 0.0154801430180668831
-0.0456589721143245697 0.0185510441660881042 0.0153269665315747261
0.015404094010591507 0.0191471651196479797 0.0144633371382951736
-0.0418624691665172577 0.0189312249422073364 0.0147761804983019829
-0.0354603752493858337 0.0190315507352352142 0.0146308345720171928
-0.0415150299668312073 0.0206391625106334686 0.0123018044978380203
-0.0431359782814979553 0.0200284924358129501 0.0131865115836262703
-0.0339256934821605682 0.019887823611497879 0.0133903082460165024
0.0207236222922801971 0.0184100456535816193 0.0155312400311231613
-0.0109774507582187653 0.0192304085940122604 0.0143427373841404915
-0.0157970860600471497 0.0199279338121414185 0.013332197442650795
-0.0475866049528121948 0.0182565189898014069 0.0157536603510379791
-0.0282849743962287903 0.0203003380447626114 0.0127926748245954514
-0.0529351495206356049 0.0207693818956613541 0.0121131492778658867
-0.0417382270097732544 0.020302092656493187 0.0127901332452893257
-0.040731523185968399 0.0200079325586557388 0.0132162999361753464
0.0156864561140537262 0.0187761019915342331 0.0150009151548147202
-0.0130639374256134033 0.0200032014399766922 0.0132231544703245163
-0.0566614903509616852 0.0183451604098081589 0.0156252421438694
-0.0532714240252971649 0.0201055519282817841 0.013074871152639389
-0.0121286697685718536 0.0192824415862560272 0.0142673533409833908
-0.0198109783232212067 0.019928324967622757 0.0133316311985254288
-0.0115497782826423645 0.0195857696235179901 0.013827906921505928
-0.0212349072098731995 0.0184786431491374969 0.0154318567365407944
-0.0142774917185306549 0.0181090813130140305 0.0159672610461711884
-0.053128611296415329 0.0191487837582826614 0.0144609920680522919
0.00281808897852897644 0.0191354230046272278 0.0144803468137979507
-0.0224733464419841766 0.0188384652137756348 0.0149105656892061234
-0.0493932440876960754 0.0195324644446372986 0.0139051331207156181
-0.0550986975431442261 0.0204577259719371796 0.0125646600499749184
-0.0370021164417266846 0.0206520836800336838 0.0122830839827656746
-0.0132010616362094879 0.01986662857234478 0.0134210120886564255
0.0457422696053981781 0.0183874256908893585 0.0155640076845884323
-0.0449134483933448792 0.0194129832088947296 0.0140782315284013748
-0.0485862642526626587 0.0210884232074022293 0.0116509394720196724
-0.0493399724364280701 0.0196229163557291031 0.0137740923091769218
-0.0432800464332103729 0.0204056575894355774 0.012640092521905899
-0.000855594873428344727 0.0190886855125427246 0.0145480576902627945
0.0143600590527057648 0.0185242705047130585 0.0153657570481300354
-0.0134459882974624634 0.0200884416699409485 0.0130996610969305038
-0.0380797311663627625 0.0202580317854881287 0.0128539670258760452
0.00127865001559257507 0.019066203385591507 0.0145806297659873962
-0.0353743880987167358 0.0205197557806968689 0.012474793940782547
-0.0473152995109558105 0.0183874666690826416 0.0155639480799436569
-0.0349528603255748749 0.0195787195116281509 0.0138381225988268852
-0.0473656430840492249 0.0196559261530637741 0.0137262707576155663
-0.0544396676123142242 0.0185564160346984863 0.0153191853314638138
-0.0348507426679134369 0.0197574105113744736 0.0135792447254061699
-0.0551420338451862335 0.0204288195818662643 0.0126065388321876526
-0.0185179375112056732 0.0193773470818996429 0.0141298621892929077
-0.00818827375769615173 0.0184381995350122452 0.0154904527589678764
-0.0267423652112483978 0.0182295814156532288 0.0157926846295595169
-0.0186998620629310608 0.0197284799069166183 0.0136211570352315903
0.0149318911135196686 0.0192696712911128998 0.0142858549952507019
-0.0122273489832878113 0.0183697808533906937 0.0155895715579390526
-0.0293953530490398407 0.0201340001076459885 0.0130336601287126541
-0.00767685100436210632 0.0185098964720964432 0.0153865786269307137
-0.0417520739138126373 0.0206774305552244186 0.0122463647276163101
-0.0298739857971668243 0.0197554640471935272 0.0135820619761943817
-0.0107423737645149231 0.0196807272732257843 0.0136903375387191772
-0.0143358856439590454 0.0199359077960252762 0.0133206462487578392
-0.0558147430419921875 0.0202157832682132721 0.0129151772707700729
0.00771958008408546448 0.0184973571449518204 0.0154047459363937378
0.0166642926633358002 0.0188739597797393799 0.0148591417819261551
0.035080302506685257 0.0180868040770292282 0.0159995332360267639
-0.0109733976423740387 0.018680226057767868 0.0151398135349154472
-0.0549153313040733337 0.0211085714399814606 0.0116217462345957756
-0.0330291874706745148 0.0191031023859977722 0.0145271727815270424
-0.0420412719249725342 0.0206357333809137344 0.0123067703098058701
0.00478518754243850708 0.018451884388923645 0.0154706258326768875
-0.0426812432706356049 0.0195569079369306564 0.0138697205111384392
-0.0141660086810588837 0.019627109169960022 0.0137680172920227051
0.0404159910976886749 0.018192581832408905 0.0158462878316640854
-0.00690589472651481628 0.0193887054920196533 0.0141134057193994522
0.0197677426040172577 0.0185021832585334778 0.0153977544978260994
-0.0274359676986932755 0.0189853478223085403 0.0146977696567773819
-0.0385987460613250732 0.0190909132361412048 0.0145448315888643265
-0.0343188121914863586 0.0198211800307035446 0.0134868565946817398
-0.0106558986008167267 0.0196650195866823196 0.0137130944058299065
-0.0498343966901302338 0.0186298713088035583 0.0152127658948302269
-0.0291320811957120895 0.0188737884163856506 0.014859391376376152
-0.0320029929280281067 0.0181436259299516678 0.0159172136336565018
-0.0207918696105480194 0.0189328119158744812 0.0147738819941878319
-0.0461523570120334625 0.0207589045166969299 0.0121283289045095444
0.00315625965595245361 0.0193129461258649826 0.0142231592908501625
-0.0179525651037693024 0.0184504780918359756 0.0154726626351475716
-0.0420361459255218506 0.0194172486662864685 0.0140720512717962265
0.00809963420033454895 0.0192923992872238159 0.0142529299482703209
-0.0148674584925174713 0.0194975119084119797 0.0139557709917426109
-0.0546119585633277893 0.0194318480789661407 0.0140509018674492836
0.0303356833755970001 0.0215877126902341843 0.0106852930039167404
-0.0402875617146492004 0.0221133660525083542 0.00929926149547100067
0.0485788844525814056 0.0214799754321575165 0.0109693724662065506
-0.0416010096669197083 0.0215913765132427216 0.0106756314635276794
-0.0109517723321914673 0.0219508558511734009 0.00972776208072900772
-0.0387106239795684814 0.02183527871966362 0.0100325113162398338
0.0356677733361721039 0.0215022135525941849 0.0109107363969087601
-0.0405980721116065979 0.0217794943600893021 0.0101796062663197517
-0.04994979128241539 0.0230368804186582565 0.00686415517702698708
-0.0311570558696985245 0.0228637512773275375 0.00732065597549080849
0.01997370645403862 0.0218036249279975891 0.0101159820333123207
0.00647924467921257019 0.0221014991402626038 0.00933054741472005844
-0.0378568768501281738 0.0215543713420629501 0.0107732070609927177
-0.0219671241939067841 0.0215988513082265854 0.0106559237465262413
-0.0466123484075069427 0.0231718774884939194 0.00650819204747676849
0.00320621579885482788 0.021385539323091507 0.0112183783203363419
-0.0167066678404808044 0.0226064398884773254 0.00799912679940462112
0.0304474197328090668 0.0214848741888999939 0.0109564559534192085
-0.0551020540297031403 0.0219250805675983429 0.0097957272082567215
0.0364700071513652802 0.0214481595903635025 0.0110532622784376144
-0.0540991947054862976 0.0217051059007644653 0.0103757493197917938
-0.0152432881295681 0.0220716074109077454 0.00940936803817749023
-0.0152013078331947327 0.0217200685292482376 0.0103362994268536568
-0.00566560029983520508 0.0218555033206939697 0.00997918471693992615
0.0440257005393505096 0.0214370079338550568 0.0110826678574085236
0.0356531478464603424 0.0216738395392894745 0.0104581955820322037
-0.00762121006846427917 0.0216783527284860611 0.0104462895542383194
-0.0118415169417858124 0.0219221077859401703 0.00980356335639953613
-0.0491335466504096985 0.022464897483587265 0.00837235059589147568
-0.0457914359867572784 0.0226419065147638321 0.00790561363101005554
-0.0303746368736028671 0.0215984173119068146 0.0106570692732930183
-0.0273191984742879868 0.0217508357018232346 0.010255168192088604
-0.0278325583785772324 0.0224115867167711258 0.0085129179060459137
0.00251861661672592163 0.0213852319866418839 0.0112191904336214066
0.0325746797025203705 0.0217848978936672211 0.0101653579622507095
-0.0520397946238517761 0.0231492519378662109 0.00656785862520337105
0.0131538622081279755 0.0216744020581245422 0.0104567157104611397
0.0173971466720104218 0.0219012349843978882 0.00985860265791416168
0.0330312959849834442 0.0216233357787132263 0.0105913626030087471
0.0135149396955966949 0.0214892029762268066 0.010945039801299572
-0.0324654281139373779 0.0226216092705726624 0.0079591311514377594
-0.00895136594772338867 0.0222591608762741089 0.00891482923179864883
0.0116324983537197113 0.021556926891207695 0.0107664680108428001
-0.0475290901958942413 0.022771097719669342 0.00756496284157037735
-0.0375483445823192596 0.0227398667484521866 0.00764731224626302719
-0.0465963184833526611 0.0229679010808467865 0.00704604107886552811
0.0139982439577579498 0.0215657446533441544 0.0107432156801223755
-0.0506944470107555389 0.0214115679264068604 0.0111497435718774796
-0.0324828065931797028 0.0220733676105737686 0.00940472539514303207
0.0528273619711399078 0.0213990099728107452 0.0111828576773405075
-0.0449989810585975647 0.02233116514980793 0.00872497167438268661
-0.0270247254520654678 0.0228231102228164673 0.00742781581357121468
-0.0249454006552696228 0.0214974619448184967 0.0109232654795050621
0.020083840936422348 0.0220453683286905289 0.0094785541296005249
-0.0376936532557010651 0.0219496097415685654 0.00973105151206254959
-0.0500006526708602905 0.0225329510867595673 0.00819290615618228912
0.0158641226589679718 0.0215695649385452271 0.0107331443578004837
-0.0540941394865512848 0.0222045574337244034 0.00905880611389875412
-0.0269657596945762634 0.0222614537924528122 0.00890878308564424515
-0.0420386567711830139 0.0215145032852888107 0.0108783328905701637
-0.0357467047870159149 0.0214926470071077347 0.0109359631314873695
-0.0244620926678180695 0.0214811302721500397 0.0109663242474198341
0.00254118070006370544 0.0215228665620088577 0.0108562763780355453
-0.0281084123998880386 0.0221364628523588181 0.0092383604496717453
0.0119255147874355316 0.0217717494815587997 0.0102000255137681961
0.0179328285157680511 0.0217805448919534683 0.0101768346503376961
-0.0290910862386226654 0.0219533238559961319 0.00972125958651304245
-0.0456549078226089478 0.022730046883225441 0.00767320906743407249
0.00882812216877937317 0.0219281241297721863 0.00978769920766353607
0.0202938280999660492 0.0217473283410072327 0.0102644208818674088
-0.0253749080002307892 0.0221150200814008713 0.00929489638656377792
-0.0426226705312728882 0.0226234812289476395 0.00795419514179229736
-0.0441051572561264038 0.0218610018491744995 0.00996468681842088699
0.00885456427931785583 0.0222345441579818726 0.00897973682731389999
0.0144974552094936371 0.0216681770980358124 0.010473126545548439
-0.0446582958102226257 0.0220480784773826599 0.00947140716016292572
-0.0374806299805641174 0.0215085782110691071 0.0108939539641141891
-0.0565212182700634003 0.0231017377227544785 0.00669313967227935791
-0.000934537500143051147 0.0214790664613246918 0.0109717696905136108
-0.0191349461674690247 0.0225846786051988602 0.0080565083771944046
-0.0397395491600036621 0.0229163225740194321 0.00718203699216246605
0.00429120287299156189 0.0213867034763097763 0.0112153058871626854
-0.0211189128458499908 0.0216865092515945435 0.0104247834533452988
-0.0461549386382102966 0.0216261893510818481 0.0105838356539607048
0.0105700977146625519 0.0218042768537998199 0.0101142581552267075
-0.0539758242666721344 0.0221766773611307144 0.00913232285529375076
-0.0335014611482620239 0.0218405388295650482 0.0100186411291360855
-0.0333967320621013641 0.0226370561867952347 0.00791840348392724991
-0.0505283810198307037 0.0229452382773160934 0.00710579613223671913
-0.0371249541640281677 0.0219193808734416962 0.00981075875461101532
-0.0440897978842258453 0.0227213166654109955 0.00769622577354311943
0.00157376006245613098 0.0217996593564748764 0.0101264361292123795
-0.0259109549224376678 0.0214963816106319427 0.0109261143952608109
-0.016705833375453949 0.0215465333312749863 0.0107938731089234352
-0.0148640014231204987 0.0224198829382658005 0.00849104113876819611
0.00375527888536453247 0.0213935244828462601 0.0111973239108920097
-0.0355464071035385132 0.0218165069818496704 0.0100820139050483704
-0.013064160943031311 0.0214900225400924683 0.0109428800642490387
-0.0237479731440544128 0.0228123534470796585 0.00745617924258112907
-0.0283233318477869034 0.0225025229156017303 0.00827313773334026337
-0.0118643566966056824 0.0223058015108108521 0.00879184622317552567
-0.0373866409063339233 0.0228262916207313538 0.0074194297194480896
-0.0527583509683609009 0.0229328237473964691 0.00713853025808930397
-0.0519754178822040558 0.0227518565952777863 0.00761569896712899208
-0.0173276923596858978 0.0226082634180784225 0.00799432210624217987
-0.0206390358507633209 0.0214865636080503464 0.0109519995748996735
-0.0119131244719028473 0.0215716101229190826 0.0107277482748031616
-0.0206028111279010773 0.022625776007771492 0.00794814899563789368
-0.0548243969678878784 0.0228272639214992523 0.00741686904802918434
-0.0231278985738754272 0.0214480850845575333 0.0110534606501460075
0.000860773026943206787 0.0221069213002920151 0.00931625254452228546
-0.0543791502714157104 0.022908160462975502 0.00720356171950697899
-0.0549355968832969666 0.0219992566853761673 0.00960013922303915024
0.0168186388909816742 0.0218162629753351212 0.0100826583802700043
-0.0461140833795070648 0.0232200846076011658 0.00638108188286423683
-0.0535267703235149384 0.0221094079315662384 0.00930969696491956711
-0.0237103924155235291 0.0221429821103811264 0.00922116823494434357
0.0143607817590236664 0.0215614624321460724 0.0107545061036944389
-0.0152351111173629761 0.0222571343183517456 0.0089201703667640686
0.0243505574762821198 0.021745830774307251 0.010268370620906353
0.00117865577340126038 0.0219168514013290405 0.00981742609292268753
0.0323946960270404816 0.0215387344360351562 0.0108144376426935196
0.0297224633395671844 0.0218360498547554016 0.0100304819643497467
-0.053558792918920517 0.0227439180016517639 0.00763663230463862419
0.0186466611921787262 0.0218477249145507812 0.00999969895929098129
-0.0222044102847576141 0.0226251929998397827 0.00794968195259571075
-0.0225610546767711639 0.0223145242780447006 0.00876885093748569489
-0.0537192448973655701 0.021597767248749733 0.010658780112862587
0.0140892229974269867 0.0220540463924407959 0.00945566873997449875
0.00417227670550346375 0.0225829128175973892 0.00806116871535778046
0.0525201708078384399 0.0218738093972206116 0.00993091799318790436
0.0203958712518215179 0.0234107188880443573 0.00587842520326375961
0.0166198089718818665 0.0228734295815229416 0.00729513959959149361
0.0527012646198272705 0.0232411660254001617 0.00632549449801445007
-0.0378633923828601837 0.0234131142497062683 0.00587210571393370628
0.0415736734867095947 0.023012818768620491 0.00692760013043880463
0.0160847045481204987 0.0229327399283647537 0.00713874818757176399
0.0179425925016403198 0.0222462527453899384 0.0089488644152879715
-0.0173698719590902328 0.0231050737202167511 0.00668434100225567818
0.0516198240220546722 0.0234182141721248627 0.00585865974426269531
-0.0276410561054944992 0.0229396950453519821 0.00712041137740015984
0.0451523028314113617 0.0218499917536973953 0.00999372079968452454
0.0469590425491333008 0.022358771413564682 0.00865217763930559158
-0.00109734153375029564 0.0225308835506439209 0.00819835811853408813
0.0263225026428699493 0.0224272198975086212 0.00847169756889343262
0.0206758752465248108 0.0226183906197547913 0.00796761922538280487
0.0333466827869415283 0.0225115865468978882 0.00824923906475305557
0.0215250998735427856 0.022754104807972908 0.00760977156460285187
0.0121599715203046799 0.0227315332740545273 0.00766928773373365402
0.0519525818526744843 0.0232143253087997437 0.00639626756310462952
0.025750286877155304 0.0230573918670415878 0.0068100709468126297
0.0466742292046546936 0.0230123884975910187 0.00692873541265726089
0.032131582498550415 0.0224439650774002075 0.00842754077166318893
0.00753343664109706879 0.0223660953342914581 0.00863286852836608887
-0.0170525573194026947 0.0230138786137104034 0.00692480290308594704
0.0092520006000995636 0.0231307670474052429 0.00661659706383943558
0.0265444852411746979 0.0219858009368181229 0.00963562261313199997
-0.0122846700251102448 0.0229049734771251678 0.0072119617834687233
0.0364335477352142334 0.0222215224057435989 0.0090140756219625473
0.0456033237278461456 0.0231796242296695709 0.00648776907473802567
0.0147958174347877502 0.0222894884645938873 0.00883486401289701462
0.0128222666680812836 0.0225388091057538986 0.0081774592399597168
0.0486281700432300568 0.0230040960013866425 0.00695059914141893387
0.013044724240899086 0.0223156362771987915 0.00876591447740793228
-0.00402478687465190887 0.0228449739515781403 0.00737016787752509117
0.0186438336968421936 0.022313261404633522 0.00877217948436737061
0.0101205520331859589 0.0231700204312801361 0.00651309173554182053
-0.00245389342308044434 0.0230695586651563644 0.0067779887467622757
0.0197289921343326569 0.0225393492728471756 0.00817603245377540588
0.0286956913769245148 0.0221011638641357422 0.00933143217116594315
0.0533317439258098602 0.023439459502696991 0.00580263836309313774
0.0284981131553649902 0.0224020835012197495 0.00853797420859336853
-0.0211367625743150711 0.0231584198772907257 0.0065436800941824913
0.00363355688750743866 0.0226602628827095032 0.00785721186548471451
0.0498906597495079041 0.0233677327632904053 0.00599176855757832527
0.0421371050179004669 0.022254452109336853 0.00892724841833114624
0.0105153489857912064 0.0226136632263660431 0.0079800821840763092
0.0163768734782934189 0.0228931903839111328 0.00724303070455789566
0.0539774559438228607 0.0228376667946577072 0.00738943740725517273
0.0460548028349876404 0.0232782866805791855 0.00622761901468038559
0.0173098985105752945 0.0223389659076929092 0.00870440248399972916
0.053815498948097229 0.022288784384727478 0.0088367164134979248
0.0538954026997089386 0.0231557879596948624 0.00655061798170208931
0.0228396095335483551 0.0234252475202083588 0.00584011431783437729
0.0349329859018325806 0.0217907316982746124 0.0101499762386083603
0.0005150623619556427 0.0231395214796066284 0.00659351330250501633
0.0547937192022800446 0.0227351207286119461 0.0076598278246819973
0.00324946222826838493 0.0223679710179567337 0.00862792320549488068
0.0328433439135551453 0.0234203450381755829 0.00585304154083132744
0.0142311770468950272 0.02291112020611763 0.00719575490802526474
-0.0171303302049636841 0.0233647562563419342 0.00599961727857589722
0.00829468108713626862 0.0226947348564863205 0.00776631757616996765
-0.011331477202475071 0.0227310359477996826 0.00767059903591871262
0.0437337607145309448 0.0223629791289567947 0.00864108558744192123
0.0398794002830982208 0.0217025317251682281 0.0103825386613607407
0.0373359881341457367 0.0219296086579561234 0.00978378951549530029
0.0327002406120300293 0.0226981509476900101 0.0077573070302605629
0.0408533960580825806 0.0234018806368112564 0.00590172642841935158
0.0302731618285179138 0.0223296657204627991 0.00872892327606678009
0.0226690247654914856 0.0221268963068723679 0.00926358439028263092
0.0391419865190982819 0.0230132434517145157 0.00692647788673639297
-0.0220985729247331619 0.0230805631726980209 0.00674897385761141777
0.0391743667423725128 0.0218477863818407059 0.00999953504651784897
-0.0119751282036304474 0.023404756560921669 0.0058941463939845562
0.0530049502849578857 0.021775171160697937 0.0101910075172781944
0.0266377031803131104 0.0221416298300027847 0.00922473613172769547
0.0474746190011501312 0.0225123278796672821 0.00824728235602378845
-0.00609463825821876526 0.0232622995972633362 0.00626977207139134407
0.00319444015622138977 0.0233142711222171783 0.00613273214548826218
0.0222381576895713806 0.0229860618710517883 0.00699815200641751289
0.0228650998324155807 0.0221011228859424591 0.00933154020458459854
0.0164532400667667389 0.0224002785980701447 0.00854273233562707901
0.027016662061214447 0.0228704977780580521 0.00730287004262208939
0.0358994491398334503 0.0220142398029565811 0.00956063531339168549
0.0442044325172901154 0.0222202688455581665 0.00901738088577985764
0.00940980017185211182 0.0231192000210285187 0.00664709601551294327
-0.00676690042018890381 0.0231624934822320938 0.00653293868526816368
0.00592874735593795776 0.0234434511512517929 0.00579211581498384476
0.0504389144480228424 0.0234473869204521179 0.00578173669055104256
-0.0063988901674747467 0.0234453137964010239 0.00578720215708017349
0.00630047917366027832 0.0233400240540504456 0.00606482941657304764
0.00113953277468681335 0.0229066256433725357 0.00720760785043239594
0.0275886058807373047 0.022593177855014801 0.00803409796208143234
-0.0408167093992233276 0.023293154314160347 0.00618841592222452164
0.0314981229603290558 0.0226066596806049347 0.00799855217337608337
0.0311056561768054962 0.0229799859225749969 0.00701417168602347374
0.0142129026353359222 0.022533005103468895 0.00819276273250579834
0.00993213430047035217 0.0228616837412118912 0.00732611073181033134
0.0323611386120319366 0.0227136779576539993 0.00771636608988046646
0.0524105913937091827 0.0228409320116043091 0.00738082593306899071
0.0394558347761631012 0.022852633148431778 0.00734997168183326721
-0.00118800625205039978 0.0232921130955219269 0.00619116239249706268
0.0398264601826667786 0.0220333132892847061 0.00951033923774957657
0.0568776316940784454 0.0216609816998243332 0.0104920994490385056
0.0331311821937561035 0.0222233477979898453 0.00900925975292921066
0.0384135060012340546 0.0232016723603010178 0.00642963452264666557
-0.00141483335755765438 0.0224840734153985977 0.0083217862993478775
0.0201533213257789612 0.0226251017302274704 0.00794992316514253616
0.0217803940176963806 0.0222246572375297546 0.0090058082714676857
-0.0161598771810531616 0.0234064105898141861 0.00588978268206119537
-0.0230265334248542786 0.0234199054539203644 0.00585419824346899986
0.0399419590830802917 0.0220177639275789261 0.00955134071409702301
0.0452313683927059174 0.0227943137288093567 0.00750375073403120041
0.0346235856413841248 0.0219801589846611023 0.00965049862861633301
0.0168184302747249603 0.0233705919235944748 0.00598422717303037643
-0.0152392052114009857 0.0230625700205564499 0.00679641403257846832
0.0184327960014343262 0.0225067250430583954 0.00826205592602491379
0.0436989031732082367 0.0230188220739364624 0.00691176997497677803
0.0366911329329013824 0.0233009960502386093 0.00616774009540677071
0.00601037032902240753 0.0227729231119155884 0.00756015069782733917
-0.00760586932301521301 0.0229753181338310242 0.00702648097649216652
0.0558758676052093506 0.0221246201545000076 0.0092695821076631546
0.0554440505802631378 0.022487124428153038 0.00831373780965805054
-0.00303344614803791046 0.022953694686293602 0.00708349747583270073
0.0451752319931983948 0.0223687142133712769 0.00862595997750759125
0.0505315624177455902 0.0215451158583164215 0.0107976123690605164
-0.0186595171689987183 0.0230458676815032959 0.00684045581147074699
0.00924889370799064636 0.0230031460523605347 0.00695310346782207489
0.0386573337018489838 0.0238646045327186584 0.00235044537112116814
0.0462259538471698761 0.0235278494656085968 0.00512387696653604507
0.05300150066614151 0.0237615760415792465 0.00319896102882921696
-0.0489371567964553833 0.0241489522159099579 8.63833975017769262e-06
-0.00253699533641338348 0.0239984337240457535 0.00124826084356755018
-0.022599291056394577 0.0240446086972951889 0.000867980823386460543
0.0357537269592285156 0.0238511580973863602 0.00246118637733161449
0.0295439697802066803 0.0238288547843694687 0.00264487951062619686
0.0140401097014546394 0.0237824544310569763 0.00302702002227306366
0.0159541703760623932 0.0239379946142435074 0.00174602586776018143
0.0192877016961574554 0.0238913334906101227 0.0021303186658769846
0.0544570907950401306 0.0240796655416488647 0.000579265702981501818
-0.0284176934510469437 0.0240723099559545517 0.000639849808067083359
-0.0486469492316246033 0.0241493750363588333 5.15536612510913983e-06
0.00543758831918239594 0.0239779967814683914 0.00141658028587698936
0.0486361980438232422 0.023597370833158493 0.00455131055787205696
0.0220418740063905716 0.0237033311277627945 0.00367865012958645821
0.0509208254516124725 0.0237654894590377808 0.00316673913039267063
0.00782161951065063477 0.0240059774369001389 0.00118614162784069777
-0.0015081353485584259 0.0241481345146894455 1.53686232806649059e-05
0.0504351779818534851 0.0236325617879629135 0.00426149601116776466
0.016933731734752655 0.0239008776843547821 0.00205171247944235802
0.0297521539032459259 0.0236589815467596054 0.00404391344636678696
0.0365702733397483826 0.0241057630628347397 0.000364331935998052359
-0.0190591756254434586 0.0239394344389438629 0.00173417793121188879
0.0301601365208625793 0.0237583033740520477 0.00322591140866279602
0.0207491517066955566 0.0240676328539848328 0.000678362848702818155
0.0284212250262498856 0.023653961718082428 0.00408524926751852036
-0.00960216671228408813 0.024091038852930069 0.000485599070088937879
-0.00594263523817062378 0.0238500684499740601 0.00247017061337828636
-0.00323847122490406036 0.0239176247268915176 0.00191379140596836805
0.00564688071608543396 0.0240201875567436218 0.00106910255271941423
0.00619925325736403465 0.0237623639404773712 0.00319247995503246784
0.0547933727502822876 0.0239556543529033661 0.00160059076733887196
0.0457293987274169922 0.0241248253732919693 0.000207332283025607467
0.0198066309094429016 0.0239351522177457809 0.00176944432314485312
0.00307933613657951355 0.0241358336061239243 0.000116675109893549234
-0.00313839688897132874 0.0240182001143693924 0.00108547531999647617
0.0478687845170497894 0.0238844789564609528 0.00218676961958408356
0.0513905100524425507 0.0237167347222566605 0.00356827117502689362
-0.0227285530418157578 0.0240757036954164505 0.000611899537034332752
0.0516893081367015839 0.0236848536878824234 0.00383083801716566086
0.0057307165116071701 0.0238234400749206543 0.00268946797586977482
-0.00948558375239372253 0.0238920301198959351 0.00212457985617220402
0.0231267418712377548 0.0238367579877376556 0.00257979147136211395
-0.00262335687875747681 0.0239016711711883545 0.00204517296515405178
-0.00165252387523651123 0.0239329971373081207 0.00178718077950179577
0.0430038794875144958 0.0237831026315689087 0.00302167306654155254
0.0238221846520900726 0.0239119268953800201 0.00196071132086217403
0.0436993390321731567 0.0239091012626886368 0.00198398041538894176
0.00719811860471963882 0.0238375850021839142 0.00257297791540622711
-0.00607261247932910919 0.023972880095243454 0.00145871983841061592
0.0286474898457527161 0.0238823946565389633 0.0022039350587874651
0.0493288114666938782 0.0237921122461557388 0.00294747925363481045
-0.0365116223692893982 0.0240929853171110153 0.000469559308839961886
0.0426396466791629791 0.0235781315714120865 0.00470976391807198524
-0.0200624652206897736 0.0241479817777872086 1.66253703355323523e-05
-0.0166168212890625 0.023927006870508194 0.00183651631232351065
-0.00728372856974601746 0.0240609757602214813 0.00073318183422088623
0.0313721224665641785 0.0236285403370857239 0.00429461803287267685
0.0552656389772891998 0.0234677717089653015 0.00561865651980042458
0.0216780789196491241 0.0240024309605360031 0.00121534522622823715
0.0487764924764633179 0.0240846220403909683 0.000538448919542133808
0.035592295229434967 0.0239000637084245682 0.00205842312425374985
0.0150964800268411636 0.023881932720541954 0.0022077381145209074
0.0244514942169189453 0.0238900184631347656 0.00214114272966980934
0.0394374877214431763 0.0240626521408557892 0.000719377479981631041
-0.0327629782259464264 0.0240075979381799698 0.00117279763799160719
0.0543618462979793549 0.0240178834646940231 0.00108808197546750307
0.0176052767783403397 0.0238072425127029419 0.00282286875881254673
-0.0174420271068811417 0.0240036714822053909 0.00120512524154037237
-0.00145963206887245178 0.0241475962102413177 1.98060097318375483e-05
-0.0246963724493980408 0.0240311399102210999 0.000978906056843698025
0.047152884304523468 0.0240145903080701828 0.00111520569771528244
0.0169979874044656754 0.0237277522683143616 0.00347753381356596947
0.0364237911999225616 0.023891836404800415 0.00212617847137153149
-0.0285532120615243912 0.0241480916738510132 1.57298509293468669e-05
0.0561412833631038666 0.0236824061721563339 0.00385098601691424847
0.041403844952583313 0.023753385990858078 0.00326641649007797241
-0.0448129251599311829 0.0241417307406663895 6.811754428781569e-05
0.0352443978190422058 0.0240476354956626892 0.000843060435727238655
0.0548419840633869171 0.0237662363797426224 0.00316058984026312828
-0.0259880851954221725 0.0240760613232851028 0.000608940725214779377
0.0453350469470024109 0.0237362142652273178 0.00340784387663006783
0.0208060555160045624 0.0238916128873825073 0.00212801364250481129
0.0529996566474437714 0.0241126436740159988 0.000307661830447614193
0.0460127964615821838 0.0241016987711191177 0.000397804222302511334
0.0344341844320297241 0.0240482985973358154 0.000837593222968280315
-0.00683882320299744606 0.0238437484949827194 0.00252221967093646526
-0.0395622514188289642 0.0240862350910902023 0.00052516063442453742
0.0368113778531551361 0.0239204168319702148 0.00189078657422214746
0.0521414279937744141 0.0241138674318790436 0.000297580321785062551
0.0476754754781723022 0.0235849115997552872 0.00465393206104636192
-0.0382680818438529968 0.0241310968995094299 0.000155684276251122355
-0.0236263163387775421 0.0239562671631574631 0.00159554206766188145
0.047854982316493988 0.0238336864858865738 0.00260508991777896881
0.0371251702308654785 0.0236098356544971466 0.00444865459576249123
0.0219617392867803574 0.0237901806831359863 0.00296339020133018494
0.0144530050456523895 0.0238576717674732208 0.00240755197592079639
0.0424255691468715668 0.0238400660455226898 0.00255253911018371582
0.0492552630603313446 0.0235137511044740677 0.00523998541757464409
0.0172650367021560669 0.0240111742168664932 0.00114334386307746172
-0.0222293529659509659 0.0241112932562828064 0.000318784092087298632
0.01143675297498703 0.0240515302866697311 0.00081097334623336792
0.0364404469728469849 0.0238154605031013489 0.00275518931448459625
0.041345156729221344 0.0237511694431304932 0.00328467483632266521
-0.0222430862486362457 0.0240021180361509323 0.0012179248733446002
0.0179700888693332672 0.0237961821258068085 0.00291395466774702072
-0.00914379209280014038 0.0241283196955919266 0.000178554095327854156
0.0500051155686378479 0.0239696837961673737 0.00148505205288529396
0.0336369313299655914 0.0240620672702789307 0.000724199693650007248
0.0170572996139526367 0.0241453330963850021 3.84354170819278806e-05
0.0169516317546367645 0.0237738378345966339 0.00309798610396683216
-0.0213770680129528046 0.0241450518369674683 4.07534753321669996e-05
-0.00632453709840774536 0.0241316352039575577 0.000151251661009155214
0.0108401542529463768 0.0237406250089406967 0.00337150669656693935
0.0507805719971656799 0.0235904082655906677 0.0046086655929684639
0.0382716692984104156 0.0235659833997488022 0.00480981171131134033
0.0251035150140523911 0.0237815007567405701 0.0030348652508109808
0.0473048388957977295 0.0239077545702457428 0.0019950836431235075
0.0307871773838996887 0.0236478354781866074 0.00413570553064346313
0.00577456038445234299 0.0238304045051336288 0.00263211899437010288
0.0240024384111166 0.0238197892904281616 0.00271953199990093708
0.0248634163290262222 0.0238252542912960052 0.00267452327534556389
0.0294558964669704437 0.0241186097264289856 0.000258523476077243686
0.0312624350190162659 0.0239950902760028839 0.00127580214757472277
0.0249248258769512177 0.0237463880330324173 0.00332405650988221169
0.0523680336773395538 0.0238081477582454681 0.00281541235744953156
-0.00877507776021957397 0.0237766671925783157 0.0030746727716177702
5.37559390068054199e-06 0.0235202889889478683 0.00518614193424582481
-0.000584475696086883545 0.023785741999745369 0.0029999464750289917
-0.00604422390460968018 0.0238253679126501083 0.00267358706332743168
0.035593811422586441 0.023563038557767868 0.00483406428247690201
-0.0327996723353862762 0.0236563459038734436 0.00406561931595206261
-0.0345729254186153412 0.0236757192760705948 0.00390606443397700787
0.000772591680288314819 0.0237877573817968369 0.00298333982937037945
-0.0184209905564785004 0.0235066879540681839 0.00529814977198839188
-0.000594407320022583008 0.0236578341573476791 0.00405334774404764175
-0.036063753068447113 0.0238042585551738739 0.00284743797965347767
-0.0420244559645652771 0.0235410053282976151 0.00501552922651171684
-0.0366525799036026001 0.0236400198191404343 0.00420007482171058655
0.00386265292763710022 0.0235767625272274017 0.00472104735672473907
-0.0235619209706783295 0.0236400589346885681 0.00419974187389016151
-0.0431611239910125732 0.0235372651368379593 0.00504633132368326187
-0.0547634772956371307 0.0235296953469514847 0.00510867917910218239
-0.0332747697830200195 0.0239981748163700104 0.00125039706472307444
6.60270452499389648e-05 0.0237935855984687805 0.00293534761294722557
-0.0476043261587619781 0.0235931165516376495 0.00458636274561285973
-0.000886220484972000122 0.0234970096498727798 0.00537786632776260376
-0.0155123472213745117 0.023495236411690712 0.00539246946573257446
-0.056703958660364151 0.0237456299364566803 0.00333029753528535366
-0.0541207529604434967 0.0237495414912700653 0.00329808588139712811
-0.0502923689782619476 0.0240568146109580994 0.000767451594583690166
-0.0110842771828174591 0.0237624365836381912 0.00319187715649604797
-0.0443341620266437531 0.0235731620341539383 0.00475069275125861168
-0.0170182362198829651 0.0236569065600633621 0.00406099949032068253
0.00933549180626869202 0.0235166847705841064 0.00521583296358585358
-0.00616827607154846191 0.0235484633594751358 0.00495410850271582603
0.0100636444985866547 0.023463154211640358 0.00565668102353811264
-0.0456297919154167175 0.0235128477215766907 0.00524742156267166138
-0.0209076069295406342 0.0235412456095218658 0.00501353666186332703
0.0094802267849445343 0.0235997624695301056 0.00453161867335438728
0.0136799775063991547 0.0234825145453214645 0.00549724791198968887
-0.0350608937442302704 0.0235977116972208023 0.00454851891845464706
