ply
format ascii 1.0
element vertex 712
property float x
property float y
property float z
end_header
-0.0353980287909507751 0.096299782395362854 -0.0419129133224487305
-0.0215087458491325378 0.0962998718023300171 -0.0249596275389194489
0.0132069066166877747 0.096300080418586731 0.00592652708292007446
0.0143937282264232635 0.0963000878691673279 0.0103319492191076279
0.00386474654078483582 0.0963000282645225525 -0.00211542472243309021
0.00434602238237857819 0.0963000282645225525 -0.0031709158793091774
-0.0114542059600353241 0.0962999314069747925 -0.0118974260985851288
-0.0270048342645168304 0.0962998345494270325 -0.0310845598578453064
-0.0012599751353263855 0.0962999910116195679 -0.00316640734672546387
0.00389427412301301956 0.0963000282645225525 -0.00494971219450235367
-0.0436655618250370026 0.0962997376918792725 -0.04296063631772995
0.0180829055607318878 0.0963001176714897156 0.0101971179246902466
0.00507819652557373047 0.0963000357151031494 0.000569967553019523621
0.00753761827945709229 0.0963000506162643433 0.00568675622344017029
-0.0260163024067878723 0.0962998420000076294 -0.0295317023992538452
-0.0142517127096652985 0.0962999165058135986 -0.0172282960265874863
-0.0251574087888002396 0.0962998420000076294 -0.0251523572951555252
-0.0442782416939735413 0.0962997302412986755 -0.0372767448425292969
-0.00265231356024742126 0.0962999835610389709 -0.00775505602359771729
-0.0426946654915809631 0.0962997376918792725 -0.0389073193073272705
-0.0489126481115818024 0.0962997004389762878 -0.0394579470157623291
-0.046029161661863327 0.0962997153401374817 -0.0413019508123397827
-0.0360863320529460907 0.0962997749447822571 -0.0338720865547657013
-0.0348619446158409119 0.0962997898459434509 -0.0439666621387004852
-0.0464814826846122742 0.0962997153401374817 -0.0430048629641532898
-0.0228968542069196701 0.0962998643517494202 -0.0280847754329442978
0.00501655787229537964 0.0963000357151031494 0.00227190181612968445
0.00589126860722899437 0.0963000357151031494 -0.00408297870308160782
-0.0302887186408042908 0.0962998121976852417 -0.0309464149177074432
-0.0239456575363874435 0.0962998494505882263 -0.0321824401617050171
0.0112045835703611374 0.096300072968006134 0.00478939339518547058
0.00553622469305992126 0.0963000357151031494 0.00143200531601905823
0.0195754691958427429 0.0963001251220703125 0.00895342696458101273
-0.0236877128481864929 0.0962998569011688232 -0.0228985007852315903
-0.00147253274917602539 0.0962999984622001648 -0.00172699987888336182
-0.00571173802018165588 0.0962999686598777771 -0.0106299985200166702
-0.00704594328999519348 0.0962999612092971802 -0.00716786086559295654
-0.0280178338289260864 0.0962998270988464355 -0.0259571466594934464
0.0423788242042064667 0.0963002592325210571 0.0326386727392673492
-0.00640024617314338684 0.0962999686598777771 -0.00619949772953987122
-0.0462519973516464233 0.0962997153401374817 -0.0498825199902057648
-0.0250357389450073242 0.0962998494505882263 -0.0351809263229370117
-0.0271448902785778046 0.0962998345494270325 -0.0311163906008005142
0.00576176494359970093 0.0963000357151031494 0.0125512294471263885
-0.060654371976852417 0.0962996259331703186 -0.0308748632669448853
-0.0485318005084991455 0.0962997004389762878 -0.025462249293923378
-0.0560283288359642029 0.0962996482849121094 -0.0331670083105564117
0.0176932457834482193 0.0963001102209091187 0.0150677617639303207
-0.0384862422943115234 0.0962997600436210632 -0.0259062126278877258
-0.0231829769909381866 0.0962998569011688232 -0.00648019462823867798
-0.0439558662474155426 0.0962997302412986755 -0.0195024609565734863
-0.0517862848937511444 0.0962996780872344971 -0.0332204997539520264
-0.0248518753796815872 0.0962998494505882263 -0.0156650785356760025
0.00100851058959960938 0.0963000059127807617 0.00705035217106342316
-0.0530370920896530151 0.0962996706366539001 -0.0281458143144845963
-0.00960709527134895325 0.0962999388575553894 -0.000956842675805091858
0.011498618870973587 0.096300072968006134 0.014308001846075058
0.0278318393975496292 0.096300177276134491 0.0228585582226514816
-0.0526026785373687744 0.0962996780872344971 -0.0313263162970542908
0.00662300363183021545 0.0963000431656837463 0.0122592523694038391
-0.0426907949149608612 0.0962997376918792725 -0.0308069624006748199
-0.0323475673794746399 0.0962998047471046448 -0.0237529762089252472
-0.05561794713139534 0.0962996557354927063 -0.0273518748581409454
-0.0214471369981765747 0.0962998718023300171 -0.0106049403548240662
-0.00353345274925231934 0.0962999835610389709 0.00193054601550102234
0.03815503790974617 0.0963002368807792664 0.0313582159578800201
-0.0335089750587940216 0.0962997898459434509 -0.0212657805532217026
-0.0500604808330535889 0.0962996929883956909 -0.0327139124274253845
-0.0530240796506404877 0.0962996706366539001 -0.024458225816488266
-0.0196220390498638153 0.096299879252910614 -0.00472188740968704224
0.0483052879571914673 0.0963002964854240417 0.038699127733707428
-0.00705811195075511932 0.0962999612092971802 -0.00126627273857593536
0.0418012887239456177 0.0963002592325210571 0.0351038239896297455
-0.0245692133903503418 0.0962998494505882263 -0.00825082883238792419
-0.0400606840848922729 0.0962997525930404663 -0.0271403621882200241
-0.0382225476205348969 0.0962997674942016602 -0.0242120511829853058
-0.0463765077292919159 0.0962997078895568848 -0.0228338781744241714
0.00934968236833810806 0.0963000580668449402 0.00969439558684825897
-0.0302995629608631134 0.0962998196482658386 -0.0173796340823173523
-0.0504328981041908264 0.0962996929883956909 -0.0330181941390037537
-0.0592482239007949829 0.0962996333837509155 -0.0299289263784885406
-0.0381658785045146942 0.0962997674942016602 -0.0196044892072677612
-0.0409767888486385345 0.0962997451424598694 -0.0176568105816841125
0.00292304344475269318 0.0963000208139419556 0.00456638261675834656
-0.000653917901217937469 0.0962999984622001648 0.0016291765496134758
0.00655139237642288208 0.0963000431656837463 0.00840350054204463959
-0.0533964559435844421 0.0962996706366539001 -0.0417873002588748932
-0.0163470804691314697 0.0962999016046524048 -0.0074090026319026947
0.0204267054796218872 0.0963001251220703125 0.0219023078680038452
0.0299126692116260529 0.0963001847267150879 0.0274704303592443466
-0.0181557796895503998 0.0962998941540718079 -0.00793411210179328918
0.0332382991909980774 0.0963002070784568787 0.0266597047448158264
-0.0171092543751001358 0.0962998941540718079 -0.00982430391013622284
-0.0350806564092636108 0.0962997898459434509 -0.0146757252514362335
-0.0578675083816051483 0.0962996482849121094 -0.0355360396206378937
-0.0491323396563529968 0.0962997004389762878 -0.0347217246890068054
-0.0347029902040958405 0.0962997898459434509 -0.0197662115097045898
-0.0525563508272171021 0.0962996780872344971 -0.0371595323085784912
-0.0580241121351718903 0.0962996408343315125 -0.0296562537550926208
0.034486476331949234 0.0963002145290374756 0.0288932137191295624
-0.0374808646738529205 0.0962997674942016602 -0.0210299920290708542
0.00916573964059352875 0.0963000580668449402 0.0110542643815279007
-0.0596393905580043793 0.0962996333837509155 -0.029671940952539444
0.0217820107936859131 0.0963001325726509094 0.0215426534414291382
-0.0259859561920166016 0.0962998420000076294 -0.0136340335011482239
-0.0332972034811973572 0.0962997972965240479 -0.0205650012940168381
-0.0529231131076812744 0.0962996780872344971 -0.0413855686783790588
0.0258429199457168579 0.0963001623749732971 0.0226362757384777069
-0.000954840332269668579 0.0962999984622001648 0.00785345956683158875
0.00256505608558654785 0.0963000208139419556 0.0100681483745574951
0.0302108302712440491 0.0963001847267150879 0.0278598852455615997
0.000687077641487121582 0.0963000059127807617 0.00632982887327671051
-0.0204540938138961792 0.0962998718023300171 -0.00540677830576896667
-0.0485912449657917023 0.0962997004389762878 -0.0247942600399255753
-0.00525076128542423248 0.0962999686598777771 0.00117121264338493347
-0.0300002768635749817 0.0962998196482658386 -0.0124619901180267334
0.04274793341755867 0.0963002666831016541 0.0351362116634845734
-0.060215044766664505 0.0962996333837509155 -0.0319044776260852814
-0.0207746736705303192 0.096299879252910614 -0.00834272988140583038
-0.044715292751789093 0.0962997227907180786 -0.0298416521400213242
-0.0423990748822689056 0.0962997376918792725 -0.0185797624289989471
-0.0540331974625587463 0.0962996706366539001 -0.0270063020288944244
-0.041402425616979599 0.0962997451424598694 -0.0189602412283420563
-0.021051257848739624 0.0962998718023300171 -0.0118975304067134857
-0.0561908073723316193 0.0962996482849121094 -0.0385973304510116577
-0.0388064458966255188 0.0962997600436210632 -0.0247925035655498505
0.0138129740953445435 0.0963000878691673279 0.016379237174987793
-0.0496098063886165619 0.0962997004389762878 -0.0350156351923942566
0.00968712754547595978 0.0963000580668449402 0.00809807796031236649
-0.0122932996600866318 0.0962999239563941956 -0.00589094776660203934
-0.0442617423832416534 0.0962997302412986755 -0.0332098640501499176
-0.029547426849603653 0.0962998196482658386 -0.0106500834226608276
-0.00784132815897464752 0.0962999537587165833 -0.0021480172872543335
-0.0448490604758262634 0.0962997302412986755 -0.0304056834429502487
0.0228227041661739349 0.0963001474738121033 0.0200621169060468674
-0.0120301414281129837 0.0962999314069747925 -0.00566178373992443085
-0.0144365113228559494 0.0962999165058135986 -0.00497890263795852661
-0.0519471801817417145 0.096299685537815094 -0.0391281358897686005
-0.0311726443469524384 0.0962998121976852417 -0.0164354946464300156
-0.0286242607980966568 0.0962998196482658386 -0.019651263952255249
0.0298675615340471268 0.0963001847267150879 0.0262466445565223694
-0.0194769799709320068 0.096299879252910614 -0.00663377903401851654
0.0228678863495588303 0.0963001400232315063 0.0217031147330999374
-0.0202990397810935974 0.0962998718023300171 -0.00549112632870674133
-0.00450171902775764465 0.096299976110458374 -0.000711985863745212555
0.000162130221724510193 0.0963000059127807617 0.0036522839218378067
-0.0566010251641273499 0.0962996482849121094 -0.0376036912202835083
-0.0453146845102310181 0.0962997227907180786 -0.0318899452686309814
-0.0464749336242675781 0.0962997153401374817 -0.0329532548785209656
-0.0173233188688755035 0.0962998941540718079 -0.00392739474773406982
-0.0157421194016933441 0.0962999090552330017 -0.00315491855144500732
-0.0299175530672073364 0.0962998196482658386 -0.015931837260723114
-0.0191365182399749756 0.096299879252910614 -0.00557998940348625183
-0.0126261152327060699 0.0962999239563941956 0.000476419925689697266
0.0159179940819740295 0.0963001027703285217 0.0227870307862758636
-0.0589824914932250977 0.0962996408343315125 -0.0273842103779315948
-0.0514110587537288666 0.0962996780872344971 -0.0215434357523918152
-0.0535524711012840271 0.0962996706366539001 -0.0112448930740356445
0.0276617314666509628 0.096300169825553894 0.0302610248327255249
-0.00768985971808433533 0.0962999537587165833 0.0046665119007229805
-0.0132135171443223953 0.0962999165058135986 0.00459116045385599136
-0.0394563488662242889 0.0962997600436210632 -0.00936526060104370117
-0.0638932064175605774 0.0962996110320091248 -0.0142190717160701752
-0.0378644391894340515 0.0962997674942016602 -0.00599605031311511993
-0.0516316667199134827 0.096299685537815094 -0.0106341689825057983
-0.0577057152986526489 0.0962996482849121094 -0.0188628565520048141
-0.0605368316173553467 0.0962996259331703186 -0.0246172398328781128
-0.0515220724046230316 0.096299685537815094 -0.0112047251313924789
-0.0201624780893325806 0.096299879252910614 0.00613794848322868347
-0.0576876737177371979 0.0962996408343315125 -0.0201179347932338715
-0.0556973256170749664 0.0962996631860733032 -0.0101115629076957703
-0.0397649630904197693 0.0962997600436210632 -0.0142669817432761192
-0.060665421187877655 0.0962996259331703186 -0.0286855455487966537
-0.0486472994089126587 0.0962997004389762878 -0.0154122281819581985
-0.00754100829362869263 0.0962999537587165833 0.0102883316576480865
-0.0608612820506095886 0.0962996259331703186 -0.0259623210877180099
0.0238376948982477188 0.0963001549243927002 0.026403229683637619
-0.0431712083518505096 0.0962997376918792725 -0.00417370721697807312
-0.0140192396938800812 0.0962999165058135986 0.00911867059767246246
-0.0528359264135360718 0.0962996780872344971 -0.0223553813993930817
-0.00786915421485900879 0.0962999537587165833 0.0123154465109109879
-0.04601326584815979 0.0962997153401374817 -0.0141755789518356323
-0.0208242461085319519 0.0962998718023300171 0.00633904337882995605
-0.0256911329925060272 0.0962998420000076294 -0.00582265108823776245
-0.00878879707306623459 0.0962999463081359863 0.00569417327642440796
-0.0270772315561771393 0.0962998345494270325 -0.00589144416153430939
-0.0382509082555770874 0.0962997674942016602 -0.00472472421824932098
0.000662144273519515991 0.0963000059127807617 0.0159927438944578171
-0.0302083715796470642 0.0962998121976852417 -0.00389848463237285614
-0.0523524582386016846 0.0962996780872344971 -0.0122145973145961761
-0.00824569910764694214 0.0962999537587165833 0.0108341947197914124
-0.0226101018488407135 0.0962998643517494202 0.00499584153294563293
-0.0649364739656448364 0.0962996035814285278 -0.0189220886677503586
-0.0275257378816604614 0.0962998345494270325 -0.00424506422132253647
-0.0303013157099485397 0.0962998196482658386 -0.00638417061418294907
-0.053563244640827179 0.0962996706366539001 -0.0227861907333135605
-0.061638958752155304 0.0962996184825897217 -0.0134049393236637115
-0.015772772952914238 0.0962999016046524048 0.00508832931518554688
-0.0204558167606592178 0.0962998718023300171 -0.00296139251440763474
-0.0116664767265319824 0.0962999314069747925 0.00814799405634403229
-0.0151981543749570847 0.0962999090552330017 0.00207375083118677139
0.00476877763867378235 0.0963000357151031494 0.0184860695153474808
0.0267407149076461792 0.096300169825553894 0.0260949991643428802
0.00599514134228229523 0.0963000431656837463 0.0142995715141296387
-0.0343842171132564545 0.096299782395362854 -0.0119069851934909821
-0.0315788537263870239 0.0962998047471046448 -0.000931121408939361572
-0.0551648177206516266 0.0962996557354927063 -0.0180537458509206772
-0.0155642759054899216 0.0962999016046524048 0.00575195066630840302
-0.0350298993289470673 0.096299782395362854 -0.00868109241127967834
-0.064285673201084137 0.0962996035814285278 -0.0187992285937070847
-0.0403213910758495331 0.0962997525930404663 -0.0139069510623812675
-0.0303000751882791519 0.0962998196482658386 -0.00214602053165435791
0.0136446114629507065 0.0963000878691673279 0.0203553345054388046
-0.0505313053727149963 0.096299685537815094 -0.010203976184129715
0.00265725329518318176 0.0963000133633613586 0.0177543777972459793
-0.0040102154016494751 0.0962999835610389709 0.0137094203382730484
-0.052834726870059967 0.0962996706366539001 -0.0130224693566560745
0.0190357845276594162 0.0963001251220703125 0.0242953561246395111
-0.0630500316619873047 0.0962996110320091248 -0.0187248662114143372
-0.0181642062962055206 0.0962998941540718079 0.00568266026675701141
0.00537180900573730469 0.0963000357151031494 0.0157086588442325592
0.0292257778346538544 0.0963001847267150879 0.0278693363070487976
-0.0210417434573173523 0.0962998718023300171 -0.00342484074644744396
-0.0595060102641582489 0.0962996333837509155 -0.0182796809822320938
-0.01537313312292099 0.0962999016046524048 0.000270611373707652092
-0.0349130108952522278 0.0962997898459434509 -0.00238614529371261597
-0.0191464051604270935 0.0962998867034912109 -5.22872433066368103e-05
-0.0217316225171089172 0.0962998643517494202 0.00330813042819499969
0.00351330265402793884 0.0963000208139419556 0.0157138332724571228
-0.0627049058675765991 0.0962996110320091248 -0.020422203466296196
-0.0570959858596324921 0.0962996482849121094 -0.0174262858927249908
0.0247354116290807724 0.0963001549243927002 0.0257313326001167297
0.0200931504368782043 0.0963001251220703125 0.0253249369561672211
-0.0546349957585334778 0.0962996631860733032 -0.0216396637260913849
-0.0408245176076889038 0.0962997451424598694 -0.00847327709197998047
-0.0423910617828369141 0.0962997451424598694 -0.0153561532497406006
-0.0384662635624408722 0.0962997600436210632 -0.0135145615786314011
-0.0526000484824180603 0.0962996780872344971 -0.0130607020109891891
-0.0339339450001716614 0.0962997898459434509 -0.00718228705227375031
-0.0395691357553005219 0.0962997525930404663 -0.00862068682909011841
0.00414641387760639191 0.0963000208139419556 0.015309634618461132
-0.00442328676581382751 0.096299976110458374 0.0139712467789649963
-0.0587490573525428772 0.0962996408343315125 -0.0260349176824092865
0.0367890186607837677 0.0963002294301986694 0.0322867333889007568
0.0216595102101564407 0.0963001325726509094 0.025647895410656929
0.000842217355966567993 0.0963000059127807617 0.0134596209973096848
-0.0203592739999294281 0.0962998718023300171 0.00239606015384197235
-0.0458260923624038696 0.0962997227907180786 -0.0191530045121908188
-0.0439138785004615784 0.0962997302412986755 -0.0141913201659917831
0.0132474862039089203 0.096300080418586731 0.0184466186910867691
-0.0593317672610282898 0.0962996333837509155 -0.0233741123229265213
0.00452442280948162079 0.0963000282645225525 0.0162571296095848083
-0.0224062129855155945 0.0962998643517494202 -0.00485289096832275391
-0.0576595179736614227 0.0962996408343315125 -0.0130955055356025696
-0.0462101995944976807 0.0962997153401374817 -0.0118291862308979034
-0.0515074171125888824 0.0962996780872344971 -0.0127526987344026566
-0.0579378604888916016 0.0962996482849121094 -0.0233552344143390656
-0.0166670288890600204 0.0962999016046524048 0.00271714664995670319
-0.0618363581597805023 0.0962996184825897217 -0.0242280140519142151
-0.0190668031573295593 0.0962998867034912109 0.00088561326265335083
-0.0428422875702381134 0.0962997376918792725 -0.0039362981915473938
-0.0559650436043739319 0.0962996557354927063 -0.0127831250429153442
-0.0302980337291955948 0.0962998121976852417 -0.00539431069046258926
-0.0438552163541316986 0.0962997302412986755 0.00674910657107830048
-0.0357391051948070526 0.096299782395362854 0.0100487060844898224
-0.0247882306575775146 0.0962998494505882263 0.0132310241460800171
-0.015918433666229248 0.0962999016046524048 0.00930772162973880768
0.0102401599287986755 0.0963000655174255371 0.0273944288492202759
-0.0665142089128494263 0.096299588680267334 -0.00491640903055667877
-0.0507340133190155029 0.0962996929883956909 -0.00601848820224404335
-0.0389018319547176361 0.0962997600436210632 0.00302539952099323273
-0.0396203845739364624 0.0962997525930404663 0.00792603194713592529
0.0253818202763795853 0.0963001623749732971 0.0315801650285720825
-0.0270506516098976135 0.0962998270988464355 0.00825923308730125427
-0.0163201652467250824 0.0962998941540718079 0.0104336682707071304
0.0011539459228515625 0.0963000059127807617 0.01980605348944664
-0.0387451499700546265 0.0962997600436210632 0.00552401505410671234
0.000796983018517494202 0.0963000133633613586 0.0196136366575956345
-0.0177885293960571289 0.0962998941540718079 0.0156953800469636917
-0.0359921976923942566 0.0962997749447822571 0.00950951129198074341
-0.0307660717517137527 0.0962998121976852417 0.00524974241852760315
-0.0635712519288063049 0.0962996110320091248 -0.0054116472601890564
0.0245484039187431335 0.0963001549243927002 0.0303406678140163422
-0.0628813803195953369 0.0962996110320091248 -0.00752662401646375656
-0.0469431653618812561 0.0962997078895568848 -0.00095117371529340744
-0.0520615503191947937 0.0962996780872344971 0.0023097991943359375
-0.0266867652535438538 0.0962998345494270325 0.00914976466447114944
-0.0492144785821437836 0.0962997004389762878 0.00181803293526172638
-0.048137269914150238 0.0962997004389762878 0.00586460158228874207
-0.0445463657379150391 0.0962997227907180786 0.00402357429265975952
-0.0625057518482208252 0.0962996110320091248 -0.00653261877596378326
-0.0264005158096551895 0.0962998345494270325 0.0111939236521720886
-0.0473579578101634979 0.0962997078895568848 -0.00142963789403438568
0.0422394126653671265 0.0963002592325210571 0.0375609584152698517
0.0214385353028774261 0.0963001325726509094 0.0292474702000617981
-0.0295292176306247711 0.0962998196482658386 0.0136521924287080765
-0.0536728464066982269 0.0962996631860733032 0.00112060271203517914
-0.0195353105664253235 0.096299879252910614 0.0143084879964590073
-0.0219993069767951965 0.0962998643517494202 0.0110812792554497719
-0.0302798189222812653 0.0962998121976852417 0.0035467266570776701
-0.0350583121180534363 0.096299782395362854 0.0111513063311576843
-0.039338868111371994 0.0962997525930404663 0.00569567084312438965
0.0050970911979675293 0.0963000357151031494 0.0231917649507522583
-0.0361922942101955414 0.0962997749447822571 0.000464318320155143738
-0.0209789089858531952 0.0962998718023300171 0.0142060369253158569
-0.0291378851979970932 0.0962998196482658386 0.0064775785431265831
-0.0630771592259407043 0.0962996110320091248 -0.0067486688494682312
-0.0466718636453151703 0.0962997153401374817 -0.00283648818731307983
0.0172847416251897812 0.0963001102209091187 0.0277801491320133209
-0.0632993876934051514 0.0962996110320091248 -0.00709037110209465027
-0.0118328984826803207 0.0962999239563941956 0.0137001033872365952
-0.0413016155362129211 0.0962997525930404663 -0.00256119598634541035
-0.0328849330544471741 0.0962997972965240479 0.00234054611064493656
-0.0147826746106147766 0.0962999090552330017 0.0181247834116220474
-0.0262990798801183701 0.0962998420000076294 0.0117369871586561203
-0.0560502931475639343 0.0962996557354927063 -0.00524518266320228577
-0.0607014410197734833 0.0962996259331703186 -0.00860580429434776306
-0.0371146015822887421 0.0962997749447822571 0.00101034250110387802
0.0269587058573961258 0.096300169825553894 0.032358560711145401
0.025753803551197052 0.0963001623749732971 0.030989915132522583
-0.0593264549970626831 0.0962996333837509155 0.00213978812098503113
-0.00559723842889070511 0.0962999686598777771 0.0158892050385475159
-0.00583783537149429321 0.0962999612092971802 0.0166131108999252319
0.0100149251520633698 0.0963000655174255371 0.0265301614999771118
-0.0668263733386993408 0.096299588680267334 -0.0122365327551960945
-0.0231582149863243103 0.0962998643517494202 0.00649728579446673393
-0.0336945429444313049 0.0962997898459434509 0.00781035050749778748
-0.00808127690106630325 0.0962999463081359863 0.0136336386203765869
-0.063662506639957428 0.0962996110320091248 -0.0107236802577972412
-0.00701423361897468567 0.0962999537587165833 0.0211231987923383713
-0.06387309730052948 0.0962996110320091248 -0.00854754634201526642
0.00649545900523662567 0.0963000431656837463 0.0238704010844230652
-0.0317508205771446228 0.0962998047471046448 0.00809404812753200531
-0.0194004233926534653 0.0962998867034912109 0.0115876086056232452
-0.0117478705942630768 0.0962999314069747925 0.0172885376960039139
-0.0242994129657745361 0.0962998494505882263 0.00572725292295217514
0.00890620239078998566 0.0963000506162643433 0.0221088118851184845
0.0196165479719638824 0.0963001176714897156 0.02665739506483078
-0.0292281731963157654 0.0962998196482658386 0.00712488964200019836
0.0123731670901179314 0.096300080418586731 0.023991268128156662
-0.0430046990513801575 0.0962997302412986755 0.00648517534136772156
-0.0596244335174560547 0.0962996333837509155 0.00133105367422103882
-0.059892997145652771 0.0962996333837509155 -0.00519477017223834991
-0.0344748161733150482 0.0962997898459434509 0.00104782741982489824
-0.0527209118008613586 0.0962996780872344971 -0.00132180564105510712
-0.0620551109313964844 0.0962996184825897217 -0.006735239177942276
-0.0274942070245742798 0.0962998345494270325 0.00502968765795230865
0.025395028293132782 0.0963001549243927002 0.0311521217226982117
-0.0436980202794075012 0.0962997302412986755 0.00169016793370246887
-0.0555175766348838806 0.0962996631860733032 -0.00676171202212572098
-0.0364499129354953766 0.0962997749447822571 0.0106262359768152237
-0.0416055209934711456 0.0962997451424598694 -0.00200622412376105785
-0.0367518141865730286 0.0962997749447822571 0.00714569538831710815
-0.0308992564678192139 0.0962998121976852417 0.00851320847868919373
-0.0645875260233879089 0.0962996035814285278 -0.0133472029119729996
-0.0396927632391452789 0.0962997600436210632 -0.00154587579891085625
-0.0336100086569786072 0.0962997972965240479 0.00313075818121433258
-0.0445549637079238892 0.0962997302412986755 0.00517156720161437988
-0.0623767264187335968 0.0962996110320091248 -0.00291831232607364655
-0.00447842059656977654 0.096299976110458374 0.0150843579322099686
0.00591038074344396591 0.0963000357151031494 0.0218431651592254639
-0.0181920677423477173 0.0962998867034912109 0.0124700050801038742
0.00737953558564186096 0.0963000431656837463 0.0233296360820531845
-0.0470097213983535767 0.0962997078895568848 0.00183471105992794037
0.0256350301206111908 0.0963001623749732971 0.0317929387092590332
-0.0663580894470214844 0.096299588680267334 -0.00621039047837257385
-0.0414974614977836609 0.0962997451424598694 0.0187067389488220215
-0.0626331046223640442 0.0962996110320091248 0.00737882498651742935
-0.0663905888795852661 0.096299588680267334 0.010915243998169899
-0.0488641634583473206 0.0962997004389762878 0.0168981663882732391
-0.0598474442958831787 0.0962996333837509155 0.015729876235127449
-0.00819992087781429291 0.0962999463081359863 0.0243104547262191772
-0.0578656904399394989 0.0962996408343315125 0.0167708545923233032
-0.0328230634331703186 0.0962997972965240479 0.0168992932885885239
-0.0261761322617530823 0.0962998420000076294 0.0185572337359189987
-0.0529152527451515198 0.0962996706366539001 0.0116184856742620468
-0.031216748058795929 0.0962998047471046448 0.0188020635396242142
-0.0412348955869674683 0.0962997451424598694 0.018625335767865181
-0.00291490927338600159 0.0962999835610389709 0.0292629413306713104
-0.0458070524036884308 0.0962997153401374817 0.0131929041817784309
-0.0467314831912517548 0.0962997153401374817 0.0154312653467059135
-0.0224907100200653076 0.0962998569011688232 0.024286242201924324
0.0188887268304824829 0.0963001176714897156 0.0335996896028518677
-0.000145372003316879272 0.0962999984622001648 0.0266935937106609344
0.0152729395776987076 0.0963001027703285217 0.0329355187714099884
-0.0598201416432857513 0.0962996259331703186 0.00449665356427431107
-0.0504935197532176971 0.0962996929883956909 0.0151678603142499924
-0.0682727023959159851 0.0962995737791061401 0.00175005593337118626
-0.0176245570182800293 0.0962998941540718079 0.0263037290424108505
-0.0306483283638954163 0.0962998121976852417 0.0188319142907857895
-0.0466458052396774292 0.0962997078895568848 0.0156835746020078659
-0.00600561872124671936 0.0962999612092971802 0.0241981036961078644
-0.0620503984391689301 0.0962996110320091248 0.0029915438499301672
-0.0465583838522434235 0.0962997153401374817 0.0134782297536730766
-0.0340369418263435364 0.0962997972965240479 0.0215519461780786514
-0.00349153950810432434 0.0962999835610389709 0.0276460815221071243
-0.0479507260024547577 0.0962997078895568848 0.0163190960884094238
-0.0460801683366298676 0.0962997153401374817 0.0126966480165719986
-0.0226286202669143677 0.0962998643517494202 0.022296518087387085
-0.0559268370270729065 0.0962996557354927063 0.0169342830777168274
-0.0290853828191757202 0.0962998270988464355 0.0194591246545314789
-0.0506506599485874176 0.096299685537815094 0.0175111796706914902
-0.0645530670881271362 0.0962996035814285278 0.011938171461224556
-0.0301740504801273346 0.0962998196482658386 0.0221137478947639465
-0.0251303911209106445 0.0962998494505882263 0.0236185882240533829
-0.0595873184502124786 0.0962996333837509155 0.00423449371010065079
-0.00751315802335739136 0.0962999537587165833 0.0285559669137001038
-0.0538352057337760925 0.0962996631860733032 0.00781524833291769028
-0.0457466691732406616 0.0962997153401374817 0.00983172189444303513
0.0170191563665866852 0.0963001102209091187 0.0333466902375221252
-0.0419586896896362305 0.0962997376918792725 0.0118949320167303085
0.0210509262979030609 0.0963001251220703125 0.0340848490595817566
0.00262495875358581543 0.0963000133633613586 0.0271101649850606918
-0.0281703229993581772 0.0962998270988464355 0.0151371713727712631
-0.0222638659179210663 0.0962998643517494202 0.0207796785980463028
-0.0617118440568447113 0.0962996184825897217 0.0041578216478228569
-0.0496925078332424164 0.0962996929883956909 0.0105517636984586716
-0.00716641545295715332 0.0962999612092971802 0.0253453347831964493
-0.0484576225280761719 0.0962997004389762878 0.0102557875216007233
0.0358714014291763306 0.0963002219796180725 0.0369554758071899414
-0.0322029553353786469 0.0962998047471046448 0.0216660182923078537
0.0312628038227558136 0.0963001921772956848 0.0350882522761821747
-0.0652615129947662354 0.0962996035814285278 0.0125039145350456238
0.011592574417591095 0.096300072968006134 0.0320034623146057129
0.00496270786970853806 0.0963000357151031494 0.0260715633630752563
-0.0469694137573242188 0.0962997078895568848 0.0173461437225341797
-0.0426726974546909332 0.0962997376918792725 0.0190041232854127884
-0.017254464328289032 0.0962998941540718079 0.0238732025027275085
0.0110346991568803787 0.096300072968006134 0.0278904866427183151
-0.00803066045045852661 0.0962999537587165833 0.0248463805764913559
-0.0532882139086723328 0.0962996631860733032 0.00734934303909540176
-0.066985785961151123 0.096299588680267334 0.00778988189995288849
0.00992510095238685608 0.0963000655174255371 0.0316377580165863037
-0.0626557618379592896 0.0962996110320091248 0.00758389290422201157
-0.0308156814426183701 0.0962998121976852417 0.0206070523709058762
-0.00836319476366043091 0.0962999463081359863 0.0255582444369792938
0.0251017902046442032 0.0963001549243927002 0.035380139946937561
-0.0653502121567726135 0.0962995961308479309 0.0122798178344964981
-0.0585321001708507538 0.0962996408343315125 0.0142294354736804962
-0.0374725610017776489 0.0962997749447822571 0.0163801461458206177
-0.0630318745970726013 0.0962996110320091248 0.0138000752776861191
-0.0558676719665527344 0.0962996557354927063 0.00606233580037951469
-0.0607314668595790863 0.0962996259331703186 0.0146186836063861847
-0.00866805762052536011 0.0962999463081359863 0.0253925174474716187
-0.0600385814905166626 0.0962996259331703186 0.0141021516174077988
-0.0388588905334472656 0.0962997600436210632 0.0201659854501485825
-0.0205113552510738373 0.096299879252910614 0.0245194118469953537
0.0308866072446107864 0.0963001921772956848 0.0350657664239406586
-0.0518767125904560089 0.096299685537815094 0.0154211875051259995
0.0394579395651817322 0.0963002443313598633 0.0385188683867454529
-0.0310975760221481323 0.0962998121976852417 0.0212274659425020218
-0.0106247849762439728 0.0962999314069747925 0.0265718400478363037
-0.0378686822950839996 0.0962997674942016602 0.0204144474118947983
-0.0155879594385623932 0.0962999090552330017 0.0253575406968593597
-0.0564871020615100861 0.0962996482849121094 0.0129657536745071411
-0.0207937676459550858 0.0962998718023300171 0.0202809795737266541
-0.0457159355282783508 0.0962997153401374817 0.00871886219829320908
-0.00636625289916992188 0.0962999686598777771 0.0265265312045812607
0.00697814766317605972 0.0963000431656837463 0.0265759844332933426
0.0506088808178901672 0.0963003113865852356 0.0418144091963768005
0.00517516210675239563 0.0963000282645225525 0.0262074638158082962
0.0118945203721523285 0.096300080418586731 0.0333074517548084259
-0.062418617308139801 0.0962996110320091248 0.0242977980524301529
-0.0554907210171222687 0.0962996557354927063 0.026433013379573822
0.00792042352259159088 0.0963000506162643433 0.0330419838428497314
-0.0562492609024047852 0.0962996557354927063 0.0219881609082221985
-0.0398893170058727264 0.0962997525930404663 0.0284544993191957474
-0.0114753134548664093 0.0962999314069747925 0.0305094756186008453
-0.0321760587394237518 0.0962998047471046448 0.0268489290028810501
-0.0135000245645642281 0.0962999165058135986 0.0276784934103488922
-0.0285864882171154022 0.0962998270988464355 0.0285787452012300491
-0.0601822212338447571 0.0962996259331703186 0.0240280404686927795
-0.0452195033431053162 0.0962997227907180786 0.0228248611092567444
0.0243476834148168564 0.0963001474738121033 0.0386828333139419556
-0.0642178058624267578 0.0962996110320091248 0.0223287809640169144
-0.0395104438066482544 0.0962997525930404663 0.0234144032001495361
0.00787997804582118988 0.0963000506162643433 0.0337642878293991089
-0.0356560349464416504 0.096299782395362854 0.0229999683797359467
-0.0210983157157897949 0.0962998718023300171 0.0330667309463024139
-0.0493356920778751373 0.0962996929883956909 0.0200952310115098953
-0.0166282728314399719 0.0962999016046524048 0.0313347727060317993
-0.00375594198703765869 0.096299976110458374 0.034930940717458725
-0.0428094193339347839 0.0962997376918792725 0.0283944737166166306
0.0217194631695747375 0.0963001400232315063 0.0355472490191459656
0.020222734659910202 0.0963001325726509094 0.0364588014781475067
-0.0284943729639053345 0.0962998270988464355 0.0317258536815643311
0.0396451316773891449 0.0963002443313598633 0.0403440594673156738
-0.0160547792911529541 0.0962999016046524048 0.0319455452263355255
0.00460448116064071655 0.0963000357151031494 0.0334294736385345459
0.0277844835072755814 0.096300177276134491 0.0381296351552009583
-0.00933113321661949158 0.0962999463081359863 0.0331267900764942169
-0.0515886470675468445 0.096299685537815094 0.0204689707607030869
-0.0401486530900001526 0.0962997525930404663 0.0231736991554498672
-0.0130655057728290558 0.0962999239563941956 0.0349288061261177063
-0.0331693589687347412 0.0962997972965240479 0.0251074079424142838
0.0190461967140436172 0.0963001176714897156 0.0379003360867500305
-0.0261205993592739105 0.0962998420000076294 0.0314317941665649414
-0.0400509275496006012 0.0962997525930404663 0.0316873304545879364
-0.00930635631084442139 0.0962999463081359863 0.0332831665873527527
-0.0548474416136741638 0.0962996631860733032 0.018172701820731163
-0.0357780978083610535 0.0962997749447822571 0.023420233279466629
-0.0346639230847358704 0.096299782395362854 0.0309350732713937759
0.000876300036907196045 0.0963000059127807617 0.0346288122236728668
-0.0556118786334991455 0.0962996557354927063 0.0289770960807800293
-0.0562995783984661102 0.0962996557354927063 0.0205007102340459824
-0.0589993149042129517 0.0962996408343315125 0.0280920621007680893
-0.0378504395484924316 0.0962997674942016602 0.0267413109540939331
-0.0415168404579162598 0.0962997451424598694 0.0231212563812732697
0.00597731396555900574 0.0963000431656837463 0.036783512681722641
-0.0514240339398384094 0.096299685537815094 0.027697436511516571
-0.0209337398409843445 0.0962998718023300171 0.0281658843159675598
-0.0537125095725059509 0.0962996706366539001 0.0270396191626787186
-0.0482426807284355164 0.0962997004389762878 0.0292300283908843994
-0.0382766574621200562 0.0962997600436210632 0.0306725893169641495
-0.018110254779458046 0.0962998867034912109 0.029963906854391098
-0.0617839917540550232 0.0962996184825897217 0.0255675874650478363
-0.00733645260334014893 0.0962999537587165833 0.0356385894119739532
-0.00365056842565536499 0.0962999835610389709 0.0305509306490421295
-0.0211222246289253235 0.0962998718023300171 0.0280124451965093613
0.0434134453535079956 0.096300274133682251 0.04088587686419487
-0.000641446793451905251 0.0962999984622001648 0.0305738616734743118
0.0319093763828277588 0.0963001996278762817 0.0387893691658973694
-0.0645688623189926147 0.0962996035814285278 0.0200696960091590881
-0.00864811614155769348 0.0962999463081359863 0.034119725227355957
-0.0248123742640018463 0.0962998494505882263 0.0294325873255729675
0.023805033415555954 0.0963001474738121033 0.0365308374166488647
0.0335780903697013855 0.0963002070784568787 0.0394598059356212616
0.00311145931482315063 0.0963000208139419556 0.0350127816200256348
-0.0632698535919189453 0.0962996110320091248 0.018653184175491333
-0.0325350202620029449 0.0962998047471046448 0.029963124543428421
-0.0209423303604125977 0.0962998718023300171 0.0332732498645782471
-0.0313071198761463165 0.0962998121976852417 0.0284502170979976654
0.0350225344300270081 0.0963002219796180725 0.0402315892279148102
-0.0620243847370147705 0.0962996184825897217 0.0181164667010307312
0.00480024144053459167 0.0963000282645225525 0.0371702946722507477
-0.0443592146039009094 0.0962997227907180786 0.0236865561455488205
-0.0306284166872501373 0.0962998121976852417 0.0266809016466140747
-0.0465666726231575012 0.0962997078895568848 0.0265367981046438217
-0.0532228909432888031 0.0962996706366539001 0.0304434560239315033
-0.0454628653824329376 0.0962997227907180786 0.0203375387936830521
-0.0469250120222568512 0.0962997153401374817 0.0275121945887804031
0.0223717167973518372 0.0963001400232315063 0.0360078290104866028
-0.0589771829545497894 0.0962996408343315125 0.0292099881917238235
-0.0421177595853805542 0.0962997451424598694 0.0284423623234033585
-0.0173947550356388092 0.0962998941540718079 0.0313444659113883972
-0.0643562227487564087 0.0962996035814285278 0.0174258798360824585
0.00256786122918128967 0.0963000208139419556 0.0399114452302455902
-0.0525936298072338104 0.0962996780872344971 0.0309750158339738846
-0.049826204776763916 0.0962996929883956909 0.0365433767437934875
-0.0287320241332054138 0.0962998270988464355 0.0340955108404159546
-0.0370496734976768494 0.0962997749447822571 0.0336639732122421265
0.0162002220749855042 0.0963001027703285217 0.0394208244979381561
-0.0264595411717891693 0.0962998420000076294 0.0401541776955127716
0.00232464633882045746 0.0963000133633613586 0.0395070016384124756
-0.0457482561469078064 0.0962997153401374817 0.0360097996890544891
0.00961238890886306763 0.0963000655174255371 0.0410013496875762939
-0.00776021741330623627 0.0962999537587165833 0.0381729155778884888
-0.0341839715838432312 0.0962997898459434509 0.0401579923927783966
-0.0404428690671920776 0.0962997525930404663 0.0344558246433734894
-0.046131279319524765 0.0962997153401374817 0.0383889228105545044
-0.0506275966763496399 0.0962996929883956909 0.0339014828205108643
-0.0435310304164886475 0.0962997302412986755 0.0411527566611766815
-0.0474618524312973022 0.0962997078895568848 0.034386511892080307
-0.00329200737178325653 0.0962999835610389709 0.0392233356833457947
-0.0586863458156585693 0.0962996408343315125 0.0303759686648845673
-0.00733269378542900085 0.0962999537587165833 0.0420850403606891632
-0.0414728075265884399 0.0962997451424598694 0.0407263189554214478
-0.0582697093486785889 0.0962996408343315125 0.0316991657018661499
-0.0288988873362541199 0.0962998270988464355 0.0425985045731067657
0.00338521040976047516 0.0963000208139419556 0.0394048653542995453
-0.0494260676205158234 0.0962997004389762878 0.0363642424345016479
0.00694415159523487091 0.0963000431656837463 0.0403754934668540955
-0.00771150365471839905 0.0962999537587165833 0.0386497601866722107
-0.0523106791079044342 0.0962996780872344971 0.0366330035030841827
-0.0570005923509597778 0.0962996482849121094 0.0317696221172809601
0.0125360600650310516 0.096300080418586731 0.0400677695870399475
0.00250721164047718048 0.0963000208139419556 0.0390539467334747314
-0.0578987263143062592 0.0962996408343315125 0.0305632129311561584
-0.0542552843689918518 0.0962996631860733032 0.0348252393305301666
-0.0530173256993293762 0.0962996706366539001 0.0373960137367248535
-0.0524744577705860138 0.0962996780872344971 0.0426674149930477142
0.0378663614392280579 0.0963002368807792664 0.0413089357316493988
-0.0197131242603063583 0.096299879252910614 0.0376284345984458923
-0.0165237952023744583 0.0962998941540718079 0.0368409454822540283
-0.0453798063099384308 0.0962997227907180786 0.0348462499678134918
-0.0174343623220920563 0.0962998941540718079 0.0353000201284885406
-0.00918268505483865738 0.0962999463081359863 0.0366602353751659393
-0.0103847533464431763 0.0962999388575553894 0.0421157330274581909
-0.053446061909198761 0.0962996706366539001 0.0414653122425079346
-0.00874187424778938293 0.0962999463081359863 0.0414539575576782227
0.00415488332509994507 0.0963000282645225525 0.0420262813568115234
-0.0475605204701423645 0.0962997078895568848 0.0416629798710346222
-0.017703276127576828 0.0962998941540718079 0.0413977615535259247
-0.0390146523714065552 0.0962997600436210632 0.0378837808966636658
0.00399574637413024902 0.0963000282645225525 0.0412543192505836487
-0.0526175051927566528 0.0962996780872344971 0.0412773676216602325
-0.0547872520983219147 0.0962996631860733032 0.0359880141913890839
-0.0532307326793670654 0.0962996706366539001 0.0399410240352153778
0.014657309278845787 0.0963000953197479248 0.0400536768138408661
-0.025902915745973587 0.0962998420000076294 0.0407701730728149414
-0.0097697041928768158 0.0962999463081359863 0.0406895503401756287
0.0128572238609194756 0.096300080418586731 0.0390961766242980957
-0.0282473713159561157 0.0962998270988464355 0.0387721322476863861
-0.05437421053647995 0.0962996631860733032 0.0341176614165306091
-0.050460129976272583 0.0962996929883956909 0.0385066419839859009
-0.0438418909907341003 0.0962997302412986755 0.0330562964081764221
-0.0341076552867889404 0.0962997898459434509 0.0354870706796646118
0.00978379882872104645 0.0963000655174255371 0.0393511727452278137
-0.0514109544456005096 0.096299685537815094 0.0314985886216163635
-0.0417664498090744019 0.0962997451424598694 0.0350490137934684753
0.0239402763545513153 0.0963001474738121033 0.0399284586310386658
-0.0401799976825714111 0.0962997600436210632 0.041078079491853714
-0.0355783514678478241 0.096299782395362854 0.0350921414792537689
0.0291142798960208893 0.0963001847267150879 0.0415522009134292603
-0.00435075163841247559 0.0962999686598777771 0.0375435575842857361
-0.0259474795311689377 0.0962998420000076294 0.0358353070914745331
-0.0416949428617954254 0.0962997451424598694 0.0408606119453907013
-0.0318388715386390686 0.0962998047471046448 0.0334596559405326843
-0.0408545210957527161 0.0962997525930404663 0.0392002612352371216
0.0278551559895277023 0.096300169825553894 0.0401061400771141052
-0.0154942907392978668 0.0962999090552330017 0.0494545698165893555
-0.00331933051347732544 0.096299976110458374 0.0448789112269878387
-0.00214855186641216278 0.0962999910116195679 0.0461876727640628815
0.0327062644064426422 0.0963002070784568787 0.045068640261888504
0.0437467023730278015 0.096300274133682251 0.0435697659850120544
-0.0173996128141880035 0.0962998941540718079 0.0442334748804569244
-0.0351373776793479919 0.096299782395362854 0.0438621975481510162
-0.0305336005985736847 0.0962998121976852417 0.0438058450818061829
-0.021380208432674408 0.0962998718023300171 0.0443242080509662628
-0.0483311749994754791 0.0962997004389762878 0.0479356162250041962
-0.0478756651282310486 0.0962997004389762878 0.0469327270984649658
0.0181323476135730743 0.0963001176714897156 0.0441302768886089325
-0.00862338673323392868 0.0962999537587165833 0.04402938112616539
-0.0263887122273445129 0.0962998420000076294 0.0463111214339733124
0.0179429315030574799 0.0963001176714897156 0.0463446043431758881
-0.0414420329034328461 0.0962997451424598694 0.0533808842301368713
-0.0279235187917947769 0.0962998345494270325 0.0462037064135074615
-0.0173304639756679535 0.0962998941540718079 0.0497938208281993866
0.024937724694609642 0.0963001549243927002 0.0445002540946006775
-0.0473744682967662811 0.0962997078895568848 0.0467451885342597961
0.0150108719244599342 0.0963000953197479248 0.0443162322044372559
-0.0037841498851776123 0.096299976110458374 0.0484823472797870636
-0.0368379540741443634 0.0962997749447822571 0.0432394593954086304
-0.0100510613992810249 0.0962999388575553894 0.0434841178357601166
-0.0265931747853755951 0.0962998420000076294 0.0515097528696060181
0.00742549076676368713 0.0963000431656837463 0.0440968126058578491
-0.0249628424644470215 0.0962998494505882263 0.0457590259611606598
-0.0220714956521987915 0.0962998643517494202 0.0439799278974533081
-0.0327416956424713135 0.0962998047471046448 0.0506714954972267151
-0.0152695588767528534 0.0962999016046524048 0.0465238168835639954
-0.0390809029340744019 0.0962997600436210632 0.0503741651773452759
-0.0463029257953166962 0.0962997153401374817 0.0495593324303627014
-0.0101755727082490921 0.0962999388575553894 0.0442536883056163788
-0.00290467962622642517 0.0962999835610389709 0.0459956377744674683
-0.04402918741106987 0.0962997302412986755 0.0489928014576435089
-0.0463267900049686432 0.0962997153401374817 0.0429560616612434387
0.0310091935098171234 0.0963001921772956848 0.0438479296863079071
0.00649181380867958069 0.0963000357151031494 0.0439318940043449402
-0.00735966488718986511 0.0962999537587165833 0.0494252964854240417
-0.00765849277377128601 0.0962999612092971802 0.0450046099722385406
-0.0374451763927936554 0.0962997674942016602 0.0528045669198036194
-0.0470325015485286713 0.0962997153401374817 0.0469986535608768463
-0.0431859306991100311 0.0962997302412986755 0.050448145717382431
0.0169250518083572388 0.0963001102209091187 0.0449840500950813293
0.0154625941067934036 0.0963000953197479248 0.0446398928761482239
-0.0233489349484443665 0.0962998569011688232 0.0471938289701938629
-0.0342383570969104767 0.0962997898459434509 0.0524440966546535492
0.0236961115151643753 0.0963001474738121033 0.0459289103746414185
-0.039028652012348175 0.0962997600436210632 0.0512758158147335052
0.00767776183784008026 0.0963000506162643433 0.0449197255074977875
-0.0184448305517435074 0.0962998941540718079 0.0436412915587425232
0.00555294007062911987 0.0963000357151031494 0.0474695190787315369
-0.0323172286152839661 0.0962997972965240479 0.0477639548480510712
0.00494824908673763275 0.0963000357151031494 0.0441399402916431427
0.0355315022170543671 0.0963002219796180725 0.0445468351244926453
-0.0383603647351264954 0.0962997600436210632 0.0451598912477493286
0.0158375725150108337 0.0963000953197479248 0.0444828346371650696
0.0374198891222476959 0.0963002368807792664 0.0429418683052062988
-0.0529980398714542389 0.0962996780872344971 0.042813379317522049
-0.0399811752140522003 0.0962997525930404663 0.0476134493947029114
-0.0158842653036117554 0.0962999016046524048 0.0438596010208129883
-0.0387796983122825623 0.0962997674942016602 0.0482689701020717621
0.00994080118834972382 0.0963000655174255371 0.0500616319477558136
-0.0350774116814136505 0.096299782395362854 0.0531267300248146057
-0.0166536383330821991 0.0962998941540718079 0.0577619597315788269
-0.0087285209447145462 0.0962999463081359863 0.0541112832725048065
-0.0166989341378211975 0.0962998941540718079 0.0545740723609924316
-0.0340975411236286163 0.0962997898459434509 0.0577374286949634552
-0.018891921266913414 0.0962998867034912109 0.0534078031778335571
-0.00684316083788871765 0.0962999537587165833 0.0526850782334804535
0.000283207744359970093 0.0963000059127807617 0.0539301931858062744
-0.0109283886849880219 0.0962999314069747925 0.0551233217120170593
-0.00620834995061159134 0.0962999612092971802 0.0508456230163574219
0.00583705678582191467 0.0963000357151031494 0.0499657578766345978
-0.0189008824527263641 0.096299879252910614 0.0563113689422607422
-0.0158046968281269073 0.0962999016046524048 0.0573244616389274597
-0.0197153147310018539 0.096299879252910614 0.0536257550120353699
-0.0183869171887636185 0.0962998867034912109 0.0543296635150909424
-0.0322234854102134705 0.0962997972965240479 0.0588731318712234497
0.00114601850509643555 0.0963000059127807617 0.0522964373230934143
0.00414165481925010681 0.0963000282645225525 0.051406465470790863
-0.0202402621507644653 0.096299879252910614 0.0525207556784152985
-0.0149428769946098328 0.0962999090552330017 0.0523059628903865814
-0.0146109238266944885 0.0962999090552330017 0.0543090961873531342
-0.0341114439070224762 0.0962997898459434509 0.0558520816266536713
0.0131142949685454369 0.0963000878691673279 0.0476452484726905823
0.0415871031582355499 0.0963002592325210571 0.0453535616397857666
-0.0236283354461193085 0.0962998569011688232 0.0579789578914642334
-0.0255376249551773071 0.0962998345494270325 0.0579850077629089355
-0.00500135868787765503 0.0962999686598777771 0.0510538779199123383
-0.0260956808924674988 0.0962998345494270325 0.0560059621930122375
0.000118922442197799683 0.0962999984622001648 0.0546236708760261536
