ply
format ascii 1.0
element vertex 707
property float x
property float y
property float z
end_header
0.00125005841255187988 0.00513914693146944046 0.0195901654660701752
0.00143070518970489502 0.00443544285371899605 0.0173199661076068878
0.0024352450855076313 0.00464783795177936554 0.0167788341641426086
-0.00202816631644964218 0.00402365159243345261 0.0201190859079360962
-0.00466164480894804001 0.00301980809308588505 0.0202284324914216995
-0.00151416216976940632 0.00453158607706427574 0.02101154625415802
0.000282984692603349686 0.00543715711683034897 0.0215828027576208115
-0.00217526056803762913 0.00437453016638755798 0.0213170722126960754
-0.00387197989039123058 0.00307800131849944592 0.0194844808429479599
0.00104848993942141533 0.00434774439781904221 0.0175056979060173035
0.00191480922512710094 0.00433428864926099777 0.0164631418883800507
-0.00549230538308620453 0.00265404325909912586 0.0201190318912267685
0.00160886778030544519 0.00470907986164093018 0.0179150979965925217
-0.0025102812796831131 0.00390155427157878876 0.020319746807217598
0.00165443168953061104 0.00510849617421627045 0.0190321542322635651
0.000892020412720739841 0.00418774271383881569 0.0172182656824588776
-0.00186775857582688332 0.00497902929782867432 0.0227314699441194534
-0.000615090597420930862 0.00547185260802507401 0.0227243397384881973
0.00111642526462674141 0.00566449481993913651 0.0212835557758808136
0.000801969727035611868 0.0042216121219098568 0.0174217373132705688
0.00276411487720906734 0.00504443654790520668 0.0175595860928297043
-0.00331970630213618279 0.00327686266973614693 0.0194274075329303741
0.000128500163555145264 0.00480925571173429489 0.0199226774275302887
-0.00403194036334753036 0.00362766580656170845 0.0212795734405517578
-0.00466466043144464493 0.00321263237856328487 0.0207966715097427368
-0.000124004436656832695 0.00506766652688384056 0.0209719017148017883
0.000572480377741158009 0.00457274541258811951 0.0187158789485692978
0.00060454843332991004 0.00426660291850566864 0.0177821088582277298
0.000111669010948389769 0.00408827746286988258 0.0178305543959140778
-0.00153135135769844055 0.00477895094081759453 0.0217559356242418289
0.00283432588912546635 0.00534231960773468018 0.0183507297188043594
-0.00027948280330747366 0.00432493863627314568 0.0189766231924295425
0.00165168195962905884 0.00514663569629192352 0.0191470421850681305
-0.00191019615158438683 0.00404747016727924347 0.0200522430241107941
0.00394415250048041344 0.00506964139640331268 0.0162669867277145386
0.00353113748133182526 0.00512809120118618011 0.016916424036026001
0.00125415448565036058 0.00431995606049895287 0.017186162993311882
0.000713687215466052294 0.00412036525085568428 0.0172274298965930939
0.000391268637031316757 0.00543113052845001221 0.0214397646486759186
-5.66213857382535934e-05 0.00508252345025539398 0.0209373906254768372
-0.00399884628131985664 0.00326253939419984818 0.0201718658208847046
-0.0022191186435520649 0.00337424688041210175 0.0184382088482379913
0.00275833858177065849 0.00538134854286909103 0.0185530278831720352
-0.0015292726457118988 0.00521377986297011375 0.0230270624160766602
0.0014432072639465332 0.00583334732800722122 0.0213996991515159607
-0.00336851156316697598 0.0029980391263961792 0.0186672993004322052
0.000728574581444263458 0.00478257797658443451 0.0191496908664703369
-0.000592141877859830856 0.00476695038378238678 0.0206332337111234665
0.0018636572640389204 0.00515802530571818352 0.0189349465072154999
0.00017973058857023716 0.00439942255616188049 0.0186630301177501678
-0.000510957906953990459 0.00424572732299566269 0.0190126616507768631
0.000766919227316975594 0.00486044213175773621 0.0193333402276039124
-0.00221208576112985611 0.00463678454980254173 0.022127809002995491
-0.0034206523559987545 0.0032889069989323616 0.0195795744657516479
-0.00326351867988705635 0.00414567440748214722 0.0219069365411996841
-0.00202765362337231636 0.00372713035903871059 0.019250035285949707
-0.00363280670717358589 0.0033282602671533823 0.019940495491027832
-0.00198651384562253952 0.00479555502533912659 0.0223316177725791931
-0.00130722764879465103 0.00529497861862182617 0.0230077635496854782
-0.00198481045663356781 0.0036004181019961834 0.0188293084502220154
-0.00128859933465719223 0.00445008790120482445 0.0205116625875234604
-0.00227347481995820999 0.00463810563087463379 0.0222027618438005447
-0.00304173305630683899 0.00350980367511510849 0.0197877716273069382
0.00189111079089343548 0.00470037898048758507 0.01756279356777668
-0.00360979046672582626 0.00396093167364597321 0.0217668227851390839
0.00179520132951438427 0.00551789579913020134 0.0200682077556848526
0.00138376839458942413 0.00549490796402096748 0.0204772986471652985
6.07874972047284245e-05 0.00386107806116342545 0.0172240454703569412
0.00146895088255405426 0.00512090977281332016 0.0192832872271537781
-0.00308357249014079571 0.00371942040510475636 0.020450148731470108
-0.000828420277684926987 0.00524210929870605469 0.0222984869033098221
-0.000195194967091083527 0.00551726343110203743 0.0223711226135492325
0.000344841973856091499 0.00470845866948366165 0.0193769503384828568
-0.00337613001465797424 0.00345274247229099274 0.0200078636407852173
1.30874104797840118e-05 0.00606739846989512444 0.0237411893904209137
-0.00483643915504217148 0.00289045670069754124 0.0200519878417253494
-2.25317198783159256e-05 0.00477920938283205032 0.0200095623731613159
-0.00443057343363761902 0.00303455209359526634 0.0200040470808744431
-0.0039671645499765873 0.00341797224245965481 0.0205904114991426468
-0.00341881066560745239 0.00410038698464632034 0.0219541192054748535
-0.000254360027611255646 0.00551915261894464493 0.0224451664835214615
-0.00127977959346026182 0.00412072800099849701 0.0195368155837059021
0.000562265282496809959 0.004862938541918993 0.0195776298642158508
-0.00129956379532814026 0.00526190456002950668 0.022902023047208786
-0.00212650629691779613 0.00426163198426365852 0.0209299586713314056
-0.00180434866342693567 0.00368562806397676468 0.0188699085265398026
0.00402844138443470001 0.00519243907183408737 0.0165290385484695435
-0.00208704988472163677 0.00421454524621367455 0.0207463614642620087
-0.00365329603664577007 0.00314606097526848316 0.0194305926561355591
-0.00375773687846958637 0.00332599971443414688 0.0200785361230373383
0.00253365444950759411 0.00533871585503220558 0.0186883360147476196
-0.00318928039632737637 0.00312423822470009327 0.0188293736428022385
0.00203037518076598644 0.00436638249084353447 0.0164233185350894928
0.00375806866213679314 0.00523564638569951057 0.0169686600565910339
0.000521678943186998367 0.00567138846963644028 0.0219924282282590866
-0.00150097254663705826 0.0041291569359600544 0.0198176298290491104
0.00982554256916046143 0.0156960524618625641 0.0277844294905662537
0.00735288485884666443 0.0157824195921421051 0.0285577904433012009
0.00975104887038469315 0.0182919856160879135 0.0290823932737112045
0.0112063214182853699 0.0165697857737541199 0.0278057288378477097
0.00901771523058414459 0.0171460807323455811 0.0287359338253736496
0.0106300543993711472 0.0173963811248540878 0.0283823572099208832
0.00666080368682742119 0.014982973225414753 0.0283694267272949219
0.00895800068974494934 0.0175818651914596558 0.028967779129743576
0.011496162973344326 0.0160771049559116364 0.0274778921157121658
0.00372550403699278831 0.0139647247269749641 0.028736606240272522
0.0111313071101903915 0.0163170434534549713 0.0277036763727664948
0.00605875486508011818 0.0145218232646584511 0.0283207260072231293
0.00835481379181146622 0.0152706634253263474 0.0280100852251052856
0.010042247362434864 0.0159516260027885437 0.0278459899127483368
0.00409779371693730354 0.0136382794007658958 0.0284661054611206055
0.00490543898195028305 0.0147728044539690018 0.0287850070744752884
0.0102216750383377075 0.0172607842832803726 0.0284364260733127594
0.0109309814870357513 0.0170110128819942474 0.0281039886176586151
0.00977273285388946533 0.0184872746467590332 0.0291719734668731689
0.0101425442844629288 0.0158890504390001297 0.0277855843305587769
0.0111066140234470367 0.016642766073346138 0.0278710741549730301
0.00944897625595331192 0.0173784438520669937 0.0287226643413305283
0.0101492106914520264 0.0170200765132904053 0.0283395349979400635
0.00747303897514939308 0.014645380899310112 0.0279633998870849609
0.00591428996995091438 0.014115617610514164 0.0281637739390134811
0.0095950588583946228 0.0175013691186904907 0.0287399031221866608
0.00889710430055856705 0.0158654134720563889 0.0281421151012182236
0.00572607805952429771 0.0147191593423485756 0.0285160578787326813
0.00847488921135663986 0.0169599391520023346 0.028804900124669075
0.00731111131608486176 0.0167372878640890121 0.0290394723415374756
0.00933219492435455322 0.0172971244901418686 0.0287172142416238785
0.00877499952912330627 0.0158278457820415497 0.0281597450375556946
0.00983560644090175629 0.0167097095400094986 0.0282796826213598251
0.00171017192769795656 0.0126153267920017242 0.0286690834909677505
0.00994066521525382996 0.0166516676545143127 0.0282201003283262253
0.00602035690099000931 0.015639089047908783 0.0288812331855297089
0.00989011209458112717 0.0183356571942567825 0.0290627516806125641
0.00949168018996715546 0.0155073860660195351 0.027790384367108345
0.00698412582278251648 0.0159479845315217972 0.028748171404004097
0.00848764926195144653 0.0175514109432697296 0.0290918480604887009
0.0108964117243885994 0.0159279368817806244 0.0275818556547164917
0.00539238378405570984 0.0141603033989667892 0.0283400118350982666
0.00433389516547322273 0.0139138707891106606 0.0285317711532115936
0.00850093923509120941 0.0157614778727293015 0.0282081365585327148
0.00458180531859397888 0.0139704616740345955 0.0284863058477640152
0.00414205901324748993 0.0136905871331691742 0.0284787323325872421
0.00657167751342058182 0.0163163710385560989 0.0290319155901670456
0.00586282089352607727 0.0173017494380474091 0.0293868817389011383
0.0049181496724486351 0.0155380517244338989 0.0290433913469314575
0.00354534108191728592 0.0151842134073376656 0.0291305016726255417
0.00849515851587057114 0.0186446495354175568 0.0293961707502603531
0.00388488359749317169 0.0148805202916264534 0.0290051400661468506
0.00701133254915475845 0.017158186063170433 0.0291973445564508438
0.00322197889909148216 0.0148224253207445145 0.0290771294385194778
0.00608801189810037613 0.0184335466474294662 0.0296575445681810379
0.00515134958550333977 0.0153000438585877419 0.0289494805037975311
0.00716176116839051247 0.0196085367351770401 0.0298277847468852997
0.00415409589186310768 0.0146955251693725586 0.0289205461740493774
0.00605457089841365814 0.0160179417580366135 0.0290209017693996429
0.00723107624799013138 0.0202381834387779236 0.0299857407808303833
0.00324712414294481277 0.0147551558911800385 0.0290559623390436172
0.00734471343457698822 0.0174697916954755783 0.0292360801249742508
0.00864147208631038666 0.0178941730409860611 0.0291777178645133972
0.00198398693464696407 0.0130508085712790489 0.0287702139467000961
0.00620969804003834724 0.0175681039690971375 0.0294118300080299377
0.00578224007040262222 0.0182556770741939545 0.0296506602317094803
0.00339118414558470249 0.0143364919349551201 0.0289258621633052826
0.00795250199735164642 0.0203689001500606537 0.0299253035336732864
0.00501290848478674889 0.016828073188662529 0.0293732434511184692
0.00907784048467874527 0.0185708589851856232 0.0292997583746910095
0.0022951238788664341 0.0131939519196748734 0.0287671759724617004
0.00661706039682030678 0.0166411399841308594 0.0291121173650026321
0.00726308021694421768 0.0178331881761550903 0.0293432809412479401
0.00887694861739873886 0.0183216053992509842 0.0292601007968187332
0.00334707461297512054 0.0146872242912650108 0.0290247555822134018
0.00739891268312931061 0.0180393718183040619 0.029380088672041893
0.0044832378625869751 0.0151261761784553528 0.02899143286049366
0.00575612857937812805 0.0177995394915342331 0.0295330528169870377
0.00529502518475055695 0.017288917675614357 0.0294583439826965332
0.00217981799505650997 0.0133327413350343704 0.0288192126899957657
0.00582023570314049721 0.0184371117502450943 0.0296937990933656693
0.00445145880803465843 0.0158007964491844177 0.0291746556758880615
0.00630919355899095535 0.0177033115178346634 0.02943459153175354
0.00352216046303510666 0.0147441057488322258 0.0290167629718780518
0.00817806832492351532 0.020564420148730278 0.0299474503844976425
0.00744292419403791428 0.0184433460235595703 0.0294814929366111755
0.0067435186356306076 0.0186248067766427994 0.0296218693256378174
0.00288529763929545879 0.0145102944225072861 0.0290386881679296494
0.00685719959437847137 0.0191264376044273376 0.0297400020062923431
0.00479396944865584373 0.0149760795757174492 0.0289106294512748718
0.00734227802604436874 0.0176187846809625626 0.0292759407311677933
0.00800395011901855469 0.0187755357474088669 0.02949567511677742
0.00673003401607275009 0.0216871574521064758 0.0301590114831924438
0.00426632631570100784 0.0195817649364471436 0.0297305695712566376
0.00311734015122056007 0.0156083796173334122 0.0291844140738248825
0.0052949744276702404 0.0187937822192907333 0.0297164507210254669
0.00434622261673212051 0.0185620151460170746 0.0296184960752725601
0.00441551767289638519 0.0176160670816898346 0.0295141730457544327
0.00389306549914181232 0.0160745494067668915 0.02929653599858284
0.00480201654136180878 0.021602042019367218 0.030004626139998436
0.00566827692091464996 0.0195382796227931976 0.0298306308686733246
0.00678749196231365204 0.0213474296033382416 0.0301239863038063049
0.00571063905954360962 0.0210473090410232544 0.0300085153430700302
0.00426438543945550919 0.0177649334073066711 0.0295200776308774948
0.00559282489120960236 0.02192683145403862 0.030101509764790535
0.00162790564354509115 0.0129583496600389481 0.0287659503519535065
0.00524610560387372971 0.0199522934854030609 0.0298469159752130508
0.00564074469730257988 0.0198196917772293091 0.0298611465841531754
0.00567993707954883575 0.0223758891224861145 0.0301600322127342224
0.0073915533721446991 0.0209410823881626129 0.0301222242414951324
0.00491190701723098755 0.0187679976224899292 0.029684748500585556
0.00309728225693106651 0.0167596433311700821 0.0293161980807781219
0.0023050396703183651 0.0143424812704324722 0.0289769601076841354
0.00184798357076942921 0.0131732821464538574 0.0288073327392339706
0.00545010808855295181 0.0198077298700809479 0.0298454724252223969
0.00570904277265071869 0.0222178492695093155 0.0301439166069030762
0.00375443976372480392 0.0167445112019777298 0.0293637104332447052
0.00251562311314046383 0.014451649971306324 0.0290053859353065491
0.00527007225900888443 0.0182723477482795715 0.029654214158654213
0.00498248077929019928 0.0219781026244163513 0.030061693862080574
0.00430281972512602806 0.0170897934585809708 0.0294447951018810272
0.00282461149618029594 0.0161561407148838043 0.029225887730717659
0.0033121888991445303 0.0155422529205679893 0.0291913636028766632
0.00398332858458161354 0.0166207384318113327 0.0293665379285812378
0.00635301042348146439 0.0232936646789312363 0.0303167439997196198
0.00690077710896730423 0.0209631118923425674 0.0300879832357168198
0.00582092488184571266 0.0210048630833625793 0.0300118681043386459
0.00223483750596642494 0.014157530851662159 0.0289502851665019989
0.00687456456944346428 0.0202535632997751236 0.0300038717687129974
0.00319462968036532402 0.0169829186052083969 0.0293493457138538361
0.0060109943151473999 0.0228212699294090271 0.030236411839723587
0.00465755537152290344 0.0184190627187490463 0.0296252835541963577
0.0058910297229886055 0.0193704143166542053 0.0298278946429491043
0.00524252699688076973 0.020316682755947113 0.0298888348042964935
0.0063024694100022316 0.0192535333335399628 0.0298452042043209076
0.00197282573208212852 0.013405689038336277 0.0288435984402894974
0.00517651066184043884 0.0215050652623176575 0.0300214719027280807
0.00413506757467985153 0.0175338517874479294 0.0294836312532424927
0.00534049980342388153 0.0193849001079797745 0.0297883003950119019
0.00548608461394906044 0.0119350273162126541 0.0264414399862289429
0.0103894928470253944 0.0149715747684240341 0.0269959624856710434
0.00985662080347537994 0.0145585983991622925 0.0268626399338245392
0.00645631179213523865 0.011610858142375946 0.0257367771118879318
0.0101491436362266541 0.0128968069329857826 0.0252731721848249435
0.00765069667249917984 0.0132814478129148483 0.0266914591193199158
0.0106426030397415161 0.0137079861015081406 0.0257741063833236694
0.0110366251319646835 0.0152460513636469841 0.026957973837852478
0.00503271445631980896 0.0119493082165718079 0.0266499258577823639
0.0100811459124088287 0.0132509246468544006 0.0256143268197774887
0.010540403425693512 0.0131194274872541428 0.025300096720457077
0.00992416590452194214 0.0126181291416287422 0.025125039741396904
0.00502274325117468834 0.0118671087548136711 0.0265818648040294647
0.0100925061851739883 0.01234459038823843 0.0248114690184593201
0.00540267582982778549 0.0136197013780474663 0.0279606916010379791
0.0103368991985917091 0.0154286632314324379 0.0274211149662733078
0.00904607586562633514 0.013440299779176712 0.0262283347547054291
0.0109915453940629959 0.014092649333178997 0.0259619820863008499
0.00804902892559766769 0.0115854665637016296 0.0250261686742305756
0.00592496572062373161 0.0140321832150220871 0.0280981510877609253
0.00987522583454847336 0.0116878589615225792 0.0243271663784980774
0.00991671532392501831 0.0140845971181988716 0.0264193546026945114
0.00921193696558475494 0.0111880972981452942 0.0241737961769104004
0.00704926811158657074 0.0132274134084582329 0.0269037801772356033
0.00830000173300504684 0.0137635683640837669 0.0268353410065174103
0.0102501185610890388 0.0109049407765269279 0.0234758742153644562
0.0109337121248245239 0.0130396876484155655 0.0250599328428506851
0.0100272204726934433 0.012132842093706131 0.0246532559394836426
0.00606108549982309341 0.0134676480665802956 0.0275423061102628708
0.010800875723361969 0.0135732702910900116 0.0255871079862117767
0.00280778110027313232 0.0127327237278223038 0.0283011067658662796
0.00601570494472980499 0.0137199508026242256 0.0277840457856655121
0.00653978530317544937 0.0136313885450363159 0.0274796057492494583
0.00779427122324705124 0.0143597833812236786 0.0275787953287363052
0.00987314432859420776 0.0114041669294238091 0.0240783002227544785
0.00607185438275337219 0.0125433001667261124 0.0267238430678844452
0.0103482510894536972 0.013153507374227047 0.0254131369292736053
0.00838823150843381882 0.0123170260339975357 0.0255236625671386719
0.00405869726091623306 0.0131155988201498985 0.028097640722990036
0.00783480796962976456 0.0124358981847763062 0.0258674677461385727
0.0106309298425912857 0.0150330718606710434 0.0269457735121250153
0.0109942378476262093 0.0154823577031493187 0.0271843355149030685
0.00290462840348482132 0.0125768315047025681 0.0281220078468322754
0.00831469148397445679 0.0138630261644721031 0.0269165579229593277
0.00678415223956108093 0.0132897058501839638 0.0270731877535581589
0.0100538656115531921 0.0133232530206441879 0.0256897937506437302
0.00809164717793464661 0.0126659786328673363 0.0259590465575456619
0.00818742532283067703 0.0123713891953229904 0.0256583001464605331
0.00397096714004874229 0.0129417255520820618 0.0279824715107679367
0.00551123032346367836 0.0122926793992519379 0.026745455339550972
0.00470214337110519409 0.0136328563094139099 0.0282749906182289124
0.0107246981933712959 0.0151396412402391434 0.0269990786910057068
0.00877709779888391495 0.0130972098559141159 0.0260425079613924026
0.0104331560432910919 0.013132857158780098 0.0253582634031772614
0.00850614532828330994 0.0120753701776266098 0.0252599529922008514
0.00999863911420106888 0.0127480048686265945 0.0252072010189294815
0.0017266799695789814 0.0125611238181591034 0.0286171995103359222
0.00942518841475248337 0.0149759426712989807 0.0274165086448192596
0.00356816826388239861 0.0127064166590571404 0.0279493629932403564
0.00798401981592178345 0.0134825287386775017 0.0267244558781385422
0.00629492849111557007 0.0125466790050268173 0.0266304221004247665
0.00706009287387132645 0.0143768535926938057 0.027911083772778511
0.00645432062447071075 0.0127632180228829384 0.0267521888017654419
0.00969184935092926025 0.0151318581774830818 0.0274385474622249603
0.0101044327020645142 0.0119943376630544662 0.0244979467242956161
0.00792150851339101791 0.0124079016968607903 0.025805354118347168
0.00777230085805058479 0.0145575180649757385 0.0277623776346445084
0.00781451351940631866 0.0120051112025976181 0.0254969671368598938
0.00678631849586963654 0.0139656439423561096 0.0276673547923564911
0.00742353126406669617 0.0144060263410210609 0.0277797169983386993
0.00696776900440454483 0.0129835018888115883 0.0267242547124624252
0.00314334523864090443 0.0128420460969209671 0.0282523501664400101
0.00771682988852262497 0.0136644840240478516 0.0270001105964183807
0.00369711359962821007 0.0131665877997875214 0.0282987821847200394
0.0105201471596956253 0.0124322455376386642 0.0247038472443819046
0.00766626186668872833 0.0125159360468387604 0.0260107684880495071
0.00683447718620300293 0.0133761009201407433 0.0271275024861097336
0.00827604625374078751 0.0116898445412516594 0.025019962340593338
0.0110153872519731522 0.0155280036851763725 0.0272153839468955994
0.00512360129505395889 0.0124264843761920929 0.0270307622849941254
0.00573289953172206879 0.0135692069306969643 0.027773536741733551
0.00867663789540529251 0.0118411481380462646 0.0249800644814968109
0.00226668384857475758 0.0123639339581131935 0.0282102432101964951
0.00860809441655874252 0.0142493229359388351 0.0271298717707395554
0.00777300819754600525 0.0131583074107766151 0.0265301913022994995
0.00766842532902956009 0.0137676764279603958 0.0271118804812431335
0.00800516456365585327 0.0132837891578674316 0.0265403464436531067
0.00879123806953430176 0.0133024007081985474 0.0262170489877462387
0.00954368337988853455 0.014638163149356842 0.0270679183304309845
0.0105440104380249977 0.0153672248125076294 0.0272775255143642426
0.0104901408776640892 0.0148224718868732452 0.0268211979418992996
0.00773019203916192055 0.0117961326614022255 0.0253494177013635635
0.000572025659494102001 0.0068793795071542263 0.0243819989264011383
0.00398548273369669914 0.00994232483208179474 0.0252928994596004486
0.00493105407804250717 0.00993901398032903671 0.0248285774141550064
0.00360323092900216579 0.00983113422989845276 0.0253859274089336395
0.00421254988759756088 0.0111040081828832626 0.0261594559997320175
0.00252287043258547783 0.0103117823600769043 0.0263176504522562027
0.00107266905251890421 0.0086495252326130867 0.0256269499659538269
0.00345585588365793228 0.00993958301842212677 0.0255491062998771667
0.00372628704644739628 0.0102354465052485466 0.0256660338491201401
0.00200489722192287445 0.0115764681249856949 0.027634521946310997
0.000612254196312278509 0.0079371333122253418 0.0252523068338632584
0.00115716923028230667 0.00771070504561066628 0.0247958265244960785
0.00197356706485152245 0.00967737939208745956 0.0260520093142986298
0.00377239915542304516 0.0101380022242665291 0.0255615394562482834
0.00134881481062620878 0.0109069421887397766 0.0273914486169815063
0.00559364724904298782 0.00824514776468276978 0.023080023005604744
0.00702104019001126289 0.0101410988718271255 0.0239784754812717438
0.00154516391921788454 0.00736623909324407578 0.0243166293948888779
0.00227154442109167576 0.0108076883479952812 0.0268575549125671387
0.00298251910135149956 0.0111516788601875305 0.0267999432981014252
0.00188064062967896461 0.00859491340816020966 0.0251866299659013748
0.0029191281646490097 0.0106721967458724976 0.0264274701476097107
0.000614194083027541637 0.00701634958386421204 0.0244766566902399063
0.00344967539422214031 0.00819500349462032318 0.024084312841296196
0.00788055825978517532 0.00966056250035762787 0.0231546387076377869
0.00268135219812393188 0.010984860360622406 0.0268065892159938812
0.00204725773073732853 0.0101807070896029472 0.0264395177364349365
0.00477634510025382042 0.00842948351055383682 0.0236340425908565521
0.00251505803316831589 0.00847153645008802414 0.0247731655836105347
0.00112603767774999142 0.00808526575565338135 0.0251261591911315918
0.0039615989662706852 0.00817968137562274933 0.0238215494900941849
0.00123982096556574106 0.00929740350693464279 0.0260904598981142044
0.00108388764783740044 0.00841589458286762238 0.0254249107092618942
0.00506601901724934578 0.0105224819853901863 0.0252536050975322723
0.00476999720558524132 0.00881497561931610107 0.0239614769816398621
0.00656675081700086594 0.0100523689761757851 0.0241255611181259155
0.00744607299566268921 0.00871789362281560898 0.022573595866560936
0.00194758386351168156 0.0116714546456933022 0.0277424156665802002
0.00558508187532424927 0.00843704957515001297 0.0232456624507904053
0.0037408885546028614 0.00936858914792537689 0.0249295737594366074
0.00264092348515987396 0.0108307721093297005 0.0266966819763183594
0.00342991598881781101 0.0104809943586587906 0.026017284020781517
0.00126836169511079788 0.00890439562499523163 0.0257458686828613281
0.00498704193159937859 0.00972132571041584015 0.024618096649646759
0.00722643174231052399 0.00935254339128732681 0.0232147667557001114
0.00165594962891191244 0.00979864038527011871 0.0263090617954730988
0.0053198118694126606 0.0102226380258798599 0.0248774513602256775
0.00526466965675354004 0.00907054916024208069 0.0239350534975528717
0.000529429875314235687 0.00697095086798071861 0.0244798325002193451
0.00635536899790167809 0.0101599637418985367 0.0243192613124847412
0.00257559795863926411 0.00745382485911250114 0.0238873586058616638
0.00172573176678270102 0.00718898233026266098 0.0240793563425540924
0.00757952919229865074 0.00900782458484172821 0.0227523874491453171
0.00531356409192085266 0.00812776666134595871 0.0231179725378751755
0.00769075378775596619 0.0087409093976020813 0.0224735289812088013
0.00569542776793241501 0.00992261897772550583 0.0244416911154985428
0.00698829162865877151 0.00917464308440685272 0.023181326687335968
0.00207789475098252296 0.00821151025593280792 0.0247677713632583618
0.000239059736486524343 0.00636871112510561943 0.0241148658096790314
0.00316905369982123375 0.0108914365991950035 0.0264899395406246185
0.000703465892001986504 0.00738242967054247856 0.0247410852462053299
0.00592445628717541695 0.0100205084308981895 0.0244122613221406937
0.00314733991399407387 0.0111727537587285042 0.0267372261732816696
0.00508880149573087692 0.010322054848074913 0.0250738542526960373
0.00107799307443201542 0.00747419474646449089 0.0246354825794696808
0.00576355075463652611 0.00804744474589824677 0.0228307545185089111
0.00386315258219838142 0.0112189464271068573 0.0264266990125179291
0.00146964273881167173 0.011416872963309288 0.0277615059167146683
0.00171561352908611298 0.00861156173050403595 0.0252811871469020844
0.00224696332588791847 0.0104790199548006058 0.0265930257737636566
0.00723005132749676704 0.00859841052442789078 0.022578507661819458
0.00303167523816227913 0.0100483614951372147 0.0258476715534925461
0.0008469725726172328 0.00950937531888484955 0.0264605525881052017
0.00307109137065708637 0.00924125965684652328 0.0251493733376264572
0.00277076917700469494 0.00974927842617034912 0.0257233846932649612
0.00134644238278269768 0.0102741224691271782 0.0268601831048727036
0.00420993054285645485 0.0106817921623587608 0.025805499404668808
0.00723687000572681427 0.00870020687580108643 0.0226608254015445709
0.00234478199854493141 0.00892496481537818909 0.0252377726137638092
0.00383074814453721046 0.00982865877449512482 0.0252727922052145004
0.00238812761381268501 0.011600651778280735 0.0274678133428096771
0.00789149012416601181 0.00894205551594495773 0.0225447844713926315
0.00511343171820044518 0.00833054352551698685 0.0233862660825252533
0.00371825997717678547 0.00877389125525951385 0.0244402661919593811
0.00347736245021224022 0.0098493499681353569 0.0254626907408237457
0.00101469713263213634 0.00676816655322909355 0.0240723583847284317
0.0070015517994761467 0.00962151773273944855 0.0235508345067501068
0.00611706031486392021 0.00826021470129489899 0.022837221622467041
0.00282994727604091167 0.00936915259808301926 0.025374680757522583
0.00351803982630372047 0.00738085992634296417 0.0233659613877534866
0.00840093567967414856 0.00906550511717796326 0.0223999880254268646
0.000978114316239953041 0.0100408643484115601 0.0268437135964632034
0.00626508612185716629 0.00967214256525039673 0.0239528976380825043
0.00393580412492156029 0.0109119899570941925 0.0261329803615808487
0.00144861848093569279 0.00683698197826743126 0.0239184591919183731
0.00876795873045921326 0.010372944176197052 0.0235205050557851791
0.00930557772517204285 0.0107886362820863724 0.0237467288970947266
0.00590304471552371979 0.0113452635705471039 0.0256888270378112793
0.00838741101324558258 0.00979270506650209427 0.0230576600879430771
0.0057606920599937439 0.011021757498383522 0.0254030097275972366
0.00494232680648565292 0.0112791238352656364 0.0260008238255977631
0.0102508561685681343 0.0106979208067059517 0.0232748445123434067
0.00892640650272369385 0.0103552117943763733 0.0234387349337339401
0.00909829325973987579 0.00993358436971902847 0.0229241121560335159
0.00811108201742172241 0.0110876932740211487 0.0245382301509380341
0.00841361377388238907 0.0100134545937180519 0.0232808962464332581
0.00837848801165819168 0.0100388294085860252 0.0233217198401689529
0.00723173003643751144 0.011204850859940052 0.0250118877738714218
0.00356105458922684193 0.0119189480319619179 0.0272272787988185883
0.00773163232952356339 0.0105206854641437531 0.0240889526903629303
0.00699423300102353096 0.0110018914565443993 0.0248914957046508789
0.00862899702042341232 0.0102355554699897766 0.0234303399920463562
0.0066799260675907135 0.0109949382022023201 0.0250091124325990677
0.00508521776646375656 0.0110050896182656288 0.0256539508700370789
0.0059384126216173172 0.0111774755641818047 0.0254971645772457123
0.0063962242566049099 0.0105532677844166756 0.0246544294059276581
0.00869389064610004425 0.0108012715354561806 0.0240033231675624847
0.00553936604410409927 0.0108134457841515541 0.0252705253660678864
0.00827370584011077881 0.0100182387977838516 0.0233415886759757996
0.00870241038501262665 0.00983273889869451523 0.0229747835546731949
0.00762445246800780296 0.0103661566972732544 0.0239680074155330658
0.0088923601433634758 0.0108867492526769638 0.0240148827433586121
0.00623669521883130074 0.0108604505658149719 0.025043003261089325
0.00450190762057900429 0.0115396091714501381 0.0264516584575176239
0.00865275692194700241 0.00995324458926916122 0.0231220778077840805
0.00610374379903078079 0.0114886881783604622 0.0257608313113451004
-0.00314700324088335037 0.00431446731090545654 0.0222420115023851395
-0.00218076258897781372 0.00505368225276470184 0.0231946259737014771
-0.00465158186852931976 0.00346263078972697258 0.0214576106518507004
-0.00443270429968833923 0.0037742219865322113 0.022010093554854393
-0.00223520258441567421 0.00485967937856912613 0.0227850768715143204
-0.00388403469696640968 0.00411495799198746681 0.0223664455115795135
-0.00570508278906345367 0.00331539195030927658 0.0219576731324195862
-0.00507113244384527206 0.00366102764382958412 0.0222571510821580887
-0.00388406962156295776 0.0042996271513402462 0.022797832265496254
-0.0044811684638261795 0.00367623032070696354 0.0218200255185365677
-0.00621493253856897354 0.00324077741242945194 0.0221918411552906036
-0.00611671991646289825 0.0030001029372215271 0.0215509794652462006
-0.00652200402691960335 0.00312811695039272308 0.0221746861934661865
-0.00496683456003665924 0.00354947568848729134 0.0219130255281925201
-0.00123511068522930145 0.00554595515131950378 0.0235869120806455612
-0.00464648008346557617 0.00393678992986679077 0.0225610882043838501
-0.0040367920882999897 0.00403958465903997421 0.0223127640783786774
-0.00362989911809563637 0.00442360201850533485 0.0228837952017784119
-0.000865996815264225006 0.005676311906427145 0.0235956963151693344
-0.00692230416461825371 0.00276361312717199326 0.0216439515352249146
-0.00598252750933170319 0.00327782169915735722 0.0220921840518712997
-0.00233042053878307343 0.00500531634315848351 0.0232015457004308701
-0.00680222595110535622 0.00287169869989156723 0.0218002256006002426
-0.00101731671020388603 0.00900232978165149689 0.0268714148551225662
-0.000258094572927802801 0.00745515897870063782 0.0252470672130584717
-0.00020259711891412735 0.0109673775732517242 0.0281434301286935806
-9.54560455284081399e-05 0.0062992442399263382 0.0242133960127830505
-0.000466008554212749004 0.00891636218875646591 0.0265547707676887512
-0.000745521625503897667 0.00903834030032157898 0.0267805065959692001
0.000224439369048923254 0.00728722382336854935 0.024892834946513176
-0.000273565994575619698 0.010621948167681694 0.0278876982629299164
-0.00184535305015742779 0.00789200235158205032 0.0263161733746528625
0.000535574974492192268 0.0107848783954977989 0.0276634115725755692
-0.00106996961403638124 0.00937414634972810745 0.0272040590643882751
-0.00124928727746009827 0.00748573057353496552 0.025713237002491951
0.000404902966693043709 0.00915971770882606506 0.0263699032366275787
-0.000732382526621222496 0.00905918143689632416 0.0267919972538948059
3.01201362162828445e-06 0.00941329915076494217 0.0267595071345567703
-0.000483551499200984836 0.00737294880673289299 0.0252789463847875595
-0.00154990097507834435 0.00779984705150127411 0.0261081531643867493
-0.000356940203346312046 0.00838266778737306595 0.0260624103248119354
-0.00183570606168359518 0.00857036467641592026 0.0268760640174150467
0.000410221284255385399 0.0112513322383165359 0.0281070917844772339
-0.00114976195618510246 0.00769604602828621864 0.0258438978344202042
0.000563563196919858456 0.0087280571460723877 0.0259403493255376816
0.000783915282227098942 0.00994958262890577316 0.0268582869321107864
-0.000551290577277541161 0.0107115963473916054 0.0280857514590024948
-0.0014562682481482625 0.00992529746145009995 0.0278342105448246002
-0.000242387177422642708 0.0083881523460149765 0.0260160323232412338
0.000964429695159196854 0.0105149047449231148 0.0272481851279735565
-0.000298854080028831959 0.00655434699729084969 0.024516003206372261
-7.50714680179953575e-05 0.00728295976296067238 0.0250224675983190536
-0.00101136765442788601 0.010202677920460701 0.027867073193192482
0.000459083006717264652 0.00885869935154914856 0.0260954611003398895
-0.00198358064517378807 0.0086516011506319046 0.0270093809813261032
-0.000967168714851140976 0.00999970268458127975 0.0276786107569932938
0.000686141429468989372 0.0106166061013936996 0.0274565126746892929
-0.00163925904780626297 0.00798543915152549744 0.0263022389262914658
-0.00125706684775650501 0.00747625203803181648 0.0257088150829076767
-0.000965087790973484516 0.0102016478776931763 0.0278456360101699829
-0.00637023057788610458 0.00368510535918176174 0.0227634292095899582
-0.00315799051895737648 0.00528668984770774841 0.0237929504364728928
-0.00415875529870390892 0.00488465745002031326 0.0235773362219333649
-0.00190150761045515537 0.00577901862561702728 0.0240501761436462402
-0.00340231135487556458 0.00600195443257689476 0.0246224794536828995
-0.00250601256266236305 0.00728713022544980049 0.0258188880980014801
-0.003992447629570961 0.00677174562588334084 0.0255873017013072968
-0.00378109700977802277 0.00478775287047028542 0.0233890693634748459
-0.00335517153143882751 0.00732154212892055511 0.0260432194918394089
-0.0041445964016020298 0.00472307950258255005 0.0233989842236042023
-0.00304250116460025311 0.00631222734227776527 0.0248797349631786346
-0.00298757245764136314 0.00737809203565120697 0.0260235927999019623
-0.00499300751835107803 0.00553558254614472389 0.0244670063257217407
-0.00153539027087390423 0.00547174923121929169 0.0236363057047128677
-0.00209108041599392891 0.0069698067381978035 0.0253833625465631485
-0.00191494601313024759 0.00609725061804056168 0.024398263543844223
-0.00308574875816702843 0.006815299391746521 0.0254348535090684891
-0.00459824874997138977 0.00481939315795898438 0.023603346198797226
-0.00457310676574707031 0.00511104194447398186 0.0239141080528497696
-0.0028044520877301693 0.00557866785675287247 0.0240317471325397491
-0.00519136013463139534 0.00457900762557983398 0.0234732646495103836
-0.00540819624438881874 0.00372205162420868874 0.0225916281342506409
-0.00602929620072245598 0.0041750418022274971 0.0232196934521198273
-0.0011016189819201827 0.00679908506572246552 0.0249803029000759125
-0.0014217285206541419 0.00689886696636676788 0.0251590143889188766
-0.00382482446730136871 0.00553953740745782852 0.0242140274494886398
-0.00348442117683589458 0.00603778660297393799 0.0246794223785400391
-0.00410373508930206299 0.00436521740630269051 0.0230018738657236099
-0.00393953314051032066 0.00712821260094642639 0.0259622428566217422
-0.00415834784507751465 0.00470252614468336105 0.0233797207474708557
-0.00265364069491624832 0.00566526176407933235 0.0240924470126628876
-0.00557013228535652161 0.00376759655773639679 0.0226766876876354218
-0.00386019470170140266 0.00702699553221464157 0.0258349999785423279
-0.00338983442634344101 0.0061613013967871666 0.0247925464063882828
-0.0017789109842851758 0.00631369184702634811 0.0246030408889055252
-0.0027710318099707365 0.00553748244419693947 0.0239797197282314301
-0.00347111723385751247 0.006595623679459095 0.0252814814448356628
-0.00448991637676954269 0.00550214247778058052 0.024319944903254509
-0.00327343493700027466 0.00552539806813001633 0.0240772590041160583
-0.00344802835024893284 0.00719392020255327225 0.0259252618998289108
-0.00566849438473582268 0.00432226574048399925 0.0232999008148908615
-0.0032942707184702158 0.00658984528854489326 0.0252362657338380814
-0.00353719107806682587 0.00476421508938074112 0.0233098268508911133
-0.00506370328366756439 0.00437375577166676521 0.0232225488871335983
-0.00227940245531499386 0.00516438344493508339 0.0234668143093585968
-0.00473916437476873398 0.00607759691774845123 0.0249989312142133713
-0.00574524654075503349 0.00441556423902511597 0.0234179887920618057
-0.00100323162041604519 0.00580514688044786453 0.0238806847482919693
-0.000678886659443378448 0.00648923590779304504 0.0245511643588542938
-0.00355855911038815975 0.0074290749616920948 0.0262046344578266144
-0.00125810469035059214 0.00674871820956468582 0.0249601397663354874
-0.00146284804213792086 0.00667873071506619453 0.0249293297529220581
-0.0187649670988321304 0.000390153611078858376 0.018428899347782135
-0.0165941249579191208 0.000615033903159201145 0.0184210073202848434
-0.0174627508968114853 0.000366027990821748972 0.0170583128929138184
-0.0165215693414211273 0.000514467188622802496 0.0174924228340387344
-0.0184682756662368774 0.000465581135358661413 0.0188116859644651413
-0.0178549159318208694 0.000302693457342684269 0.0168646872043609619
-0.0166711956262588501 0.000665630563162267208 0.0189244356006383896
-0.0186787322163581848 0.000369625369785353541 0.0181755442172288895
-0.0177814196795225143 0.000279914180282503366 0.016603376716375351
-0.0182768143713474274 0.00049303955165669322 0.0188764780759811401
-0.017940029501914978 0.000294721103273332119 0.0168722495436668396
-0.0188889801502227783 0.000345563283190131187 0.0181567035615444183
-0.0176330208778381348 0.000532817444764077663 0.0186429787427186966
-0.018521549180150032 0.00024695380125194788 0.0169814955443143845
-0.0176719073206186295 0.000532841833774000406 0.0186779294162988663
-0.016273224726319313 0.000714577501639723778 0.0189893003553152084
-0.0165113247931003571 0.000568526505958288908 0.017947586253285408
-0.0175442807376384735 0.000404148304369300604 0.0174585636705160141
-0.0181153789162635803 0.000227191252633929253 0.0164488926529884338
-0.0169120430946350098 0.000656548247206956148 0.0190615933388471603
-0.0181258954107761383 0.000447242637164890766 0.0183483026921749115
-0.0178407784551382065 0.000230512348935008049 0.0162320937961339951
-0.0158202741295099258 0.00077616196358576417 0.019113592803478241
-0.01502191461622715 0.000842390232719480991 0.0189691875129938126
-0.0161106567829847336 0.000601454230491071939 0.0178724527359008789
-0.0188842117786407471 0.000351356866303831339 0.0182022042572498322
-0.0186585728079080582 0.00141758413519710302 0.0214613564312458038
-0.018709154799580574 0.00144699157681316137 0.0215470325201749802
-0.0179682858288288116 0.000979626551270484924 0.0201913081109523773
-0.0165364108979701996 0.00102384493220597506 0.020178893581032753
-0.0177244804799556732 0.0006943734479136765 0.0193833708763122559
-0.0177927128970623016 0.000884542125277221203 0.019913163036108017
-0.0169267598539590836 0.000874494784511625767 0.0198044013231992722
-0.0187814738601446152 0.000485084077809005976 0.0189063437283039093
-0.0183917470276355743 0.000777231762185692787 0.0196739211678504944
-0.0174920689314603806 0.00123031239490956068 0.0208366680890321732
-0.0179129652678966522 0.000603839580435305834 0.0191518478095531464
-0.0178609192371368408 0.00119275797624140978 0.0207678545266389847
-0.0143560292199254036 0.00111549440771341324 0.0202269162982702255
-0.0181092899292707443 0.00132079597096890211 0.0211435183882713318
-0.0149263488128781319 0.0012437477707862854 0.020633326843380928
-0.0168042909353971481 0.00113646592944860458 0.0205139517784118652
-0.0148122254759073257 0.000982652767561376095 0.0199040248990058899
-0.0174500402063131332 0.000877494108863174915 0.0198616664856672287
-0.0164707675576210022 0.0011368065606802702 0.020483650267124176
-0.0186987146735191345 0.00127486861310899258 0.0210723187774419785
-0.0184345412999391556 0.00141647434793412685 0.0214373189955949783
-0.0185316428542137146 0.00105285854078829288 0.020445631816983223
-0.0171489883214235306 0.00101705780252814293 0.0202175918966531754
-0.0176924522966146469 0.00124573777429759502 0.0208978913724422455
-0.0155239533632993698 0.00114073976874351501 0.020405791699886322
-0.0175070669502019882 0.00146558589767664671 0.0214856155216693878
-0.0189105011522769928 0.00127620657440274954 0.021095840260386467
-0.00909202080219984055 0.00136037939228117466 0.0178157389163970947
-0.00793619919568300247 0.00134647497907280922 0.0166920144110918045
-0.00729309860616922379 0.00147019443102180958 0.0169033482670783997
-0.0120405564084649086 0.00132956437300890684 0.0202605538070201874
-0.00902076717466115952 0.00125721422955393791 0.0170953832566738129
-0.00931575242429971695 0.00150559772737324238 0.018940286710858345
-0.00770148541778326035 0.0016900971531867981 0.0186685714870691299
-0.00867626816034317017 0.00149523466825485229 0.0183015670627355576
-0.00751490192487835884 0.00151969143189489841 0.0174170080572366714
-0.0111640319228172302 0.00141964666545391083 0.020048750564455986
-0.00882840901613235474 0.00136031408328562975 0.0175792146474123001
-0.0103542860597372055 0.00144848565105348825 0.0195070132613182068
-0.00837024208158254623 0.00136436405591666698 0.0171946212649345398
-0.00779719091951847076 0.00144435267429798841 0.017190396785736084
-0.00800786912441253662 0.00168432865757495165 0.0189062803983688354
-0.00802266970276832581 0.00156413600780069828 0.0181546397507190704
-0.00921399146318435669 0.00149430730380117893 0.0187772903591394424
-0.00868002884089946747 0.00164618401322513819 0.0192655660212039948
-0.00890509970486164093 0.00161320774350315332 0.0192572958767414093
-0.0107149491086602211 0.00125032674986869097 0.0185689833015203476
-0.0101119643077254295 0.00152178143616765738 0.0197564214468002319
-0.00687772780656814575 0.00130660366266965866 0.0154902366921305656
-0.00781537685543298721 0.00171742646489292383 0.0189445018768310547
-0.00986740924417972565 0.00147210073191672564 0.0192212164402008057
-0.00734103797003626823 0.00174493587110191584 0.0186947174370288849
-0.00703314691781997681 0.0015267813578248024 0.0170306339859962463
-0.00830063782632350922 0.0016356268897652626 0.0188585706055164337
-0.0100535266101360321 0.00151122116949409246 0.0196368768811225891
-0.00774815399199724197 0.00167716015130281448 0.0186280403286218643
-0.00745812803506851196 0.00178263592533767223 0.0190395116806030273
-0.0077598164789378643 0.00160874961875379086 0.0182031281292438507
-0.00890888366848230362 0.00172993354499340057 0.0200035180896520615
-0.00943100452423095703 0.00153304357081651688 0.0192181766033172607
-0.00686133792623877525 0.00149897066876292229 0.0166997630149126053
-0.0104431286454200745 0.00148957641795277596 0.0198480859398841858
-0.00799494609236717224 0.00173983722925186157 0.0192479584366083145
-0.0095813702791929245 0.00100139039568603039 0.0153890717774629593
-0.00795393623411655426 0.00119593541603535414 0.0155930835753679276
-0.0149280549958348274 0.000681335688568651676 0.0174893904477357864
-0.0164413265883922577 0.000459372997283935547 0.0169431399554014206
-0.0145195862278342247 0.000693054636940360069 0.0172183830291032791
-0.0129052363336086273 0.00109232310205698013 0.019211871549487114
-0.0136347655206918716 0.000889907532837241888 0.0181201212108135223
-0.013675265945494175 0.000572217977605760098 0.0153986997902393341
-0.0136431436985731125 0.000706124468706548214 0.0165320485830307007
-0.0154467932879924774 0.000451835192507132888 0.0159701090306043625
-0.0133383031934499741 0.000875626399647444487 0.0177255794405937195
-0.0176753848791122437 0.000186916789971292019 0.0157036688178777695
-0.0132726887241005898 0.000754072389099746943 0.0166102927178144455
-0.010664784349501133 0.00101051898673176765 0.0164570249617099762
-0.0177770871669054031 0.000209432415431365371 0.0159919746220111847
-0.00945925060659646988 0.00107629899866878986 0.0159280300140380859
-0.018258092924952507 8.9888781076297164e-05 0.0153929740190505981
-0.0125815747305750847 0.000833183352369815111 0.0166664943099021912
-0.0133212311193346977 0.00108836102299392223 0.0195570960640907288
-0.0119196390733122826 0.00116401456762105227 0.0189349129796028137
-0.0143216587603092194 0.000600020808633416891 0.0162299815565347672
-0.0122038600966334343 0.00107964116614311934 0.0184617042541503906
-0.0115209463983774185 0.00114905356895178556 0.0184411779046058655
-0.0148431891575455666 0.000690930930431932211 0.0174952559173107147
-0.0166290123015642166 0.000459233560832217336 0.0171132069081068039
-0.0116410925984382629 0.00118766643572598696 0.018886081874370575
-0.0121009219437837601 0.000853658188134431839 0.0164056401699781418
-0.0133832637220621109 0.000630587514024227858 0.0156390257179737091
-0.014769330620765686 0.000656302436254918575 0.0171271879225969315
-0.00797327887266874313 0.00121813267469406128 0.0158034637570381165
-0.010216468945145607 0.00120600278023630381 0.0177452154457569122
-0.00799330323934555054 0.00119798572268337011 0.015646807849407196
-0.0122656729072332382 0.000756097782868891954 0.0157089047133922577
-0.014001539908349514 0.00100132182706147432 0.0194221977144479752
-0.0165200158953666687 0.00038687055348418653 0.0163854360580444336
-0.0121440757066011429 0.00113426765892654657 0.0188814476132392883
-0.010591668076813221 0.00117457285523414612 0.0178147181868553162
-0.0124361384660005569 0.00109406153205782175 0.0187988802790641785
-0.014384167268872261 0.000657962169498205185 0.0167901087552309036
-0.0115506211295723915 0.000990454107522964478 0.0170911978930234909
-0.00775697221979498863 0.00126271042972803116 0.015993122011423111
-0.0145723409950733185 0.000719538540579378605 0.017496475949883461
-0.0124429231509566307 0.000849410949740558863 0.0166808627545833588
-0.00903333164751529694 0.00118328339885920286 0.0164682567119598389
-0.0172584801912307739 0.000239574845181778073 0.0157804246991872787
-0.00823279283940792084 0.00124528992455452681 0.0162760838866233826
-0.014363936148583889 0.000918854901101440191 0.0190368816256523132
-0.0147178042680025101 0.000515796476975083351 0.0158602055162191391
-0.00901186838746070862 0.00104632368311285973 0.0152594968676567078
-0.010463440790772438 0.00121230911463499069 0.0180253535509109497
-0.0151941357180476189 0.000546811905223876238 0.0165641866624355316
-0.0147393662482500076 0.000517690612468868494 0.0158963259309530258
-0.0150340916588902473 0.000583586050197482109 0.0167374312877655029
