ply
format ascii 1.0
element vertex 783
property float x
property float y
property float z
end_header
1.05493414402008057 0.776505529880523682 0.320029705762863159
0.605099320411682129 0.459000885486602783 0.320013612508773804
1.47078347206115723 1.50035786628723145 0.320051670074462891
2.92607975006103516 2.45190548896789551 0.320102483034133911
0.849973380565643311 0.480373859405517578 0.32001987099647522
0.392843037843704224 0.740947842597961426 0.320013105869293213
0.999530434608459473 0.913641214370727539 0.320030629634857178
2.08595037460327148 1.86289381980895996 0.32007250189781189
0.680775046348571777 0.406432151794433594 0.32001456618309021
0.991906285285949707 1.11734473705291748 0.320033788681030273
0.364856183528900146 0.0977443605661392212 0.320001870393753052
2.56094193458557129 2.16469311714172363 0.320088952779769897
0.277593135833740234 0.478652089834213257 0.320006012916564941
0.442672520875930786 0.611577868461608887 0.320012181997299194
2.88334369659423828 2.35040879249572754 0.320099800825119019
0.208747714757919312 0.500481545925140381 0.320004701614379883
0.286265820264816284 0.380504369735717773 0.32000461220741272
1.83506214618682861 1.76045060157775879 0.320064753293991089
1.53097033500671387 1.12239909172058105 0.320046901702880859
1.6893763542175293 1.58878159523010254 0.32005840539932251
0.732596158981323242 0.561213552951812744 0.320018380880355835
2.17873764038085938 1.7440192699432373 0.320072799921035767
0.365075051784515381 0.292095035314559937 0.320005059242248535
0.144708544015884399 0.434875339269638062 0.320002079010009766
0.587613105773925781 0.755138039588928223 0.32001805305480957
1.37965166568756104 1.21065747737884521 0.32004469633102417
0.615263462066650391 0.900773882865905762 0.320021122694015503
0.740291893482208252 0.820765256881713867 0.320022821426391602
1.15100574493408203 1.15272963047027588 0.320038199424743652
1.39383101463317871 1.0128016471862793 0.320041775703430176
0.212080508470535278 0.382963716983795166 0.320002853870391846
2.26788449287414551 1.76634979248046875 0.320075303316116333
1.51153016090393066 1.48185670375823975 0.320052355527877808
2.44754219055175781 2.1795656681060791 0.320086449384689331
2.06050348281860352 1.67779278755187988 0.320068836212158203
1.34948813915252686 1.35275256633758545 0.320046305656433105
2.47593951225280762 2.13232707977294922 0.320086359977722168
0.577389121055603027 0.377531588077545166 0.32001158595085144
0.886633574962615967 0.575769305229187012 0.320022344589233398
1.66577410697937012 1.57586503028869629 0.32005763053894043
2.02055501937866211 1.70390045642852783 0.320068299770355225
0.21805475652217865 0.45067065954208374 0.320004105567932129
1.0436255931854248 1.13965928554534912 0.320035398006439209
1.77184796333312988 1.37341821193695068 0.32005685567855835
0.212083548307418823 0.614018619060516357 0.320006638765335083
0.208645910024642944 0.557760655879974365 0.320005655288696289
0.19576185941696167 0.525746524333953857 0.320004791021347046
2.69092059135437012 2.28873181343078613 0.320094138383865356
1.6485896110534668 1.38984048366546631 0.320054143667221069
0.162246242165565491 0.387319982051849365 0.320001721382141113
1.75462627410888672 1.57807767391204834 0.320059806108474731
0.249770045280456543 0.421610176563262939 0.320004403591156006
1.81090450286865234 1.66501021385192871 0.320062577724456787
0.751565694808959961 0.399411499500274658 0.320016175508499146
0.440985441207885742 0.798549890518188477 0.320015221834182739
0.867127299308776855 0.665540456771850586 0.320023328065872192
0.894453227519989014 0.989856243133544922 0.320029318332672119
2.21034693717956543 1.81600606441497803 0.320074737071990967
1.46315348148345947 1.03825736045837402 0.320043891668319702
0.794516563415527344 0.976451396942138672 0.320026695728302002
1.50031614303588867 1.25348615646362305 0.320048302412033081
0.903297841548919678 0.848451793193817139 0.32002723217010498
0.794975161552429199 0.687195301055908203 0.320021957159042358
0.793689906597137451 0.730806827545166016 0.320022642612457275
0.474968492984771729 0.180283695459365845 0.320005893707275391
2.8456883430480957 2.30647921562194824 0.320098161697387695
1.93709993362426758 1.7280735969543457 0.320066690444946289
2.87015056610107422 2.35866379737854004 0.320099622011184692
0.743775069713592529 0.883912563323974609 0.320023953914642334
0.426096677780151367 0.150892689824104309 0.32000422477722168
1.34554731845855713 1.08732485771179199 0.320041835308074951
0.61564713716506958 0.719964027404785156 0.320018142461776733
0.813310980796813965 1.00197720527648926 0.320027559995651245
1.71426630020141602 1.59670341014862061 0.320059120655059814
0.73492741584777832 0.365381509065628052 0.320015221834182739
2.52921724319458008 2.03131318092346191 0.320085972547531128
2.40023922920227051 1.95937895774841309 0.3200816810131073
1.29066085815429688 1.19094443321228027 0.320042222738265991
3.38323521614074707 2.79294419288635254 0.320119172334671021
1.05124950408935547 0.765826284885406494 0.32002943754196167
0.690108656883239746 0.511933088302612305 0.320016533136367798
1.34651541709899902 1.18231892585754395 0.320043414831161499
0.568834066390991211 0.755556941032409668 0.320017606019973755
1.23507046699523926 0.965979278087615967 0.320037186145782471
1.29197561740875244 1.15202546119689941 0.32004159688949585
2.59441804885864258 2.06844115257263184 0.320088177919387817
1.68920576572418213 1.36972713470458984 0.320054799318313599
1.07635867595672607 1.21067619323730469 0.320037364959716797
0.724708437919616699 0.553326249122619629 0.32001805305480957
2.27475714683532715 1.97995162010192871 0.320078998804092407
1.0047447681427002 0.799598395824432373 0.320028871297836304
1.37503588199615479 1.42865169048309326 0.320048153400421143
1.60203766822814941 1.48037970066070557 0.320054501295089722
1.49698925018310547 1.27925252914428711 0.320048660039901733
1.07608294486999512 1.17890048027038574 0.320036828517913818
2.30422377586364746 1.82905900478363037 0.320077210664749146
2.2637333869934082 1.81511056423187256 0.320076018571853638
1.55828893184661865 1.17107415199279785 0.320048362016677856
0.395521163940429688 0.279629707336425781 0.320005595684051514
1.32579708099365234 1.18890273571014404 0.320043027400970459
0.364345848560333252 0.249352768063545227 0.32000434398651123
0.214314088225364685 0.212615609169006348 0.320000112056732178
1.06358706951141357 1.00219535827636719 0.320033609867095947
2.63327479362487793 2.26756191253662109 0.320092380046844482
0.736710846424102783 0.404178380966186523 0.320015877485275269
1.95044159889221191 1.82362174987792969 0.320068567991256714
0.956666052341461182 0.971300423145294189 0.320030540227890015
2.26392889022827148 2.0337064266204834 0.320079594850540161
0.79414832592010498 1.03176367282867432 0.320027589797973633
0.747275471687316895 0.456737995147705078 0.320017009973526001
1.41553092002868652 1.38745462894439697 0.320048481225967407
0.574272215366363525 0.42841106653213501 0.320012360811233521
1.42835450172424316 1.12760233879089355 0.320044517517089844
1.30293416976928711 1.12170529365539551 0.320041388273239136
1.06519675254821777 0.685628294944763184 0.320028454065322876
0.415122449398040771 0.65213167667388916 0.320012181997299194
0.907645165920257568 1.08494818210601807 0.320031225681304932
0.504008710384368896 0.290342986583709717 0.320008397102355957
0.326882034540176392 0.131709083914756775 0.320001512765884399
1.9083939790725708 1.64112210273742676 0.320064544677734375
1.25006747245788574 0.981326282024383545 0.320037782192230225
2.15435791015625 1.74251008033752441 0.320072174072265625
0.595302581787109375 0.661577939987182617 0.320016711950302124
1.28100252151489258 1.08975505828857422 0.320040315389633179
1.98202872276306152 1.67085087299346924 0.320066839456558228
2.224456787109375 1.91123461723327637 0.320076644420623779
1.80626404285430908 1.74212479591369629 0.320063740015029907
1.57528650760650635 1.14630794525146484 0.320048362016677856
0.884008288383483887 0.515853047370910645 0.320021301507949829
2.50613546371459961 2.02205181121826172 0.320085287094116211
0.707812309265136719 0.793886065483093262 0.320021599531173706
3.08186483383178711 2.56091046333312988 0.32010805606842041
0.719225406646728516 0.890514850616455078 0.320023447275161743
0.898636281490325928 0.768524765968322754 0.320025801658630371
1.92777490615844727 1.82435524463653564 0.320068031549453735
1.8272392749786377 1.35191762447357178 0.320057839155197144
1.44424176216125488 1.00727152824401855 0.320042908191680908
0.646958589553833008 0.922982096672058105 0.320022255182266235
1.17140626907348633 1.19206953048706055 0.320039361715316772
2.826904296875 2.37204456329345703 0.320098787546157837
1.0360710620880127 0.934724807739257812 0.320031851530075073
0.379788219928741455 0.380370914936065674 0.320006877183914185
1.29932534694671631 0.909199178218841553 0.320037811994552612
0.772727012634277344 0.661786794662475586 0.320021003484725952
2.65688848495483398 2.26991391181945801 0.320093005895614624
0.313953757286071777 0.441889762878417969 0.320006281137466431
1.97045707702636719 1.80841183662414551 0.320068806409835815
0.291069954633712769 0.460992336273193359 0.320006042718887329
1.27287411689758301 1.25273334980010986 0.320042788982391357
1.73493921756744385 1.34758841991424561 0.320055544376373291
1.68402552604675293 1.42467713356018066 0.320055574178695679
2.29598784446716309 1.95211684703826904 0.320079028606414795
1.50025904178619385 1.41580402851104736 0.320050984621047974
1.14530551433563232 1.23601651191711426 0.320039451122283936
2.74633431434631348 2.21314239501953125 0.32009422779083252
0.845572948455810547 0.883034706115722656 0.320026397705078125
1.83037483692169189 1.43022525310516357 0.320059210062026978
0.872098326683044434 1.08087730407714844 0.320030272006988525
3.3244011402130127 2.72477579116821289 0.320116609334945679
1.41901648044586182 1.43569028377532959 0.32004934549331665
0.44598919153213501 0.620619118213653564 0.320012420415878296
0.664628505706787109 0.345478564500808716 0.320013195276260376
0.690473616123199463 0.438564419746398926 0.32001534104347229
1.1075141429901123 1.24993205070495605 0.320038765668869019
1.9530940055847168 1.65619683265686035 0.320065885782241821
1.24309921264648438 1.25667929649353027 0.320042133331298828
2.85452961921691895 2.33500838279724121 0.320098847150802612
1.26568949222564697 0.975760221481323242 0.320038080215454102
0.183140367269515991 0.58310776948928833 0.320005446672439575
1.52547478675842285 1.26624381542205811 0.320049136877059937
0.504235386848449707 0.673550724983215332 0.320014685392379761
0.0174228549003601074 0.499200195074081421 0.320000052452087402
1.45413446426391602 1.14018464088439941 0.320045351982116699
0.695649087429046631 0.731231927871704102 0.32002025842666626
2.43299484252929688 2.00776982307434082 0.320083260536193848
1.60297155380249023 1.45141279697418213 0.320054054260253906
0.616208851337432861 0.67122185230255127 0.320017367601394653
3.10233879089355469 2.52483654022216797 0.320107966661453247
0.693107843399047852 0.362039506435394287 0.320014148950576782
0.110543340444564819 0.408953756093978882 0.320000827312469482
1.73018538951873779 1.45445835590362549 0.320057183504104614
2.75743985176086426 2.26401281356811523 0.320095330476760864
0.525640785694122314 0.74494171142578125 0.320016384124755859
0.372117966413497925 0.680446028709411621 0.320011615753173828
0.624293804168701172 0.392635703086853027 0.320012986660003662
3.13517618179321289 2.55794119834899902 0.320109307765960693
0.890396237373352051 0.979094862937927246 0.32002905011177063
1.6696091890335083 1.27569711208343506 0.320052772760391235
2.23496651649475098 1.82981562614440918 0.320075571537017822
2.44570302963256836 2.10590672492980957 0.320085197687149048
2.06265091896057129 1.72953104972839355 0.320069730281829834
2.80515170097351074 2.37790131568908691 0.320098340511322021
1.23538875579833984 1.03727388381958008 0.320038348436355591
0.283832550048828125 0.201996177434921265 0.320001602172851562
0.471987783908843994 0.430769354104995728 0.320009917020797729
0.776443541049957275 0.415696412324905396 0.320017039775848389
0.630511939525604248 0.339929640293121338 0.320012271404266357
1.10948717594146729 1.22971975803375244 0.320038467645645142
1.22033846378326416 1.31678712368011475 0.320042580366134644
0.318475991487503052 0.084680020809173584 0.320000529289245605
2.22528982162475586 1.73505926132202148 0.320073753595352173
3.41270923614501953 2.80890369415283203 0.320120126008987427
0.539755582809448242 0.299764692783355713 0.320009410381317139
0.313519597053527832 0.0742559880018234253 0.320000231266021729
0.416152149438858032 0.148753330111503601 0.320003926753997803
0.077754676342010498 0.521457076072692871 0.320001870393753052
1.38592946529388428 0.9887428879737854 0.32004120945930481
0.579911589622497559 0.397829979658126831 0.320012003183364868
0.49662896990776062 0.345158845186233521 0.320009112358093262
2.23679256439208984 1.77122187614440918 0.320074647665023804
1.24412965774536133 1.10205554962158203 0.320039629936218262
1.04436731338500977 1.03738629817962646 0.320033729076385498
2.57985901832580566 2.15252804756164551 0.320089191198348999
0.952086269855499268 0.621390461921691895 0.320024669170379639
0.597752690315246582 0.721229434013366699 0.320017725229263306
1.53875052928924561 1.1282958984375 0.320047199726104736
2.91093683242797852 2.46532583236694336 0.32010236382484436
0.374422460794448853 0.167239367961883545 0.320003241300582886
0.0639303028583526611 0.451698005199432373 0.320000410079956055
0.552507281303405762 0.6944083571434021 0.320016205310821533
0.475546061992645264 0.350825726985931396 0.320008695125579834
2.29255151748657227 1.79665863513946533 0.320076406002044678
0.395401120185852051 0.271695077419281006 0.320005446672439575
0.31970486044883728 0.103614591062068939 0.32000085711479187
0.697422981262207031 0.636136174201965332 0.320018738508224487
2.02055764198303223 1.66616106033325195 0.320067673921585083
0.98162841796875 1.06428396701812744 0.320032656192779541
2.33231830596923828 1.93770456314086914 0.320079684257507324
2.66799664497375488 2.23176860809326172 0.320092648267745972
1.145843505859375 0.981468915939331055 0.320035278797149658
1.63711380958557129 1.47507166862487793 0.320055276155471802
1.1462627649307251 0.890846550464630127 0.320033788681030273
0.120069921016693115 0.410303831100463867 0.320001065731048584
0.502598702907562256 0.832296133041381836 0.320017248392105103
2.88964462280273438 2.38237953186035156 0.320100486278533936
0.29974702000617981 0.220091372728347778 0.320002287626266479
0.415230304002761841 0.702912569046020508 0.32001301646232605
1.76122307777404785 1.47744214534759521 0.320058315992355347
2.01659631729125977 1.88673269748687744 0.320071220397949219
1.56897211074829102 1.18094217777252197 0.320048779249191284
1.30507862567901611 0.959893763065338135 0.320038765668869019
1.05150878429412842 0.696986019611358643 0.320028305053710938
3.17822766304016113 2.63686943054199219 0.320111632347106934
2.01210689544677734 1.54554140567779541 0.320065498352050781
1.24068319797515869 1.3501899242401123 0.320043623447418213
0.548610866069793701 0.522170901298522949 0.320013284683227539
0.871338069438934326 0.721036672592163086 0.320024341344833374
0.254557192325592041 0.501201510429382324 0.320005834102630615
2.24354338645935059 1.76214361190795898 0.320074647665023804
1.11930716037750244 1.10922205448150635 0.320036739110946655
1.08074021339416504 0.852900028228759766 0.320031583309173584
0.402678430080413818 0.403796792030334473 0.320007801055908203
1.57892894744873047 1.28514719009399414 0.320050746202468872
0.365623921155929565 0.190886080265045166 0.320003420114517212
2.67234158515930176 2.25625705718994141 0.320093154907226562
1.45227229595184326 1.1818622350692749 0.320045977830886841
2.51605629920959473 2.06857585906982422 0.320086270570755005
1.72186064720153809 1.62272000312805176 0.320059746503829956
2.16263198852539062 1.8784562349319458 0.320074617862701416
3.10872101783752441 2.54169297218322754 0.320108383893966675
1.25556659698486328 1.08076345920562744 0.320039570331573486
1.93271315097808838 1.76542437076568604 0.32006719708442688
2.5578761100769043 2.07421708106994629 0.32008737325668335
1.23572409152984619 1.20190882682800293 0.320041060447692871
0.390249639749526978 0.118747785687446594 0.320002824068069458
0.648018181324005127 0.485342681407928467 0.320015072822570801
0.728938698768615723 0.403781861066818237 0.320015698671340942
2.08207011222839355 1.60351753234863281 0.320068150758743286
2.2396547794342041 1.84437596797943115 0.320075899362564087
0.416879594326019287 0.699080467224121094 0.320012986660003662
2.01300311088562012 1.88171207904815674 0.320071041584014893
1.20714163780212402 1.31072998046875 0.320042163133621216
0.537371814250946045 0.489710330963134766 0.320012480020523071
0.621889173984527588 0.254205167293548584 0.320010662078857422
0.182492539286613464 0.420533061027526855 0.320002764463424683
2.12643694877624512 1.7525707483291626 0.320071667432785034
1.86213910579681396 1.78192424774169922 0.320065766572952271
0.540945589542388916 0.385080039501190186 0.320010840892791748
1.03975915908813477 0.733392059803009033 0.320028632879257202
0.413498669862747192 0.0833056867122650146 0.32000279426574707
2.3185882568359375 2.0541682243347168 0.320081263780593872
0.334441602230072021 0.622774004936218262 0.320009738206863403
2.51291942596435547 2.20178008079528809 0.320088386535644531
0.875957131385803223 0.771069526672363281 0.32002529501914978
0.959685385227203369 1.02161169052124023 0.320031434297561646
2.31480312347412109 1.98910796642303467 0.320080101490020752
0.318928122520446777 0.301247477531433105 0.320004105567932129
1.52665328979492188 1.34542429447174072 0.320050477981567383
0.477684527635574341 0.313066750764846802 0.320008128881454468
1.76324117183685303 1.52228212356567383 0.320059090852737427
1.86789906024932861 1.68017899990081787 0.32006421685218811
0.202050432562828064 0.280487477779388428 0.320000916719436646
2.32700133323669434 2.01602578163146973 0.320080846548080444
0.370890319347381592 0.544859945774078369 0.320009350776672363
1.36702454090118408 1.26419365406036377 0.320045262575149536
1.16002249717712402 1.10697340965270996 0.320037692785263062
2.05187368392944336 1.56061685085296631 0.320066690444946289
0.737836718559265137 0.414795398712158203 0.320016086101531982
1.00644731521606445 0.724525392055511475 0.320027679204940796
0.739214777946472168 0.930513501167297363 0.320024609565734863
1.09460675716400146 1.19149696826934814 0.320037484169006348
0.426991939544677734 0.47199365496635437 0.320009499788284302
0.171627610921859741 0.591536402702331543 0.320005297660827637
1.8302234411239624 1.54268479347229004 0.320061057806015015
1.13937270641326904 1.22815001010894775 0.320039182901382446
0.657795965671539307 0.489479720592498779 0.320015370845794678
2.41677451133728027 1.91547346115112305 0.320081353187561035
2.05959725379943848 1.66693496704101562 0.320068627595901489
1.25117683410644531 1.04710030555725098 0.320038884878158569
0.295729756355285645 0.415385603904724121 0.320005416870117188
0.404568225145339966 0.461136341094970703 0.320008784532546997
1.24936342239379883 0.937571048736572266 0.32003706693649292
1.68534994125366211 1.64324939250946045 0.320059210062026978
0.290727555751800537 0.108116358518600464 0.320000231266021729
1.81240725517272949 1.53912651538848877 0.320060551166534424
1.53618371486663818 1.11676239967346191 0.320046931505203247
0.637101233005523682 0.539518475532531738 0.320015698671340942
1.57297563552856445 1.31604456901550293 0.320051103830337524
0.7065277099609375 0.398184508085250854 0.320015072822570801
2.81801128387451172 1.90453529357910156 0.320090889930725098
1.68575382232666016 1.10851860046386719 0.320050418376922607
2.25840044021606445 1.54901027679443359 0.320071518421173096
1.6475365161895752 1.01919841766357422 0.320048034191131592
3.3649137020111084 2.52816581726074219 0.320114374160766602
2.5697474479675293 1.92152500152587891 0.320085138082504272
2.76097297668457031 1.88272190093994141 0.320089161396026611
3.40349483489990234 2.36307239532470703 0.32011258602142334
1.73938226699829102 0.990506529808044434 0.320049792528152466
2.94431614875793457 1.98552048206329346 0.320095270872116089
0.698764562606811523 0.271459490060806274 0.320012807846069336
3.38100099563598633 2.32116460800170898 0.320111364126205444
3.60463452339172363 2.63002538681030273 0.320121854543685913
1.59841060638427734 1.08570539951324463 0.320047944784164429
2.56454801559448242 1.77213287353515625 0.320082604885101318
3.52711892127990723 2.78964924812316895 0.320122599601745605
1.56502676010131836 1.04096806049346924 0.320046365261077881
2.18963432312011719 1.63299477100372314 0.320071220397949219
3.18477582931518555 2.2885136604309082 0.320106089115142822
0.780137956142425537 0.353624701499938965 0.32001611590385437
2.70363545417785645 2.12326502799987793 0.320091724395751953
2.35109567642211914 1.71521663665771484 0.320076465606689453
2.6184389591217041 1.62248992919921875 0.320081412792205811
3.20958781242370605 2.16620707511901855 0.320104658603668213
3.40236449241638184 2.49383020401000977 0.320114731788635254
2.33053207397460938 1.64511215686798096 0.32007482647895813
2.53495407104492188 1.79813265800476074 0.320082277059555054
2.82886457443237305 1.82837843894958496 0.320089906454086304
1.86816811561584473 1.38624298572540283 0.320059388875961304
3.60092639923095703 2.7621772289276123 0.320123940706253052
1.14702951908111572 0.659988522529602051 0.320030003786087036
1.81241106986999512 1.10795831680297852 0.32005348801612854
3.09311318397521973 1.95461392402648926 0.320098370313644409
2.58389759063720703 1.9759371280670166 0.320086389780044556
3.83102512359619141 2.41211843490600586 0.320123732089996338
3.1970062255859375 2.09596514701843262 0.320103198289871216
2.14822149276733398 1.44473898410797119 0.320067137479782104
3.50821232795715332 2.62848877906799316 0.320119500160217285
2.36482477188110352 1.43464052677154541 0.320072203874588013
2.62140750885009766 1.85698139667510986 0.320085346698760986
2.04684925079345703 1.48024213314056396 0.32006525993347168
3.18320822715759277 2.31380343437194824 0.320106446743011475
1.90551948547363281 1.21147441864013672 0.320057421922683716
2.10757875442504883 1.5412675142288208 0.320067733526229858
3.42368292808532715 2.77020740509033203 0.320119768381118774
0.486271440982818604 0.102209880948066711 0.320004880428314209
3.26648974418640137 2.36871814727783203 0.320109367370605469
2.38139033317565918 1.79211390018463135 0.320078462362289429
2.52090096473693848 1.58171570301055908 0.320078402757644653
1.97124624252319336 1.27328109741210938 0.320060014724731445
3.26337456703186035 2.11839485168457031 0.320105165243148804
2.36011838912963867 1.69479513168334961 0.32007637619972229
2.43304800987243652 1.62480783462524414 0.320076972246170044
1.6067349910736084 1.06631255149841309 0.320047825574874878
1.8957446813583374 1.32394266128540039 0.320059061050415039
3.23227405548095703 2.46084046363830566 0.320110052824020386
1.4469916820526123 0.893962621688842773 0.320041120052337646
3.11665916442871094 2.25838470458984375 0.320103913545608521
2.8518986701965332 2.05025863647460938 0.320094078779220581
3.49622011184692383 2.71698212623596191 0.320120632648468018
1.90796053409576416 1.28723287582397461 0.320058733224868774
0.757320940494537354 0.35392993688583374 0.320015549659729004
3.33405709266662598 2.21012282371520996 0.320108413696289062
3.59966468811035156 2.2545924186706543 0.320115536451339722
1.89165544509887695 1.13825976848602295 0.320055902004241943
1.54620921611785889 0.866405963897705078 0.320043057203292847
1.53544604778289795 1.03071498870849609 0.320045500993728638
1.32913947105407715 0.830348610877990723 0.320037215948104858
2.12423968315124512 1.61469709873199463 0.320069342851638794
3.62546491622924805 2.57996392250061035 0.320121526718139648
2.01386809349060059 1.2433168888092041 0.320060580968856812
3.41254353523254395 2.55122637748718262 0.320115894079208374
3.20676279067993164 1.99771809577941895 0.320101797580718994
2.02869200706481934 1.38487601280212402 0.320063263177871704
1.66139578819274902 1.18884170055389404 0.320051133632659912
3.33007907867431641 2.32646417617797852 0.320110201835632324
1.78454232215881348 1.22867989540100098 0.320054769515991211
3.74357223510742188 2.63551592826843262 0.320125281810760498
1.43731999397277832 0.924812793731689453 0.320041388273239136
3.25221681594848633 2.34565520286560059 0.320108652114868164
1.8886568546295166 1.13735759258270264 0.32005581259727478
3.14074468612670898 2.39686369895935059 0.320106774568557739
2.61145639419555664 1.7390904426574707 0.320083171129226685
1.91893863677978516 1.26781821250915527 0.320058673620223999
2.80167388916015625 2.02411651611328125 0.320092469453811646
2.46516895294189453 1.70076823234558105 0.320078998804092407
3.11955022811889648 2.22684240341186523 0.320103466510772705
1.75409531593322754 1.05693459510803223 0.320051223039627075
0.859279632568359375 0.403471022844314575 0.320018857717514038
1.75083494186401367 1.12648952007293701 0.320052295923233032
1.42404627799987793 0.775399088859558105 0.32003861665725708
3.34898638725280762 2.50664925575256348 0.320113629102706909
2.82838773727416992 2.08841109275817871 0.320094168186187744
1.18003761768341064 0.725470244884490967 0.320031881332397461
3.71645498275756836 2.49758386611938477 0.320122361183166504
1.5693669319152832 0.992329657077789307 0.320045679807662964
1.13541328907012939 0.543437361717224121 0.320027828216552734
2.1580049991607666 1.32949542999267578 0.320065498352050781
3.28550839424133301 2.00811362266540527 0.320103913545608521
3.53947043418884277 2.61419486999511719 0.320120006799697876
2.62916660308837891 1.60277986526489258 0.320081353187561035
3.12677621841430664 2.30422544479370117 0.320104926824569702
3.48052549362182617 2.45913314819335938 0.320116043090820312
3.12913370132446289 2.47716999053955078 0.320107817649841309
2.44036126136779785 1.89614057540893555 0.320081621408462524
2.02261996269226074 1.5263361930847168 0.320065438747406006
3.40286684036254883 2.10437130928039551 0.320108324289321899
2.68126893043518066 1.8321220874786377 0.320086389780044556
3.63551187515258789 2.51820039749145508 0.320120722055435181
3.41079378128051758 2.4459223747253418 0.320114105939865112
2.10757088661193848 1.60730326175689697 0.320068806409835815
2.24002695083618164 1.33736085891723633 0.32006758451461792
1.80804061889648438 1.15190911293029785 0.320054084062576294
3.02665233612060547 2.28285574913024902 0.320102155208587646
2.16159892082214355 1.30676794052124023 0.320065170526504517
0.577901065349578857 0.199230507016181946 0.320008665323257446
2.46304845809936523 1.52307820320129395 0.320076018571853638
2.06188535690307617 1.2079625129699707 0.320061147212982178
3.68608951568603516 2.4171607494354248 0.320120304822921753
3.36159920692443848 2.47448348999023438 0.320113420486450195
2.1039128303527832 1.30192124843597412 0.320063740015029907
3.15215206146240234 2.39914917945861816 0.320107102394104004
1.42243731021881104 0.820471048355102539 0.320039331912994385
2.09587597846984863 1.59422004222869873 0.320068329572677612
2.70442676544189453 2.0900425910949707 0.320091187953948975
2.67900705337524414 1.87222671508789062 0.320087015628814697
3.49976968765258789 2.17759799957275391 0.320111870765686035
0.764428317546844482 0.327911615371704102 0.320015311241149902
2.51257133483886719 1.61643075942993164 0.320078760385513306
3.48241496086120605 2.73900485038757324 0.320120662450790405
3.63562154769897461 2.29470515251159668 0.320117086172103882
3.54744768142700195 2.19562435150146484 0.320113331079483032
3.33235836029052734 2.65568280220031738 0.32011568546295166
3.13635158538818359 2.24428391456604004 0.32010418176651001
2.13315486907958984 1.58196771144866943 0.320069015026092529
2.10480642318725586 1.43023419380187988 0.320065855979919434
2.50793004035949707 1.52147316932678223 0.320077091455459595
1.07577419281005859 0.52396005392074585 0.32002606987953186
3.49465227127075195 2.48891687393188477 0.320116877555847168
3.82212471961975098 2.52359724044799805 0.320125341415405273
2.62844181060791016 1.79957699775695801 0.320084571838378906
3.09442806243896484 2.39070463180541992 0.320105582475662231
1.76836919784545898 1.04255294799804688 0.320051312446594238
1.77011597156524658 1.09337770938873291 0.320052236318588257
2.8051609992980957 2.20826101303100586 0.320095568895339966
2.13881015777587891 1.2308497428894043 0.320063382387161255
3.04244709014892578 1.96346592903137207 0.320097267627716064
2.16367244720458984 1.60499227046966553 0.320070147514343262
3.21489930152893066 2.60588836669921875 0.320112019777297974
3.05678367614746094 2.47156596183776855 0.320105999708175659
2.31665492057800293 1.79881882667541504 0.320077002048492432
1.57550740242004395 0.84068453311920166 0.320043325424194336
1.73554062843322754 1.17314624786376953 0.320052683353424072
2.18575096130371094 1.35185074806213379 0.320066511631011963
2.70401239395141602 1.80591440200805664 0.320086508989334106
2.67652487754821777 1.6120985746383667 0.320082664489746094
3.06063318252563477 2.0013277530670166 0.320098340511322021
3.00980710983276367 2.34878277778625488 0.320102840662002563
2.88587355613708496 2.24119901657104492 0.320098042488098145
3.66337251663208008 2.67289257049560547 0.320123940706253052
2.55092716217041016 1.83359122276306152 0.320083260536193848
2.97480201721191406 2.1919865608215332 0.320099383592605591
3.00821614265441895 2.26697325706481934 0.320101439952850342
1.48392868041992188 0.879621148109436035 0.320041775703430176
2.27110409736633301 1.31947851181030273 0.320068031549453735
2.67756056785583496 2.01576042175292969 0.32008931040763855
2.76551437377929688 2.03816080093383789 0.320091813802719116
1.72469210624694824 1.00091981887817383 0.320049583911895752
2.04753017425537109 1.31947934627532959 0.320062637329101562
3.16179656982421875 2.5599830150604248 0.32010999321937561
1.16667854785919189 0.649572432041168213 0.320030331611633301
3.51434493064880371 2.4483642578125 0.320116668939590454
3.3310999870300293 2.72780656814575195 0.320116817951202393
3.17841482162475586 2.37912774085998535 0.320107400417327881
3.59744739532470703 2.71530866622924805 0.320123076438903809
3.80886435508728027 2.41176104545593262 0.320123165845870972
3.3063359260559082 2.15828394889831543 0.320106863975524902
1.11673545837402344 0.602179884910583496 0.320028334856033325
3.00990176200866699 1.92940843105316162 0.320095926523208618
3.14754009246826172 1.96100711822509766 0.320099800825119019
3.00328707695007324 2.14358854293823242 0.320099294185638428
2.57060360908508301 1.57264864444732666 0.320079445838928223
2.33681178092956543 1.39479184150695801 0.320070862770080566
3.25240373611450195 2.54185247421264648 0.320111870765686035
2.41542291641235352 1.64170455932617188 0.320076823234558105
3.46357607841491699 2.5174858570098877 0.320116579532623291
3.40861177444458008 2.22481989860534668 0.320110410451889038
3.2620091438293457 2.20764851570129395 0.320106595754623413
2.12270879745483398 1.48021841049194336 0.320067077875137329
2.60800385475158691 1.54077398777008057 0.320079833269119263
1.95775926113128662 1.41113746166229248 0.320061981678009033
3.04871273040771484 2.15629744529724121 0.320100605487823486
1.29546666145324707 0.688962578773498535 0.32003408670425415
2.79945564270019531 2.06564116477966309 0.320093065500259399
3.3344566822052002 2.69451546669006348 0.320116370916366577
3.67052078247070312 2.57011508941650391 0.320122420787811279
2.91385078430175781 2.21918725967407227 0.320098370313644409
3.27944517135620117 2.59064841270446777 0.320113301277160645
3.69247317314147949 2.69190883636474609 0.320124983787536621
2.52312278747558594 1.64279699325561523 0.32007947564125061
3.13714504241943359 2.51584792137145996 0.320108652114868164
3.22067689895629883 2.1173100471496582 0.320104122161865234
2.45349645614624023 1.65603482723236084 0.320077985525131226
3.13070082664489746 2.31454801559448242 0.320105195045471191
1.74428641796112061 1.17489194869995117 0.320052921772003174
3.55181002616882324 2.73481154441833496 0.320122271776199341
3.18036460876464844 2.00851011276245117 0.320101380348205566
3.39665007591247559 2.46866512298583984 0.320114165544509888
3.36758971214294434 2.10064506530761719 0.320107400417327881
3.47364068031311035 2.27005648612976074 0.320112735033035278
1.24596166610717773 0.643415570259094238 0.32003214955329895
3.5714111328125 2.89702320098876953 0.320125401020050049
2.92107200622558594 2.29850316047668457 0.320099830627441406
1.20756077766418457 0.699875235557556152 0.32003214955329895
2.86821174621582031 1.87272083759307861 0.320091605186462402
3.12441635131835938 2.17556595802307129 0.3201027512550354
3.08661746978759766 2.13988018035888672 0.320101231336593628
3.55512022972106934 2.24151825904846191 0.320114254951477051
3.32979202270507812 2.44696474075317383 0.320112168788909912
1.42670917510986328 0.81486976146697998 0.320039331912994385
3.6870720386505127 2.70868778228759766 0.320125102996826172
3.66684627532958984 2.26572442054748535 0.320117354393005371
3.54458022117614746 2.55763912200927734 0.320119202136993408
3.25669288635253906 2.08013653755187988 0.320104360580444336
2.07601213455200195 1.24939227104187012 0.320062160491943359
1.00008213520050049 0.461442500352859497 0.320023208856582642
2.65601539611816406 2.08260965347290039 0.320089906454086304
3.42208576202392578 2.22126054763793945 0.320110708475112915
3.10955524444580078 2.29865574836730957 0.320104420185089111
3.26970958709716797 2.51695013046264648 0.320111870765686035
0.800556182861328125 0.384972333908081055 0.320017129182815552
2.38722038269042969 1.5597386360168457 0.320074796676635742
1.12805032730102539 0.655037343502044678 0.320029467344284058
2.32531595230102539 1.36843907833099365 0.320070147514343262
2.57418346405029297 1.6849968433380127 0.320081382989883423
1.33980560302734375 0.68113178014755249 0.320035040378570557
2.734130859375 2.16103434562683105 0.320093065500259399
3.66542840003967285 2.36884069442749023 0.320119023323059082
0.649255573749542236 0.222259998321533203 0.320010781288146973
2.12529659271240234 1.55540597438812256 0.320068418979644775
1.0110245943069458 0.540545940399169922 0.320024758577346802
3.13436508178710938 1.97151565551757812 0.32009965181350708
2.71516609191894531 2.00092220306396484 0.320089995861053467
2.88750886917114258 1.92633593082427979 0.320092916488647461
1.43681836128234863 0.862276434898376465 0.320040374994277954
2.35478878021240234 1.62695431709289551 0.320075124502182007
1.91230928897857666 1.12110388278961182 0.320056110620498657
3.12421178817749023 2.4361424446105957 0.320107012987136841
3.54428768157958984 2.8230900764465332 0.320123553276062012
2.76425886154174805 2.06747055053710938 0.320092260837554932
3.68829202651977539 2.64123678207397461 0.320124059915542603
2.08308768272399902 1.25832629203796387 0.320062488317489624
2.20382404327392578 1.37210750579833984 0.320067286491394043
1.96022439002990723 1.30431342124938965 0.320060282945632935
3.26959872245788574 2.47079658508300781 0.320111125707626343
2.16979503631591797 1.33752918243408203 0.320065885782241821
3.87274932861328125 2.39800190925598145 0.320124506950378418
3.70980548858642578 2.3068385124206543 0.320119082927703857
1.79088735580444336 1.12600529193878174 0.320053249597549438
1.44986605644226074 0.85538482666015625 0.32004055380821228
2.10257434844970703 1.45616710186004639 0.320066213607788086
2.73818325996398926 2.01974940299987793 0.32009086012840271
2.35558485984802246 1.57497048377990723 0.320074290037155151
2.48405241966247559 1.67318606376647949 0.320078998804092407
3.6920928955078125 2.64881706237792969 0.320124268531799316
1.77731871604919434 1.18376040458679199 0.32005387544631958
1.85583996772766113 1.27772700786590576 0.320057332515716553
3.24121809005737305 2.02560544013977051 0.320103108882904053
2.55867314338684082 1.79501724243164062 0.320082813501358032
2.63202762603759766 1.96302294731140137 0.320087343454360962
3.09984588623046875 2.12552285194396973 0.320101350545883179
0.840613722801208496 0.433854013681411743 0.320018887519836426
1.51378369331359863 0.972029805183410645 0.320044010877609253
2.03225517272949219 1.51548302173614502 0.320065498352050781
3.40215325355529785 2.42744207382202148 0.320113599300384521
0.9576835036277771 0.454026639461517334 0.320022076368331909
3.0897974967956543 2.50211739540100098 0.32010728120803833
3.53948616981506348 2.2462470531463623 0.320113956928253174
3.29493188858032227 2.28087997436523438 0.320108592510223389
3.00781440734863281 1.95133185386657715 0.320096254348754883
3.20890951156616211 2.58884668350219727 0.320111572742462158
2.02899265289306641 1.25559794902801514 0.320061147212982178
3.57850885391235352 2.65212154388427734 0.320121586322784424
3.41400480270385742 2.49466252326965332 0.320115000009536743
3.75711631774902344 2.51378726959228516 0.320123612880706787
1.87363934516906738 1.30530941486358643 0.320058196783065796
3.12507295608520508 2.12621808052062988 0.32010197639465332
3.40083456039428711 2.0883638858795166 0.320107996463775635
3.12896227836608887 2.22191119194030762 0.320103645324707031
3.18285036087036133 2.05744552612304688 0.32010224461555481
3.5624687671661377 2.27810120582580566 0.320115029811859131
2.33814358711242676 1.51498174667358398 0.32007288932800293
3.1939702033996582 2.55057430267333984 0.320110589265823364
2.93715524673461914 2.11465883255004883 0.320097208023071289
3.00264406204223633 1.92551040649414062 0.320095688104629517
3.17835760116577148 1.99466049671173096 0.320101112127304077
3.47234201431274414 2.15691280364990234 0.320110857486724854
3.01378870010375977 1.96076011657714844 0.320096522569656372
2.36207318305969238 1.37261784076690674 0.320071101188659668
2.12459897994995117 1.57756268978118896 0.32006874680519104
3.5322716236114502 2.8427119255065918 0.320123583078384399
3.67968034744262695 2.54756259918212891 0.320122301578521729
3.01784276962280273 2.21427440643310547 0.3201008141040802
3.37354731559753418 2.72261857986450195 0.320117771625518799
3.53311729431152344 2.19740986824035645 0.32011297345161438
3.18003082275390625 2.22006702423095703 0.320104837417602539
3.03573250770568848 2.28428363800048828 0.320102393627166748
1.23984456062316895 0.6214599609375 0.320031613111495972
3.58307647705078125 2.64588427543640137 0.320121586322784424
1.62922728061676025 0.925295829772949219 0.320046037435531616
2.25319862365722656 1.53063428401947021 0.32007107138633728
3.4587855339050293 2.69214010238647461 0.320119351148605347
2.75060892105102539 2.12889814376831055 0.320092946290969849
2.89496994018554688 1.80029213428497314 0.320091038942337036
2.60295581817626953 1.98637700080871582 0.320087045431137085
1.12984013557434082 0.607561230659484863 0.320028722286224365
1.524757981300354 1.02167975902557373 0.32004508376121521
3.21251678466796875 2.37845253944396973 0.320108234882354736
3.34364652633666992 2.68343091011047363 0.320116400718688965
2.45177030563354492 1.68628287315368652 0.320078432559967041
1.29554998874664307 0.675377070903778076 0.320033848285675049
2.19887423515319824 1.43277418613433838 0.320068150758743286
2.40293288230895996 1.59812426567077637 0.320075809955596924
3.63517332077026367 2.64875364303588867 0.320122897624969482
0.92802196741104126 0.420805424451828003 0.320020794868469238
2.75666117668151855 1.80513668060302734 0.32008776068687439
3.53008127212524414 2.46325778961181641 0.320117294788360596
3.81275463104248047 2.43401837348937988 0.320123642683029175
1.24878275394439697 0.80637049674987793 0.320034891366958618
3.03237032890319824 2.30774354934692383 0.320102691650390625
3.13118219375610352 2.35460972785949707 0.320105850696563721
0.696627199649810791 0.283954977989196777 0.320012956857681274
2.40799784660339355 1.50247883796691895 0.320074349641799927
2.90680432319641113 1.77046310901641846 0.320090830326080322
1.82712674140930176 1.07111096382141113 0.320053219795227051
0.739042758941650391 0.297395825386047363 0.320014208555221558
2.14901256561279297 1.41068840026855469 0.320066601037979126
3.62716913223266602 2.82751560211181641 0.32012563943862915
1.04540157318115234 0.49428856372833252 0.320024818181991577
3.47922825813293457 2.25425076484680176 0.320112645626068115
3.42579340934753418 2.80029559135437012 0.320120334625244141
1.8273627758026123 1.3339393138885498 0.320057570934295654
3.46239972114562988 2.66091275215148926 0.320118904113769531
3.7994382381439209 2.58153152465820312 0.320125758647918701
2.40056848526000977 1.83164405822753906 0.320079594850540161
3.35118460655212402 2.23759698867797852 0.320109277963638306
3.33864092826843262 2.13120937347412109 0.320107221603393555
3.82186484336853027 2.54400062561035156 0.320125699043273926
1.22875487804412842 0.606729865074157715 0.320031106472015381
3.47819113731384277 2.64989948272705078 0.320119082927703857
2.30214571952819824 1.62905418872833252 0.320073902606964111
3.55917811393737793 2.69649481773376465 0.320121854543685913
1.99042439460754395 1.30668163299560547 0.320061028003692627
1.62579691410064697 0.966555893421173096 0.32004663348197937
2.27587366104125977 1.35762214660644531 0.320068806409835815
1.94166755676269531 1.18793272972106934 0.320057928562164307
3.26199913024902344 2.30389213562011719 0.320108175277709961
1.3824455738067627 0.714268267154693604 0.320036619901657104
3.58098983764648438 2.48351383209228516 0.320118874311447144
1.96585559844970703 1.44047427177429199 0.32006266713142395
2.00928163528442383 1.33441829681396484 0.320061951875686646
3.01216936111450195 1.81815981864929199 0.320094168186187744
3.26975154876708984 2.30969095230102539 0.320108473300933838
3.6632544994354248 2.46011447906494141 0.320120453834533691
2.71882867813110352 1.61458325386047363 0.320083737373352051
3.37539958953857422 2.5473167896270752 0.320114940404891968
0.737033247947692871 0.327035844326019287 0.320014655590057373
3.21882343292236328 1.99327445030212402 0.320102035999298096
3.15944528579711914 2.48657798767089844 0.320108711719512939
1.38126146793365479 0.82104039192199707 0.320038318634033203
1.36121487617492676 0.853050649166107178 0.320038378238677979
0.781534314155578613 0.344073027372360229 0.320015966892242432
2.40662264823913574 1.79468309879302979 0.320079147815704346
0.913247585296630859 0.420002460479736328 0.320020407438278198
3.70973396301269531 2.67993712425231934 0.320125222206115723
3.63828325271606445 2.7677919864654541 0.320124924182891846
3.58786535263061523 2.47941327095031738 0.320118963718414307
2.48967432975769043 1.88701140880584717 0.320082664489746094
2.8380584716796875 1.95653641223907471 0.320092231035232544
2.68631601333618164 2.12654852867126465 0.320091336965560913
1.80486774444580078 1.21736454963684082 0.320055097341537476
3.11327075958251953 2.01556873321533203 0.320099860429763794
2.32063722610473633 1.44358432292938232 0.320071280002593994
1.34689211845397949 0.895107388496398926 0.320038706064224243
2.22293472290039062 1.33951210975646973 0.320067226886749268
1.99084937572479248 1.45455873012542725 0.320063501596450806
3.50008368492126465 2.36787915229797363 0.320115000009536743
3.67075204849243164 2.34109878540039062 0.320118695497512817
2.78156232833862305 1.73569095134735107 0.320087224245071411
1.90363240242004395 1.18704748153686523 0.3200569748878479
1.27013492584228516 0.791379868984222412 0.320035159587860107
2.23603510856628418 1.30300819873809814 0.320066928863525391
2.94458627700805664 2.0501563549041748 0.320096343755722046
1.23473727703094482 0.634811937808990479 0.320031702518463135
3.01458239555358887 1.92359757423400879 0.320095956325531006
2.83018589019775391 2.11817240715026855 0.320094704627990723
2.70114660263061523 1.88624262809753418 0.32008776068687439
2.50572896003723145 1.64419829845428467 0.320079058408737183
2.33376169204711914 1.67602956295013428 0.320075422525405884
2.2656397819519043 1.58864998817443848 0.320072323083877563
3.37116074562072754 2.28895020484924316 0.320110589265823364
2.70004701614379883 1.87774455547332764 0.320087611675262451
3.11325263977050781 2.01804399490356445 0.320099890232086182
2.44805169105529785 1.61331462860107422 0.32007715106010437
1.30017828941345215 0.677517831325531006 0.320034027099609375
3.10535860061645508 2.16652035713195801 0.320102125406265259
2.42911887168884277 1.47317373752593994 0.320074379444122314
2.41669034957885742 1.88939666748046875 0.320080935955047607
3.45315957069396973 2.77396750450134277 0.320120543241500854
3.12004947662353516 2.07958388328552246 0.320101082324981689
3.82726740837097168 2.36500740051269531 0.320122867822647095
3.20924544334411621 2.14342451095581055 0.320104271173477173
1.54382812976837158 0.859858453273773193 0.320042908191680908
2.94487738609313965 1.98074889183044434 0.320095211267471313
2.31965494155883789 1.61815106868743896 0.320074111223220825
1.69346916675567627 1.09080755710601807 0.320050328969955444
2.51337146759033203 1.79612982273101807 0.320081740617752075
3.24488496780395508 2.45360708236694336 0.320110231637954712
3.5176999568939209 2.47247171401977539 0.320117145776748657
3.37536025047302246 2.15389657020568848 0.32010844349861145
2.98860359191894531 2.18805456161499023 0.320099681615829468
2.24170374870300293 1.55735993385314941 0.320071250200271606
2.99463748931884766 2.22752571105957031 0.320100486278533936
2.45879530906677246 1.45027196407318115 0.320074737071990967
3.32533740997314453 2.43900775909423828 0.320111960172653198
2.12839436531066895 1.43595385551452637 0.320066511631011963
2.48979973793029785 1.48105525970458984 0.32007598876953125
2.80417418479919434 1.83116006851196289 0.320089340209960938
2.68768310546875 2.01250147819519043 0.320089519023895264
3.41531467437744141 2.44072294235229492 0.3201141357421875
2.95731663703918457 1.85356521606445312 0.320093423128128052
3.55653166770935059 2.68708539009094238 0.320121586322784424
2.69655632972717285 2.08455467224121094 0.320090919733047485
3.10227131843566895 1.86926770210266113 0.320097178220748901
1.83459591865539551 1.1253814697265625 0.320054292678833008
3.29224205017089844 2.20997881889343262 0.320107370615005493
2.08833694458007812 1.36135101318359375 0.320064306259155273
1.24338412284851074 0.634307205677032471 0.320031911134719849
3.1313931941986084 2.06133341789245605 0.320101052522659302
0.868109822273254395 0.411865442991256714 0.320019185543060303
1.35978269577026367 0.699000895023345947 0.320035785436630249
3.00465798377990723 1.98695778846740723 0.320096760988235474
2.89469814300537109 2.08863401412963867 0.32009577751159668
2.43304538726806641 1.46068418025970459 0.320074290037155151
3.59844636917114258 2.51173090934753418 0.320119738578796387
2.63586091995239258 1.69871926307678223 0.320083111524581909
3.43501663208007812 2.24696111679077148 0.320111453533172607
1.86503958702087402 1.04781103134155273 0.320053756237030029
2.76402378082275391 1.74381494522094727 0.320086926221847534
2.79522442817687988 2.08067703247070312 0.320093244314193726
3.42326664924621582 2.29476308822631836 0.320111930370330811
1.10766839981079102 0.673116505146026611 0.320029288530349731
1.37192535400390625 0.871660172939300537 0.320038944482803345
2.24960231781005859 1.71901154518127441 0.320074081420898438
3.34673523902893066 2.2407987117767334 0.320109188556671143
3.15473365783691406 2.25030040740966797 0.320104718208312988
3.37303638458251953 2.304779052734375 0.320110887289047241
2.79948186874389648 1.92492103576660156 0.320090770721435547
3.64060425758361816 2.54010963439941406 0.320121228694915771
0.479061990976333618 0.10718207061290741 0.320004761219024658
0.891694545745849609 0.424530237913131714 0.320019990205764771
2.9101862907409668 1.88554835319519043 0.320092827081680298
2.67209529876708984 1.87484955787658691 0.320086866617202759
3.29800653457641602 2.2372276782989502 0.320107966661453247
