ply
format ascii 1.0
element vertex 697
property float x
property float y
property float z
end_header
-0.054900001734495163 0.0118947792798280716 -0.0191012322902679443
-0.054900001734495163 0.0100053362548351288 -0.0194734595715999603
-0.054900001734495163 0.0195457283407449722 0.00908075645565986633
-0.054900001734495163 0.0155028896406292915 -0.00768023077398538589
-0.054900001734495163 0.00422412902116775513 -0.0292449574917554855
-0.054900001734495163 0.00837417691946029663 -0.0205688811838626862
-0.054900001734495163 0.0133388210088014603 -0.014575982466340065
-0.054900001734495163 0.00785157456994056702 -0.0215494558215141296
-0.054900001734495163 0.005995163694024086 -0.0297853201627731323
-0.054900001734495163 0.00867328513413667679 -0.0248052217066287994
-0.054900001734495163 0.017782941460609436 0.00647959485650062561
-0.054900001734495163 0.00889877323061227798 -0.0183966010808944702
-0.054900001734495163 0.0095872972160577774 -0.0159067064523696899
-0.054900001734495163 0.0153724253177642822 -0.00857259519398212433
-0.054900001734495163 0.00780249107629060745 -0.0279017426073551178
-0.054900001734495163 0.0132661573588848114 -0.0080635659396648407
-0.054900001734495163 0.0190344471484422684 0.00665609026327729225
-0.054900001734495163 0.00222342973574995995 -0.0299099460244178772
-0.054900001734495163 0.0172597300261259079 0.0076273786835372448
-0.054900001734495163 0.00967469066381454468 -0.0123828556388616562
-0.054900001734495163 0.00690276548266410828 -0.0128051824867725372
-0.054900001734495163 0.00610922835767269135 -0.0150108151137828827
-0.054900001734495163 0.00715970480814576149 -0.0176947452127933502
-0.054900001734495163 -0.000281067565083503723 -0.0257159899920225143
-0.054900001734495163 0.00345345772802829742 -0.019022742286324501
-0.054900001734495163 0.0174590442329645157 0.00888672191649675369
-0.054900001734495163 0.00749302655458450317 -0.0145080909132957458
-0.054900001734495163 0.00436554756015539169 -0.0250147674232721329
-0.054900001734495163 0.00468519655987620354 -0.0262045171111822128
-0.054900001734495163 0.00690561160445213318 -0.0214791242033243179
-0.054900001734495163 0.0103690298274159431 -0.00476908311247825623
-0.054900001734495163 0.00428765825927257538 -0.0264099426567554474
-0.054900001734495163 0.00317169353365898132 -0.025406915694475174
-0.054900001734495163 0.0151782166212797165 0.00397829338908195496
-0.054900001734495163 0.00891610514372587204 -0.0143768731504678726
-0.054900001734495163 0.00119874998927116394 -0.0263169892132282257
-0.054900001734495163 0.010301114059984684 0.000594951212406158447
-0.054900001734495163 0.000524958712048828602 -0.021802164614200592
-0.054900001734495163 0.000706212595105171204 -0.0139405662193894386
-0.054900001734495163 -0.00131002254784107208 -0.0192561931908130646
-0.054900001734495163 -0.00361355766654014587 -0.0212508775293827057
-0.054900001734495163 0.00896185450255870819 -0.00055513530969619751
-0.054900001734495163 -0.00601671449840068817 -0.0254156030714511871
-0.054900001734495163 -0.00608095526695251465 -0.0274682771414518356
-0.054900001734495163 0.00265798391774296761 -0.0153197059407830238
-0.054900001734495163 -0.000603000633418560028 -0.0193647202104330063
-0.054900001734495163 -0.00659156590700149536 -0.024030027911067009
-0.054900001734495163 -0.00324186496436595917 -0.0256594344973564148
-0.054900001734495163 -0.00673836469650268555 -0.0231966674327850342
-0.054900001734495163 0.000399716198444366455 -0.0143717182800173759
-0.054900001734495163 -0.00327253527939319611 -0.0260364077985286713
-0.054900001734495163 0.00206080544739961624 -0.0134339611977338791
-0.054900001734495163 -0.0054492829367518425 -0.0280268751084804535
-0.054900001734495163 0.0037206355482339859 -0.00833202153444290161
-0.054900001734495163 0.0146273374557495117 0.00748835224658250809
-0.054900001734495163 0.0062334798276424408 -0.00460244156420230865
-0.054900001734495163 -0.0150657463818788528 -0.0261332914233207703
-0.054900001734495163 -0.0155472829937934875 -0.0255459733307361603
-0.054900001734495163 -0.00399858457967638969 -0.0174487661570310593
-0.054900001734495163 -0.00305683538317680359 -0.0159587450325489044
-0.054900001734495163 -0.00405307114124298096 -0.0182596407830715179
-0.054900001734495163 -0.00559404119849205017 -0.0205688402056694031
-0.054900001734495163 -0.00109457410871982574 -0.0102685382589697838
-0.054900001734495163 -0.0103353997692465782 -0.0259688384830951691
-0.054900001734495163 -0.00732988491654396057 -0.0186934024095535278
-0.054900001734495163 -0.00382664240896701813 -0.0110595431178808212
-0.054900001734495163 -0.0102728065103292465 -0.0265365205705165863
-0.054900001734495163 -0.00307875662110745907 -0.0166266504675149918
-0.054900001734495163 -0.00214313901960849762 -0.0106623591855168343
-0.054900001734495163 -0.0115929432213306427 -0.0225694570690393448
-0.054900001734495163 0.00544701330363750458 0.000175535678863525391
-0.054900001734495163 -0.00119736790657043457 -0.0103977899998426437
-0.054900001734495163 -0.0130474716424942017 -0.0232747569680213928
-0.054900001734495163 0.00654699094593524933 0.000363288447260856628
-0.054900001734495163 0.0183911062777042389 0.0149980224668979645
-0.054900001734495163 -0.00100240856409072876 -0.00867300573736429214
-0.054900001734495163 0.00498439744114875793 -0.00225555151700973511
-0.054900001734495163 -0.00994136463850736618 -0.0251677054911851883
-0.054900001734495163 -0.0142830386757850647 -0.0178796127438545227
-0.054900001734495163 0.0131551250815391541 0.00966166798025369644
-0.054900001734495163 -0.0213716402649879456 -0.0218888856470584869
-0.054900001734495163 -0.017150556668639183 -0.020727572962641716
-0.054900001734495163 -0.00853491015732288361 -0.0106040118262171745
-0.054900001734495163 -0.00837094523012638092 -0.00895935576409101486
-0.054900001734495163 -0.0146609768271446228 -0.0146891763433814049
-0.054900001734495163 -0.0206687785685062408 -0.0201105847954750061
-0.054900001734495163 -0.0125729609280824661 -0.0133648645132780075
-0.054900001734495163 -0.00830154493451118469 -0.0121285198256373405
-0.054900001734495163 -0.00197879201732575893 -0.00713051017373800278
-0.054900001734495163 0.00525047816336154938 0.00430036429315805435
-0.054900001734495163 -0.0184781849384307861 -0.0243180468678474426
-0.054900001734495163 -0.0023760749027132988 -0.00730161415413022041
-0.054900001734495163 -0.00172382034361362457 -0.00709896069020032883
-0.054900001734495163 -0.0104637574404478073 -0.0116940941661596298
-0.054900001734495163 0.00766333192586898804 0.00403651222586631775
-0.054900001734495163 0.00165276229381561279 -0.00169285433366894722
-0.054900001734495163 -0.00710357539355754852 -0.00650394521653652191
-0.054900001734495163 0.0148466788232326508 0.012270050123333931
-0.054900001734495163 0.00401017814874649048 0.00171699188649654388
-0.054900001734495163 -0.00927582383155822754 -0.0121126975864171982
-0.054900001734495163 -0.00210714992135763168 -0.00705362763255834579
-0.054900001734495163 0.00922520086169242859 0.010861213319003582
-0.054900001734495163 -0.0143772121518850327 -0.00613902881741523743
-0.054900001734495163 0.00897430628538131714 0.00859107449650764465
-0.054900001734495163 -0.0131699927151203156 -0.00492695719003677368
-0.054900001734495163 -0.00639891810715198517 -0.00544392317533493042
-0.054900001734495163 -0.00378887355327606201 0.000535806640982627869
-0.054900001734495163 -0.00868073105812072754 -0.0025045350193977356
-0.054900001734495163 -0.00459937006235122681 -0.00247241929173469543
-0.054900001734495163 -0.0170214027166366577 -0.00871400907635688782
-0.054900001734495163 0.00749943545088171959 0.00724921608343720436
-0.054900001734495163 -0.0209930893033742905 -0.0106349494308233261
-0.054900001734495163 0.00608938559889793396 0.00749133899807929993
-0.054900001734495163 -0.0261540580540895462 -0.0135443862527608871
-0.054900001734495163 -0.018231438472867012 -0.00971170980483293533
-0.054900001734495163 -0.00242771394550800323 0.0017222156748175621
-0.054900001734495163 -9.85506922006607056e-05 0.0030407169833779335
-0.054900001734495163 -0.0165068525820970535 -0.00940984860062599182
-0.054900001734495163 0.00867988727986812592 0.00930684339255094528
-0.054900001734495163 -0.0101255178451538086 -0.00416124612092971802
-0.054900001734495163 0.000965987332165241241 0.0036900397390127182
-0.054900001734495163 -0.0136776063591241837 -0.00568814948201179504
-0.054900001734495163 -0.021264445036649704 -0.0108742788434028625
-0.054900001734495163 -0.0139134414494037628 -0.00848433934152126312
-0.054900001734495163 -0.0184545032680034637 -0.00225047022104263306
-0.054900001734495163 -0.0277424082159996033 -0.0122801940888166428
-0.054900001734495163 -0.0288792569190263748 -0.0081227542832493782
-0.054900001734495163 -0.0123468013480305672 -0.000356029719114303589
-0.054900001734495163 -0.0200504139065742493 -0.00289464369416236877
-0.054900001734495163 -0.0182795226573944092 -0.00355084892362356186
-0.054900001734495163 -0.0174220539629459381 -0.00706709735095500946
-0.054900001734495163 0.0109438225626945496 0.0130518842488527298
-0.054900001734495163 -0.0182892251759767532 -0.00219555944204330444
-0.054900001734495163 -0.0126478606835007668 -0.00216659624129533768
-0.054900001734495163 -0.0150006692856550217 -0.00368157168850302696
-0.054900001734495163 -0.0242299828678369522 -0.00860040076076984406
-0.054900001734495163 -0.0201403386890888214 -0.00688515510410070419
-0.054900001734495163 -0.0254972446709871292 -0.00511648133397102356
-0.054900001734495163 -0.0290637854486703873 -0.00695879198610782623
-0.054900001734495163 -0.025116337463259697 -0.00660607405006885529
-0.054900001734495163 -0.0140974549576640129 -0.00123461615294218063
-0.054900001734495163 -0.00666241208091378212 -2.41031084442511201e-05
-0.054900001734495163 -0.0227779168635606766 -0.00919317454099655151
-0.054900001734495163 -0.00113100185990333557 0.00651732552796602249
-0.054900001734495163 -0.00570833636447787285 0.000975198228843510151
-0.054900001734495163 -0.0162116773426532745 -0.00220623612403869629
-0.054900001734495163 -0.0102638360112905502 0.00406949035823345184
-0.054900001734495163 0.0171230398118495941 0.0179230533540248871
-0.054900001734495163 -0.0151573643088340759 0.00487558357417583466
-0.054900001734495163 -0.00639521237462759018 0.0064861346036195755
-0.054900001734495163 -0.00749604776501655579 0.00668283784762024879
-0.054900001734495163 -0.00796938873827457428 0.00801368243992328644
-0.054900001734495163 -0.0257053300738334656 -0.00502644013613462448
-0.054900001734495163 0.00663550710305571556 0.0119903506711125374
-0.054900001734495163 0.00773154152557253838 0.0125824511051177979
-0.054900001734495163 -0.0162595678120851517 0.00262537272647023201
-0.054900001734495163 -0.0255624037235975266 -0.000890851952135562897
-0.054900001734495163 -0.019894162192940712 -0.00110084889456629753
-0.054900001734495163 -0.0266538448631763458 -0.00310163199901580811
-0.054900001734495163 -0.0255821812897920609 -0.00133512821048498154
-0.054900001734495163 -0.0213210694491863251 0.00295203458517789841
-0.054900001734495163 -0.0271046292036771774 0.000288791954517364502
-0.054900001734495163 0.0156991537660360336 0.0166774000972509384
-0.054900001734495163 -0.00313874706625938416 0.00917699094861745834
-0.054900001734495163 0.0118162892758846283 0.0153882922604680061
-0.054900001734495163 -0.0149990012869238853 0.00205078395083546638
-0.0456000007688999176 -0.00538479350507259369 0.0129477530717849731
-0.0456000007688999176 0.0116570573300123215 0.010030742734670639
-0.0456000007688999176 0.0273572374135255814 0.000989125343039631844
-0.0456000007688999176 -0.000377364456653594971 0.0113142896443605423
-0.0456000007688999176 -0.000447805970907211304 0.0126947704702615738
-0.0456000007688999176 0.00527075864374637604 0.0109038036316633224
-0.0456000007688999176 0.012533167377114296 0.0103298993781208992
-0.0456000007688999176 0.0120405405759811401 0.010307694785296917
-0.0456000007688999176 0.0107133854180574417 0.00875210203230381012
-0.0456000007688999176 0.0270564556121826172 0.00528694875538349152
-0.0456000007688999176 0.0236007366329431534 0.00569183006882667542
-0.0456000007688999176 0.0182426869869232178 0.00382064422592520714
-0.0456000007688999176 -0.00438963808119297028 0.0132407136261463165
-0.0456000007688999176 0.00274070166051387787 0.0108355395495891571
-0.0456000007688999176 0.0139107508584856987 0.00556792411953210831
-0.0456000007688999176 0.00868885591626167297 0.0119929732754826546
-0.0456000007688999176 0.0249216146767139435 0.00884938519448041916
-0.0456000007688999176 0.0127946063876152039 0.0119994021952152252
-0.0456000007688999176 3.22293490171432495e-05 0.0135558405891060829
-0.0456000007688999176 -0.00900612398982048035 0.016526075080037117
-0.0456000007688999176 0.0149877844378352165 0.013044385239481926
-0.0456000007688999176 0.00592020153999328613 0.0136161334812641144
-0.0456000007688999176 0.0185912791639566422 0.0112936133518815041
-0.0456000007688999176 0.0125017184764146805 0.0139653198421001434
-0.0456000007688999176 0.00695249438285827637 0.0142998406663537025
-0.0456000007688999176 0.00749891810119152069 0.0151074770838022232
-0.0456000007688999176 -0.0059942193329334259 0.0158262662589550018
-0.0456000007688999176 0.00347573310136795044 0.012698187492787838
-0.0456000007688999176 0.00777671672403812408 0.0131190940737724304
-0.0456000007688999176 -0.00330748036503791809 0.0178939644247293472
-0.0456000007688999176 -0.00151195190846920013 0.0181597452610731125
-0.0456000007688999176 0.0056407339870929718 0.0180978812277317047
-0.0456000007688999176 -0.00478713028132915497 0.0185626354068517685
-0.0456000007688999176 -0.00404460914433002472 0.0176973994821310043
-0.0456000007688999176 0.0192252229899168015 0.0168877113610506058
-0.0456000007688999176 0.0202776268124580383 0.0170592609792947769
-0.0456000007688999176 -0.0152325090020895004 0.018484627828001976
-0.0456000007688999176 -0.00452292896807193756 0.018518354743719101
-0.0456000007688999176 0.0134832290932536125 0.0170718580484390259
-0.0456000007688999176 0.0170343965291976929 0.0167814753949642181
-0.0456000007688999176 0.0153800006955862045 0.0175458118319511414
-0.0456000007688999176 -0.0174599383026361465 0.01880623959004879
-0.0456000007688999176 0.0125021543353796005 0.0191217809915542603
-0.0456000007688999176 -0.000154349952936172485 0.0189369320869445801
-0.0456000007688999176 0.00459764059633016586 0.0211300291121006012
-0.0456000007688999176 0.016674702987074852 0.0208416003733873367
-0.0456000007688999176 0.0130296312272548676 0.0209188498556613922
-0.0456000007688999176 -2.05002725124359131e-05 0.0189270712435245514
-0.0456000007688999176 -0.00793783366680145264 0.019418107345700264
-0.0456000007688999176 0.0121752331033349037 0.0196199230849742889
-0.0456000007688999176 0.00657167285680770874 0.0217648781836032867
-0.0456000007688999176 0.0142406690865755081 0.0238164551556110382
-0.0456000007688999176 0.0107937157154083252 0.0226292833685874939
-0.0456000007688999176 0.00737224891781806946 0.0227935276925563812
-0.0456000007688999176 0.00569232180714607239 0.0221697390079498291
-0.0456000007688999176 0.0108944475650787354 0.0230937190353870392
-0.0456000007688999176 -0.0162928551435470581 0.0193405710160732269
-0.0456000007688999176 -0.00419509224593639374 0.0226416997611522675
-0.0456000007688999176 0.00405552564188838005 0.0276084374636411667
-0.0456000007688999176 -0.0123656876385211945 0.021421702578663826
-0.0456000007688999176 -0.0141078419983386993 0.0206886567175388336
-0.0456000007688999176 -0.00458316132426261902 0.0235942378640174866
-0.0456000007688999176 -0.00791261252015829086 0.0220993421971797943
-0.0456000007688999176 0.000497608562000095844 0.0275437422096729279
-0.0456000007688999176 -0.00757000967860221863 0.0252330675721168518
-0.0456000007688999176 -0.00348466355353593826 0.0258496962487697601
-0.0456000007688999176 -0.00933283567428588867 0.0246755629777908325
-0.0456000007688999176 -0.0130143426358699799 0.0241111181676387787
-0.0456000007688999176 -0.00608701584860682487 0.0271712541580200195
-0.0456000007688999176 -0.0167154166847467422 0.0217700246721506119
-0.0456000007688999176 -0.0244970954954624176 0.0129240108653903008
-0.0456000007688999176 -0.0228956658393144608 0.0143995136022567749
-0.0456000007688999176 -0.0250526163727045059 0.00849840883165597916
-0.0456000007688999176 -0.0239160414785146713 0.00695069367066025734
-0.0456000007688999176 -0.0263987742364406586 0.000189368147403001785
-0.0456000007688999176 -0.0249543003737926483 0.00381777156144380569
-0.0456000007688999176 -0.0270201358944177628 -0.00228538550436496735
-0.0456000007688999176 -0.0259391255676746368 -0.00641408096998929977
-0.0456000007688999176 -0.0262290053069591522 -0.00275959819555282593
-0.0456000007688999176 -0.0256785918027162552 -0.0021168622188270092
-0.0456000007688999176 -0.0238502305001020432 0.00610961392521858215
-0.0456000007688999176 -0.0235581398010253906 0.000984183512628078461
-0.0456000007688999176 -0.0220527090132236481 -0.00710819568485021591
-0.0456000007688999176 -0.0230306871235370636 -0.00206817034631967545
-0.0456000007688999176 -0.0220056995749473572 -0.0155948735773563385
-0.0456000007688999176 -0.0224527698010206223 0.000757768750190734863
-0.0456000007688999176 -0.0228637140244245529 -0.0144285168498754501
-0.0456000007688999176 -0.0218786895275115967 0.00285353697836399078
-0.0456000007688999176 -0.021793123334646225 0.0020549483597278595
-0.0456000007688999176 -0.0178632959723472595 -0.0139924855902791023
-0.0456000007688999176 -0.0201014485210180283 -0.0136734452098608017
-0.0456000007688999176 -0.0186338014900684357 -0.00655638985335826874
-0.0456000007688999176 -0.0210247337818145752 0.00197504274547100067
-0.0456000007688999176 -0.0182234365493059158 -0.0123037016019225121
-0.0456000007688999176 -0.0169671997427940369 -0.0215607527643442154
-0.0456000007688999176 -0.0172452554106712341 -0.0131568517535924911
-0.0456000007688999176 -0.0192924030125141144 -0.000541502609848976135
-0.0456000007688999176 -0.0194051880389451981 -0.00164128094911575317
-0.0456000007688999176 -0.0149428956210613251 -0.00663784705102443695
-0.0456000007688999176 -0.0173055492341518402 -0.00996851548552513123
-0.0456000007688999176 -0.0116442218422889709 -0.0216060318052768707
-0.0456000007688999176 -0.0156608298420906067 -0.020165659487247467
-0.0456000007688999176 -0.0150445904582738876 -0.0115364296361804008
-0.0456000007688999176 -0.0128467362374067307 -0.0157369896769523621
-0.0456000007688999176 -0.0156018044799566269 -0.0142297064885497093
-0.0456000007688999176 -0.0108198029920458794 -0.0247073359787464142
-0.0456000007688999176 -0.013463340699672699 -0.0169183611869812012
-0.0456000007688999176 -0.0187163576483726501 0.00627358816564083099
-0.0456000007688999176 -0.0165193155407905579 -0.0103193027898669243
-0.0456000007688999176 -0.0103637715801596642 -0.0246039927005767822
-0.0456000007688999176 -0.0145942922681570053 -0.00693089514970779419
-0.0456000007688999176 -0.0133511722087860107 -0.00409273989498615265
-0.0456000007688999176 -0.0140223335474729538 -0.00905215553939342499
-0.0456000007688999176 -0.0039809495210647583 -0.0264718886464834213
-0.0456000007688999176 -0.0108804525807499886 -0.0187128148972988129
-0.0456000007688999176 -0.0166316814720630646 0.00330129638314247131
-0.0456000007688999176 -0.00612648017704486847 -0.0231908205896615982
-0.0456000007688999176 -0.0130208712071180344 -0.00894182175397872925
-0.0456000007688999176 -0.00525043392553925514 -0.0260525010526180267
-0.0456000007688999176 -0.0111445952206850052 -0.0140357483178377151
-0.0456000007688999176 -0.0133980643004179001 -0.0101088490337133408
-0.0456000007688999176 -0.0117561304941773415 -0.0124936401844024658
-0.0456000007688999176 -0.00872359424829483032 -0.0175645742565393448
-0.0456000007688999176 -0.0147540159523487091 0.00494878180325031281
-0.0456000007688999176 -0.00765687832608819008 -0.0115934684872627258
-0.0456000007688999176 -0.00921801012009382248 -0.0123138837516307831
-0.0456000007688999176 -0.00201090611517429352 -0.0201106276363134384
-0.0456000007688999176 -0.00438149645924568176 -0.0211393199861049652
-0.0456000007688999176 -0.00339066702872514725 -0.021087372675538063
-0.0456000007688999176 -0.0107453064993023872 -0.00767445750534534454
-0.0456000007688999176 -0.0105060450732707977 -0.00447920523583889008
-0.0456000007688999176 -0.00668810959905385971 -0.0143273724243044853
-0.0456000007688999176 -0.00557226501405239105 -0.0109336934983730316
-0.0456000007688999176 0.000531752128154039383 -0.023459412157535553
-0.0456000007688999176 -0.00587842892855405807 -0.0159128494560718536
-0.0456000007688999176 -0.0108910370618104935 -0.00104887224733829498
-0.0456000007688999176 -0.0102783460170030594 -0.00235283002257347107
-0.0456000007688999176 -0.0112480251118540764 -0.00624442659318447113
-0.0456000007688999176 -0.0072614327073097229 -0.00396863743662834167
-0.0456000007688999176 -0.00366668496280908585 -0.00952471792697906494
-0.0456000007688999176 0.00462528550997376442 -0.0192113146185874939
-0.0456000007688999176 -0.0018868790939450264 -0.0109600182622671127
-0.0456000007688999176 -0.00754773244261741638 -0.00123879685997962952
-0.0456000007688999176 0.000356458593159914017 -0.0203780531883239746
-0.0456000007688999176 -0.0120763285085558891 0.00456734374165534973
-0.0456000007688999176 0.00304008531384170055 -0.0223106294870376587
-0.0456000007688999176 -0.00819505378603935242 -0.00041218101978302002
-0.0456000007688999176 0.00266226218082010746 -0.0243539623916149139
-0.0456000007688999176 -0.00791978370398283005 -0.00548911653459072113
-0.0456000007688999176 0.00354396901093423367 -0.0228958744555711746
-0.0456000007688999176 0.00542873004451394081 -0.0256121493875980377
-0.0456000007688999176 -0.00599894393235445023 -0.00637426413595676422
-0.0456000007688999176 0.000954995863139629364 -0.020135810598731041
-0.0456000007688999176 -0.00961644761264324188 -0.000174971297383308411
-0.0456000007688999176 0.00399377383291721344 -0.0205993745476007462
-0.0456000007688999176 0.00972896814346313477 -0.0206517186015844345
-0.0456000007688999176 0.00433443719521164894 -0.0164145547896623611
-0.0456000007688999176 0.0128702893853187561 -0.0206635389477014542
-0.0456000007688999176 -0.00135386735200881958 -0.0048415008932352066
-0.0456000007688999176 -0.00628130044788122177 -0.0016796402633190155
-0.0456000007688999176 -0.0171204209327697754 0.0135118681937456131
-0.0456000007688999176 -0.00695285573601722717 -0.00175545737147331238
-0.0456000007688999176 0.0083070145919919014 -0.0151795195415616035
-0.0456000007688999176 0.011396678164601326 -0.0194925907999277115
-0.0456000007688999176 0.00309104006737470627 -0.0101998075842857361
-0.0456000007688999176 0.00585823599249124527 -0.0140839181840419769
-0.0456000007688999176 -0.00815606582909822464 0.000458808615803718567
-0.0456000007688999176 0.00678667472675442696 -0.0155161488801240921
-0.0456000007688999176 0.00946807209402322769 -0.018786165863275528
-0.0456000007688999176 -0.00225237011909484863 -0.00530727021396160126
-0.0456000007688999176 -0.0118279559537768364 0.00651604682207107544
-0.0456000007688999176 -0.0124011030420660973 0.00641662813723087311
-0.0456000007688999176 0.00449696183204650879 -0.0157073251903057098
-0.0456000007688999176 0.0102045107632875443 -0.0188239160925149918
-0.0456000007688999176 0.00927091203629970551 -0.0131000448018312454
-0.0456000007688999176 -0.00817119330167770386 0.0048006158322095871
-0.0456000007688999176 0.0174119547009468079 -0.0202547609806060791
-0.0456000007688999176 -0.0116176027804613113 0.00932081043720245361
-0.0456000007688999176 0.010134577751159668 -0.0123473396524786949
-0.0456000007688999176 0.00380458496510982513 -0.00732611771672964096
-0.0456000007688999176 0.0181456040591001511 -0.0196004267781972885
-0.0456000007688999176 0.00540040899068117142 -0.00917646754533052444
-0.0456000007688999176 0.0154949445277452469 -0.0142776109278202057
-0.0456000007688999176 0.0184388086199760437 -0.0163960419595241547
-0.0456000007688999176 -0.00278656743466854095 0.00194933079183101654
-0.0456000007688999176 0.000915082171559333801 -0.00315644405782222748
-0.0456000007688999176 -0.00364239327609539032 0.000306505709886550903
-0.0456000007688999176 0.0157398954033851624 -0.0201435498893260956
-0.0456000007688999176 0.0120736816897988319 -0.0125459358096122742
-0.0456000007688999176 0.00790208298712968826 -0.0119362873956561089
-0.0456000007688999176 -0.0118259582668542862 0.00938433967530727386
-0.0456000007688999176 -0.0182376541197299957 0.0161412805318832397
-0.0456000007688999176 0.00457835197448730469 -0.00865116622298955917
-0.0456000007688999176 0.0142699610441923141 -0.0111692110076546669
-0.0456000007688999176 -0.0144615471363067627 0.0140162697061896324
-0.0456000007688999176 -0.00324149057269096375 0.00380111765116453171
-0.0456000007688999176 0.00539737008512020111 0.000279481522738933563
-0.0456000007688999176 0.0111288046464323997 -0.00777219142764806747
-0.0456000007688999176 0.00500679388642311096 -0.00114726927131414413
-0.0456000007688999176 -0.0104685742408037186 0.0106413364410400391
-0.0456000007688999176 0.0184503532946109772 -0.00979728065431118011
-0.0456000007688999176 0.0208916421979665756 -0.0168034229427576065
-0.0456000007688999176 0.0143446223810315132 -0.00920917466282844543
-0.0456000007688999176 0.0201657712459564209 -0.0145584587007761002
-0.0456000007688999176 0.0174727551639080048 -0.0105926366522908211
-0.0456000007688999176 0.0225768089294433594 -0.0137746771797537804
-0.0456000007688999176 0.0088391471654176712 -0.00378829892724752426
-0.0456000007688999176 0.00400091707706451416 -0.00247716903686523438
-0.0456000007688999176 0.0226535629481077194 -0.0151554755866527557
-0.0456000007688999176 0.0209749303758144379 -0.0165572464466094971
-0.0456000007688999176 0.0146536743268370628 -0.00760552613064646721
-0.0456000007688999176 -0.0165824498981237411 0.015216238796710968
-0.0456000007688999176 -0.00173605978488922119 0.00625982694327831268
-0.0456000007688999176 0.0242408793419599533 -0.0095031028613448143
-0.0456000007688999176 0.0154835805296897888 -0.0063216094858944416
-0.0456000007688999176 0.0190347097814083099 -0.00411763601005077362
-0.0456000007688999176 0.0176814664155244827 -0.00491203786805272102
-0.0456000007688999176 0.0178795624524354935 -0.00379036786034703255
-0.0456000007688999176 0.0207085274159908295 -0.00658362358808517456
-0.0456000007688999176 0.0247033797204494476 -0.0122557124122977257
-0.0456000007688999176 -0.00082360394299030304 0.00498659256845712662
-0.0456000007688999176 0.023021722212433815 -0.00891465973109006882
-0.0456000007688999176 -0.0101537182927131653 0.0128384744748473167
-0.0456000007688999176 0.0263838507235050201 -0.00877221114933490753
-0.0456000007688999176 0.00473816879093647003 0.00383165152743458748
-0.0456000007688999176 -0.0137883201241493225 0.0139514245092868805
-0.0456000007688999176 0.0246277190744876862 -0.00816039368510246277
-0.0456000007688999176 0.0154999373480677605 -0.00153802381828427315
-0.0456000007688999176 0.0218418240547180176 -0.0108380885794758797
-0.0456000007688999176 -0.0109137222170829773 0.0127128502354025841
-0.0456000007688999176 -0.0109859481453895569 0.0144059024751186371
-0.0456000007688999176 0.0211509410291910172 0.00111952482257038355
-0.0456000007688999176 -0.00328179448843002319 0.00934129301458597183
-0.0456000007688999176 0.0193494409322738647 0.00222192518413066864
-0.0456000007688999176 0.0250879824161529541 -0.00235553784295916557
-0.0456000007688999176 0.0239767581224441528 -0.00457973591983318329
-0.0456000007688999176 0.0139073189347982407 0.00369521882385015488
-0.0456000007688999176 0.0145941441878676414 0.0049127521924674511
-0.0456000007688999176 0.0194996949285268784 0.00248990464024245739
-0.0456000007688999176 0.0014400184154510498 0.00837437063455581665
-0.0456000007688999176 0.0251813642680644989 0.000830756616778671741
-0.0456000007688999176 0.0247254781424999237 -0.00492269732058048248
-0.0456000007688999176 0.0067133735865354538 0.00483889225870370865
-0.0456000007688999176 0.0212826263159513474 0.000982858240604400635
-0.0456000007688999176 0.0235689803957939148 -0.00385186146013438702
-0.0456000007688999176 -0.00728082470595836639 0.0130013320595026016
-0.0456000007688999176 0.0178759358823299408 0.00272011430934071541
-0.0456000007688999176 -0.0264385100454092026 0.00861542299389839172
-0.0456000007688999176 -0.0293505843728780746 -0.000531754456460475922
-0.0456000007688999176 -0.0236675944179296494 0.0186643525958061218
-0.0456000007688999176 -0.0290460251271724701 -0.000869147013872861862
-0.0456000007688999176 -0.0276702363044023514 0.000406589359045028687
-0.0456000007688999176 -0.0241439938545227051 0.014026508666574955
-0.0456000007688999176 -0.0255832262337207794 0.00203053373843431473
-0.0456000007688999176 -0.0262820776551961899 0.00345886126160621643
-0.0456000007688999176 -0.0260477121919393539 0.00250982679426670074
-0.0456000007688999176 -0.028329797089099884 -0.00106971338391304016
-0.0456000007688999176 -0.0238293912261724472 0.00987848639488220215
-0.0456000007688999176 -0.0236935466527938843 -0.0153511371463537216
-0.0456000007688999176 -0.0249154232442378998 -0.0157574024051427841
-0.0456000007688999176 -0.0249143671244382858 -0.00868577975779771805
-0.0456000007688999176 -0.0249743685126304626 -0.0164769869297742844
-0.0456000007688999176 -0.0260015670210123062 -0.0151452077552676201
-0.0456000007688999176 -0.023506462574005127 -0.00209817476570606232
-0.0456000007688999176 -0.0231108050793409348 0.0156706850975751877
-0.0456000007688999176 -0.0199539624154567719 -0.012125946581363678
-0.0456000007688999176 -0.019585486501455307 -0.0176119040697813034
-0.0456000007688999176 -0.0226646270602941513 0.00082302093505859375
-0.0456000007688999176 -0.0200687181204557419 -0.022527473047375679
-0.0456000007688999176 -0.0224459972232580185 0.00512803718447685242
-0.0456000007688999176 -0.022603718563914299 -0.0156605411320924759
-0.0456000007688999176 -0.0219111088663339615 -0.00480382144451141357
-0.0456000007688999176 -0.0212901979684829712 -0.0146017083898186684
-0.0456000007688999176 -0.0191638432443141937 -0.0132680619135499001
-0.0456000007688999176 -0.018779778853058815 -0.0228838659822940826
-0.0456000007688999176 -0.022367626428604126 0.000729726627469062805
-0.0456000007688999176 -0.0176354106515645981 -0.0213492792099714279
-0.0456000007688999176 -0.0184899177402257919 -0.00339062325656414032
-0.0456000007688999176 -0.0113003533333539963 -0.0274291057139635086
-0.0456000007688999176 -0.0162692870944738388 -0.0134655050933361053
-0.0456000007688999176 -0.0173588581383228302 -0.0141354696825146675
-0.0456000007688999176 -0.0166330896317958832 -0.00893372483551502228
-0.0456000007688999176 -0.0135895181447267532 -0.0180786866694688797
-0.0456000007688999176 -0.0179742183536291122 -0.00886468589305877686
-0.0456000007688999176 -0.0153816789388656616 -0.023825962096452713
-0.0456000007688999176 -0.0165282506495714188 -0.0191799066960811615
-0.0456000007688999176 -0.0180984847247600555 -0.00491309724748134613
-0.0456000007688999176 -0.0178847759962081909 -0.018094940111041069
-0.0456000007688999176 -0.0209311861544847488 0.0076923072338104248
-0.0456000007688999176 -0.0208094622939825058 0.00328842177987098694
-0.0456000007688999176 -0.0147615028545260429 -0.00485273450613021851
-0.0456000007688999176 -0.00536231603473424911 -0.0278327967971563339
-0.0456000007688999176 -0.0108689665794372559 -0.018229285255074501
-0.0456000007688999176 -0.0145779429003596306 -0.0111184101551771164
-0.0456000007688999176 -0.0118189463391900063 -0.0246606580913066864
-0.0456000007688999176 -0.00873616058379411697 -0.0223809331655502319
-0.0456000007688999176 -0.0149460574612021446 -0.00651420652866363525
-0.0456000007688999176 -0.0152136562392115593 -0.00295316427946090698
-0.0456000007688999176 -0.0076777283102273941 -0.0279529448598623276
-0.0456000007688999176 -0.00907578319311141968 -0.026206551119685173
-0.0456000007688999176 -0.0118691753596067429 -0.0153879942372441292
-0.0456000007688999176 -0.016505897045135498 4.9330294132232666e-05
-0.0456000007688999176 -0.012237202376127243 -0.0209146067500114441
-0.0456000007688999176 -0.0139066865667700768 -0.0166686289012432098
-0.0456000007688999176 -0.00910571962594985962 -0.0194385610520839691
-0.0456000007688999176 -0.0122559666633605957 -0.011883983388543129
-0.0456000007688999176 -0.00492144143208861351 -0.0215204227715730667
-0.0456000007688999176 -0.013113824650645256 -0.00448064878582954407
-0.0456000007688999176 -0.00989588722586631775 -0.00877193920314311981
-0.0456000007688999176 -0.00749348383396863937 -0.0171570703387260437
-0.0456000007688999176 -0.00280164554715156555 -0.0294136609882116318
-0.0456000007688999176 -0.00436049187555909157 -0.0280733909457921982
-0.0456000007688999176 -0.00572401890531182289 -0.0181052051484584808
-0.0456000007688999176 -0.0135053247213363647 -0.00292666442692279816
-0.0456000007688999176 -0.0200909115374088287 0.0133996624499559402
-0.0456000007688999176 -0.00062985933618620038 -0.0290525611490011215
-0.0456000007688999176 -0.00881719589233398438 -0.0146545488387346268
-0.0456000007688999176 -0.00482422346249222755 -0.0221915226429700851
-0.0456000007688999176 -0.00290136458352208138 -0.0207937881350517273
-0.0456000007688999176 -0.0045373234897851944 -0.0157748423516750336
-0.0456000007688999176 -0.00575098209083080292 -0.0153300231322646141
-0.0456000007688999176 0.000118882162496447563 -0.0277305357158184052
-0.0456000007688999176 -0.0101949684321880341 -0.00818078033626079559
-0.0456000007688999176 0.00279792724177241325 -0.0301280543208122253
-0.0456000007688999176 -0.00169153138995170593 -0.013965679332613945
-0.0456000007688999176 -0.0080903228372335434 -0.00735896453261375427
-0.0456000007688999176 -0.00298677198588848114 -0.00908986106514930725
-0.0456000007688999176 -0.00568178389221429825 -0.011511167511343956
-0.0456000007688999176 0.00738314446061849594 -0.0295744668692350388
-0.0456000007688999176 0.00289736967533826828 -0.0243764184415340424
-0.0456000007688999176 0.00552680948749184608 -0.0273041706532239914
-0.0456000007688999176 -0.0185274854302406311 0.0118490215390920639
-0.0456000007688999176 0.00187047477811574936 -0.0175452232360839844
-0.0456000007688999176 0.00342498766258358955 -0.0234878286719322205
-0.0456000007688999176 0.00185681134462356567 -0.0186219438910484314
-0.0456000007688999176 -0.00162157509475946426 -0.0166093688458204269
-0.0456000007688999176 -0.00064289383590221405 -0.0127042010426521301
-0.0456000007688999176 0.00112861581146717072 -0.0157484486699104309
-0.0456000007688999176 -0.00964106619358062744 0.000138999894261360168
-0.0456000007688999176 -0.00249733682721853256 -0.0170932374894618988
-0.0456000007688999176 -0.00458690803498029709 -0.00917281210422515869
-0.0456000007688999176 0.00800600182265043259 -0.0289765074849128723
-0.0456000007688999176 -0.000445743091404438019 -0.0156049588695168495
-0.0456000007688999176 0.00179786328226327896 -0.0172439124435186386
-0.0456000007688999176 0.00610499829053878784 -0.0153397219255566597
-0.0456000007688999176 0.0141843175515532494 -0.025169985368847847
-0.0456000007688999176 -0.00292213726788759232 -0.00788791477680206299
-0.0456000007688999176 0.0106367003172636032 -0.0263251997530460358
-0.0456000007688999176 0.010580550879240036 -0.0280509870499372482
-0.0456000007688999176 -0.00823766738176345825 0.000149549916386604309
-0.0456000007688999176 -0.0125475404784083366 0.00520891137421131134
-0.0456000007688999176 0.0160472411662340164 -0.0243912693113088608
-0.0456000007688999176 0.00806779786944389343 -0.0245044194161891937
-0.0456000007688999176 0.00466681085526943207 -0.0179188493639230728
-0.0456000007688999176 -0.0037691015750169754 -0.00352883338928222656
-0.0456000007688999176 -0.00990834832191467285 0.00502913817763328552
-0.0456000007688999176 -0.00170604512095451355 -0.0102795902639627457
-0.0456000007688999176 0.00354967638850212097 -0.0161879993975162506
-0.0456000007688999176 -0.0150250401347875595 0.0113523043692111969
-0.0456000007688999176 -0.0191934593021869659 0.0150068458169698715
-0.0456000007688999176 0.0109952595084905624 -0.0205846894532442093
-0.0456000007688999176 -0.00412477552890777588 -0.00279617495834827423
-0.0456000007688999176 -0.00574892759323120117 -0.000698193907737731934
-0.0456000007688999176 0.00735613517463207245 -0.0175287388265132904
-0.0456000007688999176 0.00429703295230865479 -0.0139687918126583099
-0.0456000007688999176 -3.87243926525115967e-06 -0.00654281489551067352
-0.0456000007688999176 0.0170309226959943771 -0.0213471986353397369
-0.0456000007688999176 0.00310402736067771912 -0.00292263366281986237
-0.0456000007688999176 -0.00238527171313762665 0.000209037214517593384
-0.0456000007688999176 0.0184048488736152649 -0.0215028319507837296
-0.0456000007688999176 0.0163043849170207977 -0.0217320304363965988
-0.0456000007688999176 -0.0113740954548120499 0.0074116140604019165
-0.0456000007688999176 -0.0154144465923309326 0.0126257557421922684
-0.0456000007688999176 0.0185789410024881363 -0.0195254702121019363
-0.0456000007688999176 0.0141460690647363663 -0.016640685498714447
-0.0456000007688999176 1.18836760520935059e-06 -0.00278306566178798676
-0.0456000007688999176 0.0164240468293428421 -0.0219156146049499512
-0.0456000007688999176 0.0145416799932718277 -0.0134050343185663223
-0.0456000007688999176 0.000868013128638267517 -0.00170496292412281036
-0.0456000007688999176 0.0166713986545801163 -0.0240837093442678452
-0.0456000007688999176 -0.00303304567933082581 -0.0011081211268901825
-0.0456000007688999176 0.00324482284486293793 -0.0085303010419011116
-0.0456000007688999176 -0.00307111255824565887 -0.00173034518957138062
-0.0456000007688999176 -0.0163669418543577194 0.0130602121353149414
-0.0456000007688999176 -0.00173497200012207031 -0.0010403897613286972
-0.0456000007688999176 0.00441603735089302063 -0.00644718948751688004
-0.0456000007688999176 0.0136499432846903801 -0.0170028451830148697
-0.0456000007688999176 0.00260817632079124451 -0.00721781142055988312
-0.0456000007688999176 0.0151881333440542221 -0.0076094483956694603
-0.0456000007688999176 0.0229309685528278351 -0.0162823311984539032
-0.0456000007688999176 0.0219077430665493011 -0.0188305545598268509
-0.0456000007688999176 0.0169876255095005035 -0.00998862273991107941
-0.0456000007688999176 -0.0111039336770772934 0.0116092488169670105
-0.0456000007688999176 0.0230090171098709106 -0.0179005563259124756
-0.0456000007688999176 0.000964427366852760315 -0.000547096133232116699
-0.0456000007688999176 0.0187768246978521347 -0.014850185252726078
-0.0456000007688999176 0.00184118933975696564 0.00222309958189725876
-0.0456000007688999176 0.017350049689412117 -0.00850985385477542877
-0.0456000007688999176 0.0211954917758703232 -0.0143465381115674973
-0.0456000007688999176 -0.0119382254779338837 0.0126885352656245232
-0.0456000007688999176 0.00911436602473258972 -0.00321405846625566483
-0.0456000007688999176 0.00926260463893413544 -0.0067820381373167038
-0.0456000007688999176 -0.0219967179000377655 0.019539177417755127
-0.0456000007688999176 0.0174900833517313004 -0.014016222208738327
-0.0456000007688999176 0.000888252630829811096 -0.000566208735108375549
-0.0456000007688999176 0.0127760907635092735 -0.00573083851486444473
-0.0456000007688999176 0.00584788434207439423 -0.001890549436211586
-0.0456000007688999176 0.0188390165567398071 -0.0111668147146701813
-0.0456000007688999176 0.0246774256229400635 -0.0154681336134672165
-0.0456000007688999176 0.00864204950630664825 -0.00153578910976648331
-0.0456000007688999176 -0.00455347821116447449 0.00908858142793178558
-0.0456000007688999176 0.0193642359226942062 -0.00753733096644282341
-0.0456000007688999176 0.000586444512009620667 0.00594955682754516602
-0.0456000007688999176 0.00216832756996154785 0.00434998609125614166
-0.0456000007688999176 0.00580190867185592651 0.0020323609933257103
-0.0456000007688999176 0.0262657627463340759 -0.00897132698446512222
-0.0456000007688999176 0.00629855692386627197 0.00381569843739271164
-0.0456000007688999176 -0.00749936141073703766 0.00974442064762115479
-0.0456000007688999176 -0.0104880854487419128 0.0135122928768396378
-0.0456000007688999176 0.0240066014230251312 -0.00439988728612661362
-0.0456000007688999176 0.0109228659421205521 -0.00014828704297542572
-0.0456000007688999176 0.0247900672256946564 -0.0114044249057769775
-0.0456000007688999176 -0.00545710884034633636 0.00857398100197315216
-0.0456000007688999176 0.0219529252499341965 -0.00608634762465953827
-0.0456000007688999176 0.024029536172747612 -0.00937274843454360962
-0.0456000007688999176 0.00916104018688201904 0.000200503505766391754
-0.0456000007688999176 -0.00672903843224048615 0.0114278290420770645
-0.0456000007688999176 0.0198314245790243149 -0.00758784078061580658
-0.0456000007688999176 0.0164600349962711334 -0.00261088553816080093
-0.0456000007688999176 0.00489876419305801392 0.00363451242446899414
-0.0456000007688999176 0.00120647437870502472 0.00389683432877063751
-0.0456000007688999176 0.0293318741023540497 3.2064155675470829e-05
-0.0456000007688999176 0.0135161876678466797 0.00592570891603827477
-0.0456000007688999176 0.00585575960576534271 0.00780730554834008217
-0.0456000007688999176 -0.0143744777888059616 0.0169632118195295334
-0.0456000007688999176 -0.00674092024564743042 0.0135648399591445923
-0.0456000007688999176 0.0123552083969116211 0.00349016580730676651
-0.0456000007688999176 -0.00296474061906337738 0.0122776757925748825
-0.0456000007688999176 0.0275197736918926239 -0.00287743192166090012
-0.0456000007688999176 0.0279607027769088745 0.000211742008104920387
-0.0456000007688999176 0.00935055315494537354 0.00811363756656646729
-0.0456000007688999176 0.0203231461346149445 0.0017035843338817358
-0.0456000007688999176 0.0143324565142393112 0.00619697803631424904
-0.0456000007688999176 0.0175315383821725845 0.00306870415806770325
-0.0456000007688999176 0.0181021746248006821 0.000459237489849328995
-0.0456000007688999176 0.0171189513057470322 0.000401730183511972427
-0.0456000007688999176 -0.00389858148992061615 0.0124641414731740952
-0.0456000007688999176 0.026690114289522171 -0.00537231843918561935
-0.0456000007688999176 0.0186602212488651276 -0.00110694486647844315
-0.0456000007688999176 0.00983555056154727936 0.00492658838629722595
-0.0456000007688999176 0.0189883261919021606 -0.000463101081550121307
-0.0456000007688999176 0.0140690729022026062 0.00146184349432587624
-0.0456000007688999176 0.0198295954614877701 0.00773999001830816269
-0.0456000007688999176 0.019556017592549324 0.00497807562351226807
-0.0456000007688999176 0.0186161622405052185 0.0100082354620099068
-0.0456000007688999176 0.01154332235455513 0.0102936271578073502
-0.0456000007688999176 0.0295400805771350861 0.000943789316806942225
-0.0456000007688999176 0.0293320044875144958 0.00669415295124053955
-0.0456000007688999176 0.0298269670456647873 0.00713093951344490051
-0.0456000007688999176 0.0302666686475276947 0.000202834635274484754
-0.0456000007688999176 0.0130083989351987839 0.0081446552649140358
-0.0456000007688999176 0.00849152728915214539 0.0125400219112634659
-0.0456000007688999176 0.0300840511918067932 0.00509213469922542572
-0.0456000007688999176 -0.0166456364095211029 0.0180372521281242371
-0.0456000007688999176 0.0175983570516109467 0.0086899343878030777
-0.0456000007688999176 0.0142493750900030136 0.00768052833154797554
-0.0456000007688999176 -0.00743874162435531616 0.0150525486096739769
-0.0456000007688999176 0.00722153298556804657 0.00977532844990491867
-0.0456000007688999176 0.00784145668148994446 0.00919640064239501953
-0.0456000007688999176 0.0200099647045135498 0.00683292187750339508
-0.0456000007688999176 0.0253729969263076782 0.00658422987908124924
-0.0456000007688999176 0.0129565717652440071 0.0147405453026294708
-0.0456000007688999176 0.0139334695413708687 0.0152897555381059647
-0.0456000007688999176 0.0165654737502336502 0.0110453125089406967
-0.0456000007688999176 0.00902947783470153809 0.0132281715050339699
-0.0456000007688999176 0.0249654632061719894 0.0111284321174025536
-0.0456000007688999176 -0.00181110762059688568 0.0153424255549907684
-0.0456000007688999176 -0.00496999546885490417 0.0172752030193805695
-0.0456000007688999176 0.00710973143577575684 0.0148547831922769547
-0.0456000007688999176 0.00713420845568180084 0.013044845312833786
-0.0456000007688999176 -0.00558885559439659119 0.0170994624495506287
-0.0456000007688999176 0.0169980041682720184 0.0121629657223820686
-0.0456000007688999176 0.0278001409024000168 0.0104665393009781837
-0.0456000007688999176 0.0149619933217763901 0.0138870729133486748
-0.0456000007688999176 0.00461231917142868042 0.0141842393204569817
-0.0456000007688999176 0.0140759935602545738 0.0157054513692855835
-0.0456000007688999176 0.0125487959012389183 0.0152222318574786186
-0.0456000007688999176 0.00235070101916790009 0.0203082263469696045
-0.0456000007688999176 0.00476921163499355316 0.0204113367944955826
-0.0456000007688999176 0.0103758610785007477 0.019199000671505928
-0.0456000007688999176 -0.00494477897882461548 0.0192845091223716736
-0.0456000007688999176 -0.00201168656349182129 0.0183843560516834259
-0.0456000007688999176 0.00175982899963855743 0.0194326043128967285
-0.0456000007688999176 0.0213458705693483353 0.0154534336179494858
-0.0456000007688999176 -0.0115974172949790955 0.0190533678978681564
-0.0456000007688999176 -0.0176081079989671707 0.0199759379029273987
-0.0456000007688999176 0.0106230946257710457 0.0191675592213869095
-0.0456000007688999176 0.00496886111795902252 0.0198684763163328171
-0.0456000007688999176 0.0230094455182552338 0.0183346085250377655
-0.0456000007688999176 0.0107308812439441681 0.018675265833735466
-0.0456000007688999176 -0.00262840278446674347 0.0202297847718000412
-0.0456000007688999176 -0.00248561426997184753 0.0212501771748065948
-0.0456000007688999176 0.00610001664608716965 0.0237803105264902115
-0.0456000007688999176 0.0176794435828924179 0.0237477459013462067
-0.0456000007688999176 0.0109403952956199646 0.0228280052542686462
-0.0456000007688999176 0.00323356874287128448 0.0213452260941267014
-0.0456000007688999176 -0.00418633967638015747 0.0204670093953609467
-0.0456000007688999176 0.0106079895049333572 0.0243023540824651718
-0.0456000007688999176 0.0216135419905185699 0.0214336235076189041
-0.0456000007688999176 0.00876047927886247635 0.0226991921663284302
-0.0456000007688999176 0.0139887100085616112 0.0241189096122980118
-0.0456000007688999176 0.0167728271335363388 0.0225427839905023575
-0.0456000007688999176 0.000342744402587413788 0.0245958641171455383
-0.0456000007688999176 -0.00273264665156602859 0.0240365248173475266
-0.0456000007688999176 0.00135551672428846359 0.0235754288733005524
-0.0456000007688999176 0.00343838520348072052 0.0266938135027885437
-0.0456000007688999176 -0.0050783008337020874 0.024090765044093132
-0.0456000007688999176 -0.0162630006670951843 0.0216308310627937317
-0.0456000007688999176 -0.012077726423740387 0.021989801898598671
-0.0456000007688999176 0.00544040324166417122 0.0256864409893751144
-0.0456000007688999176 0.000784869305789470673 0.0283876806497573853
-0.0456000007688999176 0.00645846407860517502 0.0297015570104122162
-0.0456000007688999176 -0.00892221834510564804 0.0252326987683773041
-0.0456000007688999176 -0.00284888269379734993 0.028065849095582962
-0.0456000007688999176 0.00712441280484199524 0.0287686176598072052
-0.0456000007688999176 0.00600069016218185425 0.0295137930661439896
-0.0456000007688999176 -0.00404876749962568283 0.0288292132318019867
-0.0456000007688999176 9.21217142604291439e-05 0.0300949662923812866
-0.0456000007688999176 -0.0193539746105670929 0.0221929289400577545
-0.0456000007688999176 -0.0126850316300988197 0.0272128172218799591
-0.0456000007688999176 -0.00953814666718244553 0.0285190530121326447
