ply
format ascii 1.0
element vertex 740
property float x
property float y
property float z
end_header
0.0629339888691902161 0.166950881481170654 0.124842025339603424
0.0632360130548477173 0.165469720959663391 0.127780020236968994
0.0624143928289413452 0.17109285295009613 0.116690002381801605
0.0813464522361755371 0.171028316020965576 0.120541520416736603
0.0753944292664527893 0.169473186135292053 0.122392416000366211
0.0697764083743095398 0.170976996421813965 0.118364103138446808
0.0719057470560073853 0.168380454182624817 0.123829476535320282
0.0650073736906051636 0.169338852167129517 0.120609171688556671
0.0549098066985607147 0.17142970860004425 0.112389534711837769
0.0548972487449645996 0.171838894486427307 0.111370667815208435
0.058976735919713974 0.16947251558303833 0.119319379329681396
0.057294648140668869 0.170277342200279236 0.116464756429195404
0.0603384114801883698 0.174852237105369568 0.104656316339969635
0.0585449524223804474 0.174792647361755371 0.104394242167472839
0.0570276752114295959 0.17406231164932251 0.106290578842163086
0.0655223652720451355 0.173309504985809326 0.110812894999980927
0.0683391764760017395 0.175909876823425293 0.103455454111099243
0.0666246041655540466 0.173497259616851807 0.110517904162406921
0.0633895620703697205 0.172596395015716553 0.112473130226135254
0.0640555694699287415 0.174811169505119324 0.10575123131275177
0.0655314475297927856 0.172454729676246643 0.113459318876266479
0.072864145040512085 0.173487052321434021 0.112075947225093842
0.0697842612862586975 0.172814875841140747 0.113386876881122589
0.0742517933249473572 0.175456374883651733 0.106387048959732056
0.0759151726961135864 0.173929184675216675 0.111461788415908813
0.0778972059488296509 0.175509825348854065 0.107105880975723267
0.0706906989216804504 0.173757001757621765 0.110724002122879028
0.0707875266671180725 0.172685578465461731 0.114025220274925232
0.0692327842116355896 0.171851754188537598 0.116199851036071777
0.0762365832924842834 0.172957077622413635 0.114513523876667023
0.112476468086242676 0.172905966639518738 0.0454675257205963135
0.109948828816413879 0.169577732682228088 0.0398992598056793213
0.112874425947666168 0.170384824275970459 0.0406780131161212921
0.102711297571659088 0.169938415288925171 0.0418692827224731445
0.0919921398162841797 0.172000870108604431 0.0475739650428295135
0.0899936109781265259 0.171371147036552429 0.0467422828078269958
0.103659674525260925 0.174421921372413635 0.0500837154686450958
0.0986203551292419434 0.173300117254257202 0.048857472836971283
0.105932407081127167 0.171270623803138733 0.0438026003539562225
0.0928312540054321289 0.171533435583114624 0.0465556047856807709
0.105798043310642242 0.174268931150436401 0.0494286343455314636
0.0953888669610023499 0.170909970998764038 0.0449489988386631012
0.114049866795539856 0.177518680691719055 0.0563801676034927368
0.116137303411960602 0.178976163268089294 0.0599554441869258881
0.113170556724071503 0.177414000034332275 0.0561019368469715118
0.115163862705230713 0.17579612135887146 0.0522599890828132629
0.114794425666332245 0.177082255482673645 0.0553498789668083191
0.11059146374464035 0.177924111485481262 0.0579813085496425629
0.110618948936462402 0.179234698414802551 0.0618224292993545532
0.110105715692043304 0.17916204035282135 0.0617803633213043213
0.0944344252347946167 0.179253548383712769 0.0711468160152435303
0.0946095734834671021 0.179704517126083374 0.0745978355407714844
0.0913203135132789612 0.178839206695556641 0.0705065727233886719
0.0955027565360069275 0.180767327547073364 0.0823192298412322998
0.0973299518227577209 0.180176481604576111 0.0760354921221733093
0.0944193676114082336 0.179390966892242432 0.0722569301724433899
0.0909518599510192871 0.179651856422424316 0.0773115977644920349
0.0879587829113006592 0.179852858185768127 0.0814814269542694092
0.0970959290862083435 0.179556846618652344 0.0714398175477981567
0.107241839170455933 0.179550766944885254 0.0638880729675292969
0.0999012887477874756 0.180850028991699219 0.0793095454573631287
0.0972188040614128113 0.179121091961860657 0.0679978728294372559
0.104606553912162781 0.17967166006565094 0.0667670667171478271
0.102595075964927673 0.180115312337875366 0.0716668069362640381
0.105014458298683167 0.179526492953300476 0.0653489008545875549
0.0976745635271072388 0.176984980702400208 0.059417724609375
0.0921070724725723267 0.175017565488815308 0.0555825904011726379
0.0989662259817123413 0.174080565571784973 0.0506055839359760284
0.0951004251837730408 0.175492644309997559 0.055962439626455307
0.0902658030390739441 0.176099106669425964 0.0593146011233329773
0.094817623496055603 0.173661395907402039 0.0507697351276874542
0.0942367389798164368 0.174272060394287109 0.0527250021696090698
0.0914381593465805054 0.175346225500106812 0.0567529164254665375
0.0885598063468933105 0.172647550702095032 0.049915999174118042
0.0984255895018577576 0.175958961248397827 0.056207120418548584
0.108002960681915283 0.176948204636573792 0.0559720098972320557
0.101905189454555511 0.177943378686904907 0.0608579143881797791
0.104727141559123993 0.178329363465309143 0.0610849559307098389
0.0951345562934875488 0.177905306220054626 0.0629232525825500488
0.102164134383201599 0.176750287413597107 0.0572679154574871063
0.0846287459135055542 0.179200708866119385 0.0788987576961517334
0.0887125805020332336 0.178323954343795776 0.0683356374502182007
0.0854527279734611511 0.179236263036727905 0.078564085066318512
0.084888458251953125 0.177599012851715088 0.0652237087488174438
0.0865811705589294434 0.174030885100364685 0.0545265711843967438
0.0887255892157554626 0.177403494715690613 0.063506685197353363
0.087904125452041626 0.175281494855880737 0.0576971434056758881
0.0360027290880680084 0.166712850332260132 0.12156590074300766
0.0347319096326828003 0.168703839182853699 0.115996457636356354
0.031823374330997467 0.167068839073181152 0.119914770126342773
0.028163837268948555 0.159893214702606201 0.131377547979354858
0.0289766881614923477 0.162410572171211243 0.127451524138450623
0.0349281094968318939 0.16317535936832428 0.127030342817306519
0.0365848392248153687 0.166450947523117065 0.122079089283943176
0.0327612832188606262 0.160431638360023499 0.131064653396606445
0.0329882502555847168 0.160395011305809021 0.131155639886856079
0.0268157254904508591 0.166180521249771118 0.121103435754776001
0.0278137717396020889 0.165659204125404358 0.122084617614746094
0.0204923339188098907 0.161729931831359863 0.127670317888259888
0.0201084744185209274 0.157255947589874268 0.134842872619628906
0.022157156839966774 0.157262250781059265 0.13501429557800293
0.0258893072605133057 0.161784812808036804 0.128060296177864075
0.0186020992696285248 0.159653350710868835 0.130847662687301636
0.0219127386808395386 0.158919483423233032 0.132323205471038818
0.073449157178401947 0.178052395582199097 0.0784716829657554626
0.0774002224206924438 0.178423553705215454 0.0782313570380210876
0.0785510092973709106 0.17879427969455719 0.0804895311594009399
0.0773306339979171753 0.177867650985717773 0.0733654797077178955
0.0736877396702766418 0.178005144000053406 0.0778395384550094604
0.0778774693608283997 0.178683057427406311 0.0801053866744041443
0.0794614031910896301 0.179109111428260803 0.0824669823050498962
0.0721581205725669861 0.177124649286270142 0.0710365846753120422
0.0717308223247528076 0.177270188927650452 0.0727573037147521973
0.0697344765067100525 0.177987724542617798 0.0811540260910987854
0.0652040988206863403 0.176338434219360352 0.0690650269389152527
0.07576790452003479 0.177105173468589783 0.0679969340562820435
0.0620172508060932159 0.176038175821304321 0.0687321648001670837
0.0703145787119865417 0.177695080637931824 0.0779145509004592896
0.0812811702489852905 0.178273230791091919 0.0735574588179588318
0.080247834324836731 0.177357897162437439 0.0665865838527679443
0.0834116190671920776 0.178246423602104187 0.0717392414808273315
0.0815057680010795593 0.177697539329528809 0.0685199499130249023
0.0821610689163208008 0.174434587359428406 0.0569916293025016785
0.0813630372285842896 0.174769684672355652 0.0581831224262714386
0.0834980234503746033 0.177413508296012878 0.0651047900319099426
0.0841272473335266113 0.173305898904800415 0.0531906522810459137
-0.0094073200598359108 0.162539586424827576 0.123634763062000275
-0.00275267753750085831 0.163980722427368164 0.121572524309158325
-0.0054270084947347641 0.162931382656097412 0.123382456600666046
-0.00388195132836699486 0.165637865662574768 0.117954105138778687
-0.00862440839409828186 0.162645548582077026 0.12352483719587326
-0.00511143356561660767 0.162953510880470276 0.123381093144416809
-0.00198260648176074028 0.161277830600738525 0.126441150903701782
0.0139022134244441986 0.160044759511947632 0.129607915878295898
0.00650426419451832771 0.159423023462295532 0.130141779780387878
-0.00341433938592672348 0.161573797464370728 0.125845298171043396
0.0121332556009292603 0.162816673517227173 0.124830394983291626
0.0089554591104388237 0.165118247270584106 0.120745658874511719
0.0136085003614425659 0.160376951098442078 0.129029735922813416
0.0104126101359724998 0.160638570785522461 0.128369882702827454
0.010550307109951973 0.15840303897857666 0.132133975625038147
-0.00513137364760041237 0.161936625838279724 0.125117480754852295
0.00402816664427518845 0.160375058650970459 0.128372013568878174
0.0202195942401885986 0.161752358078956604 0.12760007381439209
0.0205754376947879791 0.165343910455703735 0.121636629104614258
0.0221549645066261292 0.165475949645042419 0.121640726923942566
0.0166103988885879517 0.165672406554222107 0.120521202683448792
0.0180424042046070099 0.165299862623214722 0.121349208056926727
0.000764705240726470947 0.166528165340423584 0.116489410400390625
0.00378687772899866104 0.166790291666984558 0.116198092699050903
0.0103300530463457108 0.166305795311927795 0.118565969169139862
-0.00310168927535414696 0.167660936713218689 0.112677514553070068
-0.00339226331561803818 0.167152956128120422 0.114081554114818573
0.00303109455853700638 0.166295424103736877 0.117494620382785797
0.0645562559366226196 0.168262287974357605 0.0456147342920303345
0.067727208137512207 0.170500785112380981 0.0495049059391021729
0.0726586654782295227 0.169762328267097473 0.0469385832548141479
0.069144032895565033 0.170302227139472961 0.048795357346534729
0.0800057798624038696 0.17068248987197876 0.0472404472529888153
0.0669080391526222229 0.167563363909721375 0.0436828099191188812
0.0684417486190795898 0.169239744544029236 0.0467766188085079193
0.0777013003826141357 0.169959813356399536 0.0462594665586948395
0.0553026832640171051 0.168183088302612305 0.0468136966228485107
0.045881953090429306 0.168286368250846863 0.0485352799296379089
0.0589127019047737122 0.17092488706111908 0.0520557276904582977
0.0529772005975246429 0.168770790100097656 0.0484316200017929077
0.043270796537399292 0.169159412384033203 0.0508041791617870331
0.046635456383228302 0.168809801340103149 0.0495257675647735596
0.0608170367777347565 0.167430907487869263 0.0446267202496528625
0.0594506822526454926 0.169227674603462219 0.0484657734632492065
0.0601872988045215607 0.16737733781337738 0.0445879809558391571
0.0513987541198730469 0.172816008329391479 0.0599932298064231873
0.0521513298153877258 0.172924846410751343 0.0601156875491142273
0.0501744933426380157 0.173570752143859863 0.0628796964883804321
0.0471408739686012268 0.171582832932472229 0.0572561658918857574
0.0578753724694252014 0.172099515795707703 0.055572509765625
0.0531358756124973297 0.17289106547832489 0.0596924945712089539
0.052578851580619812 0.173967555165290833 0.0634333342313766479
0.0518545769155025482 0.173636928200721741 0.0625675246119499207
0.0573024563491344452 0.171375483274459839 0.053356073796749115
0.0581507273018360138 0.173979327082633972 0.0617341175675392151
0.0591676793992519379 0.173263594508171082 0.0590339042246341705
0.0594383068382740021 0.175471290946006775 0.0663244649767875671
0.0726234689354896545 0.175586268305778503 0.062526606023311615
0.0723258629441261292 0.175669670104980469 0.0628999173641204834
0.0636135637760162354 0.173931315541267395 0.0598744750022888184
0.0635515525937080383 0.175242170691490173 0.0642705485224723816
0.0740575939416885376 0.176294326782226562 0.0644332095980644226
0.0828900337219238281 0.172302469611167908 0.0505813956260681152
0.0760671719908714294 0.176353082060813904 0.0641153901815414429
0.0747895315289497375 0.173310860991477966 0.0552634373307228088
0.0766013115644454956 0.175154641270637512 0.0604155585169792175
0.073901839554309845 0.174234852194786072 0.0582135953009128571
0.0662666559219360352 0.17207472026348114 0.0533079281449317932
0.0684247687458992004 0.173114538192749023 0.0559804961085319519
0.0644848346710205078 0.172606915235519409 0.0552677102386951447
0.0681948140263557434 0.171913549304008484 0.0524297170341014862
0.076378844678401947 0.174093395471572876 0.0572819150984287262
-0.0750715136528015137 0.143188253045082092 0.145121350884437561
-0.077420353889465332 0.144835665822029114 0.143341690301895142
-0.0745301321148872375 0.156908690929412842 0.128377780318260193
-0.0794695094227790833 0.156875312328338623 0.128251582384109497
-0.0778209120035171509 0.154682934284210205 0.131308957934379578
-0.0765831023454666138 0.147333532571792603 0.14046025276184082
-0.0769291520118713379 0.145813420414924622 0.142349302768707275
-0.0746436417102813721 0.144354581832885742 0.14383581280708313
-0.0760094299912452698 0.14947076141834259 0.137793451547622681
-0.0778990760445594788 0.147009536623954773 0.141017794609069824
-0.0950159579515457153 0.144125565886497498 0.143706828355789185
-0.0819794982671737671 0.145477592945098877 0.142472207546234131
-0.094313696026802063 0.145672783255577087 0.142181515693664551
-0.0853611305356025696 0.140856906771659851 0.14701727032661438
-0.0841713771224021912 0.145851880311965942 0.142084524035453796
-0.0885836109519004822 0.142266884446144104 0.145596727728843689
-0.0937533080577850342 0.144759818911552429 0.143089264631271362
-0.0924230590462684631 0.142219170928001404 0.145613580942153931
-0.0871193408966064453 0.153431981801986694 0.132565274834632874
-0.0820328965783119202 0.152596116065979004 0.13399466872215271
-0.083216443657875061 0.1509905606508255 0.136125564575195312
-0.0853110626339912415 0.155683442950248718 0.129585474729537964
-0.0825207978487014771 0.153695613145828247 0.132462561130523682
-0.0899679288268089294 0.149564698338508606 0.137542322278022766
-0.0881926566362380981 0.152037858963012695 0.134382978081703186
-0.0979838445782661438 0.148846283555030823 0.137890532612800598
-0.0885820984840393066 0.148822903633117676 0.138635575771331787
-0.101955689489841461 0.146861851215362549 0.140232115983963013
-0.0995050668716430664 0.149560034275054932 0.136824324727058411
-0.0997380092740058899 0.147330582141876221 0.13977620005607605
-0.0963485017418861389 0.152524366974830627 0.133115693926811218
-0.0992657244205474854 0.145887449383735657 0.14173424243927002
-0.0937369242310523987 0.1536874920129776 0.131764769554138184
-0.0972277596592903137 0.14838765561580658 0.138558834791183472
-0.0981299281120300293 0.147397100925445557 0.139809682965278625
-0.0910728350281715393 0.164585471153259277 0.109902322292327881
-0.0941507890820503235 0.163179367780685425 0.113001778721809387
-0.0897242724895477295 0.165699496865272522 0.10733504593372345
-0.0957331806421279907 0.161364182829856873 0.117247879505157471
-0.0985704809427261353 0.162141725420951843 0.115069001913070679
-0.102701492607593536 0.165117546916007996 0.107419073581695557
-0.0966432467103004456 0.158778876066207886 0.12343306839466095
-0.0949493050575256348 0.163590595126152039 0.111921317875385284
-0.0972018316388130188 0.158449456095695496 0.124175846576690674
-0.0901721715927124023 0.158082976937294006 0.125233277678489685
-0.0880586728453636169 0.163076356053352356 0.113545507192611694
-0.0925036519765853882 0.161142781376838684 0.11802142858505249
-0.0839195102453231812 0.157748326659202576 0.126104563474655151
-0.090669780969619751 0.159385845065116882 0.122169278562068939
-0.0871656984090805054 0.163829639554023743 0.111790195107460022
-0.0867648124694824219 0.160461738705635071 0.11969844251871109
-0.0880618691444396973 0.162091121077537537 0.115857288241386414
-0.0847487151622772217 0.158252447843551636 0.124910205602645874
-0.0215116478502750397 0.167427748441696167 0.0576055571436882019
-0.0220777541399002075 0.168353632092475891 0.0605070479214191437
-0.0187182202935218811 0.167295545339584351 0.0567931272089481354
-0.0143870674073696136 0.167713984847068787 0.0574310943484306335
-0.0222214739769697189 0.168323367834091187 0.0604360252618789673
-0.0194793753325939178 0.167448461055755615 0.0573703162372112274
-0.026860775426030159 0.166523769497871399 0.0561532303690910339
-0.0263450592756271362 0.162479192018508911 0.0467288419604301453
-0.0333494283258914948 0.165439784526824951 0.0547536127269268036
-0.0286678727716207504 0.163189530372619629 0.0487633496522903442
-0.0277716517448425293 0.163880884647369385 0.0502070002257823944
-0.0314788892865180969 0.160918697714805603 0.0439988821744918823
-0.0206453725695610046 0.165387377142906189 0.0524736605584621429
-0.0307293105870485306 0.166120365262031555 0.0558794476091861725
-0.0303423292934894562 0.167022719979286194 0.0578967146575450897
-0.0291271433234214783 0.16632881760597229 0.0560883358120918274
-0.0334316641092300415 0.166905149817466736 0.0581502914428710938
-0.0236549526453018188 0.168579429388046265 0.0618883445858955383
-0.0258261468261480331 0.168151184916496277 0.0605079717934131622
-0.0332451723515987396 0.167466491460800171 0.059472404420375824
-0.0151085536926984787 0.169903993606567383 0.0656143501400947571
-0.0108453631401062012 0.169614613056182861 0.0629815459251403809
-0.0131671233102679253 0.170873939990997314 0.0696236267685890198
-0.101986981928348541 0.150274083018302917 0.13570067286491394
-0.10133747011423111 0.150724396109580994 0.135142579674720764
-0.099164910614490509 0.157042548060417175 0.12692299485206604
-0.10390811413526535 0.15140785276889801 0.134096130728721619
-0.103895775973796844 0.149672061204910278 0.136388450860977173
-0.103985615074634552 0.158901035785675049 0.12298090010881424
-0.104049570858478546 0.158177360892295837 0.124805636703968048
-0.103457964956760406 0.158495247364044189 0.124004550278186798
-0.0985930487513542175 0.158739998936653137 0.123391330242156982
-0.101553864777088165 0.160519391298294067 0.118902049958705902
-0.143058925867080688 0.150051936507225037 0.1361817866563797
-0.150318235158920288 0.143594324588775635 0.143307358026504517
-0.138154685497283936 0.145807802677154541 0.141210451722145081
-0.145359918475151062 0.144869938492774963 0.142025649547576904
-0.141035303473472595 0.147853851318359375 0.138767749071121216
-0.139096245169639587 0.144807770848274231 0.142320439219474792
-0.151102542877197266 0.144967004656791687 0.141709581017494202
-0.149991929531097412 0.148196935653686523 0.138055533170700073
-0.140826508402824402 0.146081656217575073 0.140801846981048584
-0.135096386075019836 0.146662935614585876 0.140341728925704956
-0.151370614767074585 0.151361435651779175 0.13438744843006134
-0.131251096725463867 0.140206366777420044 0.146704956889152527
-0.131269663572311401 0.140189841389656067 0.146720513701438904
-0.141354486346244812 0.143177643418312073 0.144069880247116089
-0.144974008202552795 0.140215665102005005 0.146855205297470093
-0.132413581013679504 0.144004121422767639 0.143217086791992188
-0.138359323143959045 0.143900111317634583 0.143370360136032104
-0.134443312883377075 0.140455886721611023 0.146531715989112854
-0.132940798997879028 0.152944192290306091 0.132528111338615417
-0.134361132979393005 0.151919037103652954 0.133832946419715881
-0.130215227603912354 0.151618361473083496 0.134203121066093445
-0.135688379406929016 0.149439767003059387 0.136982813477516174
-0.138761028647422791 0.15328533947467804 0.132111147046089172
-0.136254593729972839 0.15364702045917511 0.131645292043685913
-0.13406507670879364 0.152786895632743835 0.132730811834335327
-0.138523906469345093 0.151175603270530701 0.134787783026695251
-0.12779688835144043 0.142744004726409912 0.144347041845321655
-0.119769856333732605 0.144388601183891296 0.143023818731307983
-0.121346056461334229 0.139768317341804504 0.147240057587623596
-0.113999687135219574 0.143420591950416565 0.144052267074584961
-0.118888869881629944 0.14203287661075592 0.145213618874549866
-0.127384021878242493 0.143715173006057739 0.143462732434272766
-0.126337260007858276 0.143007531762123108 0.144139125943183899
-0.122066698968410492 0.141490399837493896 0.145637452602386475
-0.042741239070892334 0.160024762153625488 0.0435006469488143921
-0.0383177660405635834 0.161456525325775146 0.0460659116506576538
-0.0447005182504653931 0.165176689624786377 0.0550911538302898407
-0.0445638224482536316 0.160414755344390869 0.0445990785956382751
-0.0443962663412094116 0.160552337765693665 0.0448795706033706665
-0.0407727994024753571 0.160967364907264709 0.0453140661120414734
-0.0358978584408760071 0.166883289813995361 0.0582825131714344025
-0.0344352498650550842 0.163368299603462219 0.0500441119074821472
-0.0340511836111545563 0.16522940993309021 0.0543207824230194092
-0.0394340083003044128 0.165559083223342896 0.055480223149061203
-0.035690896213054657 0.162995874881744385 0.0492752194404602051
-0.116314545273780823 0.165202155709266663 0.106178596615791321
-0.115580916404724121 0.162040859460830688 0.114482879638671875
-0.108307786285877228 0.166210934519767761 0.10425393283367157
-0.114314310252666473 0.165282920002937317 0.106144160032272339
-0.117377258837223053 0.16406114399433136 0.109059035778045654
-0.118659839034080505 0.166064023971557617 0.103725820779800415
-0.112526461482048035 0.164590045809745789 0.108107410371303558
-0.11342986673116684 0.163513898849487305 0.110832780599594116
-0.11738847941160202 0.164935603737831116 0.106778867542743683
-0.123328208923339844 0.155001968145370483 0.129516243934631348
-0.121140696108341217 0.152222573757171631 0.132872581481933594
-0.119566738605499268 0.15433579683303833 0.130075812339782715
-0.127381518483161926 0.148919373750686646 0.13753025233745575
-0.117736764252185822 0.1553029865026474 0.12871183454990387
-0.12637995183467865 0.153483599424362183 0.131671056151390076
-0.107732467353343964 0.158231109380722046 0.124665558338165283
-0.10728040337562561 0.159862026572227478 0.120553657412528992
-0.111444227397441864 0.159051820635795593 0.122590966522693634
-0.110642373561859131 0.159310564398765564 0.121939621865749359
-0.107426255941390991 0.160269364714622498 0.11952633410692215
-0.123387418687343597 0.156763747334480286 0.126784324645996094
-0.123491138219833374 0.156516700983047485 0.12719978392124176
-0.121538035571575165 0.156740695238113403 0.126882493495941162
-0.125502452254295349 0.158151105046272278 0.12436491996049881
-0.119729690253734589 0.164093628525733948 0.108910165727138519
-0.118194878101348877 0.163186997175216675 0.111340366303920746
-0.122057802975177765 0.164204820990562439 0.108640380203723907
-0.118322938680648804 0.161474600434303284 0.115970373153686523
-0.118577651679515839 0.159101247787475586 0.122388534247875214
-0.120322652161121368 0.161416962742805481 0.116152569651603699
-0.12296469509601593 0.16319650411605835 0.111377671360969543
-0.122208774089813232 0.163117051124572754 0.11158241331577301
-0.124557532370090485 0.160755932331085205 0.117995187640190125
-0.117227882146835327 0.146282881498336792 0.140849068760871887
-0.125556915998458862 0.146058544516563416 0.141223177313804626
-0.11062370240688324 0.15210801362991333 0.132903158664703369
-0.121618613600730896 0.146030113101005554 0.141228482127189636
-0.118974938988685608 0.147491395473480225 0.139226853847503662
-0.106734998524188995 0.145078301429748535 0.142392188310623169
-0.113504715263843536 0.151415079832077026 0.133866056799888611
-0.116817839443683624 0.145681589841842651 0.141660034656524658
-0.117067940533161163 0.152209088206291199 0.132820636034011841
-0.11934296041727066 0.146456241607666016 0.140632078051567078
-0.112153775990009308 0.155407562851905823 0.128446832299232483
-0.109219491481781006 0.144591689109802246 0.143072232604026794
-0.109356269240379333 0.150786355137825012 0.13468267023563385
-0.105531290173530579 0.149945452809333801 0.135939031839370728
-0.10870293527841568 0.151304110884666443 0.133981451392173767
-0.106836691498756409 0.156990677118301392 0.126570075750350952
-0.105596676468849182 0.157489851117134094 0.125975072383880615
-0.106233954429626465 0.14906582236289978 0.137064069509506226
-0.0456077940762042999 0.160585209727287292 0.0450713932514190674
-0.0464412271976470947 0.165116101503372192 0.0551020540297031403
-0.048524029552936554 0.159380480647087097 0.0428037047386169434
-0.0478834696114063263 0.161491751670837402 0.04729432612657547
-0.052084263414144516 0.165279686450958252 0.055819585919380188
-0.0506781488656997681 0.162801772356033325 0.0503698624670505524
-0.0540094040334224701 0.163922831416130066 0.0529853105545043945
-0.0512775592505931854 0.164874270558357239 0.0548958629369735718
-0.052785482257604599 0.16692565381526947 0.061861727386713028
-0.0527281425893306732 0.166950926184654236 0.0619579628109931946
-0.0569573044776916504 0.168877124786376953 0.0713039636611938477
-0.0882815718650817871 0.168388098478317261 0.0895849093794822693
-0.0931589975953102112 0.168811231851577759 0.0848014280200004578
-0.0861393585801124573 0.167366877198219299 0.097942642867565155
-0.0910520553588867188 0.16816478967666626 0.090340539813041687
-0.0935135483741760254 0.168189316987991333 0.0893423557281494141
-0.089626312255859375 0.168194979429244995 0.0905863791704177856
-0.0882898494601249695 0.167520776391029358 0.0960783660411834717
-0.0864687860012054443 0.167478233575820923 0.0969995409250259399
-0.0843036100268363953 0.169146344065666199 0.0852219462394714355
-0.0967545509338378906 0.167538464069366455 0.0942622721195220947
-0.0981978178024291992 0.166451796889305115 0.10326027125120163
-0.0976012572646141052 0.167444705963134766 0.0950141251087188721
-0.0956709086894989014 0.167952090501785278 0.0908552929759025574
-0.0981243103742599487 0.166369646787643433 0.103946581482887268
-0.0987480282783508301 0.168159574270248413 0.0890239402651786804
-0.09892234206199646 0.166279390454292297 0.10467095673084259
-0.0992914736270904541 0.166869252920150757 0.0997477471828460693
-0.0963789522647857666 0.167216405272483826 0.0969560742378234863
-0.0923911631107330322 0.168983325362205505 0.0824748128652572632
-0.0847419053316116333 0.169109880924224854 0.0818674340844154358
-0.0900155231356620789 0.16894097626209259 0.0804543048143386841
-0.0840093344449996948 0.169194281101226807 0.0834308266639709473
-0.0786114484071731567 0.163930982351303101 0.054963972419500351
-0.0802463367581367493 0.162622034549713135 0.0515609420835971832
-0.0767004415392875671 0.165249288082122803 0.0589966773986816406
-0.0736042037606239319 0.166851356625556946 0.0663016140460968018
-0.0740571022033691406 0.165555939078330994 0.0610718987882137299
-0.0759264975786209106 0.165256083011627197 0.0592788644134998322
-0.0737607106566429138 0.167157381772994995 0.0674501210451126099
-0.0864720642566680908 0.168186083436012268 0.074284873902797699
-0.0875220373272895813 0.168840169906616211 0.0783219709992408752
-0.0946652814745903015 0.168690025806427002 0.0806700661778450012
-0.0818390697240829468 0.167673006653785706 0.0694287791848182678
-0.0885680317878723145 0.167938321828842163 0.0738616436719894409
-0.0926992744207382202 0.16846168041229248 0.078551463782787323
-0.0751796811819076538 0.168498575687408447 0.0724132433533668518
-0.0755647271871566772 0.168970346450805664 0.0750678554177284241
-0.0943012982606887817 0.166277334094047546 0.0648231133818626404
-0.0915685445070266724 0.166126623749732971 0.0630924180150032043
-0.0992394015192985535 0.166909947991371155 0.0703219324350357056
-0.100771121680736542 0.166430056095123291 0.0675774663686752319
-0.0939677730202674866 0.16725119948387146 0.0711427479982376099
-0.0881920531392097473 0.16604296863079071 0.0616289228200912476
-0.0975158512592315674 0.165591120719909668 0.0611757002770900726
-0.0918080806732177734 0.167039632797241211 0.069166332483291626
-0.100140385329723358 0.16542033851146698 0.0607611797749996185
-0.0971856415271759033 0.166794613003730774 0.0690075382590293884
-0.0981398150324821472 0.166727751493453979 0.0688254833221435547
-0.0935380458831787109 0.165935397148132324 0.0623661987483501434
-0.0980938151478767395 0.167527884244918823 0.0740793421864509583
-0.0981966555118560791 0.1663169264793396 0.0661368593573570251
-0.0847190320491790771 0.164995446801185608 0.0584280304610729218
-0.0985503792762756348 0.164719000458717346 0.0582526847720146179
-0.0906187742948532104 0.16329820454120636 0.0539491400122642517
-0.0996010750532150269 0.165232032537460327 0.0597285404801368713
-0.0893339067697525024 0.163065791130065918 0.0532457008957862854
-0.0986539795994758606 0.165123432874679565 0.0593849644064903259
-0.0890753418207168579 0.163279786705970764 0.0538312904536724091
-0.0873452872037887573 0.164160922169685364 0.0562139600515365601
-0.103088207542896271 0.168597027659416199 0.0810001790523529053
-0.103642545640468597 0.165560424327850342 0.0625956207513809204
-0.103016406297683716 0.167466416954994202 0.074144996702671051
-0.1028008833527565 0.167744308710098267 0.0758278071880340576
-0.0991716980934143066 0.167998462915420532 0.077334873378276825
-0.1046796515583992 0.168037056922912598 0.0881773605942726135
-0.0981675907969474792 0.168761923909187317 0.0837494879961013794
-0.100255310535430908 0.168025583028793335 0.0898662954568862915
-0.101121634244918823 0.167653471231460571 0.0930248498916625977
-0.10078844428062439 0.168779313564300537 0.0826502516865730286
-0.115263365209102631 0.167031794786453247 0.0967022404074668884
-0.112721450626850128 0.166988179087638855 0.0971410423517227173
-0.111225329339504242 0.167587459087371826 0.0908593609929084778
-0.115754991769790649 0.166566938161849976 0.101570338010787964
-0.112169526517391205 0.168257266283035278 0.0838565155863761902
-0.108055494725704193 0.166655540466308594 0.100589804351329803
-0.112999804317951202 0.167325392365455627 0.0936141461133956909
-0.110883891582489014 0.167572095990180969 0.0910177528858184814
-0.113252647221088409 0.16811835765838623 0.085317559540271759
-0.107155688107013702 0.167388439178466797 0.0934096574783325195
-0.108822211623191833 0.167487978935241699 0.0919379964470863342
-0.10819389671087265 0.167909979820251465 0.0882102996110916138
-0.106176018714904785 0.167043730616569519 0.0969418883323669434
-0.10741453617811203 0.166384428739547729 0.0676270425319671631
-0.11031109094619751 0.168060079216957092 0.077813468873500824
-0.109365753829479218 0.167910248041152954 0.0768961161375045776
-0.106579534709453583 0.168479263782501221 0.0803190916776657104
-0.116134442389011383 0.168397411704063416 0.0813778787851333618
-0.121250465512275696 0.16710720956325531 0.094866238534450531
-0.115380048751831055 0.168279528617858887 0.0830373466014862061
-0.124635778367519379 0.168099403381347656 0.081934802234172821
-0.127664804458618164 0.168259739875793457 0.0789776444435119629
-0.115173287689685822 0.16840691864490509 0.0816013962030410767
-0.118658334016799927 0.167417392134666443 0.0920996889472007751
-0.114695250988006592 0.168289288878440857 0.0831611528992652893
-0.122377373278141022 0.168024882674217224 0.0836066827178001404
-0.114784836769104004 0.167620643973350525 0.074811100959777832
-0.116928890347480774 0.167904824018478394 0.0764214769005775452
-0.12408214807510376 0.166444852948188782 0.0667039006948471069
-0.11128157377243042 0.165766477584838867 0.0634707212448120117
-0.111449651420116425 0.166951492428779602 0.0708830654621124268
-0.122916452586650848 0.166827932000160217 0.0691970735788345337
-0.109053432941436768 0.16692034900188446 0.0708784684538841248
-0.112108588218688965 0.16753484308719635 0.0744861960411071777
-0.108182251453399658 0.165315762162208557 0.0608927346765995026
-0.124878242611885071 0.166592463850975037 0.0675656124949455261
-0.114041559398174286 0.166475087404251099 0.0676917135715484619
-0.120165809988975525 0.167506799101829529 0.0737022608518600464
-0.125382229685783386 0.167295709252357483 0.072297610342502594
-0.123024493455886841 0.167428880929946899 0.0731921643018722534
-0.125455707311630249 0.167782679200172424 0.0756458267569541931
-0.117573663592338562 0.168366536498069763 0.0795892477035522461
-0.143503099679946899 0.166388601064682007 0.0678826272487640381
-0.145586937665939331 0.165694519877433777 0.063431866466999054
-0.138296574354171753 0.166712343692779541 0.0694552809000015259
-0.1371612548828125 0.167041167616844177 0.0715462341904640198
-0.138702765107154846 0.166005447506904602 0.0647184476256370544
-0.136991515755653381 0.166831836104393005 0.0701091140508651733
-0.137833938002586365 0.166678145527839661 0.0691688507795333862
-0.134260237216949463 0.166081547737121582 0.0647054314613342285
-0.137703388929367065 0.166276782751083374 0.0664362907409667969
-0.131611749529838562 0.167671218514442444 0.0752128139138221741
-0.131875485181808472 0.168107271194458008 0.0782345607876777649
-0.132767766714096069 0.16521868109703064 0.0617760345339775085
-0.139572605490684509 0.164268225431442261 0.0585962459444999695
-0.135151982307434082 0.163743108510971069 0.0568901523947715759
-0.14034782350063324 0.165417447686195374 0.0623852238059043884
-0.134375423192977905 0.165994748473167419 0.0643280372023582458
-0.128571182489395142 0.163044124841690063 0.0551129803061485291
-0.130374416708946228 0.162474259734153748 0.0532043427228927612
-0.128402054309844971 0.162466883659362793 0.0533087998628616333
-0.113379672169685364 0.164052069187164307 0.0570477135479450226
-0.123939238488674164 0.16594928503036499 0.0638994500041007996
-0.120277650654315948 0.163710296154022217 0.056553959846496582
-0.124071449041366577 0.165094286203384399 0.061223246157169342
-0.12812410295009613 0.165089428424835205 0.0615489408373832703
-0.112862616777420044 0.164775848388671875 0.0592790916562080383
-0.11237122118473053 0.165333837270736694 0.0609915368258953094
-0.123937912285327911 0.163877099752426147 0.057386249303817749
-0.125667765736579895 0.163007199764251709 0.054797641932964325
0.0324300490319728851 0.172317579388618469 0.10553644597530365
0.0324280783534049988 0.171759217977523804 0.107093185186386108
0.0309703461825847626 0.172514826059341431 0.104620076715946198
0.0311312545090913773 0.1709185391664505 0.109112434089183807
0.0311082154512405396 0.172940850257873535 0.102839276194572449
0.031801372766494751 0.173562794923782349 0.0986533090472221375
0.0356196314096450806 0.173926427960395813 0.0977447628974914551
0.0286393184214830399 0.166976660490036011 0.119596391916275024
0.0266517531126737595 0.167317643761634827 0.118316330015659332
0.0184090808033943176 0.166904628276824951 0.118120923638343811
0.0186767410486936569 0.167193606495857239 0.117340393364429474
0.0223130099475383759 0.170501217246055603 0.108498312532901764
0.0227089822292327881 0.1694222092628479 0.111637428402900696
0.0169066023081541061 0.166877403855323792 0.117956668138504028
0.0271684359759092331 0.172174423933029175 0.104647994041442871
0.0272405967116355896 0.17037026584148407 0.109796606004238129
0.00382615160197019577 0.169021978974342346 0.10957634449005127
0.00931770447641611099 0.167429924011230469 0.115113012492656708
0.0123904775828123093 0.170619651675224304 0.105856254696846008
0.0134010184556245804 0.171360194683074951 0.103745877742767334
0.0066303652711212635 0.169677376747131348 0.107957780361175537
0.0107401646673679352 0.167382016777992249 0.115443602204322815
0.0075389607809484005 0.169162124395370483 0.109636358916759491
0.0105908382683992386 0.169903621077537537 0.107789389789104462
0.00860957615077495575 0.169225871562957764 0.109583005309104919
0.00937349814921617508 0.16727893054485321 0.115577444434165955
0.0125598032027482986 0.171151667833328247 0.104267522692680359
-0.00864006578922271729 0.171537533402442932 0.0960448980331420898
-0.0067276274785399437 0.171835094690322876 0.0944120511412620544
-0.0037688063457608223 0.171817511320114136 0.0958785116672515869
-0.00889816880226135254 0.172079846262931824 0.0913993865251541138
0.00498109776526689529 0.172065183520317078 0.0977117493748664856
-0.00254265591502189636 0.171589851379394531 0.0983271598815917969
0.0143812978640198708 0.17101655900478363 0.104982003569602966
0.0187371894717216492 0.169155552983283997 0.111702755093574524
0.0186563394963741302 0.171432584524154663 0.104807019233703613
0.0227806586772203445 0.171565815806388855 0.105447731912136078
0.0178447496145963669 0.168665841221809387 0.112955749034881592
0.0173860080540180206 0.168178662657737732 0.114310726523399353
0.000141938216984272003 0.170624375343322754 0.103883363306522369
0.00622608186677098274 0.171690016984939575 0.101071514189243317
0.00226575182750821114 0.171410009264945984 0.101122967898845673
-0.00182557385414838791 0.170173093676567078 0.105251342058181763
0.00248821871355175972 0.171417936682701111 0.101153574883937836
-0.0231835786253213882 0.169654682278633118 0.0670525729656219482
-0.0122989472001791 0.171145692467689514 0.0707060694694519043
-0.0236570984125137329 0.169429957866668701 0.0660638660192489624
-0.0221908725798130035 0.169521331787109375 0.0659877732396125793
-0.0328035727143287659 0.169048145413398743 0.0675154030323028564
-0.0297264251857995987 0.16930273175239563 0.0676817968487739563
-0.0220476854592561722 0.169758707284927368 0.0671661794185638428
-0.0316962562501430511 0.170238420367240906 0.0732779279351234436
-0.0271739941090345383 0.168539568781852722 0.0627623945474624634
-0.0173750743269920349 0.171032845973968506 0.0720257461071014404
-0.0312155652791261673 0.17054256796836853 0.0746762081980705261
-0.0245294664055109024 0.171418130397796631 0.0808121263980865479
-0.0220110528171062469 0.17156587541103363 0.0817973539233207703
-0.0161927640438079834 0.171916112303733826 0.0831803008913993835
-0.0100302314385771751 0.172284260392189026 0.0849263295531272888
-0.0135590704157948494 0.172082901000976562 0.0829797685146331787
-0.0128825511783361435 0.171655207872390747 0.0750099495053291321
-0.0173796415328979492 0.171615913510322571 0.0768042281270027161
-0.0186222940683364868 0.171391725540161133 0.0751558095216751099
-0.0172574743628501892 0.171694427728652954 0.0775339305400848389
-0.0140480455011129379 0.171888366341590881 0.0779208540916442871
-0.0154597777873277664 0.17177988588809967 0.0775176137685775757
-0.0400872305035591125 0.168943002820014954 0.0683704614639282227
-0.0417505279183387756 0.168166175484657288 0.0651615262031555176
-0.0343658998608589172 0.167456686496734619 0.0597430877387523651
-0.0434025973081588745 0.166671961545944214 0.0585568882524967194
-0.0397058725357055664 0.168097898364067078 0.064267374575138092
-0.0357252247631549835 0.170077279210090637 0.0735172182321548462
-0.036307651549577713 0.168555378913879395 0.0657019168138504028
-0.0371008515357971191 0.170246884226799011 0.0746336653828620911
-0.0336654558777809143 0.170013308525085449 0.0728335604071617126
-0.0339867770671844482 0.170715853571891785 0.0765418931841850281
-0.048536740243434906 0.167713373899459839 0.0646772235631942749
-0.0467168353497982025 0.166386529803276062 0.0581110119819641113
-0.050198093056678772 0.167467027902603149 0.0638537555932998657
-0.0496182851493358612 0.169397488236427307 0.072658143937587738
-0.0517679937183856964 0.169568166136741638 0.0737063884735107422
-0.0498121306300163269 0.168606042861938477 0.0690431892871856689
-0.0460587739944458008 0.167965829372406006 0.065317496657371521
-0.047743670642375946 0.169479072093963623 0.072712138295173645
-0.0568386130034923553 0.169703289866447449 0.0898128002882003784
-0.0533505044877529144 0.169796302914619446 0.0784030333161354065
-0.0561794713139533997 0.169679120182991028 0.0825793594121932983
-0.0570615530014038086 0.169657528400421143 0.0856990888714790344
0.0350012965500354767 0.174831867218017578 0.0908585265278816223
0.0321504324674606323 0.174475416541099548 0.0916669517755508423
0.0331392586231231689 0.174196958541870117 0.0945737436413764954
0.0286974944174289703 0.173299819231033325 0.0987319126725196838
0.0278161093592643738 0.173677578568458557 0.0953142344951629639
0.0343884378671646118 0.175172626972198486 0.0836940333247184753
0.0371873900294303894 0.175066053867340088 0.0802307501435279846
0.0345045402646064758 0.175278365612030029 0.0849069654941558838
0.0256324540823698044 0.17391127347946167 0.0919024646282196045
0.0258081275969743729 0.172867894172668457 0.100727297365665436
0.0229552146047353745 0.172500088810920715 0.102381125092506409
0.0182579364627599716 0.172505974769592285 0.10009089857339859
0.0213784724473953247 0.172382563352584839 0.102610580623149872
0.023706682026386261 0.173110127449035645 0.0976435840129852295
0.0219507776200771332 0.172682985663414001 0.100374013185501099
0.0154315773397684097 0.173050940036773682 0.0932747647166252136
0.0201063454151153564 0.1737099289894104 0.0906112939119338989
0.022930491715669632 0.174227803945541382 0.0878219008445739746
0.0214348733425140381 0.174371600151062012 0.085179552435874939
0.0160398613661527634 0.173472478985786438 0.0896191075444221497
0.021030910313129425 0.173857316374778748 0.0899163633584976196
0.0121532343327999115 0.172252774238586426 0.0990663990378379822
0.0030542395543307066 0.172219619154930115 0.0954419746994972229
0.00613222876563668251 0.172121018171310425 0.0977531298995018005
0.0116907218471169472 0.173629090189933777 0.0852669999003410339
0.00627293484285473824 0.173020005226135254 0.0889319181442260742
-0.00786325149238109589 0.172269061207771301 0.0902118012309074402
0.0099111068993806839 0.173210963606834412 0.0886252149939537048
0.00559066049754619598 0.172497257590293884 0.0938005596399307251
0.0102148847654461861 0.172689482569694519 0.0939095616340637207
0.0103991953656077385 0.173636242747306824 0.0846353098750114441
0.00614672433584928513 0.172545164823532104 0.0935686305165290833
-0.00968372449278831482 0.17228168249130249 0.0875122547149658203
0.00124114681966602802 0.173066765069961548 0.0828062370419502258
-0.00664171250537037849 0.172502070665359497 0.0860231071710586548
0.00365115655586123466 0.1732138991355896 0.084377676248550415
-0.00477010710164904594 0.172665148973464966 0.0823538154363632202
-0.0045199287123978138 0.172248721122741699 0.0766320601105690002
-0.00306678935885429382 0.172338411211967468 0.0767535790801048279
-0.00626909919083118439 0.172328218817710876 0.0783695131540298462
0.0114596281200647354 0.173696577548980713 0.0826066061854362488
0.00586578715592622757 0.173203244805335999 0.0806509405374526978
0.000883855856955051422 0.172890067100524902 0.0801769644021987915
-0.01293990109115839 0.171200796961784363 0.0970646142959594727
-0.019008345901966095 0.171248987317085266 0.0942062437534332275
-0.0162190981209278107 0.171050861477851868 0.096990630030632019
-0.0102830482646822929 0.171148747205734253 0.0985747277736663818
-0.013779323548078537 0.171844780445098877 0.0913437530398368835
-0.0208764038980007172 0.17140592634677887 0.0913743004202842712
-0.0294252559542655945 0.170763522386550903 0.0923315063118934631
-0.0279387161135673523 0.170888811349868774 0.0916834846138954163
-0.0330010838806629181 0.170674428343772888 0.086363665759563446
-0.01688431017100811 0.171697437763214111 0.0912276133894920349
-0.0142557704821228981 0.171974197030067444 0.0881234258413314819
-0.0286506004631519318 0.171096161007881165 0.0825137794017791748
-0.0305650699883699417 0.171009719371795654 0.0806921720504760742
-0.0161156971007585526 0.171802341938018799 0.0894694030284881592
-0.0246298834681510925 0.171188324689865112 0.0895090550184249878
-0.0119650168344378471 0.170278787612915039 0.101889140903949738
-0.0226776786148548126 0.170540452003479004 0.0978688597679138184
-0.0192761849611997604 0.169680938124656677 0.102485299110412598
-0.0187468752264976501 0.170301049947738647 0.0999608561396598816
-0.0197627823799848557 0.170469656586647034 0.0989610031247138977
-0.0444025471806526184 0.170256361365318298 0.076676689088344574
-0.0419357344508171082 0.170374795794487 0.0793498605489730835
-0.0419396236538887024 0.170396208763122559 0.0771795660257339478
-0.0402818657457828522 0.170484021306037903 0.0781522020697593689
-0.0391728468239307404 0.170509442687034607 0.0821421071887016296
-0.0420366153120994568 0.170269086956977844 0.089311160147190094
-0.0427804328501224518 0.17021515965461731 0.0903551056981086731
-0.0379987582564353943 0.170495197176933289 0.0860123038291931152
-0.0407695770263671875 0.17021961510181427 0.0925546064972877502
-0.0344532616436481476 0.170509204268455505 0.0896712690591812134
-0.0416861064732074738 0.170224204659461975 0.0913172885775566101
-0.0515203662216663361 0.169167786836624146 0.0965814143419265747
-0.0568581707775592804 0.169198796153068542 0.0950879082083702087
-0.0563564524054527283 0.166969045996665955 0.105671592056751251
-0.0505995936691761017 0.169921934604644775 0.0825655385851860046
-0.0528003089129924774 0.169859245419502258 0.0834187865257263184
-0.0524383261799812317 0.169843375682830811 0.0899860486388206482
-0.0493852496147155762 0.169935941696166992 0.0874543488025665283
-0.0484264716506004333 0.169991359114646912 0.0871043652296066284
-0.0461415797472000122 0.170109540224075317 0.0831984281539916992
0.0323706157505512238 0.172132715582847595 0.0628759562969207764
0.0330495014786720276 0.172795146703720093 0.0648859143257141113
0.037244107574224472 0.171990245580673218 0.0614380389451980591
0.0360799916088581085 0.172790318727493286 0.0642631128430366516
0.0325049422681331635 0.17370113730430603 0.0685779303312301636
0.0307017955929040909 0.174210041761398315 0.0757311806082725525
0.0302413906902074814 0.174605950713157654 0.0803985297679901123
0.0269712619483470917 0.174211099743843079 0.078519575297832489
0.0277120806276798248 0.174745306372642517 0.0837651342153549194
0.02439846470952034 0.173937484622001648 0.0776817277073860168
0.0243765693157911301 0.173293754458427429 0.0712267160415649414
0.0160659011453390121 0.173773095011711121 0.0808129459619522095
0.0211215559393167496 0.173804908990859985 0.0782308429479598999
0.0242349449545145035 0.173393920063972473 0.0723144486546516418
0.0250339992344379425 0.173675566911697388 0.0746854618191719055
0.0266980007290840149 0.174098417162895203 0.0776160433888435364
0.0278051849454641342 0.173676416277885437 0.0724178403615951538
-0.00558722112327814102 0.16875651478767395 0.0592525079846382141
-0.0005670962855219841 0.169416248798370361 0.060451112687587738
0.00454228604212403297 0.170293718576431274 0.0622979924082756042
0.000682957470417022705 0.170403510332107544 0.0632541030645370483
-0.00153167638927698135 0.16898028552532196 0.0592798665165901184
0.00231094169430434704 0.171950578689575195 0.0711588636040687561
0.00247934437356889248 0.17232726514339447 0.0742926299571990967
0.00779094453901052475 0.172680482268333435 0.0753097981214523315
-0.000849703967105597258 0.172261238098144531 0.0749733000993728638
0.011328328400850296 0.173372417688369751 0.0798628777265548706
0.011124487966299057 0.171892285346984863 0.0673785582184791565
0.0123134367167949677 0.171770259737968445 0.065899871289730072
0.00655953586101531982 0.172730520367622375 0.0761935412883758545
0.0136585207656025887 0.171999141573905945 0.0673407986760139465
0.0114174941554665565 0.171856388449668884 0.0669647678732872009
0.01268769521266222 0.172677770256996155 0.0734613388776779175
0.00852221716195344925 0.171628221869468689 0.0663278922438621521
-0.00976520124822854996 0.170223027467727661 0.0655347630381584167
-0.00184902176260948181 0.170936673879623413 0.0663760602474212646
-0.00641336292028427124 0.171266257762908936 0.0693932399153709412
0.00256868358701467514 0.171121478080749512 0.0658367723226547241
0.0222195126116275787 0.172919422388076782 0.0691377818584442139
