ply
format ascii 1.0
element vertex 771
property float x
property float y
property float z
end_header
4.99600361081320443e-16 0.143720358610153198 0.024402618408203125
4.99600361081320443e-16 1.05226325988769531 0.0932855755090713501
4.99600361081320443e-16 0.558469891548156738 0.126532942056655884
4.99600361081320443e-16 1.15657305717468262 0.18421483039855957
4.99600361081320443e-16 0.312049597501754761 0.123018860816955566
4.99600361081320443e-16 0.994222462177276611 0.109200648963451385
4.99600361081320443e-16 0.899879693984985352 0.185670047998428345
4.99600361081320443e-16 2.11067938804626465 0.172272041440010071
4.99600361081320443e-16 1.40277659893035889 0.143781125545501709
4.99600361081320443e-16 0.819925487041473389 0.0608006417751312256
4.99600361081320443e-16 0.141249507665634155 0.0429882407188415527
4.99600361081320443e-16 0.618242561817169189 0.187131106853485107
4.99600361081320443e-16 0.850542902946472168 0.0802183747291564941
4.99600361081320443e-16 0.127348050475120544 0.0193900913000106812
4.99600361081320443e-16 2.01391172409057617 0.199215620756149292
4.99600361081320443e-16 0.137474209070205688 0.17096652090549469
4.99600361081320443e-16 0.00784927699714899063 0.0502087026834487915
4.99600361081320443e-16 0.0142377633601427078 0.142571598291397095
4.99600361081320443e-16 0.734507083892822266 0.0889368876814842224
4.99600361081320443e-16 0.154585078358650208 0.144015520811080933
4.99600361081320443e-16 1.46810150146484375 0.155695930123329163
4.99600361081320443e-16 1.48737812042236328 0.139976724982261658
4.99600361081320443e-16 0.871580660343170166 0.197689488530158997
4.99600361081320443e-16 0.874502360820770264 0.146931886672973633
4.99600361081320443e-16 1.265846848487854 0.121912054717540741
4.99600361081320443e-16 0.401454895734786987 0.192180037498474121
4.99600361081320443e-16 0.500110983848571777 0.140041455626487732
4.99600361081320443e-16 0.861135303974151611 0.138622209429740906
4.99600361081320443e-16 2.29239892959594727 0.197972610592842102
4.99600361081320443e-16 1.96830165386199951 0.172714531421661377
4.99600361081320443e-16 0.933477222919464111 0.140038862824440002
4.99600361081320443e-16 1.63879227638244629 0.170468419790267944
4.99600361081320443e-16 0.577847898006439209 0.125321224331855774
4.99600361081320443e-16 0.927860617637634277 0.192262336611747742
4.99600361081320443e-16 1.75408542156219482 0.143414273858070374
4.99600361081320443e-16 2.29880619049072266 0.166503667831420898
4.99600361081320443e-16 0.338694989681243896 0.0717751085758209229
4.99600361081320443e-16 0.302191406488418579 0.127678662538528442
4.99600361081320443e-16 0.126979932188987732 0.0993418917059898376
4.99600361081320443e-16 1.00051486492156982 0.169397279620170593
4.99600361081320443e-16 0.722313225269317627 0.151752114295959473
4.99600361081320443e-16 0.903302967548370361 0.0990309491753578186
4.99600361081320443e-16 1.45937371253967285 0.184836462140083313
4.99600361081320443e-16 0.188373938202857971 0.176017522811889648
4.99600361081320443e-16 0.248413115739822388 0.117734208703041077
4.99600361081320443e-16 0.478958845138549805 0.173456057906150818
4.99600361081320443e-16 0.530595123767852783 0.191702157258987427
4.99600361081320443e-16 0.951201379299163818 0.0778636559844017029
4.99600361081320443e-16 1.69042539596557617 0.152635842561721802
4.99600361081320443e-16 0.766848981380462646 0.0697061270475387573
4.99600361081320443e-16 0.351732641458511353 0.0260947048664093018
4.99600361081320443e-16 1.3341825008392334 0.144034460186958313
4.99600361081320443e-16 0.217321798205375671 0.184394761919975281
4.99600361081320443e-16 0.296602547168731689 0.0772835016250610352
4.99600361081320443e-16 0.0936027318239212036 0.165373608469963074
4.99600361081320443e-16 0.644091129302978516 0.151839390397071838
4.99600361081320443e-16 1.19427692890167236 0.124680571258068085
4.99600361081320443e-16 1.83918380737304688 0.152730345726013184
4.99600361081320443e-16 0.247615993022918701 0.197241500020027161
4.99600361081320443e-16 0.180152133107185364 0.0284834355115890503
4.99600361081320443e-16 0.741704702377319336 0.103267066180706024
4.99600361081320443e-16 1.91452956199645996 0.183106184005737305
4.99600361081320443e-16 0.526775002479553223 0.140643104910850525
4.99600361081320443e-16 1.41623187065124512 0.151735708117485046
4.99600361081320443e-16 0.497833520174026489 0.133310586214065552
4.99600361081320443e-16 0.941970169544219971 0.151623636484146118
4.99600361081320443e-16 0.144759267568588257 0.0719664543867111206
4.99600361081320443e-16 0.0080364421010017395 0.0549385547637939453
4.99600361081320443e-16 0.168840944766998291 0.168403193354606628
4.99600361081320443e-16 0.739469289779663086 0.117792844772338867
4.99600361081320443e-16 0.849790036678314209 0.136287346482276917
4.99600361081320443e-16 1.73369038105010986 0.142403960227966309
4.99600361081320443e-16 0.667769193649291992 0.144543573260307312
4.99600361081320443e-16 1.00841999053955078 0.096993766725063324
4.99600361081320443e-16 0.800872504711151123 0.0686755627393722534
4.99600361081320443e-16 1.00270187854766846 0.0769888907670974731
4.99600361081320443e-16 0.167891055345535278 0.0325848609209060669
4.99600361081320443e-16 0.680588901042938232 0.0843186154961585999
4.99600361081320443e-16 1.96229887008666992 0.167993709444999695
4.99600361081320443e-16 1.57571721076965332 0.15307125449180603
4.99600361081320443e-16 1.02003812789916992 0.184919029474258423
4.99600361081320443e-16 0.00892741978168487549 0.181955799460411072
4.99600361081320443e-16 1.61487400531768799 0.141152039170265198
4.99600361081320443e-16 1.29818367958068848 0.100297272205352783
4.99600361081320443e-16 1.60956287384033203 0.122663192451000214
4.99600361081320443e-16 0.330295413732528687 0.117297641932964325
4.99600361081320443e-16 0.0669417381286621094 0.110545612871646881
4.99600361081320443e-16 0.0175449196249246597 0.0975544825196266174
4.99600361081320443e-16 0.461535125970840454 0.104868493974208832
4.99600361081320443e-16 1.39098203182220459 0.136988699436187744
4.99600361081320443e-16 1.23608529567718506 0.147547528147697449
4.99600361081320443e-16 0.754393398761749268 0.157782301306724548
4.99600361081320443e-16 1.51236498355865479 0.118138983845710754
4.99600361081320443e-16 2.34556221961975098 0.168620005249977112
4.99600361081320443e-16 0.75859224796295166 0.122615739703178406
4.99600361081320443e-16 0.349212437868118286 0.191634893417358398
4.99600361081320443e-16 1.3937070369720459 0.11667584627866745
4.99600361081320443e-16 0.775821328163146973 0.103214375674724579
4.99600361081320443e-16 2.00814175605773926 0.147554889321327209
4.99600361081320443e-16 0.721405923366546631 0.180177554488182068
4.99600361081320443e-16 0.390435636043548584 0.135690569877624512
4.99600361081320443e-16 0.0644096434116363525 0.0715127736330032349
4.99600361081320443e-16 0.545469284057617188 0.0573991835117340088
4.99600361081320443e-16 0.0552742555737495422 0.0188577622175216675
4.99600361081320443e-16 0.459136217832565308 0.108341775834560394
4.99600361081320443e-16 1.00194132328033447 0.192454993724822998
4.99600361081320443e-16 0.0387860722839832306 0.127148091793060303
4.99600361081320443e-16 1.59189987182617188 0.124102078378200531
4.99600361081320443e-16 1.00783848762512207 0.14944477379322052
4.99600361081320443e-16 0.690199553966522217 0.116396382451057434
4.99600361081320443e-16 0.411148130893707275 0.12421136349439621
4.99600361081320443e-16 1.99421370029449463 0.194664895534515381
4.99600361081320443e-16 0.0662139952182769775 0.177134737372398376
4.99600361081320443e-16 0.572879612445831299 0.0464570671319961548
4.99600361081320443e-16 1.61018598079681396 0.129788532853126526
4.99600361081320443e-16 0.00325577659532427788 0.198381185531616211
4.99600361081320443e-16 0.745827376842498779 0.147090628743171692
4.99600361081320443e-16 0.284132093191146851 0.140104353427886963
4.99600361081320443e-16 1.44477200508117676 0.134976059198379517
4.99600361081320443e-16 0.298579782247543335 0.189113005995750427
4.99600361081320443e-16 1.63790404796600342 0.117807835340499878
4.99600361081320443e-16 0.27280348539352417 0.127679497003555298
4.99600361081320443e-16 0.00459217466413974762 0.0923999771475791931
4.99600361081320443e-16 1.88373434543609619 0.18695475161075592
4.99600361081320443e-16 0.0494109205901622772 0.00607535243034362793
4.99600361081320443e-16 0.669135153293609619 0.184378862380981445
4.99600361081320443e-16 1.26574122905731201 0.116533868014812469
4.99600361081320443e-16 1.35121309757232666 0.195810228586196899
4.99600361081320443e-16 0.612979769706726074 0.151463121175765991
4.99600361081320443e-16 0.668656706809997559 0.171757414937019348
4.99600361081320443e-16 1.4292682409286499 0.188433915376663208
4.99600361081320443e-16 0.857202053070068359 0.0895626097917556763
4.99600361081320443e-16 0.933948516845703125 0.176560267806053162
4.99600361081320443e-16 1.53566789627075195 0.117665760219097137
4.99600361081320443e-16 0.652260124683380127 0.183504477143287659
4.99600361081320443e-16 0.56610637903213501 0.160733163356781006
4.99600361081320443e-16 0.326415032148361206 0.110899858176708221
4.99600361081320443e-16 0.167553499341011047 0.0498285144567489624
4.99600361081320443e-16 0.496225416660308838 0.0774324908852577209
4.99600361081320443e-16 0.0799642801284790039 0.087071441113948822
4.99600361081320443e-16 0.860161900520324707 0.13966687023639679
4.99600361081320443e-16 0.00763711612671613693 0.179750367999076843
4.99600361081320443e-16 1.32787704467773438 0.127105951309204102
4.99600361081320443e-16 0.751126885414123535 0.155522599816322327
4.99600361081320443e-16 0.502534627914428711 0.0947918444871902466
4.99600361081320443e-16 1.46099746227264404 0.199877277016639709
4.99600361081320443e-16 1.59625983238220215 0.184845238924026489
4.99600361081320443e-16 0.0849101319909095764 0.0584992170333862305
4.99600361081320443e-16 0.323366492986679077 0.0822660923004150391
4.99600361081320443e-16 0.778795301914215088 0.0690149515867233276
4.99600361081320443e-16 0.555401325225830078 0.125393345952033997
4.99600361081320443e-16 0.990922629833221436 0.169095635414123535
4.99600361081320443e-16 0.2496909499168396 0.14674985408782959
4.99600361081320443e-16 1.15360748767852783 0.105760805308818817
4.99600361081320443e-16 0.902300417423248291 0.116391539573669434
4.99600361081320443e-16 0.489021658897399902 0.178886294364929199
4.99600361081320443e-16 0.520493686199188232 0.114843368530273438
4.99600361081320443e-16 1.15385591983795166 0.118381880223751068
4.99600361081320443e-16 0.416716784238815308 0.110779382288455963
4.99600361081320443e-16 0.00500868679955601692 0.141086563467979431
4.99600361081320443e-16 1.42405664920806885 0.197370976209640503
4.99600361081320443e-16 0.00409296713769435883 0.128179192543029785
4.99600361081320443e-16 0.728989303112030029 0.172897472977638245
4.99600361081320443e-16 2.19621443748474121 0.157868102192878723
4.99600361081320443e-16 0.253171592950820923 0.145803779363632202
4.99600361081320443e-16 0.52857738733291626 0.1001996248960495
4.99600361081320443e-16 0.377271056175231934 0.0685570836067199707
4.99600361081320443e-16 0.543555796146392822 0.0723222792148590088
4.99600361081320443e-16 0.609869241714477539 0.192010581493377686
4.99600361081320443e-16 1.25656247138977051 0.176835358142852783
4.99600361081320443e-16 0.130221307277679443 0.157313376665115356
4.99600361081320443e-16 0.567352771759033203 0.198610931634902954
4.99600361081320443e-16 0.719595015048980713 0.176598191261291504
4.99600361081320443e-16 0.459142237901687622 0.0911244302988052368
4.99600361081320443e-16 0.444034457206726074 0.171860352158546448
4.99600361081320443e-16 2.52509760856628418 0.189405634999275208
4.99600361081320443e-16 0.242612987756729126 0.0900908708572387695
4.99600361081320443e-16 0.28046223521232605 0.0440720915794372559
4.99600361081320443e-16 1.86133742332458496 0.141354590654373169
4.99600361081320443e-16 0.640743434429168701 0.150708585977554321
4.99600361081320443e-16 0.393020212650299072 0.08026895672082901
4.99600361081320443e-16 1.12126421928405762 0.086747191846370697
4.99600361081320443e-16 1.70331764221191406 0.154322385787963867
4.99600361081320443e-16 0.210313871502876282 0.0784047171473503113
4.99600361081320443e-16 1.1674424409866333 0.103418104350566864
4.99600361081320443e-16 1.34413933753967285 0.137648969888687134
4.99600361081320443e-16 0.632999122142791748 0.0524714887142181396
4.99600361081320443e-16 0.162919208407402039 0.0425212085247039795
4.99600361081320443e-16 1.95502555370330811 0.165890306234359741
4.99600361081320443e-16 0.0873542651534080505 0.153001010417938232
4.99600361081320443e-16 1.95011579990386963 0.195135697722434998
4.99600361081320443e-16 1.55502498149871826 0.166862249374389648
4.99600361081320443e-16 0.889972686767578125 0.15041312575340271
4.99600361081320443e-16 0.817352056503295898 0.183906152844429016
4.99600361081320443e-16 0.154276683926582336 0.185095354914665222
4.99600361081320443e-16 0.940287947654724121 0.124448440968990326
4.99600361081320443e-16 1.11893999576568604 0.113800838589668274
4.99600361081320443e-16 1.67465806007385254 0.121606536209583282
4.99600361081320443e-16 0.913019120693206787 0.0830028802156448364
4.99600361081320443e-16 0.440303295850753784 0.170052289962768555
4.99600361081320443e-16 0.77246171236038208 0.153459057211875916
4.99600361081320443e-16 0.0468874983489513397 0.102543890476226807
4.99600361081320443e-16 2.29118633270263672 0.196414873003959656
4.99600361081320443e-16 0.0405990593135356903 0.155584052205085754
4.99600361081320443e-16 0.114446356892585754 0.0461968481540679932
4.99600361081320443e-16 1.97716701030731201 0.183440446853637695
4.99600361081320443e-16 1.94466066360473633 0.183136999607086182
4.99600361081320443e-16 2.00265860557556152 0.149268046021461487
4.99600361081320443e-16 1.39049780368804932 0.178249061107635498
4.99600361081320443e-16 1.22766804695129395 0.112014941871166229
4.99600361081320443e-16 0.249789983034133911 0.071431964635848999
4.99600361081320443e-16 1.68038082122802734 0.18092028796672821
4.99600361081320443e-16 0.740623772144317627 0.080625288188457489
4.99600361081320443e-16 0.345383167266845703 0.147160172462463379
4.99600361081320443e-16 0.540750861167907715 0.0787490755319595337
4.99600361081320443e-16 2.39031219482421875 0.183844327926635742
4.99600361081320443e-16 1.21751499176025391 0.190174967050552368
4.99600361081320443e-16 1.25715732574462891 0.110387489199638367
4.99600361081320443e-16 0.0147060956805944443 0.0907500386238098145
4.99600361081320443e-16 0.9477805495262146 0.0820503383874893188
4.99600361081320443e-16 0.441567033529281616 0.0847193151712417603
4.99600361081320443e-16 2.60113811492919922 0.191106453537940979
4.99600361081320443e-16 0.255260318517684937 0.0680704116821289062
4.99600361081320443e-16 1.29226815700531006 0.123407997190952301
4.99600361081320443e-16 1.30740511417388916 0.146987125277519226
4.99600361081320443e-16 1.27510929107666016 0.145730912685394287
4.99600361081320443e-16 0.367043405771255493 0.172879338264465332
4.99600361081320443e-16 1.26778244972229004 0.166228011250495911
4.99600361081320443e-16 0.618678033351898193 0.172649085521697998
4.99600361081320443e-16 0.00508222216740250587 0.0371260493993759155
4.99600361081320443e-16 1.09517884254455566 0.12188449501991272
4.99600361081320443e-16 2.45781135559082031 0.19874255359172821
4.99600361081320443e-16 0.0657532215118408203 0.0200207829475402832
4.99600361081320443e-16 1.73841023445129395 0.177911266684532166
4.99600361081320443e-16 0.917414844036102295 0.135288238525390625
4.99600361081320443e-16 0.957199513912200928 0.0783238932490348816
4.99600361081320443e-16 0.359163492918014526 0.155857235193252563
4.99600361081320443e-16 0.423036724328994751 0.0827147290110588074
4.99600361081320443e-16 1.3302009105682373 0.123292647302150726
4.99600361081320443e-16 1.80380904674530029 0.134634405374526978
4.99600361081320443e-16 0.114692993462085724 0.0445630550384521484
4.99600361081320443e-16 0.652145862579345703 0.152862653136253357
4.99600361081320443e-16 0.571272075176239014 0.155970960855484009
4.99600361081320443e-16 0.389312446117401123 0.121401764452457428
4.99600361081320443e-16 0.87454676628112793 0.105617769062519073
4.99600361081320443e-16 0.0917138978838920593 0.098906390368938446
4.99600361081320443e-16 1.4768449068069458 0.154391691088676453
4.99600361081320443e-16 0.0955098941922187805 0.14915737509727478
4.99600361081320443e-16 0.717981100082397461 0.182910293340682983
4.99600361081320443e-16 2.0332033634185791 0.168849959969520569
4.99600361081320443e-16 0.851900875568389893 0.108594462275505066
4.99600361081320443e-16 1.23634183406829834 0.195696279406547546
4.99600361081320443e-16 0.168796896934509277 0.100795380771160126
4.99600361081320443e-16 0.0990446358919143677 0.106700263917446136
4.99600361081320443e-16 1.20675146579742432 0.166681617498397827
4.99600361081320443e-16 1.35818767547607422 0.162772566080093384
4.99600361081320443e-16 2.17878293991088867 0.184952259063720703
4.99600361081320443e-16 1.07608675956726074 0.126381635665893555
4.99600361081320443e-16 0.803551197052001953 0.0989194512367248535
4.99600361081320443e-16 0.644883334636688232 0.166733115911483765
4.99600361081320443e-16 1.4729079008102417 0.187281608581542969
4.99600361081320443e-16 1.59486126899719238 0.160728424787521362
4.99600361081320443e-16 0.0192763693630695343 0.0980696827173233032
4.99600361081320443e-16 0.647641658782958984 0.128440797328948975
4.99600361081320443e-16 1.27600812911987305 0.163264870643615723
4.99600361081320443e-16 0.691885411739349365 0.151351556181907654
4.99600361081320443e-16 1.79018533229827881 0.152238607406616211
4.99600361081320443e-16 1.654776930809021 0.18735542893409729
4.99600361081320443e-16 1.07872903347015381 0.110169343650341034
4.99600361081320443e-16 1.8297199010848999 0.161806553602218628
4.99600361081320443e-16 1.11016571521759033 0.155521586537361145
4.99600361081320443e-16 0.565057754516601562 0.0947401449084281921
4.99600361081320443e-16 1.39900696277618408 0.173740476369857788
4.99600361081320443e-16 0.933524250984191895 0.12038005143404007
4.99600361081320443e-16 1.35543107986450195 0.168661415576934814
4.99600361081320443e-16 0.299050748348236084 0.0458854585886001587
4.99600361081320443e-16 0.810215473175048828 0.185500949621200562
4.99600361081320443e-16 0.376264959573745728 0.13596285879611969
4.99600361081320443e-16 0.403953880071640015 0.102463707327842712
4.99600361081320443e-16 2.31177353858947754 0.174944221973419189
4.99600361081320443e-16 0.105124287307262421 0.111073769629001617
4.99600361081320443e-16 0.508696377277374268 0.0869288668036460876
4.99600361081320443e-16 0.0287793055176734924 0.118606030941009521
4.99600361081320443e-16 2.29234743118286133 0.197326824069023132
4.99600361081320443e-16 0.131258562207221985 0.169678866863250732
4.99600361081320443e-16 1.05730140209197998 0.143857017159461975
4.99600361081320443e-16 0.914144217967987061 0.174981504678726196
4.99600361081320443e-16 0.0434807538986206055 0.0258412659168243408
4.99600361081320443e-16 1.62323784828186035 0.168427601456642151
4.99600361081320443e-16 0.385439306497573853 0.108217395842075348
4.99600361081320443e-16 1.1637427806854248 0.159569025039672852
4.99600361081320443e-16 0.114232771098613739 0.194264978170394897
4.99600361081320443e-16 1.71656465530395508 0.163600072264671326
4.99600361081320443e-16 0.238066792488098145 0.0728479921817779541
4.99600361081320443e-16 1.70349431037902832 0.129217296838760376
4.99600361081320443e-16 1.16630125045776367 0.16763073205947876
4.99600361081320443e-16 1.1477123498916626 0.180647626519203186
4.99600361081320443e-16 2.4783027172088623 0.190727189183235168
4.99600361081320443e-16 0.765755951404571533 0.0694462805986404419
4.99600361081320443e-16 0.895399391651153564 0.087408699095249176
4.99600361081320443e-16 0.799215078353881836 0.0911058411002159119
4.99600361081320443e-16 1.39671885967254639 0.103240177035331726
4.99600361081320443e-16 1.66514623165130615 0.130373835563659668
4.99600361081320443e-16 1.32802808284759521 0.16670951247215271
4.99600361081320443e-16 1.74097537994384766 0.149112120270729065
4.99600361081320443e-16 1.22111058235168457 0.192910134792327881
4.99600361081320443e-16 0.46717110276222229 0.03881111741065979
4.99600361081320443e-16 1.13385391235351562 0.160252630710601807
4.99600361081320443e-16 0.533536136150360107 0.0913226529955863953
4.99600361081320443e-16 1.38417708873748779 0.143385797739028931
4.99600361081320443e-16 1.69496715068817139 0.151804491877555847
4.99600361081320443e-16 2.19168567657470703 0.183560356497764587
4.99600361081320443e-16 0.82939910888671875 0.19365750253200531
4.99600361081320443e-16 0.691831409931182861 0.164123699069023132
4.99600361081320443e-16 0.875577330589294434 0.111137524247169495
4.99600361081320443e-16 1.4698566198348999 0.175642281770706177
4.99600361081320443e-16 0.642324864864349365 0.194204136729240417
4.99600361081320443e-16 0.796475827693939209 0.187977984547615051
4.99600361081320443e-16 1.44913017749786377 0.124753199517726898
4.99600361081320443e-16 1.08069539070129395 0.140631735324859619
4.99600361081320443e-16 0.20997956395149231 0.1433086097240448
4.99600361081320443e-16 0.88232111930847168 0.0827361568808555603
4.99600361081320443e-16 0.800508558750152588 0.154238656163215637
4.99600361081320443e-16 0.464375793933868408 0.0736798346042633057
4.99600361081320443e-16 1.34387397766113281 0.113457530736923218
4.99600361081320443e-16 2.65776419639587402 0.193112671375274658
4.99600361081320443e-16 0.919439375400543213 0.168332368135452271
4.99600361081320443e-16 0.190473869442939758 0.0421456992626190186
4.99600361081320443e-16 1.71576464176177979 0.124862007796764374
4.99600361081320443e-16 2.02372980117797852 0.186361178755760193
4.99600361081320443e-16 1.66064488887786865 0.154943734407424927
4.99600361081320443e-16 0.410082906484603882 0.09510793536901474
4.99600361081320443e-16 0.630092620849609375 0.170853003859519958
4.99600361081320443e-16 0.210138455033302307 0.0158389508724212646
4.99600361081320443e-16 0.474523454904556274 0.0917032361030578613
4.99600361081320443e-16 1.28620553016662598 0.190950497984886169
4.99600361081320443e-16 0.177473515272140503 0.188263252377510071
4.99600361081320443e-16 0.341637223958969116 0.193672031164169312
4.99600361081320443e-16 1.22942686080932617 0.117829255759716034
4.99600361081320443e-16 1.70617091655731201 0.144779562950134277
4.99600361081320443e-16 0.0791508704423904419 0.044995918869972229
4.99600361081320443e-16 0.474182218313217163 0.159947127103805542
4.99600361081320443e-16 1.51727426052093506 0.170896783471107483
4.99600361081320443e-16 0.937746047973632812 0.122385144233703613
4.99600361081320443e-16 0.171122491359710693 0.103697530925273895
4.99600361081320443e-16 1.60169768333435059 0.188635125756263733
4.99600361081320443e-16 0.618246555328369141 0.143543481826782227
4.99600361081320443e-16 0.579191446304321289 0.0980033501982688904
4.99600361081320443e-16 0.996238589286804199 0.127228051424026489
4.99600361081320443e-16 0.510529696941375732 0.0417460501194000244
4.99600361081320443e-16 0.992410123348236084 0.115264482796192169
4.99600361081320443e-16 0.90346074104309082 0.125999942421913147
4.99600361081320443e-16 0.114727087318897247 0.169069334864616394
4.99600361081320443e-16 0.18430793285369873 0.107026845216751099
4.99600361081320443e-16 1.2666771411895752 0.138225197792053223
4.99600361081320443e-16 1.01772356033325195 0.0875024944543838501
4.99600361081320443e-16 2.44653820991516113 0.190254852175712585
4.99600361081320443e-16 0.445375919342041016 0.150272548198699951
4.99600361081320443e-16 0.0628058910369873047 0.189661547541618347
4.99600361081320443e-16 0.184052631258964539 0.0453910529613494873
4.99600361081320443e-16 0.178152725100517273 0.0693875402212142944
4.99600361081320443e-16 1.82801973819732666 0.185625374317169189
4.99600361081320443e-16 0.348083645105361938 0.0841509848833084106
4.99600361081320443e-16 1.07152187824249268 0.0869999900460243225
4.99600361081320443e-16 0.874709725379943848 0.136646270751953125
4.99600361081320443e-16 0.845403909683227539 0.0742252469062805176
4.99600361081320443e-16 0.769484043121337891 0.178895175457000732
4.99600361081320443e-16 1.41263878345489502 0.133366107940673828
4.99600361081320443e-16 0.755652189254760742 0.106121324002742767
4.99600361081320443e-16 0.503525137901306152 0.106801398098468781
4.99600361081320443e-16 1.22872757911682129 0.173515647649765015
4.99600361081320443e-16 1.06969237327575684 0.199414238333702087
4.99600361081320443e-16 0.224255859851837158 0.0653916895389556885
4.99600361081320443e-16 0.40887606143951416 0.172762364149093628
4.99600361081320443e-16 0.599188029766082764 0.188882008194923401
4.99600361081320443e-16 0.053858630359172821 0.119051508605480194
4.99600361081320443e-16 1.38414692878723145 0.194617629051208496
4.99600361081320443e-16 0.507278263568878174 0.139412865042686462
4.99600361081320443e-16 0.37006986141204834 0.131315469741821289
4.99600361081320443e-16 0.70623856782913208 0.170286402106285095
4.99600361081320443e-16 0.748446047306060791 0.0836322307586669922
4.99600361081320443e-16 0.580276012420654297 0.112776540219783783
4.99600361081320443e-16 2.359893798828125 0.182325959205627441
4.99600361081320443e-16 0.487249642610549927 0.105187900364398956
4.99600361081320443e-16 1.78697657585144043 0.140257924795150757
4.99600361081320443e-16 0.0150331472977995872 0.153320357203483582
4.99600361081320443e-16 0.728624284267425537 0.0790345072746276855
4.99600361081320443e-16 1.94751214981079102 0.145692586898803711
4.99600361081320443e-16 0.252292931079864502 0.0811444893479347229
4.99600361081320443e-16 0.494709372520446777 0.169450134038925171
4.99600361081320443e-16 1.5002208948135376 0.142914414405822754
4.99600361081320443e-16 1.18798291683197021 0.187275022268295288
4.99600361081320443e-16 1.24169349670410156 0.182633563876152039
4.99600361081320443e-16 1.13120615482330322 0.105018846690654755
4.99600361081320443e-16 0.0189516674727201462 0.0264659225940704346
4.99600361081320443e-16 2.03555035591125488 0.156980007886886597
4.99600361081320443e-16 0.0119397928938269615 0.181491896510124207
0.0327461361885070801 5.10702591327572009e-15 0.118323244154453278
0.235131502151489258 5.10702591327572009e-15 0.0668458566069602966
0.197715342044830322 5.10702591327572009e-15 0.103974625468254089
0.108014173805713654 5.10702591327572009e-15 0.0473019778728485107
0.177345722913742065 5.10702591327572009e-15 0.056575387716293335
0.0518848933279514313 5.10702591327572009e-15 0.0402067676186561584
0.192467674612998962 5.10702591327572009e-15 0.110077455639839172
0.282086044549942017 5.10702591327572009e-15 0.0749666169285774231
0.119321092963218689 5.10702591327572009e-15 0.148396432399749756
0.222840979695320129 5.10702591327572009e-15 0.0822932571172714233
0.0649356171488761902 5.10702591327572009e-15 0.0869504213333129883
0.30441129207611084 5.10702591327572009e-15 0.0566158518195152283
0.107414104044437408 5.10702591327572009e-15 0.0465364754199981689
0.46280217170715332 5.10702591327572009e-15 0.00867651402950286865
0.226738214492797852 5.10702591327572009e-15 0.0858569368720054626
0.205793380737304688 5.10702591327572009e-15 0.0662221610546112061
0.249012485146522522 5.10702591327572009e-15 0.097774505615234375
0.325532644987106323 5.10702591327572009e-15 0.0282851606607437134
0.226191282272338867 5.10702591327572009e-15 0.0259036049246788025
0.0697309374809265137 5.10702591327572009e-15 0.054785408079624176
0.171010106801986694 5.10702591327572009e-15 0.123608700931072235
0.201877504587173462 5.10702591327572009e-15 0.0823076367378234863
0.0737857744097709656 5.10702591327572009e-15 0.13809475302696228
0.0415693707764148712 5.10702591327572009e-15 0.151277437806129456
0.295179456472396851 5.10702591327572009e-15 0.0259596183896064758
0.100295528769493103 5.10702591327572009e-15 0.139409482479095459
0.13079853355884552 5.10702591327572009e-15 0.111827902495861053
0.0889701694250106812 5.10702591327572009e-15 0.047662150114774704
0.324533820152282715 5.10702591327572009e-15 0.0646907538175582886
0.0281918197870254517 5.10702591327572009e-15 0.147820338606834412
0.232217863202095032 5.10702591327572009e-15 0.0386068671941757202
0.00127842591609805822 5.10702591327572009e-15 0.119433745741844177
0.293195515871047974 5.10702591327572009e-15 0.0363042578101158142
0.159560024738311768 5.10702591327572009e-15 0.132936492562294006
0.0640766769647598267 5.10702591327572009e-15 0.0221204571425914764
0.00866291485726833344 5.10702591327572009e-15 0.173650875687599182
0.222896963357925415 5.10702591327572009e-15 0.00364957749843597412
0.0511021614074707031 5.10702591327572009e-15 0.171333268284797668
0.0601940155029296875 5.10702591327572009e-15 0.0790385082364082336
0.010242784395813942 5.10702591327572009e-15 0.186583518981933594
0.236597269773483276 5.10702591327572009e-15 0.0226393342018127441
0.154082059860229492 5.10702591327572009e-15 0.0785105377435684204
0.156304791569709778 5.10702591327572009e-15 0.0730757266283035278
0.00840170122683048248 5.10702591327572009e-15 0.147022366523742676
0.385177791118621826 5.10702591327572009e-15 0.0380338579416275024
0.230384781956672668 5.10702591327572009e-15 0.0689816400408744812
0.0506188832223415375 5.10702591327572009e-15 0.0290958825498819351
0.103880614042282104 5.10702591327572009e-15 0.134535893797874451
0.339433133602142334 5.10702591327572009e-15 0.0517659485340118408
0.105713032186031342 5.10702591327572009e-15 0.0247068889439105988
0.204556569457054138 5.10702591327572009e-15 0.0477863028645515442
0.192039027810096741 5.10702591327572009e-15 0.0347976908087730408
0.0536565929651260376 5.10702591327572009e-15 0.0424705259501934052
0.198839396238327026 5.10702591327572009e-15 0.0983327403664588928
0.162535130977630615 5.10702591327572009e-15 0.0563575327396392822
0.257324457168579102 5.10702591327572009e-15 0.00135395675897598267
0.171436190605163574 5.10702591327572009e-15 0.0945466682314872742
0.0823944434523582458 5.10702591327572009e-15 0.0185167491436004639
0.00182858598418533802 5.10702591327572009e-15 0.125712007284164429
0.268055528402328491 5.10702591327572009e-15 0.0376948267221450806
0.287840962409973145 5.10702591327572009e-15 0.0531217455863952637
0.317488104104995728 5.10702591327572009e-15 0.0150537192821502686
0.0165489893406629562 5.10702591327572009e-15 0.0516693070530891418
0.269995927810668945 5.10702591327572009e-15 0.00243178755044937134
0.0967694371938705444 5.10702591327572009e-15 0.0529077239334583282
0.400996208190917969 5.10702591327572009e-15 0.00755935907363891602
0.140798225998878479 5.10702591327572009e-15 0.117959648370742798
0.161654725670814514 5.10702591327572009e-15 0.0310891717672348022
0.0779493898153305054 5.10702591327572009e-15 0.127773135900497437
0.0618524961173534393 5.10702591327572009e-15 0.138708412647247314
0.017331983894109726 5.10702591327572009e-15 0.0761208906769752502
0.307328611612319946 5.10702591327572009e-15 0.0745349898934364319
0.0154210049659013748 5.10702591327572009e-15 0.154961317777633667
0.0545760467648506165 5.10702591327572009e-15 0.015284394845366478
0.292901188135147095 5.10702591327572009e-15 0.0667965784668922424
0.201905921101570129 5.10702591327572009e-15 0.00550881773233413696
0.0360547564923763275 5.10702591327572009e-15 0.0778885409235954285
0.463226824998855591 5.10702591327572009e-15 0.00811684131622314453
0.215669482946395874 5.10702591327572009e-15 0.0263789817690849304
0.0782774984836578369 5.10702591327572009e-15 0.14875476062297821
0.437723249197006226 5.10702591327572009e-15 0.0193131417036056519
0.118326127529144287 5.10702591327572009e-15 0.0846786946058273315
0.24860595166683197 5.10702591327572009e-15 0.0130936354398727417
0.281828701496124268 5.10702591327572009e-15 0.0520143583416938782
0.0618036314845085144 5.10702591327572009e-15 0.168683946132659912
0.0970328375697135925 5.10702591327572009e-15 0.0228995755314826965
0.0929480195045471191 5.10702591327572009e-15 0.150503963232040405
0.10174502432346344 5.10702591327572009e-15 0.0797338783740997314
0.104785509407520294 5.10702591327572009e-15 0.113824173808097839
0.0136926351115107536 5.10702591327572009e-15 0.0303580779582262039
0.341286599636077881 5.10702591327572009e-15 0.027772367000579834
0.332584559917449951 5.10702591327572009e-15 0.0587871968746185303
0.215608134865760803 5.10702591327572009e-15 0.0856647193431854248
0.0895108059048652649 5.10702591327572009e-15 0.0854633897542953491
0.279071986675262451 5.10702591327572009e-15 0.0816986486315727234
0.257079958915710449 5.10702591327572009e-15 0.010154135525226593
0.0126138729974627495 5.10702591327572009e-15 0.116974182426929474
0.0655408501625061035 5.10702591327572009e-15 0.1597394198179245
0.075596936047077179 5.10702591327572009e-15 0.0837630182504653931
0.245809823274612427 5.10702591327572009e-15 0.100190512835979462
0.0219019725918769836 5.10702591327572009e-15 0.181108281016349792
0.176979929208755493 5.10702591327572009e-15 0.0389209166169166565
0.00355212041176855564 5.10702591327572009e-15 0.157535195350646973
0.172882929444313049 5.10702591327572009e-15 0.112903863191604614
0.15712246298789978 5.10702591327572009e-15 0.12928539514541626
0.0431870035827159882 5.10702591327572009e-15 0.139206245541572571
0.051461048424243927 5.10702591327572009e-15 0.101643025875091553
0.0708428770303726196 5.10702591327572009e-15 0.0255776941776275635
0.15994378924369812 5.10702591327572009e-15 0.0293588414788246155
0.115918651223182678 5.10702591327572009e-15 0.151387616991996765
0.0871340855956077576 5.10702591327572009e-15 0.071288764476776123
0.139822334051132202 5.10702591327572009e-15 0.0974816083908081055
0.0310501866042613983 5.10702591327572009e-15 0.182217210531234741
0.184727579355239868 5.10702591327572009e-15 0.117402531206607819
0.148244321346282959 5.10702591327572009e-15 0.0739862024784088135
0.0197452865540981293 5.10702591327572009e-15 0.0679194256663322449
0.0970060229301452637 5.10702591327572009e-15 0.0560182295739650726
0.220548629760742188 5.10702591327572009e-15 0.100589357316493988
0.0902113392949104309 5.10702591327572009e-15 0.139250144362449646
0.316144436597824097 5.10702591327572009e-15 0.0222699642181396484
0.134667381644248962 5.10702591327572009e-15 0.0730073750019073486
0.462669938802719116 5.10702591327572009e-15 0.147016331553459167
0.423111885786056519 5.10702591327572009e-15 0.195203185081481934
0.484077632427215576 5.10702591327572009e-15 0.134018361568450928
0.407277584075927734 5.10702591327572009e-15 0.0720120370388031006
0.461391478776931763 5.10702591327572009e-15 0.01641806960105896
0.344107270240783691 5.10702591327572009e-15 0.111954338848590851
0.413596212863922119 5.10702591327572009e-15 0.123115107417106628
0.293367445468902588 5.10702591327572009e-15 0.167507186532020569
0.464647144079208374 5.10702591327572009e-15 0.0278030931949615479
0.311570256948471069 5.10702591327572009e-15 0.130646362900733948
0.17862170934677124 5.10702591327572009e-15 0.144028186798095703
0.0919235050678253174 5.10702591327572009e-15 0.186610639095306396
0.496350675821304321 5.10702591327572009e-15 0.0795198604464530945
0.27607262134552002 5.10702591327572009e-15 0.122120194137096405
0.0652588307857513428 5.10702591327572009e-15 0.177204132080078125
0.183527559041976929 5.10702591327572009e-15 0.136429697275161743
0.400198489427566528 5.10702591327572009e-15 0.178947269916534424
0.233875095844268799 5.10702591327572009e-15 0.18195711076259613
0.383576244115829468 5.10702591327572009e-15 0.173105686902999878
0.372468799352645874 5.10702591327572009e-15 0.145371973514556885
0.491511881351470947 5.10702591327572009e-15 0.177633523941040039
0.481234610080718994 5.10702591327572009e-15 0.0748763680458068848
0.387994647026062012 5.10702591327572009e-15 0.11107742041349411
0.27528691291809082 5.10702591327572009e-15 0.188309744000434875
0.0817087888717651367 5.10702591327572009e-15 0.191651016473770142
0.0811722278594970703 5.10702591327572009e-15 0.193207621574401855
0.33237922191619873 5.10702591327572009e-15 0.140527516603469849
0.367035210132598877 5.10702591327572009e-15 0.0842879042029380798
0.282648622989654541 5.10702591327572009e-15 0.09500141441822052
0.302375733852386475 5.10702591327572009e-15 0.150790899991989136
0.390375792980194092 5.10702591327572009e-15 0.0649793148040771484
0.212960958480834961 5.10702591327572009e-15 0.146167904138565063
0.484070479869842529 5.10702591327572009e-15 0.181936025619506836
0.477657973766326904 5.10702591327572009e-15 0.164559125900268555
0.192750811576843262 5.10702591327572009e-15 0.177473112940788269
0.476491570472717285 5.10702591327572009e-15 0.0919770598411560059
0.0796150565147399902 5.10702591327572009e-15 0.179876074194908142
0.407533109188079834 5.10702591327572009e-15 0.178302496671676636
0.24829566478729248 5.10702591327572009e-15 0.194426596164703369
0.470221042633056641 5.10702591327572009e-15 0.123856790363788605
0.421828895807266235 5.10702591327572009e-15 0.0555383265018463135
0.265262484550476074 5.10702591327572009e-15 0.167419672012329102
0.407826900482177734 5.10702591327572009e-15 0.115838311612606049
0.321501433849334717 5.10702591327572009e-15 0.199986919760704041
0.418404728174209595 5.10702591327572009e-15 0.0923408865928649902
0.383177220821380615 5.10702591327572009e-15 0.0760211721062660217
0.172456443309783936 5.10702591327572009e-15 0.135254085063934326
0.25606304407119751 5.10702591327572009e-15 0.168466538190841675
0.488212943077087402 5.10702591327572009e-15 0.0794431194663047791
0.264947444200515747 5.10702591327572009e-15 0.103441201150417328
0.316810548305511475 5.10702591327572009e-15 0.148333072662353516
0.300732970237731934 5.10702591327572009e-15 0.134491801261901855
0.337085425853729248 5.10702591327572009e-15 0.0774556994438171387
0.404186367988586426 5.10702591327572009e-15 0.0544867217540740967
0.487472355365753174 5.10702591327572009e-15 0.00763015449047088623
0.359623640775680542 5.10702591327572009e-15 0.111800312995910645
0.170160889625549316 5.10702591327572009e-15 0.15974077582359314
0.439905643463134766 5.10702591327572009e-15 0.182013720273971558
0.454123973846435547 5.10702591327572009e-15 0.0811112523078918457
0.45274806022644043 5.10702591327572009e-15 0.15377788245677948
0.158115088939666748 5.10702591327572009e-15 0.1579132080078125
0.466680467128753662 5.10702591327572009e-15 0.0207617282867431641
0.227379530668258667 5.10702591327572009e-15 0.18491363525390625
0.162520617246627808 5.10702591327572009e-15 0.183487534523010254
0.230221390724182129 5.10702591327572009e-15 0.171841740608215332
0.424423128366470337 5.10702591327572009e-15 0.174881696701049805
0.286506026983261108 5.10702591327572009e-15 0.180694282054901123
0.285655558109283447 5.10702591327572009e-15 0.157375693321228027
0.149101346731185913 5.10702591327572009e-15 0.158582419157028198
0.365087151527404785 5.10702591327572009e-15 0.135363727807998657
0.280946969985961914 5.10702591327572009e-15 0.157985582947731018
0.339598208665847778 5.10702591327572009e-15 0.116967611014842987
0.33639255166053772 5.10702591327572009e-15 0.0788563266396522522
0.295978307723999023 5.10702591327572009e-15 0.0956152826547622681
0.11099773645401001 5.10702591327572009e-15 0.186534494161605835
0.451180964708328247 5.10702591327572009e-15 0.166837364435195923
0.221699059009552002 5.10702591327572009e-15 0.170942693948745728
0.283151686191558838 5.10702591327572009e-15 0.182601764798164368
0.27335047721862793 5.10702591327572009e-15 0.183384492993354797
0.399120807647705078 5.10702591327572009e-15 0.10042513906955719
0.448318213224411011 5.10702591327572009e-15 0.0322875231504440308
0.275637686252593994 5.10702591327572009e-15 0.132846415042877197
0.441383808851242065 5.10702591327572009e-15 0.127992287278175354
0.335709840059280396 5.10702591327572009e-15 0.112198077142238617
0.208433240652084351 5.10702591327572009e-15 0.172470554709434509
0.485696613788604736 5.10702591327572009e-15 0.194105774164199829
0.14670175313949585 5.10702591327572009e-15 0.160904884338378906
0.34771496057510376 5.10702591327572009e-15 0.122636273503303528
0.338039696216583252 5.10702591327572009e-15 0.167886987328529358
0.379767537117004395 5.10702591327572009e-15 0.156021744012832642
0.0829760432243347168 5.10702591327572009e-15 0.184057638049125671
0.348256707191467285 5.10702591327572009e-15 0.117153942584991455
0.445066571235656738 5.10702591327572009e-15 0.1712484210729599
0.227941781282424927 5.10702591327572009e-15 0.153895944356918335
0.387136250734329224 5.10702591327572009e-15 0.0593231916427612305
0.357143402099609375 5.10702591327572009e-15 0.150260627269744873
0.331508666276931763 5.10702591327572009e-15 0.083834424614906311
0.276430666446685791 5.10702591327572009e-15 0.196898266673088074
0.194707095623016357 5.10702591327572009e-15 0.195045396685600281
0.49630284309387207 5.10702591327572009e-15 0.0822690650820732117
0.498939990997314453 5.10702591327572009e-15 0.0622573047876358032
0.393738210201263428 5.10702591327572009e-15 0.142733126878738403
0.484698891639709473 5.10702591327572009e-15 0.16210918128490448
0.217242062091827393 5.10702591327572009e-15 0.159358352422714233
0.256922721862792969 5.10702591327572009e-15 0.17884691059589386
0.219780296087265015 5.10702591327572009e-15 0.145950436592102051
0.159757882356643677 5.10702591327572009e-15 0.161974295973777771
0.39712071418762207 5.10702591327572009e-15 0.131767779588699341
0.241504937410354614 5.10702591327572009e-15 0.119039431214332581
0.470168113708496094 5.10702591327572009e-15 0.191780850291252136
0.178003072738647461 5.10702591327572009e-15 0.197365030646324158
0.305805444717407227 5.10702591327572009e-15 0.108744777739048004
0.383327513933181763 5.10702591327572009e-15 0.0754012018442153931
0.250835657119750977 5.10702591327572009e-15 0.118083134293556213
0.349382072687149048 5.10702591327572009e-15 0.167788714170455933
0.0637865960597991943 5.10702591327572009e-15 0.186511173844337463
0.196563690900802612 5.10702591327572009e-15 0.153509825468063354
0.422838926315307617 5.10702591327572009e-15 0.105971895158290863
0.318553388118743896 5.10702591327572009e-15 0.173539772629737854
0.494210720062255859 5.10702591327572009e-15 0.0379814803600311279
0.470108181238174438 5.10702591327572009e-15 0.0609275102615356445
0.358195126056671143 1.01362860202789307 0
0.444965928792953491 2.49230813980102539 0
0.491061002016067505 2.07328486442565918 0
0.498561292886734009 0.53135228157043457 0
0.447244971990585327 0.718611955642700195 0
0.198536813259124756 1.83584213256835938 0
0.219664216041564941 1.58435928821563721 0
0.267813026905059814 2.41349339485168457 0
0.469409197568893433 0.517714738845825195 0
0.149576067924499512 2.02005434036254883 0
0.479683101177215576 1.35645461082458496 0
0.401910126209259033 1.23943746089935303 0
0.36717677116394043 2.28503751754760742 0
0.226284414529800415 1.68414604663848877 0
0.419083476066589355 0.706198215484619141 0
0.414690852165222168 2.13577127456665039 0
0.487338930368423462 1.13255298137664795 0
0.30505061149597168 2.16486477851867676 0
0.275658875703811646 1.61810171604156494 0
0.276325643062591553 2.47485947608947754 0
0.16326218843460083 2.76202607154846191 0
0.47981727123260498 1.8830409049987793 0
0.256373286247253418 1.51371622085571289 0
0.212385714054107666 2.53225255012512207 0
0.4526558518409729 1.04874730110168457 0
0.406645596027374268 1.14419746398925781 0
0.196431338787078857 2.04765558242797852 0
0.104829519987106323 2.60948896408081055 0
0.378246009349822998 1.86723160743713379 0
0.34298253059387207 1.22878861427307129 0
0.251206398010253906 2.7622230052947998 0
0.451470464468002319 2.2767646312713623 0
0.311266481876373291 1.79876160621643066 0
0.352415800094604492 0.935889601707458496 0
0.228053510189056396 2.59786748886108398 0
0.406599581241607666 1.30965471267700195 0
0.130452632904052734 2.79312348365783691 0
0.340542137622833252 1.88353276252746582 0
0.294500678777694702 1.89561820030212402 0
0.272535920143127441 1.6470712423324585 0
0.181255310773849487 2.05662107467651367 0
0.156178414821624756 2.13840436935424805 0
0.0365938842296600342 2.61295318603515625 0
0.437884539365768433 1.74878072738647461 0
0.129355967044830322 2.79739546775817871 0
0.0280153453350067139 2.78682184219360352 0
0.462735772132873535 0.554883956909179688 0
0.449306875467300415 0.483778715133666992 0
0.180735498666763306 2.26434087753295898 0
0.36950153112411499 1.36203670501708984 0
0.289935261011123657 2.27036523818969727 0
0.485989242792129517 0.529948949813842773 0
0.407820343971252441 0.964583754539489746 0
0.440888732671737671 1.11637651920318604 0
0.280901074409484863 2.67824840545654297 0
0.0492653250694274902 2.77057433128356934 0
0.329726099967956543 1.32010865211486816 0
0.45430445671081543 0.447710514068603516 0
0.345067322254180908 2.48828387260437012 0
0.37014472484588623 0.987374067306518555 0
0.458160489797592163 2.24706625938415527 0
0.312551021575927734 2.49140167236328125 0
0.474941641092300415 0.390508413314819336 0
0.467207998037338257 2.61336874961853027 0
0.0580413639545440674 2.74225854873657227 0
0.442319661378860474 0.669544219970703125 0
0.423573940992355347 2.57452774047851562 0
0.341522097587585449 2.62526488304138184 0
0.487049639225006104 0.649637460708618164 0
0.363135099411010742 2.09697484970092773 0
0.464959561824798584 1.10822880268096924 0
0.313676595687866211 1.71912217140197754 0
0.192780464887619019 1.82014560699462891 0
0.094935297966003418 2.34781718254089355 0
0.0866126418113708496 2.77235937118530273 0
0.382867813110351562 1.21861910820007324 0
0.0841738283634185791 2.76917839050292969 0
0.404083102941513062 1.47478437423706055 0
0.429915010929107666 1.22281491756439209 0
0.198953211307525635 1.90538692474365234 0
0.0913284718990325928 2.45524191856384277 0
0.0226126909255981445 2.76861906051635742 0
0.342974662780761719 2.24861049652099609 0
0.489917874336242676 1.41054415702819824 0
0.374337315559387207 2.56351685523986816 0
0.483484864234924316 1.02588975429534912 0
0.0695613622665405273 2.57126498222351074 0
0.410365700721740723 0.600841045379638672 0
0.482182145118713379 0.51822352409362793 0
0.346249878406524658 1.74542868137359619 0
0.39491724967956543 2.16188359260559082 0
0.321444332599639893 1.70948290824890137 0
0.241209477186203003 1.58793544769287109 0
0.0559211969375610352 2.54529142379760742 0
0.239596158266067505 1.798370361328125 0
0.329868733882904053 1.39564907550811768 0
0.185378938913345337 2.44432783126831055 0
0.2216758131980896 2.21845006942749023 0
0.302635014057159424 2.33263802528381348 0
0.408450305461883545 1.99170207977294922 0
0.425855726003646851 1.60739803314208984 0
0.43988993763923645 0.947340011596679688 0
0.315587520599365234 1.27801501750946045 0
0.376780092716217041 1.58807122707366943 0
0.283952564001083374 1.5063936710357666 0
0.260573476552963257 1.48806047439575195 0
0.36137700080871582 1.74019956588745117 0
0.488699734210968018 1.85627484321594238 0
0.456136196851730347 2.21848797798156738 0
0.315882384777069092 1.05033290386199951 0
0.382622957229614258 1.59949028491973877 0
0.0546306371688842773 2.61062073707580566 0
0.450431704521179199 2.00918745994567871 0
0.421339362859725952 0.519943714141845703 0
0.341714262962341309 1.45097577571868896 0
0.211476236581802368 1.97495293617248535 0
0.135247319936752319 2.70232152938842773 0
0.446350514888763428 0.759371280670166016 0
0.488798826932907104 2.41112160682678223 0
0.453761130571365356 1.39231026172637939 0
0.424738198518753052 0.596137523651123047 0
0.414691627025604248 1.72611546516418457 0
0.455671310424804688 2.04978394508361816 0
0.472292780876159668 1.41104423999786377 0
0.483953416347503662 0.148789644241333008 0
0.233041048049926758 2.17039322853088379 0
0.201449871063232422 2.4683537483215332 0
0.47551727294921875 0.522710800170898438 0
0.464203059673309326 1.91572356224060059 0
0.380068123340606689 1.3221282958984375 0
0.451984405517578125 1.00787174701690674 0
0.439315468072891235 1.61680865287780762 0
