ply
format ascii 1.0
element vertex 734
property float x
property float y
property float z
end_header
-0.0902604833245277405 -0.0439744293689727783 0.0439323894679546356
-0.0857722163200378418 -0.0396966598927974701 0.047722160816192627
-0.0923313722014427185 -0.0366639718413352966 0.0504088886082172394
-0.0763393566012382507 -0.0448644533753395081 0.0431438982486724854
-0.0640067756175994873 -0.0385222882032394409 0.0487625636160373688
-0.0723701938986778259 -0.0386775322258472443 0.0486250296235084534
-0.0831577032804489136 -0.0371975339949131012 0.049936193972826004
-0.0563687235116958618 -0.0374151170253753662 0.0497434288263320923
-0.0804822742938995361 -0.0384321883320808411 0.0488423854112625122
-0.0627564787864685059 -0.0438020229339599609 0.0440851263701915741
-0.0669848695397377014 -0.0395444631576538086 0.0478569939732551575
-0.0865058749914169312 -0.0494525730609893799 0.0375760607421398163
-0.0652226731181144714 -0.0532347485423088074 0.0320966318249702454
-0.0656037330627441406 -0.0530631355941295624 0.0323452576994895935
-0.0881711244583129883 -0.0487710647284984589 0.0385633930563926697
-0.0806177929043769836 -0.0527682565152645111 0.0327724665403366089
-0.0686858966946601868 -0.0543816462159156799 0.0304350666701793671
-0.0663804560899734497 -0.0549681819975376129 0.0295853205025196075
-0.0569865256547927856 -0.0478558279573917389 0.0398893468081951141
-0.0882857590913772583 -0.047497723251581192 0.0404081530869007111
-0.0570144876837730408 -0.0512727759778499603 0.0349390394985675812
-0.0832278057932853699 -0.0474369414150714874 0.0404962077736854553
-0.0593246966600418091 -0.0488776080310344696 0.0384090431034564972
-0.078322194516658783 -0.0495763234794139862 0.0373967811465263367
-0.0701949596405029297 -0.0512681305408477783 0.0349457673728466034
-0.0831316858530044556 -0.060398835688829422 0.0157087855041027069
-0.0884237214922904968 -0.0594535917043685913 0.0182011909782886505
-0.0845588147640228271 -0.0591496378183364868 0.0190026536583900452
-0.0894069373607635498 -0.0581519678235054016 0.0216332860291004181
-0.0728111490607261658 -0.0598679408431053162 0.0171086471527814865
-0.055845748633146286 -0.0604235939681529999 0.0156435035169124603
-0.0895645171403884888 -0.0601152069866657257 0.0164566580206155777
-0.0677575618028640747 -0.0576738864183425903 0.0228938870131969452
-0.0615500584244728088 -0.0555368326604366302 0.0285288300365209579
-0.0539407767355442047 -0.0559714287519454956 0.0273829009383916855
-0.0687414631247520447 -0.0580079108476638794 0.0220131389796733856
-0.0681632161140441895 -0.0572744272649288177 0.0239471737295389175
-0.0716094896197319031 -0.0581787750124931335 0.0215626098215579987
-0.059103701263666153 -0.0589392967522144318 0.0195572748780250549
-0.0901989415287971497 -0.0615400746464729309 0.00790569651871919632
-0.0750483423471450806 -0.0621661730110645294 0.00274931709282100201
-0.0856499820947647095 -0.0612307041883468628 0.0104536125436425209
-0.0833923071622848511 -0.0611977353692054749 0.0107251359149813652
-0.0797929167747497559 -0.0624322779476642609 0.000557744991965591908
-0.0854220837354660034 -0.0622166357934474945 0.00233371881768107414
-0.0910384878516197205 -0.0608279779553413391 0.0137703632935881615
-0.0687081813812255859 -0.0615267567336559296 0.00801538862287998199
-0.0590523406863212585 -0.061124749481678009 0.0113262347877025604
-0.0867796167731285095 -0.06081375852227211 0.0138874687254428864
-0.0622987337410449982 -0.061917521059513092 0.00479714665561914444
-0.0798727422952651978 -0.0609048493206501007 0.0131372548639774323
-0.0813791826367378235 -0.0607957243919372559 0.0140359997749328613
-0.0721307694911956787 -0.0609386637806892395 0.0128587502986192703
-0.0967499986290931702 -0.0671035274863243103 -0.00317172030918300152
-0.0967499986290931702 -0.0709157735109329224 -0.000881470856256783009
-0.0967499986290931702 -0.0795626640319824219 -0.000694477406796067953
-0.0967499986290931702 -0.0767417028546333313 -0.00754880765452980995
-0.0967499986290931702 -0.0637680292129516602 -0.00900878477841615677
-0.0967499986290931702 -0.0693603977560997009 -0.0159012917429208755
-0.0967499986290931702 -0.0622930563986301422 -0.00874050520360469818
-0.0967499986290931702 -0.0628957822918891907 -0.0132964681833982468
-0.0967499986290931702 -0.0670871585607528687 -0.0178159140050411224
-0.0967499986290931702 -0.0748963132500648499 -0.0308023653924465179
-0.0967499986290931702 -0.0712606161832809448 -0.0197039805352687836
-0.0967499986290931702 -0.0733343437314033508 -0.0225504431873559952
-0.0967499986290931702 -0.0662370920181274414 -0.0234518870711326599
-0.0967499986290931702 -0.0618129000067710876 -0.0199115835130214691
-0.0967499986290931702 -0.0591110661625862122 -0.0201464146375656128
-0.0967499986290931702 -0.0696858614683151245 -0.0274685900658369064
-0.0967499986290931702 -0.0648162290453910828 -0.03744497150182724
-0.0967499986290931702 -0.0648283958435058594 -0.0355949103832244873
-0.0967499986290931702 -0.0648693740367889404 -0.041555456817150116
-0.0967499986290931702 -0.0608329847455024719 -0.0440608300268650055
-0.0967499986290931702 -0.053849298506975174 -0.0434477478265762329
-0.0967499986290931702 -0.0576919615268707275 -0.0351766906678676605
-0.0967499986290931702 -0.0651981905102729797 -0.046913880854845047
-0.0967499986290931702 -0.0604416877031326294 -0.0500400066375732422
-0.0967499986290931702 -0.0580094903707504272 -0.0576692111790180206
-0.0967499986290931702 -0.060656864196062088 -0.0536089241504669189
-0.0967499986290931702 -0.0575603321194648743 -0.0479290299117565155
-0.0967499986290931702 -0.0452638044953346252 -0.0506925657391548157
-0.0967499986290931702 -0.0381817333400249481 -0.0524275973439216614
-0.0967499986290931702 -0.0497182644903659821 -0.0566506944596767426
-0.0967499986290931702 -0.043462023138999939 -0.0624561607837677002
-0.0967499986290931702 -0.0424149185419082642 -0.063390001654624939
-0.0967499986290931702 -0.0409991331398487091 -0.069580376148223877
-0.0967499986290931702 -0.0523175597190856934 -0.0608874782919883728
-0.0967499986290931702 -0.0343730449676513672 -0.0635094344615936279
-0.0967499986290931702 -0.0360576137900352478 -0.0615397877991199493
-0.0967499986290931702 -0.0345354937016963959 -0.0618460066616535187
-0.0967499986290931702 -0.0296956729143857956 -0.0585972517728805542
-0.0967499986290931702 -0.0246396064758300781 -0.0626840665936470032
-0.0967499986290931702 -0.0312075838446617126 -0.0743987187743186951
-0.0967499986290931702 -0.0366483964025974274 -0.0685069188475608826
-0.0967499986290931702 -0.0253269318491220474 -0.0711316913366317749
-0.0967499986290931702 -0.0181175991892814636 -0.0659667849540710449
-0.0967499986290931702 -0.0122779263183474541 -0.0644345954060554504
-0.0967499986290931702 -0.0187404118478298187 -0.0670586749911308289
-0.0967499986290931702 -0.0239438209682703018 -0.071971304714679718
-0.0967499986290931702 -0.0098497951403260231 -0.0801022127270698547
-0.0967499986290931702 -0.0099977860227227211 -0.0769102573394775391
-0.0967499986290931702 -0.0129671338945627213 -0.0682881921529769897
-0.0967499986290931702 0.0064866761676967144 -0.0773354843258857727
-0.0967499986290931702 0.00367637909948825836 -0.0736221820116043091
-0.0967499986290931702 0.00768481893464922905 -0.0652785599231719971
-0.0967499986290931702 0.00268706888891756535 -0.0678232982754707336
-0.0967499986290931702 -0.000235238112509250641 -0.079561673104763031
-0.0967499986290931702 0.00449908990412950516 -0.0819113478064537048
-0.0967499986290931702 -0.00642844382673501968 -0.0693929716944694519
-0.0967499986290931702 -0.00423646066337823868 -0.0758340209722518921
-0.0967499986290931702 0.0650113970041275024 -0.00572047196328639984
-0.0967499986290931702 0.0662926062941551208 -0.0062760673463344574
-0.0967499986290931702 0.0636722519993782043 -0.00125725381076335907
-0.0967499986290931702 0.0773547366261482239 -0.0104582663625478745
-0.0967499986290931702 0.0723725110292434692 -0.00350144272670149803
-0.0967499986290931702 0.0701568052172660828 -0.00101329991593956947
-0.0967499986290931702 0.0736305490136146545 -0.0101788435131311417
-0.0967499986290931702 0.0163577049970626831 -0.0608464404940605164
-0.0967499986290931702 0.0128602664917707443 -0.0623976960778236389
-0.0967499986290931702 0.00993494968861341476 -0.0629712492227554321
-0.0967499986290931702 0.0211590267717838287 -0.0697957202792167664
-0.0967499986290931702 0.0109200505539774895 -0.078396722674369812
-0.0967499986290931702 0.0112041905522346497 -0.0679140090942382812
-0.0967499986290931702 0.0124623943120241165 -0.076424717903137207
-0.0967499986290931702 0.0147895142436027527 -0.0804508551955223083
-0.0967499986290931702 0.0599691346287727356 -0.0231650099158287048
-0.0967499986290931702 0.0698247998952865601 -0.0281182583421468735
-0.0967499986290931702 0.0621235296130180359 -0.0257995463907718658
-0.0967499986290931702 0.0682687684893608093 -0.015872221440076828
-0.0967499986290931702 0.0745853260159492493 -0.0303599517792463303
-0.0967499986290931702 0.0748827084898948669 -0.0210849568247795105
-0.0967499986290931702 0.0724357068538665771 -0.0211293920874595642
-0.0967499986290931702 0.0286218114197254181 -0.0557650774717330933
-0.0967499986290931702 0.0384527668356895447 -0.0637728571891784668
-0.0967499986290931702 0.0382889434695243835 -0.0634628087282180786
-0.0967499986290931702 0.0255030002444982529 -0.0582601912319660187
-0.0967499986290931702 0.0271526705473661423 -0.0744677633047103882
-0.0967499986290931702 0.0249343551695346832 -0.0668103471398353577
-0.0967499986290931702 0.0320322588086128235 -0.0725051462650299072
-0.0967499986290931702 0.0249264910817146301 -0.0657876506447792053
-0.0967499986290931702 0.0596603304147720337 -0.0447990261018276215
-0.0967499986290931702 0.0555149056017398834 -0.042260386049747467
-0.0967499986290931702 0.0591307766735553741 -0.0403801910579204559
-0.0967499986290931702 0.0707319900393486023 -0.0365219637751579285
-0.0967499986290931702 0.0645406618714332581 -0.0395773574709892273
-0.0967499986290931702 0.057668488472700119 -0.0321925058960914612
-0.0967499986290931702 0.0630009248852729797 -0.0407564826309680939
-0.0967499986290931702 0.0398461334407329559 -0.0492281727492809296
-0.0967499986290931702 0.0398248247802257538 -0.0509285293519496918
-0.0967499986290931702 0.0468495860695838928 -0.0540260858833789825
-0.0967499986290931702 0.0411396436393260956 -0.04958391934633255
-0.0967499986290931702 0.0453300215303897858 -0.0671843066811561584
-0.0967499986290931702 0.0465980656445026398 -0.0637762844562530518
-0.0967499986290931702 0.048503730446100235 -0.0591349601745605469
-0.0967499986290931702 0.0488632433116436005 -0.0621268898248672485
-0.0967499986290931702 0.0556405298411846161 -0.0519734397530555725
-0.0967499986290931702 0.0567355230450630188 -0.0507376603782176971
-0.0967499986290931702 0.0524800047278404236 -0.0484045855700969696
-0.0967499986290931702 0.0586788803339004517 -0.0550741702318191528
-0.0967499986290931702 -0.0585083514451980591 0.0552870482206344604
-0.0967499986290931702 -0.0550610385835170746 0.0518184937536716461
-0.0967499986290931702 -0.0511879250407218933 0.0488951876759529114
-0.0967499986290931702 -0.0655716359615325928 0.0483014620840549469
-0.0967499986290931702 -0.0434154868125915527 0.0666643083095550537
-0.0967499986290931702 -0.043957054615020752 0.0622968822717666626
-0.0967499986290931702 -0.0470897182822227478 0.0605358816683292389
-0.0967499986290931702 -0.0433213934302330017 0.0652415156364440918
-0.0967499986290931702 -0.0539123862981796265 0.0600498951971530914
-0.0967499986290931702 -0.0388031713664531708 0.0518127232789993286
-0.0967499986290931702 -0.0447432659566402435 0.0481763146817684174
-0.0967499986290931702 -0.0438842698931694031 0.0531990490853786469
-0.0967499986290931702 -0.0639825612306594849 0.0368983149528503418
-0.0967499986290931702 -0.0611359328031539917 0.0378911755979061127
-0.0967499986290931702 -0.0684359818696975708 0.0405477061867713928
-0.0967499986290931702 -0.059449274092912674 0.0327147766947746277
-0.0967499986290931702 -0.0607962161302566528 0.041903860867023468
-0.0967499986290931702 -0.0616134107112884521 0.0414646901190280914
-0.0967499986290931702 -0.0543582141399383545 0.0427861139178276062
-0.0967499986290931702 -0.0249588396400213242 0.0722239688038825989
-0.0967499986290931702 -0.0300965216010808945 0.0672540962696075439
-0.0967499986290931702 -0.0290503744035959244 0.0724264904856681824
-0.0967499986290931702 -0.0254159979522228241 0.0744344592094421387
-0.0967499986290931702 -0.0394234433770179749 0.0694048404693603516
-0.0967499986290931702 -0.0333910845220088959 0.0587818622589111328
-0.0967499986290931702 -0.0330325812101364136 0.0613271072506904602
-0.0967499986290931702 -0.0741068795323371887 0.028019145131111145
-0.0967499986290931702 -0.0704570412635803223 0.0208820085972547531
-0.0967499986290931702 -0.0646919161081314087 0.0157227255403995514
-0.0967499986290931702 -0.0763115733861923218 0.0202513616532087326
-0.0967499986290931702 -0.0613463036715984344 0.0211673863232135773
-0.0967499986290931702 -0.0659737065434455872 0.0242242570966482162
-0.0967499986290931702 -0.0627488568425178528 0.0248559620231389999
-0.0967499986290931702 -0.01363360695540905 0.0797450989484786987
-0.0967499986290931702 -0.00995985884219408035 0.0730411931872367859
-0.0967499986290931702 -0.0155581748113036156 0.0748685970902442932
-0.0967499986290931702 -0.0135322203859686852 0.0769797042012214661
-0.0967499986290931702 -0.0204254891723394394 0.0606943406164646149
-0.0967499986290931702 -0.0237467959523200989 0.0751536116003990173
-0.0967499986290931702 -0.0164081361144781113 0.0668890923261642456
-0.0967499986290931702 -0.0794935896992683411 0.0113031715154647827
-0.0967499986290931702 -0.0758344605565071106 0.000869006442371755838
-0.0967499986290931702 -0.0803524106740951538 0.00436331052333116531
-0.0967499986290931702 -0.076496124267578125 0.0139180971309542656
-0.0967499986290931702 -0.062253020703792572 0.00478836661204695702
-0.0967499986290931702 -0.0761860981583595276 0.0129181016236543655
-0.0967499986290931702 -0.0717520415782928467 0.0126650324091315269
-0.0967499986290931702 0.000873792218044400215 0.0704828277230262756
-0.0967499986290931702 0.00346734374761581421 0.0722352638840675354
-0.0967499986290931702 0.00747695844620466232 0.0770061686635017395
-0.0967499986290931702 -0.000250129902269691229 0.0793253928422927856
-0.0967499986290931702 -0.00555566558614373207 0.0683997198939323425
-0.0967499986290931702 -0.00136363599449396133 0.069326743483543396
-0.0967499986290931702 -0.00811117421835660934 0.0782040953636169434
-0.0967499986290931702 0.0214544627815485001 0.0748400315642356873
-0.0967499986290931702 0.0218856967985630035 0.078046843409538269
-0.0967499986290931702 0.0130918733775615692 0.0723187029361724854
-0.0967499986290931702 0.00955453235656023026 0.0762532502412796021
-0.0967499986290931702 0.0234880223870277405 0.06939736008644104
-0.0967499986290931702 0.0188542865216732025 0.060479290783405304
-0.0967499986290931702 0.0178797431290149689 0.0712864622473716736
-0.0967499986290931702 0.0240026488900184631 0.0725155249238014221
-0.0967499986290931702 0.0323021449148654938 0.0731633156538009644
-0.0967499986290931702 0.0275263804942369461 0.0699847117066383362
-0.0967499986290931702 0.024701923131942749 0.0620265565812587738
-0.0967499986290931702 0.0275663789361715317 0.0661805421113967896
-0.0967499986290931702 0.0283028502017259598 0.0570806786417961121
-0.0967499986290931702 0.0311546716839075089 0.0581802651286125183
-0.0967499986290931702 0.0278225205838680267 0.0614178553223609924
-0.0967499986290931702 0.0358387492597103119 0.0602431297302246094
-0.0967499986290931702 0.0438585095107555389 0.0596140921115875244
-0.0967499986290931702 0.0489300824701786041 0.0637930929660797119
-0.0967499986290931702 0.0443004071712493896 0.0660797655582427979
-0.0967499986290931702 0.046552654355764389 0.0552367083728313446
-0.0967499986290931702 0.0497279316186904907 0.0514876134693622589
-0.0967499986290931702 0.0472624488174915314 0.0567165389657020569
-0.0967499986290931702 0.038707096129655838 0.0504957325756549835
-0.0967499986290931702 0.057068798691034317 0.0502204075455665588
-0.0967499986290931702 0.0517544560134410858 0.0453514717519283295
-0.0967499986290931702 0.054257616400718689 0.0477279685437679291
-0.0967499986290931702 0.0558947548270225525 0.0508185885846614838
-0.0967499986290931702 0.0561850517988204956 0.0446068421006202698
-0.0967499986290931702 0.0594954639673233032 0.0401789136230945587
-0.0967499986290931702 0.0602934360504150391 0.0394774153828620911
-0.0967499986290931702 0.0585711821913719177 0.0377069674432277679
-0.0967499986290931702 0.0674933344125747681 0.0387565828859806061
-0.0967499986290931702 0.0665066763758659363 0.0327500253915786743
-0.0967499986290931702 0.063266754150390625 0.0390381328761577606
-0.0967499986290931702 0.064041532576084137 0.03393549844622612
-0.0967499986290931702 0.0600961595773696899 0.0210967622697353363
-0.0967499986290931702 0.0617099292576313019 0.0225680992007255554
-0.0967499986290931702 0.0670815706253051758 0.0312627144157886505
-0.0967499986290931702 0.0580581612884998322 0.024872221052646637
-0.0967499986290931702 0.0662682279944419861 0.0131478887051343918
-0.0967499986290931702 0.0631166696548461914 0.0145771615207195282
-0.0967499986290931702 0.066596105694770813 0.0124620236456394196
-0.0967499986290931702 0.0662570968270301819 0.0047381366603076458
-0.0967499986290931702 0.0671838149428367615 0.0171061847358942032
-0.0967499986290931702 0.0722313225269317627 0.0179788265377283096
-0.0967499986290931702 0.0756959244608879089 0.0185568518936634064
-0.0967499986290931702 0.0768028870224952698 0.0279629640281200409
-0.0967499986290931702 0.0814333781599998474 0.000503002665936946869
-0.0967499986290931702 0.0725207775831222534 0.00115606095641851425
-0.0967499986290931702 0.0749021396040916443 0.00885691028088331223
-0.0967499986290931702 0.0721520483493804932 0.0003598913608584553
0.0967499986290931702 -0.051366068422794342 -0.0512317009270191193
0.0967499986290931702 -0.0530048944056034088 -0.0463850870728492737
0.0967499986290931702 -0.0518637225031852722 -0.0434616804122924805
0.0967499986290931702 -0.0558557920157909393 -0.0529088973999023438
0.0967499986290931702 -0.0501349233090877533 -0.0644501745700836182
0.0967499986290931702 -0.0508467964828014374 -0.0602827370166778564
0.0967499986290931702 -0.0421762950718402863 -0.0691741630434989929
0.0967499986290931702 -0.0409607924520969391 -0.0615663155913352966
0.0967499986290931702 -0.0385145582258701324 -0.0523495674133300781
0.0967499986290931702 -0.0480926409363746643 -0.0494366101920604706
0.0967499986290931702 -0.046078655868768692 -0.0458842664957046509
0.0967499986290931702 -0.051279410719871521 -0.0584693588316440582
0.0967499986290931702 -0.0655734390020370483 -0.0356477014720439911
0.0967499986290931702 -0.0617382079362869263 -0.0374604649841785431
0.0967499986290931702 -0.0631896480917930603 -0.0317648574709892273
0.0967499986290931702 -0.0716706812381744385 -0.0395984500646591187
0.0967499986290931702 -0.0542692951858043671 -0.0351456180214881897
0.0967499986290931702 -0.0564012341201305389 -0.0389345996081829071
0.0967499986290931702 -0.0614006072282791138 -0.0434626750648021698
0.0967499986290931702 -0.0298968479037284851 -0.0652266666293144226
0.0967499986290931702 -0.025808580219745636 -0.068491816520690918
0.0967499986290931702 -0.0242872349917888641 -0.0701506733894348145
0.0967499986290931702 -0.0228224024176597595 -0.060274902731180191
0.0967499986290931702 -0.0349804908037185669 -0.0654846504330635071
0.0967499986290931702 -0.031650204211473465 -0.062970280647277832
0.0967499986290931702 -0.0362076014280319214 -0.0551438592374324799
0.0967499986290931702 -0.0338492728769779205 -0.0612194687128067017
0.0967499986290931702 -0.0677443444728851318 -0.0168487224727869034
0.0967499986290931702 -0.0715820193290710449 -0.0237453915178775787
0.0967499986290931702 -0.0768892988562583923 -0.0189681611955165863
0.0967499986290931702 -0.0624934360384941101 -0.0274980850517749786
0.0967499986290931702 -0.0682432875037193298 -0.0286384671926498413
0.0967499986290931702 -0.0689544901251792908 -0.03078434057533741
0.0967499986290931702 -0.0639357566833496094 -0.0269318819046020508
0.0967499986290931702 -0.0161925740540027618 -0.0779803097248077393
0.0967499986290931702 -0.0203827861696481705 -0.0778189674019813538
0.0967499986290931702 -0.0142764942720532417 -0.0794680118560791016
0.0967499986290931702 -0.0135976048186421394 -0.0791780799627304077
0.0967499986290931702 -0.0153276743367314339 -0.0613740421831607819
0.0967499986290931702 -0.0206297673285007477 -0.0702835917472839355
0.0967499986290931702 -0.0155183933675289154 -0.0645630061626434326
0.0967499986290931702 -0.0222068317234516144 -0.0666254386305809021
0.0967499986290931702 -0.0680423974990844727 -0.00377985415980219841
0.0967499986290931702 -0.0801200568675994873 -0.00369338341988623142
0.0967499986290931702 -0.0799740329384803772 -0.00839127134531736374
0.0967499986290931702 -0.081201307475566864 -0.000218368848436512053
0.0967499986290931702 -0.0679774656891822815 -0.0154020749032497406
0.0967499986290931702 -0.0713653564453125 -0.0151014737784862518
0.0967499986290931702 -0.0714986249804496765 -0.0131612168624997139
0.0967499986290931702 -0.000229570985538884997 -0.0810288712382316589
0.0967499986290931702 0.000158069131430238485 -0.0792378336191177368
0.0967499986290931702 -0.0015228434931486845 -0.073934309184551239
0.0967499986290931702 0.001349681057035923 -0.074918307363986969
0.0967499986290931702 -0.00422543101012706757 -0.0635371208190917969
0.0967499986290931702 -0.00210985727608203888 -0.0631436780095100403
0.0967499986290931702 -0.0053728087805211544 -0.0717950835824012756
0.0967499986290931702 -0.00703395158052444458 -0.0764006227254867554
0.0967499986290931702 0.013074229471385479 -0.0803938806056976318
0.0967499986290931702 0.0108763556927442551 -0.0812067091464996338
0.0967499986290931702 0.0114864576607942581 -0.0766532421112060547
0.0967499986290931702 0.0172709804028272629 -0.0751342475414276123
0.0967499986290931702 0.0195808429270982742 -0.0610814765095710754
0.0967499986290931702 0.0161052625626325607 -0.0694150105118751526
0.0967499986290931702 0.0156812630593776703 -0.0630257725715637207
0.0967499986290931702 0.0306575242429971695 -0.0672199800610542297
0.0967499986290931702 0.0347113199532032013 -0.0719311460852622986
0.0967499986290931702 0.0350722856819629669 -0.0702330321073532104
0.0967499986290931702 0.0241632908582687378 -0.0651592761278152466
0.0967499986290931702 0.0345093794167041779 -0.052938949316740036
0.0967499986290931702 0.0345392823219299316 -0.0584524422883987427
0.0967499986290931702 0.0379280261695384979 -0.0646702274680137634
0.0967499986290931702 0.04692830890417099 -0.0578486211597919464
0.0967499986290931702 0.0453864894807338715 -0.0605112537741661072
0.0967499986290931702 0.0462016761302947998 -0.0672850757837295532
0.0967499986290931702 0.0542536452412605286 -0.0613536573946475983
0.0967499986290931702 0.0511865392327308655 -0.053763803094625473
0.0967499986290931702 0.0544724203646183014 -0.0596995130181312561
0.0967499986290931702 0.0476095601916313171 -0.0468937084078788757
0.0967499986290931702 0.0515848957002162933 -0.050567280501127243
0.0967499986290931702 0.0577727816998958588 -0.04833250492811203
0.0967499986290931702 0.0560249350965023041 -0.0472112782299518585
0.0967499986290931702 0.0535951554775238037 -0.0522541292011737823
0.0967499986290931702 0.0547215305268764496 -0.0372414775192737579
0.0967499986290931702 0.0501710958778858185 -0.0426093600690364838
0.0967499986290931702 0.0552532300353050232 -0.0308962371200323105
0.0967499986290931702 0.0543401166796684265 -0.04148082435131073
0.0967499986290931702 0.0622256994247436523 -0.0338449925184249878
0.0967499986290931702 0.0648982152342796326 -0.031262572854757309
0.0967499986290931702 0.0714850276708602905 -0.0366051942110061646
0.0967499986290931702 0.0695082470774650574 -0.036413341760635376
0.0967499986290931702 0.0649885758757591248 -0.0297620147466659546
0.0967499986290931702 0.0677182599902153015 -0.0288028735667467117
0.0967499986290931702 0.0712686553597450256 -0.0293426439166069031
0.0967499986290931702 0.0650664418935775757 -0.010295698419213295
0.0967499986290931702 0.0656418949365615845 -0.012984052300453186
0.0967499986290931702 0.0623612590134143829 -0.012261711061000824
0.0967499986290931702 0.075112760066986084 -0.0224174000322818756
0.0967499986290931702 0.0770399123430252075 -0.0240219384431838989
0.0967499986290931702 0.0764908343553543091 -0.0261177457869052887
0.0967499986290931702 0.0755158141255378723 -0.0206627100706100464
0.0967499986290931702 0.0818522274494171143 -0.00112882489338517189
0.0967499986290931702 0.0788825452327728271 -0.0039871828630566597
0.0967499986290931702 0.081400848925113678 -0.00355988857336342335
0.0967499986290931702 0.0789245516061782837 -0.0143222855404019356
0.0967499986290931702 -0.0724662244319915771 0.00937474332749843597
0.0967499986290931702 -0.0722477808594703674 0.00739025697112083435
0.0967499986290931702 -0.0802638009190559387 0.00643596239387989044
0.0967499986290931702 -0.0807249695062637329 0.00638534547761082649
0.0967499986290931702 -0.0623822100460529327 0.0104711223393678665
0.0967499986290931702 -0.0693653374910354614 0.0136957420036196709
0.0967499986290931702 -0.0617737099528312683 0.0120731331408023834
0.0967499986290931702 -0.0694218426942825317 0.0078466637060046196
0.0967499986290931702 -0.063856862485408783 0.0180331282317638397
0.0967499986290931702 -0.0760499835014343262 0.022382393479347229
0.0967499986290931702 -0.064823247492313385 0.0196434482932090759
0.0967499986290931702 -0.0594026036560535431 0.0186211094260215759
0.0967499986290931702 -0.0589673407375812531 0.0290691331028938293
0.0967499986290931702 -0.064755558967590332 0.027556518092751503
0.0967499986290931702 -0.065550290048122406 0.0442888848483562469
0.0967499986290931702 -0.0643716603517532349 0.0400528982281684875
0.0967499986290931702 -0.0668198466300964355 0.0413575544953346252
0.0967499986290931702 -0.0735297799110412598 0.0348020456731319427
0.0967499986290931702 -0.0580193139612674713 0.0433258786797523499
0.0967499986290931702 -0.0555605478584766388 0.041922103613615036
0.0967499986290931702 -0.0534598790109157562 0.0388130471110343933
0.0967499986290931702 -0.0585746131837368011 0.0368894971907138824
0.0967499986290931702 -0.0627008676528930664 0.0499311089515686035
0.0967499986290931702 -0.0513777397572994232 0.0488787665963172913
0.0967499986290931702 -0.0630555376410484314 0.0494352430105209351
0.0967499986290931702 -0.0560079589486122131 0.0585533864796161652
0.0967499986290931702 -0.0509494207799434662 0.0527633540332317352
0.0967499986290931702 -0.0393508821725845337 0.0482205450534820557
0.0967499986290931702 -0.0492954961955547333 0.0489670820534229279
0.0967499986290931702 -0.0496010482311248779 0.0568761751055717468
0.0967499986290931702 -0.0414437763392925262 0.0701214522123336792
0.0967499986290931702 -0.0372055582702159882 0.0526060611009597778
0.0967499986290931702 -0.038153521716594696 0.0552528649568557739
0.0967499986290931702 -0.0385784320533275604 0.0546817481517791748
0.0967499986290931702 -0.0292657390236854553 0.05522165447473526
0.0967499986290931702 -0.0392943061888217926 0.0665749162435531616
0.0967499986290931702 -0.0342697054147720337 0.0659826472401618958
0.0967499986290931702 -0.0349402539432048798 0.065180651843547821
0.0967499986290931702 -0.031601589173078537 0.0675572901964187622
0.0967499986290931702 -0.0237121451646089554 0.0657191723585128784
0.0967499986290931702 -0.0229477174580097198 0.0627726092934608459
0.0967499986290931702 -0.038450438529253006 0.0723788440227508545
0.0967499986290931702 -0.0135214785113930702 0.0640992522239685059
0.0967499986290931702 -0.0206759758293628693 0.0612032786011695862
0.0967499986290931702 -0.0145018333569169044 0.0661898180842399597
0.0967499986290931702 -0.0207148902118206024 0.0694830268621444702
0.0967499986290931702 -0.0175296459347009659 0.0790872350335121155
0.0967499986290931702 -0.0140345748513936996 0.0789203643798828125
0.0967499986290931702 -0.0123534947633743286 0.0757483541965484619
0.0967499986290931702 -0.00919225625693798065 0.0720907077193260193
0.0967499986290931702 0.00246981740929186344 0.0741021111607551575
0.0967499986290931702 0.00623046420514583588 0.0778561532497406006
0.0967499986290931702 0.00549596268683671951 0.0669102072715759277
0.0967499986290931702 0.0073278346098959446 0.0738763362169265747
0.0967499986290931702 0.000419637188315391541 0.0777320265769958496
0.0967499986290931702 0.00469481479376554489 0.0778455436229705811
0.0967499986290931702 0.00546360807493329048 0.0803138911724090576
0.0967499986290931702 0.00347035308368504047 0.081475473940372467
0.0967499986290931702 0.0679112225770950317 0.00977792032063007355
0.0967499986290931702 0.065029732882976532 0.0147118829190731049
0.0967499986290931702 0.062716163694858551 0.00717438571155071259
0.0967499986290931702 0.0677709951996803284 0.0014956863597035408
0.0967499986290931702 0.0794914811849594116 0.00355839915573596954
0.0967499986290931702 0.0780059471726417542 0.00055231340229511261
0.0967499986290931702 0.0748939588665962219 0.00229506473988294601
0.0967499986290931702 0.0209216084331274033 0.0684250146150588989
0.0967499986290931702 0.0176264457404613495 0.067755483090877533
0.0967499986290931702 0.0252703335136175156 0.0781292766332626343
0.0967499986290931702 0.00923101697117090225 0.06517009437084198
0.0967499986290931702 0.00954686850309371948 0.0737981796264648438
0.0967499986290931702 0.0177014768123626709 0.0791981816291809082
0.0967499986290931702 0.0180790293961763382 0.0761138573288917542
0.0967499986290931702 0.0685632973909378052 0.0301161259412765503
0.0967499986290931702 0.0639146417379379272 0.0250729881227016449
0.0967499986290931702 0.0588492080569267273 0.0252019334584474564
0.0967499986290931702 0.0579996369779109955 0.0241544600576162338
0.0967499986290931702 0.0710638388991355896 0.028097858652472496
0.0967499986290931702 0.0730757638812065125 0.0298427063971757889
0.0967499986290931702 0.0752902403473854065 0.0180520582944154739
0.0967499986290931702 0.0683909356594085693 0.0188871696591377258
0.0967499986290931702 0.0339623503386974335 0.0652070194482803345
0.0967499986290931702 0.031820300966501236 0.0538532659411430359
0.0967499986290931702 0.0271277260035276413 0.061259191483259201
0.0967499986290931702 0.0290105994790792465 0.0549812428653240204
0.0967499986290931702 0.0317988209426403046 0.0656888186931610107
0.0967499986290931702 0.0271183401346206665 0.063627392053604126
0.0967499986290931702 0.0335316918790340424 0.0714319944381713867
0.0967499986290931702 0.0238845739513635635 0.0624909363687038422
0.0967499986290931702 0.0526688210666179657 0.0357440412044525146
0.0967499986290931702 0.0532699823379516602 0.0402225963771343231
0.0967499986290931702 0.052143242210149765 0.0399494245648384094
0.0967499986290931702 0.0604852959513664246 0.0306845009326934814
0.0967499986290931702 0.0707034990191459656 0.0328414440155029297
0.0967499986290931702 0.0639747381210327148 0.0364296771585941315
0.0967499986290931702 0.0673151686787605286 0.0354612618684768677
0.0967499986290931702 0.0451420508325099945 0.0545000806450843811
0.0967499986290931702 0.0394738428294658661 0.0533296763896942139
0.0967499986290931702 0.0409490838646888733 0.0473030097782611847
0.0967499986290931702 0.0437821261584758759 0.0567882433533668518
0.0967499986290931702 0.0405611991882324219 0.0652027130126953125
0.0967499986290931702 0.0455685481429100037 0.0629298314452171326
0.0967499986290931702 0.0469926595687866211 0.0660629644989967346
0.0967499986290931702 0.0626139864325523376 0.047368168830871582
0.0967499986290931702 0.0499219894409179688 0.0445737913250923157
0.0967499986290931702 0.0597719475626945496 0.0483626946806907654
0.0967499986290931702 0.0546599812805652618 0.0560324005782604218
0.0963793843984603882 0.0810893699526786804 -0.0134212793782353401
0.0965922027826309204 0.07699555903673172 -0.0285451412200927734
0.0944066271185874939 0.0772949978709220886 -0.0276235528290271759
0.0958104431629180908 0.0726500526070594788 -0.0382625311613082886
0.0942171141505241394 0.0585835725069046021 -0.0575552433729171753
0.0946706980466842651 0.0491693168878555298 -0.0656933784484863281
0.0962087437510490417 0.0300729982554912567 -0.0764234140515327454
0.0966076403856277466 0.0197297204285860062 -0.0796873793005943298
0.0941904410719871521 0.0189231075346469879 -0.079858832061290741
0.0962661504745483398 0.000736817717552185059 -0.0820480585098266602
0.0959592834115028381 0.00606943108141422272 -0.0820480585098266602
0.0944456532597541809 -0.0250101406127214432 -0.0785649865865707397
0.0949949994683265686 -0.0140676833689212799 -0.0808908790349960327
0.0956085920333862305 -0.0389692001044750214 -0.0724625736474990845
0.0966104045510292053 -0.0523032620549201965 -0.0634164288640022278
0.0939830541610717773 -0.0480397045612335205 -0.0665140897035598755
0.0940124541521072388 -0.0572605915367603302 -0.0590245649218559265
0.0966872125864028931 -0.0775810107588768005 -0.0267432983964681625
0.0963409692049026489 -0.0817899927496910095 -0.00675530964508652687
0.0962640866637229919 -0.0809336602687835693 -0.014902748167514801
0.0965218916535377502 -0.0812768936157226562 0.0116370720788836479
0.0962365567684173584 -0.082198508083820343 0.00286852754652500153
0.0954136624932289124 -0.0598845295608043671 0.0561103895306587219
0.0945348069071769714 -0.0429898388683795929 0.0701830312609672546
0.096587836742401123 -0.0228746086359024048 0.079018913209438324
0.0939364805817604065 -0.0216116160154342651 0.0792873650789260864
0.0962917804718017578 -0.00165197066962718964 0.0820480585098266602
0.0939212068915367126 -0.00769439944997429848 0.0820480585098266602
0.0942011177539825439 0.0189245790243148804 0.0798585191369056702
0.096652500331401825 0.0450346507132053375 0.0686973854899406433
0.0943923518061637878 0.0439926236867904663 0.0694544613361358643
0.0957041233777999878 0.0633897259831428528 0.0522174723446369171
0.0956224501132965088 0.0680042430758476257 0.0463093072175979614
0.095764845609664917 0.0780063420534133911 0.0254342630505561829
0.0943531617522239685 0.0776610672473907471 0.0264968983829021454
0.0950786024332046509 0.0807529762387275696 0.0166218467056751251
0.09375 -0.0791414007544517517 -0.00923347659409046173
0.09375 -0.08125314861536026 -0.00748929427936673164
0.09375 -0.0732028931379318237 -0.0155397038906812668
0.09375 -0.0722504407167434692 -0.00293410848826169968
0.09375 -0.0793625861406326294 -0.0201684925705194473
0.09375 -0.0759280696511268616 -0.0297995712608098984
0.09375 -0.0722747370600700378 -0.0236892476677894592
0.09375 -0.070162355899810791 -0.0269691143184900284
0.09375 -0.0666440278291702271 -0.0385515391826629639
0.09375 -0.0688384026288986206 -0.0400474034249782562
0.09375 -0.065182611346244812 -0.0423112921416759491
0.09375 -0.0590590871870517731 -0.0492264702916145325
0.09375 -0.0558665916323661804 -0.0605058334767818451
0.09375 -0.0535258576273918152 -0.0485239923000335693
0.09375 -0.052767779678106308 -0.0550716593861579895
0.09375 -0.0458906590938568115 -0.0589828342199325562
0.09375 -0.0520187243819236755 -0.0607990548014640808
0.09375 -0.0411293730139732361 -0.0607050731778144836
0.09375 -0.0341943055391311646 -0.066416911780834198
0.09375 -0.0336976312100887299 -0.0695614814758300781
0.09375 -0.0232477150857448578 -0.0688563361763954163
0.09375 -0.0274562481790781021 -0.0683488026261329651
0.09375 -0.0122931543737649918 -0.0718168020248413086
0.09375 -0.00884050223976373672 -0.0751469284296035767
0.09375 -0.0209264680743217468 -0.079241432249546051
0.09375 -0.0176561027765274048 -0.0727255195379257202
0.09375 0.0120153818279504776 -0.072185128927230835
0.09375 0.00691135600209236145 -0.0780840665102005005
0.09375 0.00738071464002132416 -0.0808285921812057495
0.09375 0.0034890372771769762 -0.0778343304991722107
0.09375 0.0728774741291999817 -0.00239442102611064911
0.09375 0.0797843113541603088 -0.00992564670741558075
0.09375 0.0732745304703712463 -0.000588688068091869354
0.09375 0.0279064029455184937 -0.0673622265458106995
0.09375 0.02591673843562603 -0.0729524865746498108
0.09375 0.0179833360016345978 -0.0755008980631828308
0.09375 0.0712534785270690918 -0.027542412281036377
0.09375 0.0661535412073135376 -0.0296992603689432144
0.09375 0.0751654878258705139 -0.0200771689414978027
0.09375 0.0776836574077606201 -0.0173891261219978333
0.09375 0.0427204407751560211 -0.065143294632434845
0.09375 0.0265048518776893616 -0.0771458148956298828
0.09375 0.0313116014003753662 -0.0745898261666297913
0.09375 0.0644586682319641113 -0.0474874414503574371
0.09375 0.0637967959046363831 -0.0350602529942989349
0.09375 0.0700172334909439087 -0.0350666046142578125
0.09375 0.0716818571090698242 -0.0358572490513324738
0.09375 0.0541499815881252289 -0.0576444491744041443
0.09375 0.0521257221698760986 -0.0555095560848712921
0.09375 0.0450236499309539795 -0.0681593716144561768
0.09375 0.0449339002370834351 -0.06305665522813797
0.09375 0.0625079944729804993 -0.0525134913623332977
0.09375 0.0581130944192409515 -0.0498237870633602142
0.09375 -0.0428906865417957306 0.0657991692423820496
0.09375 -0.0443212315440177917 0.0624045282602310181
0.09375 -0.0581517033278942108 0.049937903881072998
0.09375 -0.0562282465398311615 0.0578343495726585388
0.09375 -0.0510542914271354675 0.0525389648973941803
0.09375 -0.0529126077890396118 0.0547658652067184448
0.09375 -0.0712748244404792786 0.0334133133292198181
0.09375 -0.0677642822265625 0.0424660257995128632
0.09375 -0.0616282038390636444 0.0431824401021003723
0.09375 -0.0621677450835704803 0.0441955961287021637
0.09375 -0.0274247042834758759 0.0754920691251754761
0.09375 -0.0333100482821464539 0.071385599672794342
0.09375 -0.0372793674468994141 0.0663847103714942932
0.09375 -0.0403816066682338715 0.0658218413591384888
0.09375 -0.0737515464425086975 0.0189913436770439148
0.09375 -0.0787831321358680725 0.0193239860236644745
0.09375 -0.0691402554512023926 0.0270123444497585297
0.09375 -0.0700878351926803589 0.0229220408946275711
0.09375 -0.0154556604102253914 0.0797903388738632202
0.09375 -0.0157066453248262405 0.0727563574910163879
0.09375 -0.0200533345341682434 0.0707502067089080811
0.09375 -0.0169533286243677139 0.0706974565982818604
0.09375 0.00420131068676710129 0.0784962847828865051
0.09375 -0.00433334615081548691 0.0774774700403213501
0.09375 -0.00772392051294445992 0.081049017608165741
0.09375 -0.00292568723671138287 0.0757207944989204407
0.09375 -0.0784318447113037109 0.0056719551794230938
0.09375 -0.0751626715064048767 0.00311008980497717857
0.09375 -0.076775871217250824 0.0144355343654751778
0.09375 -0.0717223957180976868 0.00784573610872030258
0.09375 0.00285035767592489719 0.0740792825818061829
0.09375 0.010506918653845787 0.0785391703248023987
0.09375 0.0150902541354298592 0.0797050073742866516
0.09375 0.0167887341231107712 0.0791014954447746277
0.09375 0.0289868544787168503 0.0665841251611709595
0.09375 0.0269620884209871292 0.0740993469953536987
0.09375 0.0369994379580020905 0.0693983510136604309
0.09375 0.034273240715265274 0.0728380754590034485
0.09375 0.0426598191261291504 0.0613035820424556732
0.09375 0.0538506954908370972 0.0612656809389591217
0.09375 0.0444967560470104218 0.0625045895576477051
0.09375 0.0498361177742481232 0.0568174645304679871
0.09375 0.0524002537131309509 0.0506311729550361633
0.09375 0.0664794221520423889 0.0485452041029930115
0.09375 0.0629123225808143616 0.0519437529146671295
0.09375 0.0612471066415309906 0.0417157560586929321
0.09375 0.0595526210963726044 0.0431341417133808136
0.09375 0.0668136253952980042 0.0382284186780452728
0.09375 0.0690174996852874756 0.0429192259907722473
0.09375 0.0715118050575256348 0.0227776337414979935
0.09375 0.0705728381872177124 0.0173082780092954636
0.09375 0.0757187604904174805 0.0215762238949537277
0.09375 0.0733426958322525024 0.0213426686823368073
0.09375 0.0737395212054252625 0.0122884707525372505
0.09375 0.0722165703773498535 0.00349323288537561893
0.09375 0.0815999135375022888 0.00466172350570559502
0.09375 0.0803925171494483948 0.00230854097753763199
0.0697791874408721924 0.0710574612021446228 -0.0128028858453035355
0.0850338339805603027 0.070909842848777771 -0.0141130294650793076
0.0817396044731140137 0.0713759511709213257 -0.00997617468237876892
0.0774227380752563477 0.0712504982948303223 -0.0110896509140729904
0.0668332800269126892 0.0709413588047027588 -0.0138332964852452278
0.0889621973037719727 0.0710922032594680786 -0.012494540773332119
0.0757821127772331238 0.0708811208605766296 -0.0143679361790418625
0.0642865374684333801 0.0721966475248336792 -0.00269230525009334087
0.0604773685336112976 0.0712604671716690063 -0.01100118737667799
0.0606817230582237244 0.0714227631688117981 -0.00956078432500362396
0.0700326263904571533 0.0713000446557998657 -0.010649900883436203
0.0722383856773376465 0.0720319673418998718 -0.00415392499417066574
0.0631778240203857422 0.070896737277507782 -0.014229324646294117
0.0889371037483215332 0.0673886612057685852 -0.0255453735589981079
0.0728381946682929993 0.0655289813876152039 -0.0308600496500730515
0.0859329253435134888 0.0690708011388778687 -0.020738089457154274
0.0622909143567085266 0.0653324872255325317 -0.0314215868711471558
0.0802877172827720642 0.0671366304159164429 -0.0262656491249799728
0.0882217809557914734 0.068502865731716156 -0.022361166775226593
0.0698680132627487183 0.0696005672216415405 -0.0192241016775369644
0.0612690821290016174 0.0668013021349906921 -0.0272239614278078079
0.0697482749819755554 0.0675297603011131287 -0.0251421350985765457
0.0605456754565238953 0.066486552357673645 -0.0281234569847583771
0.0852698385715484619 0.0704712644219398499 -0.0167357847094535828
0.0679590478539466858 0.0671212747693061829 -0.0263095293194055557
0.0905071794986724854 0.0590300261974334717 -0.0414673984050750732
0.0794967785477638245 0.05767856165766716 -0.0436182394623756409
0.0824249833822250366 0.0622705817222595215 -0.0363100841641426086
0.0886626243591308594 0.0574409440159797668 -0.0439964085817337036
0.0899745076894760132 0.059495881199836731 -0.0407259948551654816
0.0921669453382492065 0.0589095316827297211 -0.0416591651737689972
0.0886843055486679077 0.0595359504222869873 -0.0406622216105461121
0.0770453810691833496 0.0642950981855392456 -0.0330880843102931976
0.0644297003746032715 0.0606051534414291382 -0.0389605984091758728
0.068267427384853363 0.0626120194792747498 -0.0357666909694671631
0.0621629096567630768 0.0595342591404914856 -0.0406649187207221985
0.0595764853060245514 0.0589340813457965851 -0.0416200943291187286
0.0686737596988677979 0.0650520697236061096 -0.0318833701312541962
0.0660619586706161499 0.0458040647208690643 -0.0560817308723926544
0.0912120640277862549 0.0509494319558143616 -0.0509363636374473572
0.0701924636960029602 0.0458426810801029205 -0.0560431145131587982
0.0670534372329711914 0.0471136085689067841 -0.0547721870243549347
0.0885239094495773315 0.0484572388231754303 -0.0534285567700862885
0.089292675256729126 0.0456760823726654053 -0.0562097132205963135
0.0794522017240524292 0.0478570908308029175 -0.0540287047624588013
0.0689618811011314392 0.0514781475067138672 -0.0504076480865478516
0.0666412338614463806 0.0566279776394367218 -0.0452578179538249969
0.0634941905736923218 0.0476686395704746246 -0.0542171560227870941
0.0620237663388252258 0.0540686249732971191 -0.0478171706199645996
0.0620433501899242401 0.0513134263455867767 -0.050572369247674942
0.0807426422834396362 0.0536304078996181488 -0.0482553876936435699
0.0894417017698287964 0.033154565840959549 -0.0642533227801322937
0.0811843425035476685 0.0400725603103637695 -0.0599064603447914124
0.0859428271651268005 0.0414405986666679382 -0.0590468645095825195
0.0737030729651451111 0.0349208414554595947 -0.0631434991955757141
0.0727049112319946289 0.0361762717366218567 -0.0623546615242958069
0.0698297023773193359 0.0341814532876014709 -0.0636080875992774963
0.0776024460792541504 0.0348569601774215698 -0.0631836429238319397
0.063219897449016571 0.0427157506346702576 -0.0582456327974796295
0.0615106523036956787 0.0410186611115932465 -0.0593119822442531586
0.0768060237169265747 0.0449327193200588226 -0.0568526200950145721
0.0920409858226776123 0.0450264550745487213 -0.0567937195301055908
0.0595025122165679932 0.0325747020542621613 -0.0646176785230636597
0.064610697329044342 0.0403440110385417938 -0.0597358979284763336
0.0858894288539886475 0.0190604515373706818 -0.0696578323841094971
0.0714105591177940369 0.0209991820156574249 -0.0689794421195983887
0.0890665724873542786 0.0199340209364891052 -0.0693521574139595032
0.090620286762714386 0.0266556143760681152 -0.067000173032283783
0.079483717679977417 0.0238538533449172974 -0.067980550229549408
0.0825992375612258911 0.0173007510602474213 -0.0702735781669616699
0.0784728676080703735 0.0199347212910652161 -0.0693519115447998047
0.0650116726756095886 0.0210225693881511688 -0.0689712539315223694
0.0635840445756912231 0.0286177489906549454 -0.0663135945796966553
0.0765838995575904846 0.0244844350963830948 -0.0677598938345909119
0.0727037936449050903 0.030319802463054657 -0.0657180175185203552
0.0777809843420982361 0.0279910862445831299 -0.0665328651666641235
0.0608897954225540161 0.0302819404751062393 -0.0657312646508216858
0.0914022773504257202 0.000304275337839499116 -0.0724657177925109863
0.069884173572063446 0.00294693396426737309 -0.0721679553389549255
0.0719490423798561096 0.00358794070780277252 -0.0720957368612289429
0.0929609090089797974 0.0118701765313744545 -0.0711625516414642334
0.0836480632424354553 0.0066907745786011219 -0.0717461258172988892
0.0934619829058647156 0.00624497327953577042 -0.0717963576316833496
0.0792211666703224182 0.00205933325923979282 -0.0722679644823074341
0.0623319707810878754 0.012819693423807621 -0.0710555613040924072
0.0762516036629676819 0.00881109200417995453 -0.0715072229504585266
0.0835062935948371887 0.0142430029809474945 -0.0708951950073242188
0.0778214558959007263 0.0152847561985254288 -0.0707778260111808777
0.0738002434372901917 0.015204952098429203 -0.0707868188619613647
0.0608858726918697357 0.0012068974319845438 -0.0723640173673629761
0.0711520016193389893 -0.01129152812063694 -0.0712277516722679138
0.0862275660037994385 -0.00625498965382575989 -0.0717952325940132141
0.0819774121046066284 -0.00909495633095502853 -0.0714752450585365295
0.071207195520401001 -0.0116119068115949631 -0.0711916536092758179
0.0935106351971626282 -0.0027582366019487381 -0.0721892192959785461
0.0831849351525306702 -0.00707611534744501114 -0.071702711284160614
0.0837898179888725281 -0.000552426092326641083 -0.0724377557635307312
0.082698523998260498 -0.00420225039124488831 -0.0720265135169029236
0.0646218881011009216 -0.0110762249678373337 -0.0712520033121109009
0.0768392384052276611 -0.00495637953281402588 -0.0719415545463562012
0.0595836639404296875 -0.0141278887167572975 -0.0709081664681434631
0.0740684419870376587 -0.00373314786702394485 -0.0720793753862380981
0.0737128928303718567 -0.0260550659149885178 -0.0672103166580200195
0.0692978501319885254 -0.0272443071007728577 -0.066794179379940033
0.0747914910316467285 -0.0271946359425783157 -0.0668115615844726562
0.0721359625458717346 -0.031396958976984024 -0.0653411075472831726
0.0684892535209655762 -0.0290217753499746323 -0.0661722198128700256
0.084894329309463501 -0.0298940781503915787 -0.0658669844269752502
0.0712736323475837708 -0.0206357669085264206 -0.0691066086292266846
0.0676553621888160706 -0.0178187452256679535 -0.070092320442199707
0.0615278929471969604 -0.0261761453002691269 -0.0671679452061653137
0.0709403008222579956 -0.018127812072634697 -0.0699841827154159546
0.0763853937387466431 -0.0162628553807735443 -0.070636749267578125
0.0714783743023872375 -0.0168709922581911087 -0.0704239532351493835
