ply
format ascii 1.0
element vertex 745
property float x
property float y
property float z
end_header
0.0812684968113899231 0.152525588870048523 0.0178166292607784271
0.129648372530937195 0.182726234197616577 0.000466871075332164764
0.12500666081905365 0.179828688502311707 0.00477794930338859558
0.103881299495697021 0.166641399264335632 0.0395242646336555481
0.139996320009231567 0.189185842871665955 0.0736146420240402222
0.14512026309967041 0.192384406924247742 0.0406015478074550629
0.0613574087619781494 0.140096306800842285 0.0350447371602058411
0.0754241421818733215 0.148877307772636414 0.0109454579651355743
0.0804306045174598694 0.152002543210983276 0.059034343808889389
0.0786005556583404541 0.15086016058921814 0.0313577540218830109
0.117843091487884521 0.1753569096326828 0.0351556874811649323
0.0464998260140419006 0.13082161545753479 0.0244311466813087463
0.0630949065089225769 0.141180917620658875 0.0387230068445205688
0.144588559865951538 0.192052498459815979 0.108054034411907196
0.132952794432640076 0.184788987040519714 0.0448878183960914612
0.124259799718856812 0.179362475872039795 0.0256085153669118881
0.0612810030579566956 0.140048608183860779 0.0192314684391021729
0.122674226760864258 0.178372696042060852 0.027805788442492485
0.144132420420646667 0.191767752170562744 0.00196916423738002777
0.136400401592254639 0.18694111704826355 0.0763480812311172485
0.0950700342655181885 0.161141067743301392 0.0156966336071491241
0.0923442617058753967 0.159439533948898315 0.00984618440270423889
0.135673925280570984 0.186487630009651184 0.0745219141244888306
0.101294010877609253 0.16502632200717926 0.0504495017230510712
0.0781779289245605469 0.150596335530281067 0.0173216387629508972
0.101473331451416016 0.16513824462890625 0.0167882703244686127
0.141444072127342224 0.190089583396911621 0.0407230034470558167
0.144041970372200012 0.191711291670799255 0.0460893698036670685
0.128485307097434998 0.182000204920768738 0.0681644231081008911
0.0428689718246459961 0.128555089235305786 0.0159663110971450806
0.131717011332511902 0.184017568826675415 0.0987586379051208496
0.125046104192733765 0.179853320121765137 0.0919448211789131165
0.0612824559211730957 0.140049517154693604 0.047392629086971283
0.139125406742095947 0.188642188906669617 0.0339666642248630524
0.108751773834228516 0.169681742787361145 0.043134838342666626
0.13417014479637146 0.185548901557922363 0.0747869983315467834
0.13442055881023407 0.185705229640007019 0.0283755101263523102
0.142676085233688354 0.190858647227287292 0.0219050273299217224
0.103208065032958984 0.166221141815185547 0.0367487296462059021
0.0881334096193313599 0.156810939311981201 0.048968978226184845
0.127671241760253906 0.181492030620574951 0.079709760844707489
0.0892060697078704834 0.157480537891387939 0.00888120383024215698
0.122451923787593842 0.178233921527862549 0.0352415293455123901
0.0269278585910797119 0.118604004383087158 0.000987187027931213379
0.0466890633106231689 0.13093973696231842 0.0138633251190185547
0.0792898908257484436 0.151290476322174072 0.0274649485945701599
0.129269868135452271 0.182489961385726929 0.0191789213567972183
0.142281219363212585 0.190612152218818665 0.00216536875814199448
0.146330222487449646 0.193139716982841492 0.00349441403523087502
0.139049634337425232 0.18859487771987915 0.0369390770792961121
0.118132680654525757 0.17553769052028656 0.0813984647393226624
0.066899910569190979 0.143556147813796997 0.0158166289329528809
0.04935435950756073 0.13260352611541748 0.0307789742946624756
0.127937003970146179 0.181657940149307251 0.0155726717785000801
0.102141454815864563 0.165555328130722046 0.0770699828863143921
0.101151637732982635 0.164937436580657959 0.048779759556055069
0.12206229567527771 0.177990704774856567 0.0633093118667602539
0.10666249692440033 0.168377533555030823 0.0502940528094768524
0.136806771159172058 0.187194794416427612 0.0229952223598957062
0.0622782111167907715 0.140671104192733765 0.0256424322724342346
0.14435771107673645 0.191908389329910278 0.0908005610108375549
0.100814327597618103 0.164726883172988892 0.00993018969893455505
0.124916389584541321 0.179772347211837769 0.0858156830072402954
0.0215312391519546509 0.115235224366188049 0.00179635733366012573
0.116714134812355042 0.174652174115180969 0.054268963634967804
0.0629605874419212341 0.141097068786621094 0.0272141993045806885
0.113258451223373413 0.172494992613792419 0.0136657264083623886
0.0721386969089508057 0.146826416254043579 0.00864279642701148987
0.0641954019665718079 0.141867890954017639 0.0462822243571281433
0.140942662954330444 0.189776584506034851 0.114850498735904694
0.090804755687713623 0.158478498458862305 0.00975039973855018616
0.0881768018007278442 0.156838029623031616 0.0342330597341060638
0.103783294558525085 0.166580229997634888 0.0150801613926887512
0.133045077323913574 0.184846594929695129 0.0305271372199058533
0.12176176905632019 0.177803099155426025 0.0884937644004821777
0.114243403077125549 0.173109844326972961 0.0133600439876317978
0.127035140991210938 0.181094944477081299 0.0548165366053581238
0.0601257979869842529 0.139327481389045715 0.0289325937628746033
0.123515501618385315 0.178897857666015625 0.0733431875705718994
0.144017532467842102 0.191696032881736755 0.108327031135559082
0.112893179059028625 0.172266975045204163 0.0819489955902099609
0.0871311351656913757 0.15618528425693512 0.0571657530963420868
0.0357989892363548279 0.124141715466976166 0.0051706656813621521
0.0417539998888969421 0.127859070897102356 0.0297733768820762634
0.107641935348510742 0.168988943099975586 0.0157265216112136841
0.10519593209028244 0.167462050914764404 0.0182037539780139923
0.0988309532403945923 0.163488775491714478 0.00453682988882064819
0.133195772767066956 0.18494066596031189 0.0786893963813781738
0.120328202843666077 0.176908209919929504 0.0386903956532478333
0.139356896281242371 0.188786685466766357 0.0614176839590072632
0.094592362642288208 0.160842880606651306 0.0751821696758270264
0.0858478397130966187 0.15538419783115387 0.0593208000063896179
0.114152967929840088 0.173053383827209473 0.0209158733487129211
0.118096902966499329 0.175515353679656982 0.0890219211578369141
0.131581485271453857 0.183932960033416748 0.0763266384601593018
0.00613956153392791748 0.10562712699174881 0.0027605593204498291
0.139359265565872192 0.188788160681724548 0.0324898809194564819
0.139675691723823547 0.188985690474510193 0.0806467533111572266
0.0474719256162643433 0.131428420543670654 0.0295376405119895935
0.100056953728199005 0.164254099130630493 0.0664252042770385742
0.125607281923294067 0.180203631520271301 0.0568370483815670013
0.0632446706295013428 0.141274407505989075 0.0224593803286552429
0.0203702300786972046 0.114510476589202881 0.0131907686591148376
0.132625892758369446 0.184584915637969971 0.0779054760932922363
0.116166144609451294 0.174310088157653809 0.0688605010509490967
0.083176344633102417 0.153716549277305603 0.052788861095905304
0.0350930392742156982 0.123701035976409912 0.0137854963541030884
0.0296193063259124756 0.120284117758274078 0.00566292554140090942
0.133632376790046692 0.185213208198547363 0.0759185478091239929
0.076671890914440155 0.149656206369400024 0.0458364821970462799
0.0302268043160438538 0.120663337409496307 0.0226620957255363464
0.0785594135522842407 0.150834470987319946 0.0259659476578235626
0.13122984766960144 0.183713465929031372 0.0652062669396400452
0.0221975520253181458 0.115651160478591919 0.0157257691025733948
0.0497537180781364441 0.132852807641029358 0.0220148786902427673
0.131952047348022461 0.184164285659790039 0.0285200253129005432
0.117720097303390503 0.175280138850212097 0.0288294088095426559
0.0967013835906982422 0.16215941309928894 0.0395873412489891052
0.103704318404197693 0.166530922055244446 0.044668830931186676
0.0959218144416809082 0.161672770977020264 0.0621702112257480621
0.102412231266498566 0.16572435200214386 0.0228727608919143677
0.0698061510920524597 0.145370334386825562 0.0163046419620513916
0.0272288098931312561 0.118791870772838593 0.0119913369417190552
0.115455865859985352 0.173866704106330872 0.0227280799299478531
0.0750930160284042358 0.148670613765716553 0.0542560219764709473
0.114243805408477783 0.173110097646713257 0.0620744973421096802
0.128200307488441467 0.181822299957275391 0.0239548627287149429
0.0640526488423347473 0.141778767108917236 0.0278136655688285828
0.0811783894896507263 0.152469336986541748 0.0625175237655639648
0.137602373957633972 0.187691435217857361 0.0686768814921379089
0.0977345481514930725 0.162804365158081055 0.0120153427124023438
0.0950637608766555786 0.16113714873790741 0.00954831391572952271
0.139393284916877747 0.188809409737586975 0.086778491735458374
0.0998119115829467773 0.164101123809814453 0.0643204525113105774
0.129127606749534607 0.182401150465011597 0.0849528461694717407
0.0529616102576255798 0.134855300188064575 0.00653253495693206787
0.0575117543339729309 0.137695685029029846 0.0457334518432617188
0.0840757638216018677 0.154278010129928589 0.0277919210493564606
0.0875755250453948975 0.156462699174880981 0.0164178721606731415
0.0999476537108421326 0.164185866713523865 0.0406862571835517883
0.146327495574951172 0.193138018250465393 0.058390393853187561
0.0801538899540901184 0.151829808950424194 0.019622262567281723
0.0469218268990516663 0.131085038185119629 0.0337127074599266052
0.138317763805389404 0.188138008117675781 0.0321995578706264496
0.116505518555641174 0.174521937966346741 0.0716564953327178955
0.0622649416327476501 0.140662819147109985 0.0485785976052284241
0.117169611155986786 0.174936503171920776 0.0371294766664505005
0.128823623061180115 0.182211399078369141 0.0191214289516210556
0.146494925022125244 0.193242534995079041 0.109677068889141083
0.0799921154975891113 0.151728823781013489 0.0376840792596340179
0.0741638392210006714 0.148090586066246033 0.0325760133564472198
0.0860950052738189697 0.155538484454154968 0.0035642869770526886
0.13737824559211731 0.187551528215408325 0.0874862372875213623
0.12952086329460144 0.182646647095680237 0.0334925912320613861
0.069296814501285553 0.145052388310432434 0.00734799355268478394
0.110344335436820984 0.170675888657569885 0.0753099024295806885
0.105735234916210175 0.167798697948455811 0.0613908693194389343
0.0825677886605262756 0.153336673974990845 0.0542868524789810181
0.0698599815368652344 0.145403951406478882 0.0462518110871315002
0.143697604537010193 0.191496327519416809 0.0193413347005844116
0.102989226579666138 0.166084542870521545 0.0424500145018100739
0.0951539576053619385 0.161193445324897766 0.0434044338762760162
0.141752645373344421 0.19028221070766449 0.0907621979713439941
0.0403280556201934814 0.126968950033187866 0.00348868966102600098
0.0846640914678573608 0.154645264148712158 0.0246645063161849976
0.142759755253791809 0.190910890698432922 0.0601544678211212158
0.0885008871555328369 0.157040342688560486 0.00608200952410697937
0.071908317506313324 0.146682590246200562 0.0238309241831302643
0.142483621835708618 0.190738514065742493 0.0393713340163230896
0.108244754374027252 0.169365242123603821 0.0748860687017440796
0.124263502657413483 0.179364785552024841 0.0324004068970680237
0.131999343633651733 0.184193804860115051 0.107224896550178528
0.0449448078870773315 0.129850894212722778 0.00531315058469772339
0.129500597715377808 0.18263399600982666 0.0156433470547199249
0.0931527167558670044 0.159944191575050354 0.0296791978180408478
0.108384981751441956 0.169452786445617676 0.0561705827713012695
0.0758211985230445862 0.149125173687934875 0.0134249962866306305
0.0665445327758789062 0.143334299325942993 0.0227104946970939636
0.126396581530570984 0.180696338415145874 0.0980912297964096069
0.132933199405670166 0.184776753187179565 0.0347536168992519379
0.116183832287788391 0.17432112991809845 0.000639490783214569092
0.0919245555996894836 0.159177526831626892 0.0196341536939144135
0.11611282080411911 0.174276798963546753 0.00850367732346057892
0.111633859574794769 0.171480864286422729 0.0794817879796028137
0.104489654302597046 0.167021170258522034 0.0115228854119777679
0.0917111337184906006 0.1590442955493927 0.0369452647864818573
0.126409813761711121 0.180704608559608459 0.053436771035194397
0.133570104837417603 0.185174345970153809 0.0264855250716209412
0.146522432565689087 0.193259686231613159 0.0817766711115837097
0.107277385890483856 0.168761372566223145 0.053761649876832962
0.120888635516166687 0.17725805938243866 0.0340682640671730042
0.0806581750512123108 0.15214461088180542 0.000382985919713973999
0.101030893623828888 0.164862066507339478 0.0627541393041610718
0.130910053849220276 0.183513820171356201 0.014128820039331913
0.0807279124855995178 0.152188137173652649 0.0396331287920475006
0.0408970639109611511 0.127324134111404419 0.0105287209153175354
0.0847176834940910339 0.154678717255592346 0.0277081392705440521
0.114886187016963959 0.173511087894439697 0.0444756075739860535
0.051113516092300415 0.13370165228843689 0.0041068345308303833
0.0983432382345199585 0.163184314966201782 0.0386043526232242584
0.14410768449306488 0.191752314567565918 0.0215732604265213013
0.141272276639938354 0.1899823397397995 0.0749829113483428955
0.12375718355178833 0.179048717021942139 0.0437216497957706451
0.138496488332748413 0.188249573111534119 0.0359633713960647583
0.0792029425501823425 0.151236191391944885 0.0127761028707027435
0.142002880573272705 0.190438419580459595 0.0865017473697662354
0.105768248438835144 0.167819306254386902 0.0494029000401496887
0.119743779301643372 0.176543399691581726 0.0962995737791061401
0.0607768222689628601 0.139733880758285522 0.00920169055461883545
0.127728745341300964 0.18152792751789093 0.0366467572748661041
0.139091730117797852 0.188621163368225098 0.0875328779220581055
0.0891106277704238892 0.157420963048934937 0.0573099143803119659
0.0300151258707046509 0.120531201362609863 6.5021216869354248e-05
0.1261463463306427 0.180540129542350769 0.034947223961353302
0.12598147988319397 0.180437222123146057 0.0399323143064975739
0.0803617537021636963 0.15195956826210022 0.0614271722733974457
0.0827420502901077271 0.153445452451705933 0.0575162246823310852
0.138828709721565247 0.18845696747303009 0.0219072774052619934
0.140895411372184753 0.189747080206871033 0.10156625509262085
0.0609825402498245239 0.139862298965454102 0.0389485284686088562
0.109842389822006226 0.170362547039985657 0.023075571283698082
0.113496668636798859 0.172643706202507019 0.0401722081005573273
0.0680760741233825684 0.144290357828140259 0.00565670430660247803
0.0763788372278213501 0.149473279714584351 0.0487525574862957001
0.0966576859354972839 0.162132143974304199 0.0069344937801361084
0.112891122698783875 0.172265693545341492 0.0465938970446586609
0.142138227820396423 0.190522894263267517 0.104419343173503876
0.140884131193161011 0.189740046858787537 0.0383365489542484283
0.142680332064628601 0.190861299633979797 0.0397294983267784119
0.110533252358436584 0.170793816447257996 0.0896240845322608948
0.126275479793548584 0.180620744824409485 0.100467413663864136
0.144390344619750977 0.191928759217262268 0.0942886620759963989
0.120778903365135193 0.177189558744430542 0.0332518741488456726
0.142133206129074097 0.190519765019416809 0.0841154977679252625
0.14666120707988739 0.193346321582794189 0.000698902586009353399
0.0474893525242805481 0.131439298391342163 0.0192625746130943298
0.122202254831790924 0.178078070282936096 0.0849150270223617554
0.130153223872184753 0.183041378855705261 0.0466996803879737854
0.0937246829271316528 0.160301238298416138 0.00458654016256332397
0.0754328370094299316 0.148882746696472168 0.0284056365489959717
0.141450509428977966 0.19009360671043396 0.103940419852733612
0.11164034903049469 0.171484917402267456 0.0288162678480148315
0.0912290364503860474 0.158743351697921753 0.0615076944231987
0.0879383385181427002 0.156689167022705078 0.0591461062431335449
0.096811540424823761 0.162228181958198547 0.00801154226064682007
0.0993056744337081909 0.163785114884376526 0.038339763879776001
0.0842531546950340271 0.154388740658760071 0.0610057748854160309
0.0416720137000083923 0.127807885408401489 0.0291842743754386902
0.125216037034988403 0.179959386587142944 0.0834565088152885437
0.0324591100215911865 0.122056826949119568 0.0203699544072151184
0.135550931096076965 0.186410844326019287 0.0966186374425888062
0.0925099775195121765 0.159542977809906006 0.0584447681903839111
0.111756034195423126 0.171557128429412842 0.076191239058971405
0.120606951415538788 0.177082225680351257 0.00973618589341640472
0.0551196485757827759 0.136202439665794373 0.03908538818359375
0.140637308359146118 0.189585968852043152 0.109151728451251984
0.04961443692445755 0.132765874266624451 0.0372497439384460449
0.0660041272640228271 0.14299696683883667 0.0472389906644821167
0.0887054949998855591 0.157168060541152954 0.047154448926448822
0.117593467235565186 0.175201088190078735 0.0492619723081588745
0.0834770351648330688 0.153904259204864502 0.0558374896645545959
0.0229815840721130371 0.116140581667423248 0.0142517834901809692
0.126188755035400391 0.180566608905792236 0.0362268947064876556
0.13303413987159729 0.184839770197868347 0.0332426764070987701
0.0483102276921272278 0.13195173442363739 0.0111724212765693665
0.102462463080883026 0.165755704045295715 0.052358672022819519
0.125262781977653503 0.179988577961921692 0.00154329277575016022
0.146823450922966003 0.193447604775428772 0.014125642366707325
0.102965354919433594 0.166069626808166504 0.0769991204142570496
0.122880227863788605 0.178501293063163757 0.0186953861266374588
0.11362583190202713 0.172724336385726929 0.00972976163029670715
0.0890593156218528748 0.157388925552368164 0.0210998915135860443
0.110112570226192474 0.170531213283538818 0.0470995157957077026
0.0631416365504264832 0.141210079193115234 0.0279733315110206604
0.146492168307304382 0.193240806460380554 0.0708392783999443054
0.125796079635620117 0.180321484804153442 0.0946293845772743225
0.0751881077885627747 0.148729979991912842 0.0522372350096702576
0.0289731472730636597 0.119880750775337219 0.00852403789758682251
0.134669169783592224 0.185860425233840942 0.061879865825176239
0.0231239646673202515 0.116229459643363953 0.0146661847829818726
0.11206267774105072 0.171748548746109009 0.0462597236037254333
0.142071709036827087 0.190481379628181458 0.0727085471153259277
0.106332220137119293 0.168171361088752747 0.0562753789126873016
0.0381971672177314758 0.125638753175735474 0.0151072293519973755
0.139127522706985474 0.188643500208854675 0.107294633984565735
0.0348949506878852844 0.123577378690242767 0.0175881832838058472
0.1379660964012146 0.187918484210968018 0.0447764843702316284
0.027899615466594696 0.119210615754127502 0.00255648046731948853
0.0472149774432182312 0.131268024444580078 0.0191727429628372192
0.0386822968721389771 0.12594158947467804 0.028048194944858551
0.0663934499025344849 0.143239989876747131 0.0151049345731735229
0.107839494943618774 0.169112265110015869 0.0172871984541416168
0.134100243449211121 0.185505270957946777 0.0788200497627258301
0.0864194184541702271 0.155741006135940552 0.0552865900099277496
0.0918237268924713135 0.15911458432674408 0.0303066037595272064
0.137961074709892273 0.18791535496711731 0.057535272091627121
0.0906702205538749695 0.158394515514373779 0.0445319078862667084
0.139712542295455933 0.189008697867393494 0.0179799720644950867
0.0541961342096328735 0.135625943541526794 0.0339449867606163025
0.142907083034515381 0.19100286066532135 0.0380936264991760254
0.137759938836097717 0.187789797782897949 0.0461789965629577637
0.0168402493000030518 0.11230691522359848 0.0122909173369407654
0.100344866514205933 0.16443382203578949 0.0216629616916179657
0.0644810721278190613 0.142046213150024414 0.0052666887640953064
0.0496697500348091125 0.132800400257110596 0.0295589715242385864
0.114314034581184387 0.173153936862945557 0.0841903239488601685
0.0756276920437812805 0.149004369974136353 0.0585166625678539276
0.0931641831994056702 0.159951359033584595 0.0340733826160430908
0.0905447378754615784 0.158316195011138916 0.00164656713604927063
0.1345653235912323 0.185795590281486511 0.0777277648448944092
0.0928719267249107361 0.159768909215927124 0.0435982272028923035
0.0143803507089614868 0.110771343111991882 0.000429965555667877197
0.0655440390110015869 0.14270976185798645 0.0491048619151115417
0.124135427176952362 0.179284840822219849 0.00178955495357513428
0.10612061619758606 0.168039277195930481 0.0518844239413738251
0.129323750734329224 0.182523593306541443 0.0747380703687667847
0.11088283360004425 0.171012043952941895 0.0672801956534385681
0.107420176267623901 0.168850511312484741 0.0637197196483612061
0.11200471967458725 0.171712368726730347 0.0379750728607177734
0.0853061676025390625 0.155046075582504272 0.0548547878861427307
0.114829584956169128 0.173475757241249084 0.0709270834922790527
0.135196134448051453 0.186189368367195129 0.0252414122223854065
0.132056847214698792 0.18422970175743103 0.0403549298644065857
0.0758405029773712158 0.149137228727340698 0.0169331543147563934
0.10054449737071991 0.164558440446853638 0.0216506458818912506
0.0272516384720802307 0.118806123733520508 0.0181368738412857056
0.101665988564491272 0.165258511900901794 0.0536576993763446808
0.141443163156509399 0.190089017152786255 0.0845335721969604492
0.142939403653144836 0.191023021936416626 0.034266546368598938
0.0588988140225410461 0.138561546802520752 0.0131873041391372681
0.064257599413394928 0.141906708478927612 0.0510183349251747131
0.124272286891937256 0.179370269179344177 0.0345910750329494476
0.115156270563602448 0.173679694533348083 0.0406279899179935455
0.0789487361907958984 0.151077508926391602 0.0186432152986526489
0.145505458116531372 0.192624866962432861 0.0399684496223926544
0.0946425497531890869 0.160874217748641968 0.0251357629895210266
0.0433089658617973328 0.128829747438430786 0.0150648877024650574
0.137218013405799866 0.18745151162147522 0.00123789254575967789
0.146387666463851929 0.193175569176673889 0.0516266599297523499
0.0471931025385856628 0.131254374980926514 0.0179837048053741455
0.0970210134983062744 0.162358939647674561 0.0371460765600204468
0.11075117439031601 0.170929849147796631 0.080538630485534668
0.108410656452178955 0.169468805193901062 0.0632053613662719727
0.0871439799666404724 0.15619330108165741 0.0710748881101608276
0.00197303295135498047 0.103026203811168671 0.00157488137483596802
0.125855877995491028 0.180358812212944031 0.0495798215270042419
0.145316258072853088 0.192506760358810425 0.0268572457134723663
0.0852593481540679932 0.155016839504241943 0.0277576111257076263
0.0125888586044311523 0.109653033316135406 0.00837889313697814941
0.0823242738842964172 0.153184652328491211 0.0122727565467357635
0.094197005033493042 0.160596087574958801 0.0582891777157783508
0.0907788202166557312 0.158462315797805786 0.0281346216797828674
0.107791759073734283 0.169082462787628174 0.0497510917484760284
0.0402802303433418274 0.126939088106155396 0.0285719037055969238
0.10679791122674942 0.168462067842483521 0.0866113826632499695
0.052874833345413208 0.134801134467124939 0.0379258692264556885
0.134186133742332458 0.185558885335922241 0.0242230445146560669
0.0724662095308303833 0.147030860185623169 0.0453576035797595978
0.0569731071591377258 0.137359440326690674 0.040172278881072998
0.146149665117263794 0.193027004599571228 0.0961495116353034973
0.0132603347301483154 0.110072188079357147 0.00981105118989944458
0.0471852123737335205 0.131249457597732544 0.0355690568685531616
0.0951067656278610229 0.161163985729217529 0.0145138539373874664
0.139784947037696838 0.189053893089294434 0.0736848190426826477
0.0897530913352966309 0.157822012901306152 0.029317803680896759
0.117958888411521912 0.175429195165634155 0.00153777189552783966
0.110988348722457886 0.171077907085418701 0.0770304948091506958
0.143611535429954529 0.191442593932151794 0.0596330650150775909
0.0476181879639625549 0.131519734859466553 0.0262558460235595703
0.054476521909236908 0.135800972580909729 0.0221139714121818542
0.0333887115120887756 0.122637122869491577 0.0126242190599441528
0.0876806899905204773 0.15652833878993988 0.00413027405738830566
0.140752300620079041 0.189657747745513916 0.0279194153845310211
0.0451560467481613159 0.12998276948928833 0.00470882654190063477
0.11799187958240509 0.175449788570404053 0.0604433566331863403
0.133432179689407349 0.185088247060775757 0.0347218364477157593
0.123830229043960571 0.179094314575195312 0.0159175824373960495
0.132330000400543213 0.184400215744972229 0.00126489158719778061
0.0921373888850212097 0.159310385584831238 0.0205973275005817413
0.104589119553565979 0.167083248496055603 0.0442844778299331665
0.116903424263000488 0.174770325422286987 0.00501985475420951843
0.042680203914642334 0.128437250852584839 0.0165668502449989319
0.10255037248134613 0.165810585021972656 0.0190621130168437958
0.129393965005874634 0.182567432522773743 0.0707531869411468506
0.10993754118680954 0.170421957969665527 0.032644122838973999
0.1402415931224823 0.189338952302932739 0.0215670950710773468
0.132937580347061157 0.184779495000839233 0.0290798135101795197
0.0233144611120223999 0.116348378360271454 0.014036327600479126
0.0508860126137733459 0.133559644222259521 0.0318854302167892456
0.085821107029914856 0.155367523431777954 0.0523220300674438477
0.0529381558299064636 0.134840667247772217 0.0147127732634544373
0.0838939845561981201 0.154164522886276245 0.0652605071663856506
0.111516162753105164 0.171407386660575867 0.0371494144201278687
0.136597752571105957 0.187064319849014282 0.0244821608066558838
0.0458086356520652771 0.130390137434005737 0.0143189579248428345
0.0905998796224594116 0.158350616693496704 0.0128163248300552368
0.0721602886915206909 0.146839886903762817 0.0504646264016628265
0.134773567318916321 0.185925588011741638 0.108196720480918884
0.0978372693061828613 0.162868484854698181 0.0529476925730705261
0.0666558817028999329 0.143403828144073486 0.0209705978631973267
0.0772131830453872681 0.149994105100631714 0.0283317491412162781
0.141771629452705383 0.190294057130813599 0.0535300225019454956
0.0908083468675613403 0.158480748534202576 0.0483871586620807648
0.127963468432426453 0.181674450635910034 0.0719636231660842896
0.101823717355728149 0.16535697877407074 0.0521864108741283417
0.0188619941473007202 0.113568969070911407 0.00497119128704071045
0.082487739622592926 0.15328669548034668 0.00115428492426872253
0.146040856838226318 0.192959070205688477 0.0613545067608356476
0.0713808238506317139 0.14635331928730011 0.0446624420583248138
0.106782905757427216 0.168452709913253784 0.0362395234405994415
0.129076361656188965 0.182369157671928406 0.0850737988948822021
0.146362587809562683 0.193159908056259155 0.0448780693113803864
0.10838819295167923 0.169454783201217651 0.0302743725478649139
0.110159263014793396 0.170560359954833984 0.0110663343220949173
0.0246066227555274963 0.117154993116855621 0.0055031701922416687
0.130445435643196106 0.183223798871040344 0.0472298413515090942
0.127627104520797729 0.181464478373527527 0.0797561034560203552
0.119366176426410675 0.17630767822265625 0.0802568644285202026
0.0236541703343391418 0.1165604367852211 0.00326709449291229248
0.125266492366790771 0.179990887641906738 0.0642499402165412903
0.132211416959762573 0.184326201677322388 0.0439818501472473145
0.112201161682605743 0.171834990382194519 0.0117577649652957916
0.135228186845779419 0.186209380626678467 0.00882152654230594635
0.0522584244608879089 0.134416341781616211 0.0162982121109962463
0.0600780025124549866 0.139297634363174438 0.0466969236731529236
0.0530365929007530212 0.134902119636535645 0.0187325626611709595
0.116510167717933655 0.174524843692779541 0.0605712458491325378
0.0447600036859512329 0.12973552942276001 0.0164209157228469849
0.100907295942306519 0.164784908294677734 0.0356681831181049347
0.136139720678329468 0.186778396368026733 0.0959771350026130676
0.0550893992185592651 0.136183559894561768 0.0195395871996879578
0.0155521482229232788 0.111502833664417267 0.00240093469619750977
0.0667613223195075989 0.143469631671905518 0.0377828702330589294
0.144773021340370178 0.19216763973236084 0.100996591150760651
0.121869057416915894 0.177870079874992371 0.0807788446545600891
0.0745910704135894775 0.148357272148132324 0.0050969049334526062
0.118270963430404663 0.175623998045921326 0.0010689273476600647
0.095103919506072998 0.161162212491035461 0.0148623064160346985
0.0556629598140716553 0.136541604995727539 0.0152706876397132874
0.132129788398742676 0.184275239706039429 0.0610970556735992432
0.0908767879009246826 0.158523470163345337 0.0640775710344314575
0.132742628455162048 0.184657782316207886 0.00959556177258491516
0.0996518880128860474 0.164001241326332092 0.0233864635229110718
0.128133922815322876 0.1817808598279953 0.0589819252490997314
0.0455257296562194824 0.130213528871536255 0.00819694250822067261
0.135310694575309753 0.186260879039764404 0.0336291044950485229
0.112289696931838989 0.1718902587890625 0.0666738003492355347
0.140835821628570557 0.189709886908531189 0.0669868737459182739
0.108472377061843872 0.169507339596748352 0.0155052952468395233
0.12132243812084198 0.177528858184814453 0.0793255791068077087
0.141859099268913269 0.190348654985427856 0.0502305440604686737
0.0898695439100265503 0.157894715666770935 0.0314221568405628204
0.0831420198082923889 0.15369512140750885 0.0191169306635856628
0.0838408768177032471 0.154131367802619934 0.0194244347512722015
0.104545556008815765 0.167056053876876831 0.0112010873854160309
0.0669227316975593567 0.143570393323898315 0.006214924156665802
0.141457825899124146 0.190098166465759277 0.00302083790302276611
0.108984917402267456 0.169827282428741455 0.0871259123086929321
0.125942721962928772 0.180413022637367249 0.0178036298602819443
0.064866282045841217 0.142286688089370728 0.00749383866786956787
0.0731550306081771851 0.147460848093032837 0.0445456206798553467
0.0966672897338867188 0.162138134241104126 0.00491450726985931396
0.0672513842582702637 0.14377555251121521 0.0388671904802322388
0.066708691418170929 0.143436789512634277 0.00260689854621887207
0.0486293062567710876 0.132150918245315552 0.0270964577794075012
0.0575844794511795044 0.1377410888671875 0.0417306497693061829
0.0309128090739250183 0.121091566979885101 0.0252303481101989746
0.14382953941822052 0.191578686237335205 0.0888163298368453979
0.101997524499893188 0.165465474128723145 0.0317777134478092194
0.116078361868858337 0.174255296587944031 0.0164988897740840912
0.129882752895355225 0.182872533798217773 0.0693988427519798279
0.0669573917984962463 0.143592029809951782 0.0503294840455055237
0.0458363071084022522 0.130407407879829407 0.0266932025551795959
0.124688364565372467 0.179629996418952942 0.0563727617263793945
0.0286711156368255615 0.119692213833332062 0.0189935117959976196
0.134928882122039795 0.186022534966468811 0.106848642230033875
0.0907238870859146118 0.158428028225898743 0.0714480280876159668
0.146795094013214111 0.193429902195930481 0.113857977092266083
0.0825613737106323242 0.1533326655626297 0.0133637450635433197
0.0983219742774963379 0.163171052932739258 0.0305588431656360626
0.124645121395587921 0.179603010416030884 0.0575596056878566742
0.049970187246799469 0.132987946271896362 0.0339270606637001038
0.0595087036490440369 0.13894227147102356 0.0289564281702041626
0.061006791889667511 0.139877438545227051 0.0230654552578926086
0.114355951547622681 0.173180103302001953 0.00965887308120727539
0.0552484765648841858 0.136282861232757568 0.0347659513354301453
0.141861990094184875 0.190350472927093506 0.105367898941040039
0.0614045262336730957 0.14012572169303894 0.0464342758059501648
0.0726150572299957275 0.147123768925666809 0.0421440973877906799
0.133503958582878113 0.185133054852485657 0.0418445207178592682
0.138575553894042969 0.188298940658569336 0.0109266508370637894
0.0655999332666397095 0.142744660377502441 0.0257460698485374451
0.0458034873008728027 0.130386918783187866 0.00205456465482711792
0.0739540606737136841 0.1479596346616745 0.0165747888386249542
0.0598286837339401245 0.139142006635665894 0.0185895860195159912
0.0446393489837646484 0.129660218954086304 0.0160316601395606995
0.143331840634346008 0.191267997026443481 0.0207916814833879471
0.0389040187001228333 0.12608000636100769 0.00469201803207397461
0.134311914443969727 0.185637399554252625 0.0166882723569869995
0.0774865373969078064 0.150164738297462463 0.0241032876074314117
0.0997371077537536621 0.164054438471794128 0.0400104336440563202
0.0772781595587730408 0.150034666061401367 0.00686387345194816589
0.103732213377952576 0.166548341512680054 0.0724622160196304321
0.109789222478866577 0.170329362154006958 0.00817655213177204132
0.0555849373340606689 0.136492893099784851 0.0378643721342086792
0.125642746686935425 0.180225759744644165 0.0654287785291671753
0.0601657480001449585 0.139352411031723022 0.0468034073710441589
0.110768705606460571 0.170940801501274109 0.0512455813586711884
0.0159101784229278564 0.111726336181163788 0.0044328644871711731
0.0735918357968330383 0.147733509540557861 0.0597298592329025269
0.0829519480466842651 0.153576463460922241 0.00963158905506134033
0.105510927736759186 0.167658686637878418 0.0291661694645881653
0.135635435581207275 0.186463609337806702 0.034773610532283783
0.0895446240901947021 0.157691881060600281 0.0319017805159091949
0.112725414335727692 0.172162249684333801 0.0567435845732688904
0.0788181722164154053 0.150995999574661255 0.0383665673434734344
0.0207857191562652588 0.114769831299781799 0.00655510276556015015
0.140320345759391785 0.189388111233711243 0.0747980624437332153
0.135520622134208679 0.186391919851303101 0.0255674347281455994
0.0779192745685577393 0.150434881448745728 0.0100559927523136139
0.0651374980807304382 0.142455980181694031 0.0310776308178901672
0.127230629324913025 0.181216984987258911 0.0525111071765422821
0.0845984667539596558 0.154604285955429077 0.0327070616185665131
0.09507017582654953 0.161141157150268555 0.0672892928123474121
0.129467934370040894 0.182613611221313477 0.104422584176063538
0.131607621908187866 0.183949276804924011 0.0783515125513076782
0.137742683291435242 0.187779024243354797 0.0872288644313812256
0.0434117913246154785 0.128893941640853882 0.018110617995262146
0.0878809019923210144 0.156653314828872681 0.0709593817591667175
0.00395911931991577148 0.104266010224819183 0.00229163467884063721
0.142239436507225037 0.190586075186729431 0.0698058456182479858
0.115205422043800354 0.173710376024246216 0.0236690249294042587
0.136767089366912842 0.187170028686523438 0.0659407749772071838
0.056049637496471405 0.136782974004745483 0.0297936424612998962
0.0770932585000991821 0.149919241666793823 0.00920427218079566956
0.100506037473678589 0.164534434676170349 0.00832730531692504883
0.0999810993671417236 0.164206743240356445 0.0133360996842384338
0.0994422361254692078 0.163870364427566528 0.0673522204160690308
0.0401992872357368469 0.126888558268547058 0.0248182713985443115
0.142919376492500305 0.191010519862174988 0.07120562344789505
0.0762794241309165955 0.149411216378211975 0.0346206054091453552
0.0872624665498733521 0.156267270445823669 0.0094824470579624176
0.0920007526874542236 0.159225091338157654 0.0210139453411102295
0.0342165529727935791 0.123153895139694214 0.00882216542959213257
0.0709705352783203125 0.146097198128700256 0.0195125751197338104
0.00712335109710693359 0.106241241097450256 0.00266896933317184448
0.0289520993828773499 0.119867615401744843 0.023421846330165863
0.13744179904460907 0.187591195106506348 0.0358344987034797668
0.109535813331604004 0.170171171426773071 0.0399690046906471252
0.0981232151389122009 0.163046985864639282 0.00287866592407226562
0.0291732475161552429 0.120005667209625244 0.000776767730712890625
0.141182407736778259 0.189926236867904663 0.0189049094915390015
0.137602627277374268 0.187691599130630493 0.0363571420311927795
0.134186983108520508 0.18555942177772522 0.0428904742002487183
0.1278267502784729 0.181589111685752869 0.0187634117901325226
0.0618104636669158936 0.14037911593914032 0.0332084447145462036
0.128884986042976379 0.182249695062637329 0.0840693563222885132
0.125157654285430908 0.179922953248023987 0.064526289701461792
0.110413074493408203 0.170718789100646973 0.0362972617149353027
0.133130818605422974 0.18490011990070343 0.0209403969347476959
0.127641424536705017 0.181473419070243835 0.00363536365330219269
0.0482482314109802246 0.131913036108016968 0.0260025858879089355
0.0444709211587905884 0.129555076360702515 0.0255175456404685974
0.144323036074638367 0.191886752843856812 0.0670683234930038452
0.132373780012130737 0.184427544474601746 0.00866494886577129364
0.132802322506904602 0.184695065021514893 0.0890779793262481689
0.134290188550949097 0.185623839497566223 0.080351412296295166
0.0315429195761680603 0.121484905481338501 0.00838556140661239624
0.0991210266947746277 0.163669854402542114 0.00973610579967498779
0.134413689374923706 0.185700938105583191 0.0119423922151327133
0.0786447674036026001 0.150887757539749146 0.00281362980604171753
0.144172653555870056 0.191792875528335571 0.0945791527628898621
0.0838181972503662109 0.154117226600646973 0.062854573130607605
0.0863557085394859314 0.155701234936714172 0.0183774270117282867
0.0941512063145637512 0.160567492246627808 0.0393025614321231842
0.0873813629150390625 0.156341493129730225 0.0618669986724853516
0.0811900869011878967 0.152476638555526733 0.0237949565052986145
0.0592944175004959106 0.138808488845825195 0.0322106704115867615
0.0283098816871643066 0.119466722011566162 0.00769796222448348999
0.0452732518315315247 0.130055934190750122 0.00827202945947647095
0.117887549102306366 0.175384655594825745 0.064399227499961853
0.113941580057144165 0.172921434044837952 0.0805081725120544434
0.110795646905899048 0.170957610011100769 0.0412819273769855499
0.021793171763420105 0.115398727357387543 0.00493206828832626343
0.0215813964605331421 0.115266524255275726 0.00425925850868225098
0.0426144599914550781 0.128396213054656982 0.0154708251357078552
0.0801481306552886963 0.151826217770576477 0.016802717000246048
0.120181672275066376 0.176816746592521667 0.0976715758442878723
0.0448817536234855652 0.129811540246009827 0.0207865983247756958
0.146724849939346313 0.193386048078536987 0.00860358309000730515
0.0769730880856513977 0.149844229221343994 0.0252696312963962555
0.0909025669097900391 0.158539563417434692 0.0718709379434585571
0.136206656694412231 0.186820179224014282 0.0786866992712020874
0.0810000151395797729 0.152357995510101318 0.0493464097380638123
0.0821326971054077148 0.15306505560874939 0.0335565954446792603
0.0770308896899223328 0.149880304932594299 0.0255796611309051514
0.135226070880889893 0.186208054423332214 0.0112444553524255753
0.0271798968315124512 0.118761338293552399 0.00480192899703979492
0.131646126508712769 0.183973312377929688 0.0861392989754676819
0.0693217813968658447 0.145067974925041199 0.041789226233959198
0.142629563808441162 0.190829604864120483 0.0808004662394523621
0.0886496007442474365 0.157133176922798157 0.0694758892059326172
0.13754841685295105 0.187657758593559265 0.0714676007628440857
0.0477683097124099731 0.131613448262214661 0.0227260813117027283
0.135184839367866516 0.186182320117950439 0.0147684346884489059
0.132651910185813904 0.184601157903671265 0.0154655696824193001
0.108101248741149902 0.169275671243667603 0.0474494397640228271
0.110802397131919861 0.170961827039718628 0.0186845269054174423
0.140722125768661499 0.189638912677764893 0.020259559154510498
0.105135992169380188 0.167424634099006653 0.0462956875562667847
0.0979599803686141968 0.162945076823234558 0.0650196969509124756
0.143265813589096069 0.191226780414581299 0.0138379419222474098
0.129775732755661011 0.182805731892585754 0.0289831571280956268
0.0393906384706497192 0.126383766531944275 0.0307822450995445251
0.145310193300247192 0.192502975463867188 0.0758754909038543701
0.11845533549785614 0.175739094614982605 0.0942930951714515686
0.0634745135903358459 0.141417890787124634 0.00219263136386871338
0.114722974598407745 0.173409208655357361 0.070230439305305481
0.128978550434112549 0.182308107614517212 0.033647291362285614
0.0888832062482833862 0.15727899968624115 0.0213407501578330994
0.119178116321563721 0.176190286874771118 0.0728444382548332214
0.11259971559047699 0.172083780169487 0.0228921622037887573
0.143981680274009705 0.19167366623878479 0.0564566999673843384
0.0963509008288383484 0.161940634250640869 0.00460200011730194092
0.116842076182365417 0.174732029438018799 0.0746726244688034058
0.128448069095611572 0.181976959109306335 0.00204156804829835892
0.133109793066978455 0.18488699197769165 0.0651616379618644714
0.139565616846084595 0.188916966319084167 0.0841642841696739197
0.0556442365050315857 0.136529907584190369 0.0391465052962303162
0.1164708212018013 0.17450028657913208 0.089189283549785614
0.146181032061576843 0.193046584725379944 0.0584318935871124268
0.133165657520294189 0.184921860694885254 0.0116064781323075294
0.0613031238317489624 0.140062421560287476 0.00435531884431838989
0.107336901128292084 0.168798536062240601 0.0854108184576034546
0.021812736988067627 0.115410946309566498 0.0148461014032363892
0.0636247172951698303 0.141511648893356323 0.000378988683223724365
0.108426123857498169 0.169478461146354675 0.0536138750612735748
0.0344266965985298157 0.123285077512264252 0.0120571926236152649
0.141948118805885315 0.190404221415519714 0.0205720365047454834
0.13361532986164093 0.185202568769454956 0.0572989955544471741
0.0681428238749504089 0.144332021474838257 0.0286470204591751099
0.0307770818471908569 0.121006838977336884 0.0102839618921279907
0.140265956521034241 0.189354151487350464 0.0998110473155975342
0.116074398159980774 0.174252822995185852 0.0082886572927236557
0.0373435840010643005 0.125105917453765869 0.0179190486669540405
0.0802170261740684509 0.151869222521781921 0.0116618722677230835
0.0907384306192398071 0.158437103033065796 0.0414908751845359802
0.112657226622104645 0.172119691967964172 0.0916543453931808472
0.141577064990997314 0.190172597765922546 0.0811607688665390015
0.145173177123069763 0.192417442798614502 0.113619342446327209
0.0609292387962341309 0.139829009771347046 0.0233092978596687317
0.123820006847381592 0.179087936878204346 0.084752500057220459
0.109860196709632874 0.170373678207397461 0.0621734000742435455
0.127946451306343079 0.181663826107978821 0.104082740843296051
0.112634889781475067 0.172105744481086731 0.0247658621519804001
0.13304157555103302 0.184844404458999634 0.0368630513548851013
0.137583345174789429 0.187679558992385864 0.0942369699478149414
0.136513262987136841 0.187011569738388062 0.075198344886302948
0.0661960318684577942 0.143116757273674011 0.0173677951097488403
0.0910766050219535828 0.158648207783699036 0.0572210215032100677
0.135328680276870728 0.186272114515304565 0.050281379371881485
0.0746452659368515015 0.148391112685203552 0.00130763649940490723
0.0981551557779312134 0.163066908717155457 0.0801057368516921997
0.0578421130776405334 0.137901917099952698 0.04727153480052948
0.135800883173942566 0.186566874384880066 0.0338979586958885193
0.086458355188369751 0.155765309929847717 0.0593074522912502289
0.0672447755932807922 0.143771424889564514 0.0473076775670051575
0.10177958756685257 0.165329426527023315 0.0516522713005542755
0.0525715574622154236 0.134611815214157104 0.0240565016865730286
0.118275009095668793 0.17562653124332428 0.0254525989294052124
0.114132806658744812 0.173040807247161865 0.0668930858373641968
0.0695237442851066589 0.145194053649902344 0.00807001441717147827
0.00658130645751953125 0.105902880430221558 0.00209639966487884521
0.0960189476609230042 0.161733418703079224 0.00684699416160583496
0.121093079447746277 0.177385687828063965 0.0329891704022884369
0.144043371081352234 0.191712170839309692 0.102969057857990265
0.10185299813747406 0.165375262498855591 0.034027099609375
0.105032108724117279 0.167359784245491028 0.0511581785976886749
0.137202933430671692 0.187442094087600708 0.0486580878496170044
0.0799528881907463074 0.151704341173171997 0.0619222410023212433
0.101935796439647675 0.165426939725875854 0.040813744068145752
0.114165104925632477 0.173060968518257141 0.0528289787471294403
0.0128300637006759644 0.10980360209941864 0.00524323433637619019
0.0787209942936897278 0.150935336947441101 0.0531409122049808502
0.0407357215881347656 0.127223432064056396 0.00320304185152053833
0.0921305865049362183 0.159306138753890991 0.0123329013586044312
0.00470478832721710205 0.104731485247612 0.00138058513402938843
0.111026868224143982 0.171101957559585571 0.0228012427687644958
0.137828052043914795 0.18783232569694519 0.0912652686238288879
0.0838313326239585876 0.154125422239303589 0.026620086282491684
0.0796561017632484436 0.151519075036048889 0.00939095392823219299
0.0500393807888031006 0.133031129837036133 0.00199883431196212769
0.119888409972190857 0.176633685827255249 0.0583083778619766235
0.126938313245773315 0.181034505367279053 0.025913972407579422
0.0787212550640106201 0.150935500860214233 0.0199732780456542969
0.0916872397065162659 0.159029394388198853 0.0266327932476997375
0.0656913816928863525 0.142801731824874878 0.0527780130505561829
0.104395166039466858 0.166962176561355591 0.0552710890769958496
0.0868988037109375 0.1560402512550354 0.0368040017783641815
0.0970186740159988403 0.162357479333877563 0.0741657912731170654
0.0904707908630371094 0.158270031213760376 0.0677002370357513428
0.115215465426445007 0.173716649413108826 0.0192960165441036224
0.0758179202675819397 0.149123132228851318 0.00598320737481117249
0.130501985549926758 0.183259084820747375 0.0300062857568264008
0.111156545579433441 0.171182900667190552 0.035502314567565918
0.12448931485414505 0.17950575053691864 0.0810941532254219055
0.112068891525268555 0.171752423048019409 0.0871003717184066772
0.0926755964756011963 0.159646362066268921 0.0717859268188476562
0.0831688642501831055 0.153711885213851929 0.00778315216302871704
0.0704021602869033813 0.14574238657951355 0.012452494353055954
0.0791498273611068726 0.151203036308288574 0.0457627959549427032
0.0252893641591072083 0.117581188678741455 0.00649636983871459961
0.112626820802688599 0.17210070788860321 0.0586861930787563324
0.141113042831420898 0.189882934093475342 0.0323321595788002014
0.0903601646423339844 0.158200979232788086 0.0444462671875953674
0.141417235136032104 0.190072834491729736 0.0338960401713848114
0.101033501327037811 0.164863690733909607 0.0713831633329391479
0.0438548475503921509 0.129170507192611694 0.021221943199634552
0.121733561158180237 0.177785500884056091 0.0573977604508399963
0.146420419216156006 0.193196013569831848 0.0680424496531486511
0.134163811802864075 0.185544952750205994 0.0161515697836875916
0.0868118256330490112 0.15598595142364502 0.00950423255562782288
0.1402474045753479 0.189342573285102844 0.0957751572132110596
0.115761913359165192 0.174057751893997192 0.029762784019112587
0.134312301874160767 0.18563765287399292 0.0743813663721084595
0.0712141618132591248 0.146249279379844666 0.0240402892231941223
0.0540657117962837219 0.135544538497924805 0.0185073167085647583
0.0875265449285507202 0.156432121992111206 0.018607068806886673
0.128899723291397095 0.182258903980255127 0.0454135388135910034
0.113508380949497223 0.172651007771492004 0.0101983286440372467
0.113026738166809082 0.17235034704208374 0.000255757942795753479
0.0387606769800186157 0.125990524888038635 0.023694455623626709
0.0661109611392021179 0.143063649535179138 0.0420159921050071716
0.0994600057601928711 0.163881450891494751 0.0137738697230815887
0.109588079154491425 0.170203804969787598 0.0775798708200454712
0.0791460573673248291 0.151200681924819946 0.0238191410899162292
0.114664003252983093 0.173372387886047363 0.0811803936958312988
0.131420046091079712 0.183832183480262756 0.0592218786478042603
0.082296416163444519 0.153167262673377991 0.01205483078956604
0.0142760574817657471 0.110706239938735962 0.00889194756746292114
0.063622109591960907 0.141510009765625 0.0162717923521995544
0.143091082572937012 0.191117718815803528 0.020295431837439537
0.0376528874039649963 0.125298991799354553 0.00516145676374435425
0.00151228904724121094 0.10273858904838562 0.00044762343168258667
0.0984974950551986694 0.16328062117099762 0.00932610034942626953
