ply
format ascii 1.0
element vertex 722
property float x
property float y
property float z
end_header
0.327270448207855225 0.319999992847442627 0.144965171813964844
0.435086727142333984 0.319999992847442627 0.146071821451187134
0.224945902824401855 0.319999992847442627 0.131233811378479004
0.149477899074554443 0.319999992847442627 0.110366314649581909
0.346625298261642456 0.319999992847442627 0.188547953963279724
0.284042090177536011 0.319999992847442627 0.122396938502788544
0.150500908493995667 0.319999992847442627 0.129815101623535156
0.0994168743491172791 0.319999992847442627 0.0706352889537811279
0.342833250761032104 0.319999992847442627 0.150114208459854126
0.50851893424987793 0.319999992847442627 0.177810028195381165
0.110396243631839752 0.319999992847442627 0.187712833285331726
0.127923443913459778 0.319999992847442627 0.172839239239692688
0.291119128465652466 0.319999992847442627 0.146659165620803833
0.232738271355628967 0.319999992847442627 0.0947703346610069275
0.207087621092796326 0.319999992847442627 0.0706170201301574707
0.389864563941955566 0.319999992847442627 0.176072642207145691
0.12229466438293457 0.319999992847442627 0.173309937119483948
0.250961661338806152 0.319999992847442627 0.138999804854393005
0.493905365467071533 0.319999992847442627 0.16162717342376709
0.0766345188021659851 0.319999992847442627 0.0965307280421257019
0.258675903081893921 0.319999992847442627 0.197308704257011414
0.0806396082043647766 0.319999992847442627 0.0436549335718154907
0.478410243988037109 0.319999992847442627 0.169704943895339966
0.123374618589878082 0.319999992847442627 0.199639663100242615
0.414612233638763428 0.319999992847442627 0.147329851984977722
0.167207404971122742 0.319999992847442627 0.148210883140563965
0.10405200719833374 0.319999992847442627 0.113335736095905304
0.21744219958782196 0.319999992847442627 0.11576148122549057
0.671174585819244385 0.319999992847442627 0.198634624481201172
0.217903688549995422 0.319999992847442627 0.126883000135421753
0.650805830955505371 0.319999992847442627 0.191304773092269897
0.0105925034731626511 0.319999992847442627 0.0646726638078689575
0.425530791282653809 0.319999992847442627 0.197254180908203125
0.26013752818107605 0.319999992847442627 0.108069613575935364
0.0351197980344295502 0.319999992847442627 0.176658734679222107
0.0707680061459541321 0.319999992847442627 0.0285294800996780396
0.0322811603546142578 0.319999992847442627 0.174304664134979248
0.361422300338745117 0.319999992847442627 0.106929771602153778
0.0814387723803520203 0.319999992847442627 0.175953030586242676
0.112046912312507629 0.319999992847442627 0.198325008153915405
0.00788812898099422455 0.319999992847442627 0.195422515273094177
0.413164645433425903 0.319999992847442627 0.129029840230941772
0.00475353701040148735 0.319999992847442627 0.0629293173551559448
0.503426432609558105 0.319999992847442627 0.183441072702407837
0.589242815971374512 0.319999992847442627 0.193751990795135498
0.251345127820968628 0.319999992847442627 0.087733827531337738
0.327609330415725708 0.319999992847442627 0.163860991597175598
0.322699666023254395 0.319999992847442627 0.140842169523239136
0.229873061180114746 0.319999992847442627 0.177347630262374878
0.481880873441696167 0.319999992847442627 0.195064350962638855
0.0517440028488636017 0.319999992847442627 0.121801994740962982
0.213873997330665588 0.319999992847442627 0.0972832590341567993
0.107318945229053497 0.319999992847442627 0.087559238076210022
0.0983247235417366028 0.319999992847442627 0.12582552433013916
0.398187398910522461 0.319999992847442627 0.187057986855506897
0.267478585243225098 0.319999992847442627 0.0996415019035339355
0.157291069626808167 0.319999992847442627 0.0665670633316040039
0.292705714702606201 0.319999992847442627 0.144785597920417786
0.19718441367149353 0.319999992847442627 0.129856184124946594
0.0516987927258014679 0.319999992847442627 0.082033991813659668
0.199720606207847595 0.319999992847442627 0.177548706531524658
0.208754301071166992 0.319999992847442627 0.169391170144081116
0.370718330144882202 0.319999992847442627 0.161828279495239258
0.185882553458213806 0.319999992847442627 0.141762346029281616
0.390035241842269897 0.319999992847442627 0.152153089642524719
0.29379570484161377 0.319999992847442627 0.135218769311904907
0.214143350720405579 0.319999992847442627 0.185917645692825317
0.0450566448271274567 0.319999992847442627 0.0198521912097930908
0.0591233409941196442 0.319999992847442627 0.131357252597808838
0.238724052906036377 0.319999992847442627 0.0885303840041160583
0.134339660406112671 0.319999992847442627 0.132135316729545593
0.0623995698988437653 0.319999992847442627 0.0302586853504180908
0.122285358607769012 0.319999992847442627 0.122110918164253235
0.0493293553590774536 0.319999992847442627 0.131814509630203247
0.523463547229766846 0.319999992847442627 0.19594496488571167
0.114939287304878235 0.319999992847442627 0.0981099158525466919
0.259689748287200928 0.319999992847442627 0.0779019743204116821
0.18066871166229248 0.319999992847442627 0.146836251020431519
0.103814102709293365 0.319999992847442627 0.0465834140777587891
0.300510615110397339 0.319999992847442627 0.127542510628700256
0.144796118140220642 0.319999992847442627 0.198929935693740845
0.199925661087036133 0.319999992847442627 0.196817278861999512
0.386937946081161499 0.319999992847442627 0.141366153955459595
0.487268447875976562 0.319999992847442627 0.19137631356716156
0.158364236354827881 0.319999992847442627 0.145938381552696228
0.144488275051116943 0.319999992847442627 0.146611839532852173
0.0867242515087127686 0.319999992847442627 0.151961758732795715
0.120711885392665863 0.319999992847442627 0.0888893976807594299
0.230999574065208435 0.319999992847442627 0.151637747883796692
0.478649735450744629 0.319999992847442627 0.198578774929046631
0.104329928755760193 0.319999992847442627 0.154545247554779053
0.383402377367019653 0.319999992847442627 0.183270007371902466
0.025362212210893631 0.319999992847442627 0.151292175054550171
0.0664998739957809448 0.319999992847442627 0.135341167449951172
0.133885875344276428 0.319999992847442627 0.0659055411815643311
0.0430188588798046112 0.319999992847442627 0.0482335090637207031
0.00807575322687625885 0.319999992847442627 0.0122842490673065186
0.242754951119422913 0.319999992847442627 0.181264623999595642
0.203803330659866333 0.319999992847442627 0.103599682450294495
0.481945693492889404 0.319999992847442627 0.15615960955619812
0.512116193771362305 0.319999992847442627 0.179213151335716248
0.0112572629004716873 0.319999992847442627 0.0368871092796325684
0.459372192621231079 0.319999992847442627 0.179979756474494934
0.085023634135723114 0.319999992847442627 0.0737123787403106689
0.280118167400360107 0.319999992847442627 0.0876456126570701599
0.147794097661972046 0.319999992847442627 0.0933266803622245789
0.256349295377731323 0.319999992847442627 0.145332038402557373
0.37688833475112915 0.319999992847442627 0.171902284026145935
0.162281453609466553 0.319999992847442627 0.159607544541358948
0.148702904582023621 0.319999992847442627 0.0535884201526641846
0.0152293173596262932 0.319999992847442627 0.096173405647277832
0.600013017654418945 0.319999992847442627 0.195483222603797913
0.184886053204536438 0.319999992847442627 0.0675714313983917236
0.465142875909805298 0.319999992847442627 0.183507263660430908
0.168704420328140259 0.319999992847442627 0.110974431037902832
0.0118959192186594009 0.319999992847442627 0.156130552291870117
0.147661253809928894 0.319999992847442627 0.154551714658737183
0.393014281988143921 0.319999992847442627 0.136276528239250183
0.0181520786136388779 0.319999992847442627 0.0935834571719169617
0.140522778034210205 0.319999992847442627 0.051928400993347168
0.109571792185306549 0.319999992847442627 0.131255239248275757
0.304474771022796631 0.319999992847442627 0.181778967380523682
0.0407787784934043884 0.319999992847442627 0.0866101160645484924
0.155609071254730225 0.319999992847442627 0.157508686184883118
0.0819923281669616699 0.319999992847442627 0.0291665792465209961
0.281839847564697266 0.319999992847442627 0.0892388597130775452
0.314098060131072998 0.319999992847442627 0.191193029284477234
0.319134354591369629 0.319999992847442627 0.106260880827903748
0.359644711017608643 0.319999992847442627 0.190561085939407349
0.0347800999879837036 0.319999992847442627 0.101562924683094025
0.0252469964325428009 0.319999992847442627 0.186510413885116577
0.624938130378723145 0.319999992847442627 0.194097951054573059
0.0263870470225811005 0.319999992847442627 0.181303292512893677
0.163026154041290283 0.319999992847442627 0.135223850607872009
0.299949198961257935 0.319999992847442627 0.137486159801483154
0.083348885178565979 0.319999992847442627 0.0919523164629936218
0.0685777068138122559 0.319999992847442627 0.0938769504427909851
0.0691435039043426514 0.319999992847442627 0.157724618911743164
0.265499979257583618 0.319999992847442627 0.091159917414188385
0.34375491738319397 0.319999992847442627 0.159083336591720581
0.429590195417404175 0.319999992847442627 0.152864933013916016
0.0769680589437484741 0.319999992847442627 0.082568243145942688
0.156267613172531128 0.319999992847442627 0.128954425454139709
0.0686897411942481995 0.319999992847442627 0.0459700673818588257
0.46171906590461731 0.319999992847442627 0.146281525492668152
0.197495996952056885 0.319999992847442627 0.139227986335754395
0.109042257070541382 0.319999992847442627 0.128607273101806641
0.0405042767524719238 0.319999992847442627 0.14945925772190094
0.0564354024827480316 0.319999992847442627 0.144660338759422302
0.0200669765472412109 0.319999992847442627 0.173996388912200928
0.346480607986450195 0.319999992847442627 0.141171008348464966
0.322426736354827881 0.319999992847442627 0.177049934864044189
0.427554458379745483 0.319999992847442627 0.147964447736740112
0.356371909379959106 0.319999992847442627 0.19580473005771637
0.0534360520541667938 0.319999992847442627 0.171769052743911743
0.188855186104774475 0.319999992847442627 0.18076692521572113
0.474516153335571289 0.319999992847442627 0.176504224538803101
0.131408289074897766 0.319999992847442627 0.150647968053817749
0.635913372039794922 0.319999992847442627 0.192919269204139709
0.0166861098259687424 0.319999992847442627 0.0842945799231529236
0.333784222602844238 0.319999992847442627 0.158543482422828674
0.0938291251659393311 0.319999992847442627 0.0350274741649627686
0.119754903018474579 0.319999992847442627 0.0351993739604949951
0.231092184782028198 0.319999992847442627 0.196648716926574707
0.266592323780059814 0.319999992847442627 0.113814011216163635
0.0668777525424957275 0.319999992847442627 0.114573411643505096
0.239915639162063599 0.319999992847442627 0.122088707983493805
0.248712807893753052 0.319999992847442627 0.120007537305355072
0.645574748516082764 0.319999992847442627 0.191037997603416443
0.198030129075050354 0.319999992847442627 0.0982059761881828308
0.256505310535430908 0.319999992847442627 0.179421097040176392
0.531114757061004639 0.319999992847442627 0.181372180581092834
0.220716908574104309 0.319999992847442627 0.17081005871295929
0.214961782097816467 0.319999992847442627 0.142853826284408569
0.474813133478164673 0.319999992847442627 0.196341976523399353
0.240668013691902161 0.319999992847442627 0.0764710083603858948
0.191212236881256104 0.319999992847442627 0.0669789165258407593
0.121246032416820526 0.319999992847442627 0.136361658573150635
0.107754051685333252 0.319999992847442627 0.0915958806872367859
0.156651929020881653 0.319999992847442627 0.130658447742462158
0.339470237493515015 0.319999992847442627 0.172752067446708679
0.407169044017791748 0.319999992847442627 0.189000070095062256
0.0176644213497638702 0.319999992847442627 0.150409266352653503
0.152804791927337646 0.319999992847442627 0.119805589318275452
0.392971545457839966 0.319999992847442627 0.131267815828323364
0.435652762651443481 0.319999992847442627 0.174558967351913452
0.216245740652084351 0.319999992847442627 0.0912263542413711548
0.338702231645584106 0.319999992847442627 0.142312511801719666
0.319335728883743286 0.319999992847442627 0.116117618978023529
0.117703936994075775 0.319999992847442627 0.186173692345619202
0.0513475686311721802 0.319999992847442627 0.11984039843082428
0.00580837856978178024 0.319999992847442627 0.0386232435703277588
0.644531786441802979 0.319999992847442627 0.189157024025917053
0.262470722198486328 0.319999992847442627 0.199321344494819641
0.0911291539669036865 0.319999992847442627 0.0970507189631462097
0.317364037036895752 0.319999992847442627 0.191148906946182251
0.316882312297821045 0.319999992847442627 0.180247709155082703
0.404096633195877075 0.319999992847442627 0.171512037515640259
0.183355748653411865 0.319999992847442627 0.104304499924182892
0.0895069539546966553 0.319999992847442627 0.048757895827293396
0.279066890478134155 0.319999992847442627 0.0900348573923110962
0.325093448162078857 0.319999992847442627 0.122292324900627136
0.550378024578094482 0.319999992847442627 0.185642004013061523
0.0769663155078887939 0.319999992847442627 0.0721217840909957886
0.284814298152923584 0.319999992847442627 0.166199475526809692
0.0289385709911584854 0.319999992847442627 0.0496683865785598755
0.279823035001754761 0.319999992847442627 0.183040544390678406
0.0686724483966827393 0.319999992847442627 0.0971327647566795349
0.157740280032157898 0.319999992847442627 0.106952719390392303
0.501874864101409912 0.319999992847442627 0.179103046655654907
0.204929888248443604 0.319999992847442627 0.186789751052856445
0.174945473670959473 0.319999992847442627 0.0805409103631973267
0.159819409251213074 0.319999992847442627 0.07334938645362854
0.358731478452682495 0.319999992847442627 0.10871046781539917
0.330598890781402588 0.319999992847442627 0.0968153402209281921
0.171560510993003845 0.319999992847442627 0.196204870939254761
0.191441774368286133 0.319999992847442627 0.0716135799884796143
0.144853919744491577 0.319999992847442627 0.0492916405200958252
0.107261598110198975 0.319999992847442627 0.13231639564037323
0.178544715046882629 0.319999992847442627 0.163576409220695496
0.0705251321196556091 0.319999992847442627 0.0371721237897872925
0.0681402236223220825 0.319999992847442627 0.0484943687915802002
0.30094560980796814 0.319999992847442627 0.19946819543838501
0.00347982835955917835 0.319999992847442627 0.162056192755699158
0.473804682493209839 0.319999992847442627 0.182653874158859253
0.162656620144844055 0.319999992847442627 0.0987938418984413147
0.31418222188949585 0.319999992847442627 0.142459958791732788
0.624045431613922119 0.319999992847442627 0.195243820548057556
0.241958335041999817 0.319999992847442627 0.189105004072189331
0.0459436774253845215 0.319999992847442627 0.0359349995851516724
0.298870682716369629 0.319999992847442627 0.170453354716300964
0.091836683452129364 0.319999992847442627 0.169513881206512451
0.2043924480676651 0.319999992847442627 0.156775951385498047
0.224761709570884705 0.319999992847442627 0.103585593402385712
0.338368415832519531 0.319999992847442627 0.119517244398593903
0.0230954736471176147 0.319999992847442627 0.162412345409393311
0.11407315731048584 0.319999992847442627 0.047344595193862915
0.303591012954711914 0.319999992847442627 0.174313798546791077
0.252938508987426758 0.319999992847442627 0.163909882307052612
0.236881986260414124 0.319999992847442627 0.072561219334602356
0.166210666298866272 0.319999992847442627 0.0838605985045433044
0.250263988971710205 0.319999992847442627 0.119957789778709412
-1.69864122767648951e-14 0.168193534016609192 0.00674990564584732056
-1.69864122767648951e-14 0.163456946611404419 0.0464131608605384827
-1.69864122767648951e-14 0.0614275336265563965 0.0235991328954696655
-1.69864122767648951e-14 0.242529168725013733 0.114894688129425049
-1.69864122767648951e-14 0.20021212100982666 0.113320335745811462
-1.69864122767648951e-14 0.203262642025947571 0.020638197660446167
-1.69864122767648951e-14 0.225632131099700928 0.0871058255434036255
-1.69864122767648951e-14 0.0427125692367553711 0.000330507755279541016
-1.69864122767648951e-14 0.164271175861358643 0.0845480561256408691
-1.69864122767648951e-14 0.0772559493780136108 0.0209250301122665405
-1.69864122767648951e-14 0.0571074783802032471 0.0184567421674728394
-1.69864122767648951e-14 0.316063940525054932 0.0918318629264831543
-1.69864122767648951e-14 0.268074512481689453 0.159503370523452759
-1.69864122767648951e-14 0.141736790537834167 0.0578017234802246094
-1.69864122767648951e-14 0.220411479473114014 0.045242656022310257
-1.69864122767648951e-14 0.272444814443588257 0.0563314929604530334
-1.69864122767648951e-14 0.214380756020545959 0.109417364001274109
-1.69864122767648951e-14 0.146243453025817871 0.00145929306745529175
-1.69864122767648951e-14 0.257554352283477783 0.05215444415807724
-1.69864122767648951e-14 0.243345856666564941 0.135055780410766602
-1.69864122767648951e-14 0.196303337812423706 0.1119198277592659
-1.69864122767648951e-14 0.294954657554626465 0.166335240006446838
-1.69864122767648951e-14 0.305639952421188354 0.0278083961457014084
-1.69864122767648951e-14 0.279548823833465576 0.157391816377639771
-1.69864122767648951e-14 0.224833428859710693 0.0155840106308460236
-1.69864122767648951e-14 0.0779200941324234009 0.0280850231647491455
-1.69864122767648951e-14 0.0174007117748260498 0.00354972481727600098
-1.69864122767648951e-14 0.292093247175216675 0.126300036907196045
-1.69864122767648951e-14 0.0493273437023162842 0.0144938826560974121
-1.69864122767648951e-14 0.176975041627883911 0.0789605304598808289
-1.69864122767648951e-14 0.109744787216186523 0.00715403258800506592
-1.69864122767648951e-14 0.236599266529083252 0.0136507228016853333
-1.69864122767648951e-14 0.240564674139022827 0.118070155382156372
-1.69864122767648951e-14 0.3153667151927948 0.18134501576423645
-1.69864122767648951e-14 0.30964389443397522 0.155926227569580078
-1.69864122767648951e-14 0.156576007604598999 0.0207254290580749512
-1.69864122767648951e-14 0.242315441370010376 0.0049211159348487854
-1.69864122767648951e-14 0.169057294726371765 0.085428088903427124
-1.69864122767648951e-14 0.280209243297576904 0.104453697800636292
-1.69864122767648951e-14 0.300759702920913696 0.0298872366547584534
-1.69864122767648951e-14 0.291130006313323975 0.126129373908042908
-1.69864122767648951e-14 0.155863910913467407 0.0155776515603065491
-1.69864122767648951e-14 0.106432512402534485 0.0233425498008728027
-1.69864122767648951e-14 0.0209228396415710449 0.00909359753131866455
-1.69864122767648951e-14 0.160669520497322083 0.031070314347743988
-1.69864122767648951e-14 0.198283284902572632 0.0840035900473594666
-1.69864122767648951e-14 0.215573161840438843 0.0448888838291168213
-1.69864122767648951e-14 0.181656196713447571 0.0627008453011512756
-1.69864122767648951e-14 0.238623857498168945 0.0336980968713760376
-1.69864122767648951e-14 0.277136504650115967 0.0130324866622686386
-1.69864122767648951e-14 0.181466475129127502 0.0917947664856910706
-1.69864122767648951e-14 0.246731355786323547 0.00992248207330703735
-1.69864122767648951e-14 0.0549512207508087158 0.0229097455739974976
-1.69864122767648951e-14 0.286420971155166626 0.0480223149061203003
-1.69864122767648951e-14 0.303474515676498413 0.0309161543846130371
-1.69864122767648951e-14 0.221361175179481506 0.0610123276710510254
-1.69864122767648951e-14 0.0899138599634170532 0.0539127737283706665
-1.69864122767648951e-14 0.126555308699607849 0.00662373751401901245
-1.69864122767648951e-14 0.0396178364753723145 0.0186334401369094849
-1.69864122767648951e-14 0.298607409000396729 0.0928100422024726868
-1.69864122767648951e-14 0.297587186098098755 0.0401835739612579346
-1.69864122767648951e-14 0.263260215520858765 0.148094907402992249
-1.69864122767648951e-14 0.301135152578353882 0.110161200165748596
-1.69864122767648951e-14 0.0901770591735839844 0.0151789039373397827
-1.69864122767648951e-14 0.142780378460884094 0.0444806888699531555
-1.69864122767648951e-14 0.29909709095954895 0.160112053155899048
-1.69864122767648951e-14 0.172828167676925659 0.0420462191104888916
-1.69864122767648951e-14 0.0591735541820526123 0.0268914252519607544
-1.69864122767648951e-14 0.16300259530544281 0.0126491114497184753
-1.69864122767648951e-14 0.174661979079246521 0.106780253350734711
-1.69864122767648951e-14 0.190731942653656006 0.000314973294734954834
-1.69864122767648951e-14 0.158637881278991699 0.0938241854310035706
-1.69864122767648951e-14 0.237942874431610107 0.130247011780738831
-1.69864122767648951e-14 0.311723440885543823 0.189550578594207764
-1.69864122767648951e-14 0.288640767335891724 0.0745201334357261658
-1.69864122767648951e-14 0.296848505735397339 0.107645832002162933
-1.69864122767648951e-14 0.263951927423477173 0.011125076562166214
-1.69864122767648951e-14 0.238032147288322449 0.0216705687344074249
-1.69864122767648951e-14 0.277674347162246704 0.129779905080795288
-1.69864122767648951e-14 0.305995702743530273 0.0336575470864772797
-1.69864122767648951e-14 0.240750551223754883 0.133234515786170959
-1.69864122767648951e-14 0.316183477640151978 0.135211169719696045
-1.69864122767648951e-14 0.303497850894927979 0.134576976299285889
-1.69864122767648951e-14 0.112933367490768433 0.02073650062084198
-1.69864122767648951e-14 0.277035027742385864 0.0120071470737457275
-1.69864122767648951e-14 0.117649242281913757 0.0699229538440704346
-1.69864122767648951e-14 0.0949143767356872559 0.050283774733543396
-1.69864122767648951e-14 0.128673791885375977 0.0467213168740272522
-1.69864122767648951e-14 0.296093165874481201 0.175931110978126526
-1.69864122767648951e-14 0.252489417791366577 0.150007694959640503
-1.69864122767648951e-14 0.242587238550186157 0.151169583201408386
-1.69864122767648951e-14 0.120607137680053711 0.0281790420413017273
-1.69864122767648951e-14 0.248054176568984985 0.0200128443539142609
-1.69864122767648951e-14 0.298172563314437866 0.0973967164754867554
-1.69864122767648951e-14 0.217491120100021362 0.0180219262838363647
-1.69864122767648951e-14 0.172097012400627136 0.0104556754231452942
-1.69864122767648951e-14 0.231270551681518555 0.0538686998188495636
-1.69864122767648951e-14 0.142343848943710327 0.0273183956742286682
-1.69864122767648951e-14 0.178278788924217224 0.0782971084117889404
-1.69864122767648951e-14 0.0885716676712036133 0.0234190374612808228
-1.69864122767648951e-14 0.290072083473205566 0.112956799566745758
-1.69864122767648951e-14 0.281560063362121582 0.00353810936212539673
-1.69864122767648951e-14 0.274300664663314819 0.139697089791297913
-1.69864122767648951e-14 0.282227784395217896 0.0835352614521980286
-1.69864122767648951e-14 0.28095582127571106 0.0947713851928710938
-1.69864122767648951e-14 0.166584417223930359 0.0910404324531555176
-1.69864122767648951e-14 0.267242908477783203 0.0344911329448223114
-1.69864122767648951e-14 0.300845474004745483 0.117817528545856476
-1.69864122767648951e-14 0.250556647777557373 0.130480259656906128
-1.69864122767648951e-14 0.258335798978805542 0.160118162631988525
-1.69864122767648951e-14 0.173892661929130554 0.0109833776950836182
-1.69864122767648951e-14 0.222289279103279114 0.0981619879603385925
-1.69864122767648951e-14 0.206988900899887085 0.0752739906311035156
-1.69864122767648951e-14 0.257352292537689209 0.120514437556266785
-1.69864122767648951e-14 0.19255964457988739 0.11974797397851944
-1.69864122767648951e-14 0.256578713655471802 0.110556729137897491
-1.69864122767648951e-14 0.068350374698638916 0.0205087065696716309
-1.69864122767648951e-14 0.0159667134284973145 0.00531704723834991455
-1.69864122767648951e-14 0.264932096004486084 0.0451052635908126831
-1.69864122767648951e-14 0.214945986866950989 0.109367631375789642
-1.69864122767648951e-14 0.155914783477783203 0.0234920233488082886
-1.69864122767648951e-14 0.311207950115203857 0.103547841310501099
-1.69864122767648951e-14 0.176510736346244812 0.0941482782363891602
-1.69864122767648951e-14 0.285979956388473511 0.0516998656094074249
-1.69864122767648951e-14 0.177361175417900085 0.0842173174023628235
-1.69864122767648951e-14 0.172620624303817749 0.0978996753692626953
-1.69864122767648951e-14 0.0503007173538208008 0.0118373781442642212
-1.69864122767648951e-14 0.23820069432258606 0.0526418127119541168
-1.69864122767648951e-14 0.10320359468460083 0.0628793239593505859
-1.69864122767648951e-14 0.0923203378915786743 0.0175194740295410156
-1.69864122767648951e-14 0.104387089610099792 0.0240974873304367065
-1.69864122767648951e-14 0.317532002925872803 0.101681992411613464
-1.69864122767648951e-14 0.308811306953430176 0.13949468731880188
-1.69864122767648951e-14 0.18676389753818512 0.105837918817996979
-1.69864122767648951e-14 0.31598430871963501 0.0894605740904808044
-1.69864122767648951e-14 0.152701333165168762 0.0747267231345176697
-1.69864122767648951e-14 0.233394846320152283 0.0135993026196956635
-1.69864122767648951e-14 0.170074000954627991 0.105529308319091797
-1.69864122767648951e-14 0.288746833801269531 0.0230242852121591568
-1.69864122767648951e-14 0.3048991858959198 0.00534092914313077927
-1.69864122767648951e-14 0.184294939041137695 0.0082743912935256958
-1.69864122767648951e-14 0.0711035281419754028 0.0273038297891616821
-1.69864122767648951e-14 0.296772778034210205 0.142946302890777588
-1.69864122767648951e-14 0.119222536683082581 0.0686266124248504639
-1.69864122767648951e-14 0.18992912769317627 0.0998239591717720032
-1.69864122767648951e-14 0.185258626937866211 0.0331663563847541809
-1.69864122767648951e-14 0.0896874070167541504 0.0480746328830718994
-1.69864122767648951e-14 0.220503896474838257 0.0778738260269165039
-1.69864122767648951e-14 0.121293768286705017 0.0497588291764259338
-1.69864122767648951e-14 0.134894669055938721 0.0282147824764251709
-1.69864122767648951e-14 0.290210545063018799 0.178177475929260254
-1.69864122767648951e-14 0.27248460054397583 0.0386139899492263794
-1.69864122767648951e-14 0.163442656397819519 0.0367546230554580688
-1.69864122767648951e-14 0.248239114880561829 0.122086875140666962
-1.69864122767648951e-14 0.224815934896469116 0.0509255379438400269
-1.69864122767648951e-14 0.0704664736986160278 0.0196463167667388916
-1.69864122767648951e-14 0.189697757363319397 0.00959368795156478882
-1.69864122767648951e-14 0.257707506418228149 0.114318713545799255
-1.69864122767648951e-14 0.248661577701568604 0.121439702808856964
-1.69864122767648951e-14 0.281573981046676636 0.117060281336307526
-1.69864122767648951e-14 0.170685291290283203 0.0303066521883010864
-1.69864122767648951e-14 0.233680099248886108 0.0893134996294975281
-1.69864122767648951e-14 0.240539491176605225 0.000654153525829315186
-1.69864122767648951e-14 0.260544329881668091 0.0461648516356945038
-1.69864122767648951e-14 0.247647851705551147 0.113827541470527649
-1.69864122767648951e-14 0.312896400690078735 0.179205596446990967
-1.69864122767648951e-14 0.278873682022094727 0.0224189851433038712
-1.69864122767648951e-14 0.0896806269884109497 0.0428418070077896118
-1.69864122767648951e-14 0.263319969177246094 0.0631365776062011719
-1.69864122767648951e-14 0.282997041940689087 0.132744982838630676
-1.69864122767648951e-14 0.287682771682739258 0.0458775237202644348
-1.69864122767648951e-14 0.286435067653656006 0.0100559499114751816
-1.69864122767648951e-14 0.106211602687835693 0.0360801815986633301
-1.69864122767648951e-14 0.318567872047424316 0.03872700035572052
-1.69864122767648951e-14 0.10483512282371521 0.0279874354600906372
-1.69864122767648951e-14 0.199150845408439636 0.038701571524143219
-1.69864122767648951e-14 0.14606708288192749 0.0158383846282958984
-1.69864122767648951e-14 0.26175987720489502 0.145811155438423157
-1.69864122767648951e-14 0.29971688985824585 0.159038349986076355
-1.69864122767648951e-14 0.232165217399597168 0.056107841432094574
-1.69864122767648951e-14 0.0371741056442260742 0.0107101798057556152
-1.69864122767648951e-14 0.303390443325042725 0.0496252849698066711
-1.69864122767648951e-14 0.196762055158615112 0.0932437703013420105
-1.69864122767648951e-14 0.135407254099845886 0.012070879340171814
-1.69864122767648951e-14 0.269535273313522339 0.159491270780563354
-1.69864122767648951e-14 0.251962184906005859 0.152987942099571228
-1.69864122767648951e-14 0.224652081727981567 0.0772270262241363525
-1.69864122767648951e-14 0.21486017107963562 0.133795544505119324
-1.69864122767648951e-14 0.28794395923614502 0.115857288241386414
-1.69864122767648951e-14 0.264454394578933716 0.120756223797798157
-1.69864122767648951e-14 0.284559786319732666 0.137269482016563416
-1.69864122767648951e-14 0.308492869138717651 0.0375014878809452057
-1.69864122767648951e-14 0.26131477952003479 0.0917011797428131104
-1.69864122767648951e-14 0.303130894899368286 0.0595477670431137085
-1.69864122767648951e-14 0.0591919422149658203 0.0263071060180664062
-1.69864122767648951e-14 0.309928357601165771 0.0181918404996395111
-1.69864122767648951e-14 0.0636982619762420654 0.00110065937042236328
-1.69864122767648951e-14 0.156957775354385376 0.00208321958780288696
-1.69864122767648951e-14 0.0109328031539916992 0.00273555517196655273
-1.69864122767648951e-14 0.208321928977966309 0.0660257637500762939
-1.69864122767648951e-14 0.273121029138565063 0.149269163608551025
-1.69864122767648951e-14 0.314568251371383667 0.0835380032658576965
-1.69864122767648951e-14 0.314328879117965698 0.163146793842315674
-1.69864122767648951e-14 0.230862736701965332 0.0909560918807983398
-1.69864122767648951e-14 0.118678078055381775 0.0463036000728607178
-1.69864122767648951e-14 0.236524477601051331 0.112279191613197327
-1.69864122767648951e-14 0.133490502834320068 0.0641434565186500549
-1.69864122767648951e-14 0.216413810849189758 0.0940634235739707947
-1.69864122767648951e-14 0.302525967359542847 0.0894213169813156128
-1.69864122767648951e-14 0.217505261301994324 0.0777388662099838257
-1.69864122767648951e-14 0.212935119867324829 0.00688417255878448486
-1.69864122767648951e-14 0.20795285701751709 0.113701887428760529
-1.69864122767648951e-14 0.163483813405036926 0.0701216980814933777
-1.69864122767648951e-14 0.203823253512382507 0.112961135804653168
-1.69864122767648951e-14 0.290563255548477173 0.0235777273774147034
-1.69864122767648951e-14 0.287644416093826294 0.0985854268074035645
-1.69864122767648951e-14 0.318658947944641113 0.0223556030541658401
-1.69864122767648951e-14 0.280340343713760376 0.150145918130874634
-1.69864122767648951e-14 0.0911052823066711426 0.0454069077968597412
-1.69864122767648951e-14 0.0444993674755096436 0.0237794220447540283
-1.69864122767648951e-14 0.281384140253067017 0.150455474853515625
-1.69864122767648951e-14 0.286785930395126343 0.0715355053544044495
-1.69864122767648951e-14 0.157189980149269104 0.000101357698440551758
-1.69864122767648951e-14 0.211805075407028198 0.0223701000213623047
-1.69864122767648951e-14 0.26704329252243042 0.034501638263463974
-1.69864122767648951e-14 0.176714345812797546 0.0239958763122558594
-1.69864122767648951e-14 0.179551810026168823 0.070738665759563446
-1.69864122767648951e-14 0.0208188891410827637 0.000934526324272155762
-1.69864122767648951e-14 0.281781435012817383 0.0335274636745452881
-1.69864122767648951e-14 0.123479396104812622 0.00679827481508255005
-1.69864122767648951e-14 0.288984149694442749 0.170014500617980957
-1.69864122767648951e-14 0.299072682857513428 0.0610718503594398499
-1.69864122767648951e-14 0.215355664491653442 0.12222888320684433
-1.69864122767648951e-14 0.0153178870677947998 0.00874467194080352783
-1.69864122767648951e-14 0.294274985790252686 0.167094334959983826
-1.69864122767648951e-14 0.0344018340110778809 0.0175018012523651123
-1.69864122767648951e-14 0.120378315448760986 0.047663271427154541
-1.69864122767648951e-14 0.238123819231987 0.030462164431810379
-1.69864122767648951e-14 0.310231685638427734 0.114548400044441223
-1.69864122767648951e-14 0.311552047729492188 0.105330310761928558
-1.69864122767648951e-14 0.317412197589874268 0.0387239791452884674
-1.69864122767648951e-14 0.270656168460845947 0.0989793911576271057
-1.69864122767648951e-14 0.238945916295051575 0.00847642868757247925
-1.69864122767648951e-14 0.205703258514404297 0.124634824693202972
-1.69864122767648951e-14 0.236242592334747314 0.0880223214626312256
-1.69864122767648951e-14 0.0280580818653106689 0.0021763145923614502
-1.69864122767648951e-14 0.0573296844959259033 0.0323442667722702026
-1.69864122767648951e-14 0.244496017694473267 0.0236259810626506805
-1.69864122767648951e-14 0.171152442693710327 0.0564638301730155945
-1.69864122767648951e-14 0.246760040521621704 0.0503678470849990845
-1.69864122767648951e-14 0.270560711622238159 0.0819743573665618896
-1.69864122767648951e-14 0.229818627238273621 0.0651159584522247314
-1.69864122767648951e-14 0.0695119500160217285 0.0200415551662445068
-1.69864122767648951e-14 0.110359534621238708 0.0661659985780715942
-1.69864122767648951e-14 0.0265511572360992432 0.01573200523853302
-1.69864122767648951e-14 0.204671353101730347 0.00778328627347946167
-1.69864122767648951e-14 0.223919034004211426 0.0791546404361724854
-1.69864122767648951e-14 0.216158926486968994 0.000322319567203521729
-1.69864122767648951e-14 0.0850162357091903687 0.0412046164274215698
-1.69864122767648951e-14 0.23553195595741272 0.0566996410489082336
-1.69864122767648951e-14 0.131406411528587341 0.00417102128267288208
-1.69864122767648951e-14 0.175705075263977051 0.0646029040217399597
-1.69864122767648951e-14 0.262062698602676392 0.025998678058385849
-1.69864122767648951e-14 0.30091702938079834 0.0634100884199142456
-1.69864122767648951e-14 0.237911075353622437 0.0623600520193576813
-1.69864122767648951e-14 0.185734599828720093 0.0345404967665672302
-1.69864122767648951e-14 0.0312255322933197021 0.00906015932559967041
-1.69864122767648951e-14 0.302347332239151001 0.157156363129615784
-1.69864122767648951e-14 0.252737939357757568 0.0928198546171188354
-1.69864122767648951e-14 0.231790870428085327 0.0643608570098876953
-1.69864122767648951e-14 0.213367253541946411 0.0150549337267875671
-1.69864122767648951e-14 0.160388633608818054 0.0905496105551719666
-1.69864122767648951e-14 0.105902805924415588 0.0249825417995452881
-1.69864122767648951e-14 0.24121074378490448 0.102796927094459534
-1.69864122767648951e-14 0.267923861742019653 0.110463991761207581
-1.69864122767648951e-14 0.216749429702758789 0.107881613075733185
-1.69864122767648951e-14 0.302429258823394775 0.12484634667634964
-1.69864122767648951e-14 0.218069717288017273 0.0936034843325614929
-1.69864122767648951e-14 0.15402531623840332 0.0504841431975364685
-1.69864122767648951e-14 0.252212435007095337 0.14396318793296814
-1.69864122767648951e-14 0.0380700230598449707 0.00659470260143280029
-1.69864122767648951e-14 0.236155241727828979 0.0256088636815547943
-1.69864122767648951e-14 0.283453941345214844 0.00605027563869953156
-1.69864122767648951e-14 0.141601487994194031 0.0311837196350097656
-1.69864122767648951e-14 0.176527664065361023 0.0536091476678848267
-1.69864122767648951e-14 0.20124371349811554 0.0932927802205085754
-1.69864122767648951e-14 0.219315499067306519 0.0227309688925743103
-1.69864122767648951e-14 0.269814163446426392 0.14445793628692627
-1.69864122767648951e-14 0.184887170791625977 0.0546060949563980103
-1.69864122767648951e-14 0.0507041811943054199 0.012823447585105896
-1.69864122767648951e-14 0.203249514102935791 0.0081950947642326355
-1.69864122767648951e-14 0.294049382209777832 0.0569053478538990021
-1.69864122767648951e-14 0.250067949295043945 0.153386414051055908
-1.69864122767648951e-14 0.308284342288970947 0.0526731349527835846
-1.69864122767648951e-14 0.0334535539150238037 0.00510568916797637939
-1.69864122767648951e-14 0.251893192529678345 0.0856270939111709595
-1.69864122767648951e-14 0.132997512817382812 0.0334549099206924438
-1.69864122767648951e-14 0.102650433778762817 0.0449959039688110352
-1.69864122767648951e-14 0.163010150194168091 0.0729036852717399597
-1.69864122767648951e-14 0.316088497638702393 0.168778494000434875
-1.69864122767648951e-14 0.243614643812179565 0.101185053586959839
-1.69864122767648951e-14 0.220899730920791626 0.136530548334121704
-1.69864122767648951e-14 0.294436782598495483 0.042622201144695282
-1.69864122767648951e-14 0.123072013258934021 0.0278859511017799377
-1.69864122767648951e-14 0.248347759246826172 0.151915937662124634
-1.69864122767648951e-14 0.20315997302532196 0.0188865438103675842
-1.69864122767648951e-14 0.15273633599281311 0.0652798935770988464
-1.69864122767648951e-14 0.278129488229751587 0.163477137684822083
-1.69864122767648951e-14 0.243117213249206543 0.0677112042903900146
-1.69864122767648951e-14 0.0121167302131652832 0.00481760501861572266
-1.69864122767648951e-14 0.14136447012424469 0.0455758720636367798
-1.69864122767648951e-14 0.00451919436454772949 0.00149625539779663086
-1.69864122767648951e-14 0.1680583655834198 0.0143998488783836365
-1.69864122767648951e-14 0.298996210098266602 0.0433897078037261963
-1.69864122767648951e-14 0.124540835618972778 0.0204952284693717957
-1.69864122767648951e-14 0.242191925644874573 0.0226322896778583527
-1.69864122767648951e-14 0.0726771950721740723 0.0409725606441497803
-1.69864122767648951e-14 0.301418483257293701 0.0352884083986282349
-1.69864122767648951e-14 0.189480483531951904 0.0705814436078071594
-1.69864122767648951e-14 0.241353929042816162 0.102861985564231873
-1.69864122767648951e-14 0.17826409637928009 0.0718821585178375244
-1.69864122767648951e-14 0.219752192497253418 0.0283173397183418274
-1.69864122767648951e-14 0.147998601198196411 0.00114957243204116821
-1.69864122767648951e-14 0.274182975292205811 0.152189642190933228
-1.69864122767648951e-14 0.184126541018486023 0.00944524258375167847
-1.69864122767648951e-14 0.15323367714881897 0.083951316773891449
-1.69864122767648951e-14 0.229025691747665405 0.088527873158454895
-1.69864122767648951e-14 0.277634710073471069 0.00288390740752220154
-1.69864122767648951e-14 0.276756256818771362 0.124996945261955261
-1.69864122767648951e-14 0.206705078482627869 0.0797385796904563904
-1.69864122767648951e-14 0.0780416280031204224 0.0255195200443267822
-1.69864122767648951e-14 0.29680296778678894 0.0755195543169975281
-1.69864122767648951e-14 0.0585525631904602051 0.0143079310655593872
-1.69864122767648951e-14 0.201809555292129517 0.117791488766670227
-1.69864122767648951e-14 0.209212154150009155 0.105429172515869141
-1.69864122767648951e-14 0.311953753232955933 0.168966010212898254
-1.69864122767648951e-14 0.143128067255020142 0.0238330140709877014
-1.69864122767648951e-14 0.149526253342628479 0.0682790502905845642
-1.69864122767648951e-14 0.19832339882850647 0.00129659473896026611
-1.69864122767648951e-14 0.288739174604415894 0.0832948386669158936
-1.69864122767648951e-14 0.103802427649497986 0.0629554539918899536
-1.69864122767648951e-14 0.117733493447303772 0.0410833209753036499
-1.69864122767648951e-14 0.0253565311431884766 0.0143482983112335205
-1.69864122767648951e-14 0.314863204956054688 0.0552320778369903564
-1.69864122767648951e-14 0.148675650358200073 0.049397200345993042
-1.69864122767648951e-14 0.190331071615219116 0.0883094221353530884
-1.69864122767648951e-14 0.154658392071723938 0.0341069474816322327
-1.69864122767648951e-14 0.254499077796936035 0.0779973864555358887
-1.69864122767648951e-14 0.253563880920410156 0.0339562408626079559
-1.69864122767648951e-14 0.297739565372467041 0.184446811676025391
-1.69864122767648951e-14 0.0620728433132171631 0.000114768743515014648
-1.69864122767648951e-14 0.120847597718238831 0.0136631578207015991
-1.69864122767648951e-14 0.0790163576602935791 0.0106910467147827148
-1.69864122767648951e-14 0.313020914793014526 0.135872423648834229
-1.69864122767648951e-14 0.271313726902008057 0.124866634607315063
-1.69864122767648951e-14 0.122055470943450928 0.0449945703148841858
-1.69864122767648951e-14 0.0729018449783325195 0.0352499932050704956
-1.69864122767648951e-14 0.171734064817428589 0.0578039363026618958
-1.69864122767648951e-14 0.214936524629592896 0.0802057757973670959
-1.69864122767648951e-14 0.30786585807800293 0.137113973498344421
-1.69864122767648951e-14 0.110276386141777039 0.0558625161647796631
-1.69864122767648951e-14 0.207979053258895874 0.0191341638565063477
-1.69864122767648951e-14 0.216136395931243896 0.0141152441501617432
-1.69864122767648951e-14 0.0378301143646240234 0.0177132934331893921
-1.69864122767648951e-14 0.306772440671920776 0.0846286118030548096
-1.69864122767648951e-14 0.299511075019836426 0.117379739880561829
-1.69864122767648951e-14 0.266728490591049194 0.159354954957962036
-1.69864122767648951e-14 0.259981036186218262 0.0871959924697875977
-1.69864122767648951e-14 0.245693087577819824 0.10624377429485321
-1.69864122767648951e-14 0.154129385948181152 0.0875677987933158875
-1.69864122767648951e-14 0.145406574010848999 0.0764966383576393127
-1.69864122767648951e-14 0.176898568868637085 0.0839584320783615112
-1.69864122767648951e-14 0.0881925821304321289 0.0369901210069656372
-1.69864122767648951e-14 0.247883126139640808 0.0978896766901016235
-1.69864122767648951e-14 0.279259920120239258 0.0222504697740077972
-1.69864122767648951e-14 0.245852649211883545 0.00939656049013137817
-1.69864122767648951e-14 0.272771537303924561 0.00648985803127288818
-1.69864122767648951e-14 0.256802558898925781 0.015194866806268692
-1.69864122767648951e-14 0.00543122924864292145 0.123760111629962921
-1.69864122767648951e-14 0.0691306218504905701 0.167268663644790649
-1.69864122767648951e-14 0.262982219457626343 0.189215749502182007
-1.69864122767648951e-14 0.0168175157159566879 0.19324687123298645
-1.69864122767648951e-14 0.211707890033721924 0.165213629603385925
-1.69864122767648951e-14 0.127419471740722656 0.157695889472961426
-1.69864122767648951e-14 0.247613236308097839 0.187913626432418823
-1.69864122767648951e-14 0.00189002894330769777 0.0255876034498214722
-1.69864122767648951e-14 0.145330652594566345 0.147279813885688782
-1.69864122767648951e-14 0.101760335266590118 0.0905511528253555298
-1.69864122767648951e-14 0.035436626523733139 0.0503360331058502197
-1.69864122767648951e-14 0.293698787689208984 0.189444586634635925
-1.69864122767648951e-14 0.0559078827500343323 0.124410979449748993
-1.69864122767648951e-14 0.0182733945548534393 0.106643699109554291
-1.69864122767648951e-14 0.135711416602134705 0.18230535089969635
-1.69864122767648951e-14 0.0432950109243392944 0.0423950850963592529
-1.69864122767648951e-14 0.221681326627731323 0.140186712145805359
-1.69864122767648951e-14 0.154847219586372375 0.0975622087717056274
-1.69864122767648951e-14 0.309337139129638672 0.199213147163391113
-1.69864122767648951e-14 0.105655178427696228 0.110887013375759125
-1.69864122767648951e-14 0.177346512675285339 0.126545250415802002
-1.69864122767648951e-14 0.138127878308296204 0.184357553720474243
-1.69864122767648951e-14 0.0011459301458671689 0.102654822170734406
-1.69864122767648951e-14 0.237755000591278076 0.195371299982070923
-1.69864122767648951e-14 0.000389693421311676502 0.0634240508079528809
-1.69864122767648951e-14 0.261148124933242798 0.184511899948120117
-1.69864122767648951e-14 0.194593250751495361 0.155476585030555725
-1.69864122767648951e-14 0.0783804655075073242 0.129399582743644714
-1.69864122767648951e-14 0.0488910339772701263 0.074090808629989624
-1.69864122767648951e-14 0.0396516993641853333 0.197016268968582153
-1.69864122767648951e-14 0.141591131687164307 0.173421904444694519
-1.69864122767648951e-14 0.0257676262408494949 0.0732150375843048096
-1.69864122767648951e-14 0.182036623358726501 0.184940561652183533
-1.69864122767648951e-14 0.0216747354716062546 0.196479514241218567
-1.69864122767648951e-14 0.0237937849014997482 0.0992346629500389099
-1.69864122767648951e-14 0.0541254952549934387 0.0849283561110496521
-1.69864122767648951e-14 0.0644381046295166016 0.048371434211730957
-1.69864122767648951e-14 0.125887215137481689 0.191354483366012573
-1.69864122767648951e-14 0.186701849102973938 0.147257119417190552
-1.69864122767648951e-14 0.133291006088256836 0.194319501519203186
-1.69864122767648951e-14 0.246046140789985657 0.161839678883552551
-1.69864122767648951e-14 0.0214614681899547577 0.0829062610864639282
-1.69864122767648951e-14 0.0696081072092056274 0.189903691411018372
-1.69864122767648951e-14 0.0198893807828426361 0.0919118300080299377
-1.69864122767648951e-14 0.158831238746643066 0.10862373560667038
-1.69864122767648951e-14 0.156506940722465515 0.132066160440444946
-1.69864122767648951e-14 0.0428099818527698517 0.182653352618217468
-1.69864122767648951e-14 0.288475126028060913 0.193171396851539612
-1.69864122767648951e-14 0.0196891073137521744 0.0887625366449356079
-1.69864122767648951e-14 0.297766953706741333 0.196398347616195679
-1.69864122767648951e-14 0.0427660979330539703 0.0958808064460754395
-1.69864122767648951e-14 0.0308336783200502396 0.199371352791786194
-1.69864122767648951e-14 0.122838884592056274 0.113069020211696625
-1.69864122767648951e-14 0.0365776456892490387 0.0998954549431800842
-1.69864122767648951e-14 0.172084212303161621 0.17300136387348175
-1.69864122767648951e-14 0.150950103998184204 0.188623979687690735
-1.69864122767648951e-14 0.00210515828803181648 0.103773318231105804
-1.69864122767648951e-14 0.222998857498168945 0.186774700880050659
-1.69864122767648951e-14 0.0321190208196640015 0.0671109259128570557
-1.69864122767648951e-14 0.0594241544604301453 0.0782689675688743591
-1.69864122767648951e-14 0.0859629362821578979 0.162618845701217651
-1.69864122767648951e-14 0.198513269424438477 0.191675305366516113
-1.69864122767648951e-14 0.0590628981590270996 0.0807041749358177185
-1.69864122767648951e-14 0.0404175519943237305 0.106560297310352325
-1.69864122767648951e-14 0.0420430898666381836 0.108932994306087494
-1.69864122767648951e-14 0.0414681471884250641 0.195280313491821289
-1.69864122767648951e-14 0.04302993044257164 0.0508241653442382812
-1.69864122767648951e-14 0.072077237069606781 0.166638165712356567
-1.69864122767648951e-14 0.157849505543708801 0.129468426108360291
-1.69864122767648951e-14 0.113298527896404266 0.105722121894359589
-1.69864122767648951e-14 0.257203638553619385 0.180703431367874146
-1.69864122767648951e-14 0.0188855975866317749 0.178774386644363403
-1.69864122767648951e-14 0.0590856671333312988 0.0539252012968063354
-1.69864122767648951e-14 0.0477121099829673767 0.148512214422225952
-1.69864122767648951e-14 0.0383845828473567963 0.167239770293235779
-1.69864122767648951e-14 0.0567872859537601471 0.0462385714054107666
-1.69864122767648951e-14 0.202977582812309265 0.181335985660552979
-1.69864122767648951e-14 0.00162036844994872808 0.17799079418182373
-1.69864122767648951e-14 0.0348816476762294769 0.0955312252044677734
-1.69864122767648951e-14 0.0664331912994384766 0.168037697672843933
-1.69864122767648951e-14 0.0732314586639404297 0.143014818429946899
-1.69864122767648951e-14 0.208241820335388184 0.197090238332748413
-1.69864122767648951e-14 0.0399603694677352905 0.0875410363078117371
-1.69864122767648951e-14 0.177173241972923279 0.185076087713241577
-1.69864122767648951e-14 0.175065875053405762 0.15618404746055603
-1.69864122767648951e-14 0.164843425154685974 0.145477160811424255
-1.69864122767648951e-14 0.0762262120842933655 0.0633837878704071045
-1.69864122767648951e-14 0.150362953543663025 0.161689326167106628
-1.69864122767648951e-14 0.247543647885322571 0.196152746677398682
-1.69864122767648951e-14 0.0365704670548439026 0.0804326906800270081
-1.69864122767648951e-14 0.124343030154705048 0.17066781222820282
-1.69864122767648951e-14 0.108770117163658142 0.123899988830089569
-1.69864122767648951e-14 0.0444092415273189545 0.16684257984161377
-1.69864122767648951e-14 0.00149884040001779795 0.071118280291557312
-1.69864122767648951e-14 0.0476553253829479218 0.0998089313507080078
-1.69864122767648951e-14 0.0527565218508243561 0.0771358609199523926
-1.69864122767648951e-14 0.0182380061596632004 0.0443174690008163452
-1.69864122767648951e-14 0.0130167873576283455 0.114075697958469391
-1.69864122767648951e-14 0.0319639444351196289 0.111502774059772491
-1.69864122767648951e-14 0.246008232235908508 0.179092645645141602
-1.69864122767648951e-14 0.135476097464561462 0.126593589782714844
-1.69864122767648951e-14 0.0356134772300720215 0.0645001530647277832
