ply
format ascii 1.0
element vertex 703
property float x
property float y
property float z
end_header
0.0187943913042545319 0.020726718008518219 0.00455137016251683235
0.0190132968127727509 0.0230699107050895691 0.00461622513830661774
0.0194253064692020416 0.0245777592062950134 0.00307553494349122047
0.0189593341201543808 0.0221515130251646042 0.00440501375123858452
0.0192542709410190582 0.0233864765614271164 0.00339122628793120384
-0.0110751558095216751 -0.00867811962962150574 0.0156214553862810135
-0.00996236968785524368 -0.00780211249366402626 0.0157962441444396973
-0.011499171145260334 -0.00744923856109380722 0.0164950825273990631
-0.0121587552130222321 -0.00799420196563005447 0.0163760017603635788
0.00493780849501490593 0.0087694656103849411 0.0172148887068033218
0.00434536812826991081 0.00728275440633296967 0.0169702805578708649
0.00555211072787642479 0.00784928444772958755 0.016523212194442749
0.00401669833809137344 0.00732354540377855301 0.0171669609844684601
0.0159039050340652466 0.0237757191061973572 0.0117614315822720528
0.0161054283380508423 0.0225431527942419052 0.0113596552982926369
0.014108726754784584 0.00647630263119935989 0.00458218110725283623
0.0127530321478843689 0.00386176491156220436 0.00416371831670403481
0.0121947284787893295 0.00285445479676127434 0.00416040048003196716
0.0139182247221469879 0.00625860504806041718 0.0048878667876124382
0.014079107902944088 0.00671373400837182999 0.00529022980481386185
0.00957349222153425217 0.0261437743902206421 0.0175579432398080826
0.0086961258202791214 0.0246052071452140808 0.0179415158927440643
-0.000384569342713803053 0.0141497114673256874 0.0197411160916090012
-0.00115902360994368792 0.0109296804293990135 0.0196220409125089645
-0.000590139185078442097 0.0128450077027082443 0.0196802858263254166
0.000989661319181323051 0.013302183710038662 0.0195263121277093887
-0.00333367101848125458 0.00855224858969449997 0.0197204649448394775
-0.00169131450820714235 0.0131042264401912689 0.0198251400142908096
-0.0213844086974859238 0.0237717386335134506 8.12492799013853073e-05
0.00599193572998046875 0.0124073177576065063 0.0176193378865718842
0.00577475782483816147 0.00937654450535774231 0.0169468168169260025
0.00465588737279176712 0.00977338571101427078 0.0176256280392408371
0.00662427395582199097 0.0115406867116689682 0.0170694645494222641
0.00317176640965044498 0.0123673854395747185 0.0187300089746713638
0.00390177755616605282 0.0129195535555481911 0.0185781586915254593
0.00334512488916516304 0.00897143594920635223 0.0180702377110719681
0.00501143792644143105 0.0141554409638047218 0.0184174608439207077
0.00670011946931481361 0.0131327258422970772 0.0174114052206277847
0.00664044264703989029 0.0131317516788840294 0.0174508970230817795
0.00866464152932167053 0.0150231989100575447 0.0165277998894453049
0.00854040961712598801 0.0115311676636338234 0.0158279892057180405
0.0112661570310592651 0.0148484595119953156 0.0147575698792934418
0.0115673691034317017 0.015233287587761879 0.0146433701738715172
0.0104726310819387436 0.0120940497145056725 0.0145413503050804138
0.0115423873066902161 0.0142082665115594864 0.0143659636378288269
0.0109922792762517929 0.0122224176302552223 0.0141774322837591171
-0.0184519756585359573 0.0114303324371576309 0.018008871003985405
-0.0173926390707492828 0.012701917439699173 0.0178523454815149307
-0.0189129076898097992 0.0113700227811932564 0.0178998392075300217
-0.0184285137802362442 0.0123868733644485474 0.0176718123257160187
-0.0174785330891609192 0.00807996466755867004 0.0193288493901491165
-0.0148560628294944763 0.00931326486170291901 0.019520217552781105
-0.0166784748435020447 0.00760037312284111977 0.0196118596941232681
0.0144370030611753464 0.0158150941133499146 0.0115442005917429924
0.0130819100886583328 0.0166677180677652359 0.0135831339284777641
0.01498370710760355 0.0188244171440601349 0.0118854548782110214
0.0150484601035714149 0.0170458797365427017 0.0111848777160048485
0.0142246522009372711 0.0147220976650714874 0.0114379888400435448
0.0141378473490476608 0.0151095930486917496 0.0116841327399015427
0.010202992707490921 0.00624612066894769669 0.0119542106986045837
0.0101637449115514755 0.00607873406261205673 0.0118966475129127502
0.0102802738547325134 0.00666109379380941391 0.0121184308081865311
0.0154858995229005814 0.0125306230038404465 0.00834250543266534805
0.0161646492779254913 0.0142747880890965462 0.00830061174929141998
0.0147838965058326721 0.0108821652829647064 0.00849079340696334839
0.0119468094781041145 0.0072566852904856205 0.0104340817779302597
0.0129009196534752846 0.00775209954008460045 0.00930364895612001419
0.0132872937247157097 0.00826414674520492554 0.00907608494162559509
0.0113165499642491341 0.00625703064724802971 0.0106837637722492218
0.0116279115900397301 0.00817056000232696533 0.0114521905779838562
0.0114121353253722191 0.00790564250200986862 0.0115587962791323662
0.0113649442791938782 0.00862893834710121155 0.0120363347232341766
0.0108364792540669441 0.00272914255037903786 0.00778787396848201752
0.0086382916197180748 -2.54180195042863488e-05 0.00843218434602022171
0.011479976586997509 0.00397764984518289566 0.00808043312281370163
0.0109547311440110207 0.00524333817884325981 0.0103281270712614059
0.0103372856974601746 0.00381951406598091125 0.00980161037296056747
-0.00409779185429215431 0.00847772322595119476 0.0197851937264204025
-0.00425065262243151665 0.0097042229026556015 0.0198656022548675537
-0.00386812537908554077 0.00865382887423038483 0.0197799969464540482
-0.00344139384105801582 0.0116223040968179703 0.0199215952306985855
-0.00440109288319945335 0.00734831858426332474 0.0197406988590955734
-0.00462237419560551643 0.00946407392621040344 0.0198765844106674194
-0.00968873966485261917 0.0135668031871318817 0.0195758529007434845
-0.00979425664991140366 0.0142415789887309074 0.0194129515439271927
-0.0112172942608594894 0.0129285650327801704 0.0193634815514087677
-0.0105900149792432785 0.0133710596710443497 0.0194133929908275604
-0.00992088206112384796 0.0179499983787536621 0.0186196919530630112
-0.00529040396213531494 0.0129703981801867485 0.0200656484812498093
-0.00653904164209961891 0.0134355751797556877 0.0199423488229513168
-0.00635524932295084 0.0138354068621993065 0.0199310928583145142
-0.00754751823842525482 0.0109983934089541435 0.0200193915516138077
-0.008519001305103302 0.00707222195342183113 0.0200052410364151001
-0.00884726829826831818 0.00610113749280571938 0.0199743267148733139
-0.00832506269216537476 0.00784777943044900894 0.0200345702469348907
-0.00745866121724247932 0.00696305744349956512 0.0199270937591791153
-0.00887332484126091003 0.00483203399926424026 0.0199065059423446655
-0.00664488924667239189 0.00672456435859203339 0.0198586378246545792
-0.0229913461953401566 0.0179400127381086349 0.0109907956793904305
-0.0238806102424860001 0.0188472308218479156 0.00911572575569152832
-0.0203107278794050217 0.0212943106889724731 0.00945235136896371841
-0.020075162872672081 0.0206118058413267136 0.0106360502541065216
-0.020300891250371933 0.0199834071099758148 0.0110721001401543617
-0.0187498871237039566 0.0221634525805711746 0.0106936553493142128
0.00485633872449398041 -0.000196421169675886631 0.0125129595398902893
0.00573451956734061241 0.00193895655684173107 0.0134452236816287041
0.00678645726293325424 0.00223204889334738255 0.0125557789579033852
0.00439618946984410286 -0.00119818840175867081 0.0121282236650586128
0.00348785030655562878 -0.00182678026612848043 0.0125636234879493713
0.0065946546383202076 -0.000516842410434037447 0.0103303054347634315
0.0052406657487154007 -8.26009782031178474e-05 0.0121939685195684433
0.00509164063259959221 -0.00131738116033375263 0.0112629774957895279
0.00805866066366434097 -0.000663242652080953121 0.00860144011676311493
-0.00552660413086414337 -0.00979121960699558258 0.0119206281378865242
-0.00511670112609863281 -0.00845261011272668839 0.0129545107483863831
-0.00750553328543901443 -0.00966253224760293961 0.0131449224427342415
-0.00964860711246728897 -0.010155756026506424 0.0138742262497544289
-0.00779285328462719917 -0.00988728180527687073 0.013093113899230957
0.00289156567305326462 -0.00481783971190452576 0.0101492581889033318
3.45539301633834839e-05 -0.00572314951568841934 0.0119803985580801964
-2.61468812823295593e-06 -0.00602738745510578156 0.0116861937567591667
0.00186842354014515877 -0.00406679650768637657 0.0119742676615715027
0.0028954274021089077 -0.00464848382398486137 0.0103296134620904922
0.00238354294560849667 -0.00476310774683952332 0.0107094328850507736
-0.00245108292438089848 -0.0101911500096321106 0.00818491540849208832
-0.000345108797773718834 -0.00748841185122728348 0.0101866275072097778
-0.000695854832883924246 -0.00887496210634708405 0.00829669833183288574
-0.000825414550490677357 -0.00863103009760379791 0.00885541271418333054
0.00162979774177074432 -0.00658820802345871925 0.00934711471199989319
0.00217240909114480019 -0.00660534389317035675 0.00867684278637170792
0.00117034674622118473 -0.00765390368178486824 0.00811909697949886322
-0.00322538986802101135 -0.0112816914916038513 0.00728800101205706596
0.0158473774790763855 0.0114792268723249435 0.00637285038828849792
0.0160698294639587402 0.0138651710003614426 0.00816862192004919052
0.0150248333811759949 0.0108408639207482338 0.00799829792231321335
0.0118062729015946388 0.0060780760832130909 0.00967225898057222366
0.0125671271234750748 0.0066418452188372612 0.00884635187685489655
0.0124490726739168167 0.00514052622020244598 0.00761573575437068939
-0.0144791221246123314 0.013490225188434124 0.0183214396238327026
-0.015245034359395504 0.0106066707521677017 0.019101850688457489
-0.0146506680175662041 0.0111276712268590927 0.0190626401454210281
-0.0146619090810418129 0.0111810425296425819 0.0190425217151641846
-0.0149220991879701614 0.015967201441526413 0.0172849223017692566
-0.0153736062347888947 0.0188636556267738342 0.0158781521022319794
-0.0146883204579353333 0.0195750165730714798 0.0160146169364452362
-0.0153383510187268257 0.0199277754873037338 0.0154830804094672203
-0.0128339380025863647 -0.0106837060302495956 0.0146564915776252747
-0.014117412269115448 -0.0129660116508603096 0.0130415279418230057
-0.0168556161224842072 -0.011133573018014431 0.0155340172350406647
-0.0103068193420767784 -0.0141141163185238838 0.00909026619046926498
-0.0092462003231048584 -0.0121964411810040474 0.0114639010280370712
-0.00986450258642435074 -0.0141512956470251083 0.00877873413264751434
-0.0111659932881593704 -0.0139626050367951393 0.00981870014220476151
0.0180636197328567505 0.0160789862275123596 0.0032563433051109314
0.0183098390698432922 0.0170483700931072235 0.00290789874270558357
0.017998402938246727 0.0154843768104910851 0.00288369017653167248
0.0182152669876813889 0.0159318950027227402 0.00201761722564697266
0.0173706077039241791 0.0133484415709972382 0.00280531006865203381
0.0170264020562171936 0.0122014004737138748 0.00224617775529623032
0.0174357667565345764 0.0126834772527217865 0.000786106567829847336
0.00905263982713222504 0.0281290840357542038 0.017726873978972435
0.0130001092329621315 0.0281298402696847916 0.0151820871978998184
0.00664849719032645226 0.0281286220997571945 0.0189011264592409134
0.0085611194372177124 0.0281289871782064438 0.0162758603692054749
0.0136529579758644104 0.0281299669295549393 0.0138617139309644699
0.0138325784355401993 0.0281300023198127747 0.0123372925445437431
0.0142375119030475616 0.0281300786882638931 0.014020189642906189
0.00825960375368595123 0.0281289312988519669 0.0162481162697076797
0.0146431541070342064 0.0281301569193601608 0.0115912836045026779
0.0190617404878139496 0.0281310062855482101 0.00613200338557362556
-0.00958416704088449478 0.0281255040317773819 -4.66479104943573475e-05
0.0169950909912586212 0.0281306076794862747 0.00608203234151005745
0.0174361281096935272 0.0281306952238082886 0.00463384389877319336
0.0145952785387635231 0.0281301494687795639 0.00432051625102758408
0.00486438954249024391 0.028128279373049736 0.00203009112738072872
0.0162106417119503021 0.0281304586678743362 0.00522937066853046417
0.0137248504906892776 0.0281299818307161331 0.00302427774295210838
0.00742029678076505661 0.0281287692487239838 0.00559288263320922852
0.0103657841682434082 0.02812933549284935 0.00556873716413974762
0.0166216176003217697 0.0281305368989706039 0.00680831214413046837
0.018563760444521904 0.0281309112906455994 0.00372620695270597935
0.0107493260875344276 0.0281294099986553192 0.00582006201148033142
0.00731027312576770782 0.0281287487596273422 0.00450789229944348335
0.00890001282095909119 0.0281290542334318161 0.00434452574700117111
-0.00229497486725449562 0.0281269047409296036 0.00142779992893338203
0.00664811721071600914 0.0281286202371120453 0.00260948995128273964
0.00346846203319728374 0.0281280111521482468 0.00192485842853784561
-0.0187106132507324219 0.0281237512826919556 -0.00143685715738683939
-0.0019668014720082283 0.0281269662082195282 0.000873461191076785326
-0.000115947448648512363 0.0281273219734430313 0.00320329191163182259
-0.00609934562817215919 0.0281261727213859558 0.000141598735353909433
0.0180958081036806107 0.0281308218836784363 0.00430512335151433945
0.00760711636394262314 0.0281288065016269684 0.00551548972725868225
0.000438219547504559159 0.0281274281442165375 0.00160676729865372181
-0.000563366047572344542 0.0281272381544113159 0.0022651508916169405
0.00580453360453248024 0.0281284600496292114 0.00258168112486600876
0.00662076100707054138 0.0281286165118217468 0.0034407544881105423
-0.0119366049766540527 0.028125053271651268 -0.000484943477204069495
0.00573642086237668991 0.0281284470111131668 0.00295764114707708359
-0.00117167679127305746 0.0281271208077669144 0.00215294980444014072
0.00535302609205245972 0.0281283725053071976 0.0153494179248809814
-0.00701096793636679649 0.0281259976327419281 0.00881928950548171997
-0.00687034521251916885 0.0281260255724191666 0.00773037364706397057
0.00556008704006671906 0.0281284116208553314 0.0145384743809700012
0.0063587455078959465 0.0281285662204027176 0.0132774487137794495
0.0107609713450074196 0.0281294118613004684 0.00916074402630329132
-0.00804204307496547699 0.0281258001923561096 0.00361540541052818298
0.00154071650467813015 0.0281276404857635498 0.00769888702780008316
-0.0115137919783592224 0.0281251333653926849 0.005621365737169981
-0.0063848588615655899 0.0281261168420314789 0.00567322550341486931
0.00750199519097805023 0.0281287860125303268 0.0145907588303089142
-0.00833485741168260574 0.0281257443130016327 0.00554666807875037193
-0.0112223979085683823 0.0281251892447471619 0.00184274709317833185
0.0141796981915831566 0.0281300675123929977 0.0111271915957331657
-0.00271117687225341797 0.0281268227845430374 0.00987369474023580551
0.00678232451900839806 0.0281286481767892838 0.0133659662678837776
6.30430877208709717e-05 0.0281273555010557175 0.0139088369905948639
-0.00910305138677358627 0.0281255953013896942 0.00267072324641048908
0.00587404146790504456 0.028128473088145256 0.0147585105150938034
-0.00900252349674701691 0.0281256157904863358 0.00551315583288669586
-0.00161978171672672033 0.0281270332634449005 0.00448355264961719513
0.00593182258307933807 0.0281284842640161514 0.00783601682633161545
0.0144172916188836098 0.0281301140785217285 0.010983150452375412
0.00163918756879866123 0.0281276591122150421 0.00774275185540318489
0.0119276233017444611 0.0281296353787183762 0.00926011987030506134
0.00463863089680671692 0.0281282346695661545 0.0156345870345830917
-0.00960515998303890228 0.0281255003064870834 0.00504583772271871567
-0.013763762079179287 0.0281247012317180634 0.00198685238137841225
-0.000590706011280417442 0.028127230703830719 0.00573473190888762474
0.00630394183099269867 0.0281285550445318222 0.0158477239310741425
-0.00504902657121419907 0.028126375749707222 0.0041236337274312973
0.00373170617967844009 0.028128061443567276 0.0128067126497626305
0.00508151669055223465 0.0281283203512430191 0.00548785226419568062
0.0121608711779117584 0.0281296800822019577 0.0105972457677125931
-0.00151573680341243744 0.0281270537525415421 0.0126037672162055969
0.00591689907014369965 0.028128480538725853 0.0158878583461046219
-0.00313846394419670105 0.0281267408281564713 0.007368515245616436
-0.0113935582339763641 0.0281251557171344757 0.00114085327368229628
0.00404331646859645844 0.0281281210482120514 0.0148504516109824181
0.00258995243348181248 0.028127843514084816 0.00447203312069177628
0.0085239112377166748 0.0281289815902709961 0.0113275833427906036
0.00755322258919477463 0.028128795325756073 0.00808017421513795853
0.000955638941377401352 0.0281275268644094467 0.00916959904134273529
0.00276173790916800499 0.0281278733164072037 0.0106345424428582191
-0.0113090379163622856 0.0281251724809408188 0.00216802861541509628
0.00265856273472309113 0.0281278546899557114 0.0129973050206899643
0.0024563944898545742 0.0281278174370527267 0.00639428570866584778
0.0128959082067012787 0.0281298216432332993 0.00782355386763811111
0.00611163442954421043 0.0281285177916288376 0.0114773670211434364
0.00726919341832399368 0.0281287413090467453 0.0108938328921794891
-0.0174885876476764679 0.0281239859759807587 9.1655354481190443e-05
-0.00412273453548550606 0.0281265527009963989 0.00329311517998576164
-0.00886617973446846008 0.028125641867518425 0.00805666483938694
0.00706935347989201546 0.0281287021934986115 0.00708148162811994553
0.000239958171732723713 0.0281273908913135529 0.00450678728520870209
0.0132021103054285049 0.0281298793852329254 0.0104239517822861671
0.00629509519785642624 0.028128553181886673 0.00778675172477960587
0.00099400058388710022 0.0281275343149900436 0.0120196975767612457
-0.0145586635917425156 0.0281245484948158264 0.00253841979429125786
-0.00435945112258195877 0.0281265079975128174 0.0113432174548506737
0.00135377980768680573 0.0281276050955057144 0.0079937465488910675
0.00169656309299170971 0.0281276702880859375 0.00636967457830905914
0.00219363067299127579 0.0281277652829885483 0.0142915863543748856
0.0131675098091363907 0.0281298737972974777 0.00885268300771713257
-0.00936431530863046646 0.0281255468726158142 0.00111680268310010433
0.0117082446813583374 0.0281295925378799438 0.00957839563488960266
0.0110207106918096542 0.0281294602900743484 0.00849299877882003784
0.00488078873604536057 0.0281282830983400345 0.0130257746204733849
-0.00580443860962986946 0.0281262286007404327 0.00325959129258990288
0.0082279592752456665 0.0281289257109165192 0.00960658956319093704
-0.00920001044869422913 0.0281255766749382019 0.00469961110502481461
0.00682353135198354721 0.0281286537647247314 0.0138793177902698517
-0.00826250668615102768 0.0281257573515176773 0.00293849920853972435
0.0106025980785489082 0.0281293801963329315 0.011574883945286274
0.0149262547492980957 0.0281302109360694885 0.0107894111424684525
-0.00879923067986965179 0.0281256549060344696 0.00555276265367865562
0.0127643030136823654 0.0281297974288463593 0.0085251200944185257
0.00822283979505300522 0.0281289238482713699 0.00749194109812378883
0.00595446676015853882 0.0281284879893064499 0.0130416927859187126
0.010648876428604126 0.0281293895095586777 0.0100392252206802368
-0.00867578387260437012 0.0281256791204214096 0.00779785774648189545
0.0131043465808033943 0.0281298626214265823 0.00825310405343770981
0.00161423487588763237 0.0281276535242795944 0.00849954225122928619
-0.0118442298844456673 0.0281250681728124619 0.000627016066573560238
-0.00603355513885617256 0.0281261857599020004 0.0020132875069975853
-0.00507492758333683014 0.0281263682991266251 0.0116754043847322464
-0.00222842581570148468 0.028126915916800499 0.00650212215259671211
0.01535063236951828 0.0281302928924560547 0.0126081397756934166
-0.00771073438227176666 0.0281258635222911835 0.0106154419481754303
-0.00754896923899650574 0.0281258951872587204 0.0111135570332407951
-0.0042319614440202713 0.0281265322118997574 0.0145836500450968742
-0.0153422821313142776 0.0281243976205587387 0.00487318588420748711
-0.00518118683248758316 0.0281263478100299835 0.0128064984455704689
-0.0103426557034254074 0.0281253568828105927 0.00884363241493701935
-0.00260121049359440804 0.0281268451362848282 0.014765515923500061
-0.00588367320597171783 0.0281262136995792389 0.0139155192300677299
-0.014414430595934391 0.0281245764344930649 0.00368110928684473038
-0.002173267537727952 0.0281269270926713943 0.0165399368852376938
-0.00148534844629466534 0.0281270574778318405 0.0174979139119386673
-0.0164130982011556625 0.0281241927295923233 0.0016541333170607686
-0.00319632259197533131 0.0281267315149307251 0.0172781888395547867
-0.0167547222226858139 0.0281241275370121002 0.00279514770954847336
-0.0106763094663619995 0.0281252935528755188 0.00756006035953760147
-0.0112603073939681053 0.0281251817941665649 0.00951190106570720673
-0.00084624486044049263 0.0281271804124116898 0.0175125543028116226
-0.00746487174183130264 0.0281259100884199142 0.00995162688195705414
-0.00267439242452383041 0.0281268302351236343 0.0141600817441940308
-0.00918495655059814453 0.0281255785375833511 0.0121152922511100769
-0.0115644456818699837 0.0281251240521669388 0.0122282002121210098
-0.00165533809922635555 0.0281270258128643036 0.0162542928010225296
-0.0137836672365665436 0.0281246975064277649 0.00625922344624996185
-0.00779473548755049706 0.0281258486211299896 0.0110473847016692162
-0.0153221283107995987 0.0281244013458490372 0.00379445450380444527
-0.00324250245466828346 0.0281267222017049789 0.0162662826478481293
-0.00703267659991979599 0.0281259939074516296 0.0156124336645007133
-0.0114570818841457367 0.0281251426786184311 0.00884976238012313843
-0.0163906961679458618 0.0281241964548826218 0.00444926926866173744
-0.00653021549805998802 0.0281260889023542404 0.0174647960811853409
-0.00464870454743504524 0.0281264502555131912 0.0176220014691352844
-0.00613839924335479736 0.0281261652708053589 0.0176814422011375427
-0.0055302400141954422 0.0281262807548046112 0.0135057782754302025
-0.00370227685198187828 0.0281266327947378159 0.0162026267498731613
-0.00444320403039455414 0.0281264912337064743 0.0154088037088513374
0.00129129283595830202 0.0281275920569896698 0.0196300838142633438
-0.00225291820243000984 0.0281269121915102005 0.019737662747502327
-0.0134088359773159027 0.0281247701495885849 0.0143737755715847015
-0.0167176220566034317 0.0281241349875926971 0.0109479613602161407
-0.0190483070909976959 0.0281236860901117325 0.00473878858610987663
-0.0195480659604072571 0.0281235892325639725 0.00398032227531075478
-0.0184450782835483551 0.0281238015741109848 0.00421730568632483482
-0.0137838181108236313 0.0281246956437826157 0.0131832584738731384
-0.0133846942335367203 0.0281247738748788834 0.011629483662545681
-0.0147727318108081818 0.0281245075166225433 0.0102087315171957016
-0.010830095037817955 0.0281252637505531311 0.0166515950113534927
-0.0181636810302734375 0.0281238555908203125 0.00206262222491204739
-0.013627900741994381 0.0281247254461050034 0.0132220741361379623
-0.0186767224222421646 0.0281237568706274033 0.00162409082986414433
-0.0149173038080334663 0.0281244795769453049 0.00835988856852054596
-0.0173095334321260452 0.0281240213662385941 0.00812016986310482025
-0.011498437263071537 0.0281251352280378342 0.014640231616795063
-0.00179630191996693611 0.0281269997358322144 -0.000302125583402812481
0.0181807707995176315 0.0281308367848396301 0.00149387505371123552
0.0140209449455142021 0.02813003771007061 0.000930080539546906948
0.0138980932533740997 0.0281300153583288193 0.00148029741831123829
0.0117150302976369858 0.0281295944005250931 0.00173107767477631569
0.0117997732013463974 0.0281296111643314362 0.00162959203589707613
0.00713343918323516846 0.0281287152320146561 -0.000201758579351007938
0.0182547848671674728 0.028130851686000824 0.00319908745586872101
0.0105664459988474846 0.0281293746083974838 0.00153858121484518051
0.00800224114209413528 0.0281288828700780869 0.000287173199467360973
0.00413046544417738914 0.0281281378120183945 0.00133040035143494606
0.0150100989267230034 0.0281302276998758316 0.000283644243609160185
0.00251720589585602283 0.0281278286129236221 0.000914882635697722435
-0.00295222876593470573 0.0281267762184143066 7.33928754925727844e-05
0.00372155685909092426 0.0281280595809221268 -7.56338704377412796e-05
0.0155334910377860069 0.0281303282827138901 0.00123536656610667706
-0.0099464980885386467 0.0281254332512617111 -0.000457246031146496534
0.0130566461011767387 0.028129851445555687 0.00115062028635293245
0.0143294874578714371 0.0281300973147153854 -2.31760932365432382e-05
-0.00163736613467335701 0.0281270295381546021 0.000392013345845043659
0.015273616649210453 0.0281302779912948608 -0.000119974713015835732
0.00573474587872624397 0.0281284470111131668 -0.00274908356368541718
0.017615683376789093 0.0281307287514209747 -0.000692563597112894058
0.00988862570375204086 0.0281292442232370377 -0.00145455438178032637
-0.00657903682440519333 0.0281260814517736435 -0.00130134180653840303
0.00569169595837593079 0.0281284376978874207 -0.00158378784544765949
0.0123858973383903503 0.0281297247856855392 -0.00271949078887701035
0.00552862789481878281 0.028128407895565033 -0.00111153745092451572
0.0148176690563559532 0.0281301923096179962 -0.0031878321897238493
0.00798435602337121964 0.0281288772821426392 -0.000598247861489653587
-0.0155123649165034294 0.0281243659555912018 -0.00186729338020086288
0.000811022822745144367 0.0281274989247322083 -0.00181527109816670418
-0.000561676686629652977 0.0281272381544113159 -0.00195239251479506493
0.0122074149549007416 0.0281296875327825546 -0.000731803011149168015
0.0174152906984090805 0.0281306896358728409 -0.00109688285738229752
0.0054065091535449028 0.028128383681178093 -0.00240592216141521931
0.00433048373088240623 0.0281281769275665283 -0.000825405819341540337
0.0135636897757649422 0.0281299501657485962 -0.00217950576916337013
-0.00227930606342852116 0.028126908466219902 -0.00245024613104760647
-0.00149988976772874594 0.0281270574778318405 -0.00169887486845254898
0.0152616444975137711 0.0281302761286497116 -0.000280491774901747704
0.00423993589356541634 0.0281281601637601852 -0.00126019888557493687
0.0161458440124988556 0.0281304456293582916 -0.0106609426438808441
0.0179424267262220383 0.0281307920813560486 -0.0075670718215405941
0.0129023455083370209 0.0281298235058784485 -0.0140509195625782013
0.0151854734867811203 0.0281302612274885178 -0.0109823243692517281
0.0142755284905433655 0.0281300861388444901 -0.0120787350460886955
0.0111531121656298637 0.0281294863671064377 -0.0165349468588829041
0.00951395649462938309 0.0281291734427213669 -0.0172234456986188889
0.00663550570607185364 0.0281286202371120453 -0.014898194931447506
-0.00379541702568531036 0.0281266160309314728 -0.0171331856399774551
0.00240030931308865547 0.0281278062611818314 -0.0145043004304170609
0.00957112200558185577 0.0281291846185922623 -0.0109273027628660202
0.00424723606556653976 0.0281281620264053345 -0.016033656895160675
0.0125792175531387329 0.0281297601759433746 -0.0122940335422754288
0.00010592164471745491 0.0281273648142814636 -0.016496170312166214
0.00562842097133398056 0.0281284265220165253 -0.0163041688501834869
0.015955653041601181 0.028130408376455307 -0.0074337981641292572
0.0114777674898505211 0.0281295478343963623 -0.0151587510481476784
0.013680875301361084 0.028129972517490387 -0.0115391109138727188
0.0063933180645108223 0.0281285736709833145 -0.0144243743270635605
0.0054871952161192894 0.0281283985823392868 -0.017679138109087944
0.00250754412263631821 0.0281278267502784729 -0.0157081671059131622
0.00198226002976298332 0.0281277261674404144 -0.0162662230432033539
-0.00488844700157642365 0.0281264074146747589 -0.0179006066173315048
0.0113928122445940971 0.0281295329332351685 -0.0118108633905649185
0.00943303667008876801 0.0281291566789150238 -0.0143377296626567841
0.0171902403235435486 0.0281306467950344086 -0.00666310172528028488
-0.000728500424884259701 0.0281272046267986298 -0.018064059317111969
0.00792089849710464478 0.0281288661062717438 -0.0173546113073825836
0.0134625285863876343 0.0281299296766519547 -0.0104367146268486977
0.0158934332430362701 0.0281303972005844116 -0.00603567343205213547
0.00895735248923301697 0.0281290654093027115 -0.0105346934869885445
-0.0014904016861692071 0.0281270574778318405 -0.0167869776487350464
0.0185201484709978104 0.0281309019774198532 -0.00425941217690706253
0.00855579506605863571 0.028128989040851593 -0.0103936977684497833
0.000118013354949653149 0.0281273685395717621 -0.0175758004188537598
0.00542792212218046188 0.0281283874064683914 -0.0163448210805654526
-0.00121352821588516235 0.0281271114945411682 -0.0180430226027965546
0.0056078457273542881 0.0281284227967262268 -0.0121406577527523041
0.012431880459189415 0.0281297322362661362 -0.0105166174471378326
0.00273850094527006149 0.0281278714537620544 -0.0184837691485881805
-0.000562448054552078247 0.0281272362917661667 -0.0186618007719516754
-0.00462665874511003494 0.0281264558434486389 -0.0189646929502487183
0.00635677063837647438 0.0281285662204027176 -0.0183304976671934128
-0.0183035638183355331 0.0281238295137882233 -0.00816588476300239563
-0.0108307953923940659 0.0281252637505531311 -0.0141694694757461548
-0.0103052817285060883 0.0281253643333911896 -0.0149263041093945503
-0.0126596158370375633 0.0281249135732650757 -0.0121797407045960426
-0.0105922911316156387 0.0281253103166818619 -0.0140566844493150711
-0.015125814825296402 0.0281244385987520218 -0.00856835488229990005
-0.0146845337003469467 0.0281245242804288864 -0.0112708499655127525
-0.0172410532832145691 0.0281240325421094894 -0.00997810997068881989
-0.0148745272308588028 0.0281244870275259018 -0.0110469739884138107
-0.0156929399818181992 0.0281243287026882172 -0.0105791781097650528
-0.00995331630110740662 0.0281254332512617111 -0.0156154725700616837
-0.018778238445520401 0.0281237382441759109 -0.0070630023255944252
-0.00540493102744221687 0.0281263068318367004 -0.0191750191152095795
-0.0161638502031564713 0.0281242392957210541 -0.0112339453771710396
-0.0150323836132884026 0.0281244572252035141 -0.0126765025779604912
-0.0106546152383089066 0.0281252991408109665 -0.0167065151035785675
0.000800261273980140686 0.0281274989247322083 -0.0115111945196986198
-0.00427144207060337067 0.0281265247613191605 -0.0100269317626953125
-0.007038092240691185 0.0281259939074516296 -0.00294163497164845467
0.0037317965179681778 0.028128061443567276 -0.00296244071796536446
-0.0158550292253494263 0.0281242989003658295 -0.00487641897052526474
0.0108945136889815331 0.0281294379383325577 -0.00471762288361787796
0.00973178260028362274 0.02812921442091465 -0.00900819618254899979
0.0108125731348991394 0.0281294211745262146 -0.00701674167066812515
0.00753995776176452637 0.0281287934631109238 -0.00424420461058616638
-0.00519361160695552826 0.0281263478100299835 -0.00637658173218369484
-0.010014604777097702 0.0281254220753908157 -0.0142299830913543701
-0.00532447174191474915 0.0281263217329978943 -0.00341823184862732887
-0.0110447946935892105 0.028125222772359848 -0.00518249720335006714
0.00657292641699314117 0.0281286090612411499 -0.00801700912415981293
-0.00266883149743080139 0.0281268320977687836 -0.00782954413443803787
-0.00602876441553235054 0.0281261876225471497 -0.0159570295363664627
0.00136690773069858551 0.0281276069581508636 -0.010765349492430687
0.00535769248381257057 0.0281283725053071976 -0.00948224496096372604
-0.015202205628156662 0.0281244255602359772 -0.0030395041685551405
-0.0119104515761137009 0.0281250588595867157 -0.00409587007015943527
-0.00366863049566745758 0.0281266402453184128 -0.0110490210354328156
-0.00619476661086082458 0.0281261559575796127 -0.0119396261870861053
-0.0088600553572177887 0.028125641867518425 -0.00469981692731380463
-0.00606670789420604706 0.0281261801719665527 -0.00486173992976546288
-0.0033828001469373703 0.0281266961246728897 -0.0119334859773516655
0.00990390591323375702 0.0281292460858821869 -0.00773528683930635452
-0.0106132468208670616 0.0281253065913915634 -0.0115631818771362305
0.000114964786916971207 0.0281273685395717621 -0.0128002762794494629
-0.00790151301771402359 0.0281258262693881989 -0.0101152081042528152
-0.0153026087209582329 0.0281244050711393356 -0.00724316295236349106
-0.00866860803216695786 0.0281256791204214096 -0.0135016003623604774
0.0102956555783748627 0.0281293224543333054 -0.00755085144191980362
-0.00204600091092288494 0.0281269513070583344 -0.0143203213810920715
0.00522563047707080841 0.0281283482909202576 -0.0034213322214782238
-0.00734728854149580002 0.0281259343028068542 -0.0160845350474119186
-0.0106150209903717041 0.0281253065913915634 -0.00656704511493444443
0.0106979608535766602 0.0281293988227844238 -0.00703173596411943436
-0.0162017755210399628 0.0281242337077856064 -0.00299667380750179291
-0.00528982281684875488 0.0281263291835784912 -0.00611106911674141884
0.00751719996333122253 0.0281287897378206253 -0.00425149500370025635
0.00103813782334327698 0.0281275436282157898 -0.0040510222315788269
-0.0142520805820822716 0.0281246080994606018 -0.00703483028337359428
-0.0073124319314956665 0.0281259398907423019 -0.0100995823740959167
-0.00729539059102535248 0.0281259436160326004 -0.00499123474583029747
-0.00531084742397069931 0.0281263235956430435 -0.0159663800150156021
-0.00428125634789466858 0.0281265228986740112 -0.00353133934549987316
-0.0163335353136062622 0.0281242076307535172 -0.00546272750943899155
-0.0116519629955291748 0.0281251072883605957 -0.00301105668768286705
0.00225037802010774612 0.0281277783215045929 -0.00655625900253653526
-0.0079033607617020607 0.0281258281320333481 -0.00842686649411916733
-0.00559544749557971954 0.0281262695789337158 -0.00304320920258760452
0.00695638451725244522 0.0281286817044019699 -0.00302192382514476776
0.00964013952761888504 0.0281291976571083069 -0.00695734191685914993
0.0134601593017578125 0.0281299296766519547 -0.00414506532251834869
0.0130629828199744225 0.0281298533082008362 -0.00483879866078495979
-0.00139606930315494537 0.0281270779669284821 -0.00461381906643509865
-0.00990282464772462845 0.0281254425644874573 -0.00783682335168123245
0.00405924255028367043 0.0281281247735023499 -0.00963973067700862885
-0.00270546646788716316 0.0281268246471881866 -0.0128302453085780144
-0.00908630713820457458 0.0281255990266799927 -0.0130806388333439827
0.000617988407611846924 0.0281274635344743729 -0.00823763292282819748
0.00683014048263430595 0.0281286574900150299 -0.00688300793990492821
-0.00685099139809608459 0.028126029297709465 -0.00289007928222417831
0.00250468798913061619 0.0281278267502784729 -0.0133599238470196724
-0.00795386079698801041 0.0281258169561624527 -0.0107235535979270935
0.000960541423410177231 0.0281275305896997452 -0.0140714934095740318
-0.00718109123408794403 0.0281259659677743912 -0.0105829266831278801
-0.0112987998872995377 0.028125174343585968 -0.0129355546087026596
-0.00614819303154945374 0.0281261634081602097 -0.00430831126868724823
0.00290436064824461937 0.0281279031187295914 -0.0119539061561226845
0.000530860503204166889 0.0281274467706680298 -0.0138291921466588974
-0.0141121679916977882 0.028124634176492691 -0.00897544901818037033
-0.0171415954828262329 0.0281240511685609818 -0.00294183660298585892
-0.00315795815549790859 0.0281267371028661728 -0.0149047495797276497
-0.0142626669257879257 0.0281246043741703033 -0.00881943199783563614
0.0144035788252949715 0.0281301122158765793 -0.00622511515393853188
-0.00409571453928947449 0.0281265582889318466 -0.0105040594935417175
-0.016390681266784668 0.0281241964548826218 -0.00418178737163543701
-0.0103177893906831741 0.0281253624707460403 -0.00686620874330401421
0.00157167948782444 0.0281276460736989975 -0.00716302869841456413
0.00671365298330783844 0.0281286351382732391 -0.00531537877395749092
-0.015158461406826973 0.0281244348734617233 -0.0031657232902944088
-0.0107276253402233124 0.0281252842396497726 -0.00531999487429857254
-0.0091912904754281044 0.0281255804002285004 -0.00737525289878249168
0.000733360648155212402 0.0281274858862161636 -0.0084925508126616478
0.00754414219409227371 0.028128795325756073 -0.00381864025257527828
-0.00811552908271551132 0.028125787153840065 -0.00897558592259883881
0.0130392201244831085 0.0281298495829105377 -0.00611225981265306473
-0.0164900962263345718 0.0281241778284311295 -0.0024683044757694006
-0.00874667055904865265 0.0281256642192602158 -0.00550686893984675407
0.00207344302907586098 0.0281277429312467575 -0.0100823864340782166
-0.00934876035898923874 0.0281255487352609634 -0.0137554118409752846
-0.00469677755609154701 0.0281264428049325943 -0.0167387556284666061
-0.00246541388332843781 0.0281268712133169174 -0.00840093940496444702
-0.00672258809208869934 0.028126053512096405 -0.00670025870203971863
-0.00866320449858903885 0.0281256809830665588 -0.00795033574104309082
0.0062573552131652832 0.0281285475939512253 -0.0110126445069909096
-0.00549220340326428413 0.0281262900680303574 -0.0176330432295799255
-0.0281273443251848221 0.0101571660488843918 0.0146845327690243721
-0.0281273443251848221 0.0127726756036281586 0.0106502780690789223
-0.0281273443251848221 0.006055471021682024 0.0185169670730829239
-0.0281273443251848221 0.0168697144836187363 0.00683348812162876129
-0.0281273443251848221 0.0155093763023614883 0.00783186405897140503
-0.0281273443251848221 0.0129557512700557709 0.0120034068822860718
-0.0281273443251848221 0.00972075946629047394 0.0131127797067165375
-0.0281273443251848221 0.00877421163022518158 0.0157054141163825989
-0.0281273443251848221 0.0150640960782766342 0.00964468717575073242
-0.0281273443251848221 0.0114293238148093224 0.0131365144625306129
-0.0281273443251848221 0.00822724588215351105 0.0146881435066461563
-0.0281273443251848221 0.00668222550302743912 0.018602859228849411
-0.0281273443251848221 0.0126074394211173058 0.0156226968392729759
-0.0281273443251848221 0.0153726190328598022 0.00971299782395362854
-0.0281273443251848221 0.00902828201651573181 0.0178668703883886337
-0.0281273443251848221 0.0043011675588786602 0.0193887408822774887
-0.0281273443251848221 0.0186677854508161545 0.00686883740127086639
-0.0281273443251848221 0.0186330229043960571 0.00437583215534687042
-0.0281273443251848221 8.36974941194057465e-05 0.0173174068331718445
-0.0281273443251848221 0.014351237565279007 0.00837554596364498138
-0.0281273443251848221 -0.00127476314082741737 0.0197915397584438324
-0.0281273443251848221 0.00331801571883261204 0.01663212850689888
-0.0281273443251848221 0.00914168171584606171 0.0128802135586738586
-0.0281273443251848221 0.00777486152946949005 0.0136461732909083366
-0.0281273443251848221 0.00740759726613759995 0.0138229792937636375
-0.0281273443251848221 0.00963101070374250412 0.0113179441541433334
-0.0281273443251848221 0.0122912675142288208 0.0101407440379261971
-0.0281273443251848221 0.00372870801948010921 0.0167804080992937088
-0.0281273443251848221 0.00545280519872903824 0.0154856694862246513
-0.0281273443251848221 0.010016927495598793 0.0124397352337837219
-0.0281273443251848221 0.0134321926161646843 0.0128745008260011673
-0.0281273443251848221 0.0163041707128286362 0.0112645421177148819
-0.0281273443251848221 0.016584295779466629 0.0108745060861110687
-0.0281273443251848221 0.0164798907935619354 0.00873741041868925095
-0.0281273443251848221 0.0139974495396018028 0.013504374772310257
-0.0281273443251848221 0.0134853431954979897 0.0144682284444570541
-0.0281273443251848221 -0.0119627341628074646 0.000351722235791385174
-0.0281273443251848221 -0.00576403271406888962 0.0021952108945697546
-0.0281273443251848221 0.00392120145261287689 0.00167203089222311974
-0.0281273443251848221 0.00424095988273620605 0.00202675419859588146
-0.0281273443251848221 0.00765291973948478699 0.00294119934551417828
-0.0281273443251848221 -0.0104066561907529831 3.89558263123035431e-05
-0.0281273443251848221 -0.0166939161717891693 0.00183473085053265095
-0.0281273443251848221 -0.000271899625658988953 0.00255191023461520672
-0.0281273443251848221 -0.0189757328480482101 -0.00100938335526734591
-0.0281273443251848221 0.00388405658304691315 0.00139694369863718748
-0.0281273443251848221 0.00202767923474311829 0.0015021150466054678
-0.0281273443251848221 0.000285804271697998047 0.00263764150440692902
-0.0281273443251848221 -0.00508782360702753067 0.00177404494024813175
-0.0281273443251848221 -0.00420063361525535583 0.00134862761478871107
-0.0281273443251848221 -0.0127329267561435699 0.000309448572807013988
-0.0281273443251848221 -0.0160083621740341187 0.000540411565452814102
-0.0281273443251848221 -0.00572627503424882889 0.00235246890224516392
-0.0281273443251848221 0.00552565604448318481 0.00261290674097836018
-0.0281273443251848221 -0.0077393287792801857 0.00163361034356057644
-0.0281273443251848221 -0.0167970918118953705 -0.000675625982694327831
-0.0281273443251848221 0.00368152931332588196 0.00225587678141891956
-0.0281273443251848221 -0.0132030528038740158 0.0146360583603382111
-0.0281273443251848221 -0.00914776325225830078 0.0169027745723724365
-0.0281273443251848221 -0.00781618058681488037 0.0182963963598012924
-0.0281273443251848221 -0.00436355499550700188 0.0193959344178438187
-0.0281273443251848221 -0.00261052628047764301 0.0198953226208686829
-0.0281273443251848221 -0.0165557935833930969 0.0107559524476528168
-0.0281273443251848221 -0.0146763315424323082 0.013022775761783123
-0.0281273443251848221 -0.0170344486832618713 0.00656534964218735695
-0.0281273443251848221 -0.0156752318143844604 0.0112696383148431778
-0.0281273443251848221 -0.00991315674036741257 0.0149439079686999321
-0.0281273443251848221 -0.0101071931421756744 0.0128759443759918213
-0.0281273443251848221 -0.0141472183167934418 0.0118307359516620636
-0.0281273443251848221 -0.0119990836828947067 0.0129995224997401237
-0.0281273443251848221 -0.0185649413615465164 0.00348171871155500412
-0.0281273443251848221 -0.00877664703875780106 0.0143111590296030045
-0.0281273443251848221 -0.0165674295276403427 0.00874033011496067047
-0.0281273443251848221 -0.00829673651605844498 0.014832313172519207
-0.0281273443251848221 -0.0126428510993719101 0.01154375821352005
-0.0281273443251848221 -0.00769246462732553482 0.0163790099322795868
-0.0281273443251848221 -0.0148678403347730637 0.00817734003067016602
-0.0281273443251848221 -0.0149813909083604813 0.0128628285601735115
-0.0281273443251848221 -0.00149699626490473747 0.00623852014541625977
-0.0281273443251848221 -0.00615990674123167992 0.00578549690544605255
-0.0281273443251848221 0.000285282963886857033 0.0170616377145051956
-0.0281273443251848221 -0.000776452943682670593 0.00504326261579990387
-0.0281273443251848221 0.0033108806237578392 0.00435594376176595688
-0.0281273443251848221 0.0036274702288210392 0.00758200464770197868
-0.0281273443251848221 -0.000307434471324086189 0.0111150071024894714
-0.0281273443251848221 -0.00948647037148475647 0.00618004053831100464
-0.0281273443251848221 0.000940520782023668289 0.00570061197504401207
-0.0281273443251848221 -0.00677495077252388 0.0122565831989049911
-0.0281273443251848221 -0.012035212479531765 0.00662739481776952744
-0.0281273443251848221 0.00428593438118696213 0.014348318800330162
-0.0281273443251848221 0.0114852935075759888 0.00673287175595760345
-0.0281273443251848221 -0.00849192962050437927 0.0121494811028242111
-0.0281273443251848221 -0.00107566686347126961 0.0102061117067933083
-0.0281273443251848221 0.010761406272649765 0.00916195660829544067
-0.0281273443251848221 -0.00248728226870298386 0.00771678471937775612
-0.0281273443251848221 0.000806514173746109009 0.00717271678149700165
-0.0281273443251848221 0.00563184125348925591 0.00816788431257009506
-0.0281273443251848221 0.0117413206025958061 0.00891438871622085571
-0.0281273443251848221 0.000164315308211371303 0.0163939334452152252
-0.0281273443251848221 -0.0111820623278617859 0.00626823306083679199
-0.0281273443251848221 -0.0121622197329998016 0.00381104089319705963
-0.0281273443251848221 -0.00380524760112166405 0.0114070847630500793
-0.0281273443251848221 -0.00598573870956897736 0.0108341239392757416
-0.0281273443251848221 0.00892854016274213791 0.00605252664536237717
-0.0281273443251848221 -0.0141020091250538826 0.0035816635936498642
-0.0281273443251848221 0.00825890433043241501 0.00399880297482013702
-0.0281273443251848221 -2.93540069833397865e-05 0.0148378731682896614
-0.0281273443251848221 0.0058366851881146431 0.00685808621346950531
-0.0281273443251848221 -0.00610514963045716286 0.00341450050473213196
-0.0281273443251848221 0.0132557321339845657 0.00400089845061302185
-0.0281273443251848221 0.0080076996237039566 0.00777768483385443687
-0.0281273443251848221 -0.00308732548728585243 0.0186703186482191086
-0.0281273443251848221 -0.00461868476122617722 0.0141801740974187851
-0.0281273443251848221 -0.00435398239642381668 0.00889030657708644867
-0.0281273443251848221 0.00701112858951091766 0.011639193631708622
-0.0281273443251848221 0.00249742483720183372 0.0154448635876178741
-0.0281273443251848221 0.0083363950252532959 0.00581866223365068436
-0.0281273443251848221 0.0143902869895100594 0.00462760031223297119
-0.0281273443251848221 -0.00926271267235279083 0.00823127198964357376
-0.0281273443251848221 -0.00173981173429638147 0.0160081442445516586
-0.0281273443251848221 -0.00194522039964795113 0.0040485430508852005
-0.0281273443251848221 -0.00767642306163907051 0.00403089169412851334
-0.0281273443251848221 0.00095257442444562912 0.0156843382865190506
-0.0281273443251848221 -0.00870535336434841156 0.00931154191493988037
-0.0281273443251848221 -0.00262862024828791618 0.00709337787702679634
-0.0281273443251848221 -0.0118795577436685562 0.00301846116781234741
-0.0281273443251848221 -0.00607156660407781601 0.0080366041511297226
-0.0281273443251848221 0.00376305310055613518 0.0119990985840559006
-0.0281273443251848221 0.00948538351804018021 0.0048083057627081871
-0.0281273443251848221 0.012936815619468689 0.00530704949051141739
-0.0281273443251848221 -0.00217859353870153427 0.018696935847401619
-0.0281273443251848221 0.00768802221864461899 0.0111880525946617126
-0.0281273443251848221 -0.00671678362414240837 0.00307162851095199585
-0.0281273443251848221 -0.00473976368084549904 0.0032693641260266304
-0.0281273443251848221 -0.00350228464230895042 0.0155294798314571381
-0.0281273443251848221 -0.00101636582985520363 0.00832100957632064819
-0.0281273443251848221 -0.00850770436227321625 0.0129790529608726501
-0.0281273443251848221 0.00518055679276585579 0.0130603834986686707
-0.0281273443251848221 0.0110380332916975021 0.00362281058914959431
-0.0281273443251848221 0.00336388638243079185 0.00331022031605243683
-0.0281273443251848221 -0.00619595078751444817 0.00251096207648515701
-0.0281273443251848221 0.0147712277248501778 0.00379667989909648895
-0.0281273443251848221 -0.00706100929528474808 0.0148068740963935852
-0.0281273443251848221 -0.0055676167830824852 0.00713207665830850601
-0.0281273443251848221 -0.000771604711189866066 0.0126203149557113647
-0.0281273443251848221 -0.00463227089494466782 0.00628674216568470001
-0.0281273443251848221 -0.00579420570284128189 0.0164515022188425064
-0.0281273443251848221 0.00316800549626350403 0.00442345347255468369
-0.0281273443251848221 -0.00679648714140057564 0.0147123970091342926
-0.0281273443251848221 -0.0103008095175027847 0.00621705781668424606
-0.0281273443251848221 0.000363458879292011261 0.00417496729642152786
-0.0281273443251848221 0.0080743124708533287 0.0030160839669406414
-0.0281273443251848221 -0.00103715434670448303 0.00747636100277304649
-0.0281273443251848221 -0.0103505020961165428 0.00921385083347558975
-0.0281273443251848221 0.0062503693625330925 0.00618563173338770866
-0.0281273443251848221 -0.0042967572808265686 0.0149950478225946426
-0.0281273443251848221 0.00760017801076173782 0.00816071871668100357
-0.0281273443251848221 -0.0155120017006993294 0.00265578553080558777
-0.0281273443251848221 -0.000284267589449882507 0.00765718845650553703
-0.0281273443251848221 -0.0126337464898824692 0.00873434729874134064
-0.0281273443251848221 -0.00957238301634788513 0.0115114375948905945
-0.0281273443251848221 -0.0066136503592133522 0.0128647629171609879
-0.0281273443251848221 -0.00194400071632117033 0.0174219477921724319
-0.0281273443251848221 -0.00110399443656206131 0.00643013371154665947
