ply
format ascii 1.0
element vertex 748
property float x
property float y
property float z
end_header
0.358465135097503662 0.191374450922012329 0.0756448134779930115
0.358465135097503662 0.258651018142700195 0.0821201950311660767
0.358465135097503662 0.185685604810714722 0.094517439603805542
0.358465135097503662 0.267064988613128662 0.097285345196723938
0.358465135097503662 0.289966583251953125 0.0263663381338119507
0.358465135097503662 0.165674090385437012 0.0600211732089519501
0.358465135097503662 0.261704564094543457 0.0451870933175086975
0.358465135097503662 0.270376265048980713 0.0701382607221603394
0.358465135097503662 0.205360442399978638 0.0949352160096168518
0.358465135097503662 0.214342430233955383 0.0674106553196907043
0.358465135097503662 0.279394030570983887 0.0403643213212490082
0.358465135097503662 0.267598330974578857 0.011247292160987854
0.358465135097503662 0.288926273584365845 0.0341532602906227112
0.358465135097503662 0.214456021785736084 0.0666645467281341553
0.358465135097503662 0.278378307819366455 0.0531507208943367004
0.358465135097503662 0.0896625518798828125 0.0798185095191001892
0.358465135097503662 0.261197268962860107 0.0892759636044502258
0.358465135097503662 0.288886070251464844 0.0257394015789031982
0.358465135097503662 0.296477764844894409 0.0324953123927116394
0.358465135097503662 0.178828924894332886 0.0464785508811473846
0.358465135097503662 0.194032251834869385 0.0877583473920822144
0.358465135097503662 0.163660302758216858 0.0734798312187194824
0.358465135097503662 0.190922200679779053 0.0733140408992767334
0.358465135097503662 0.24763016402721405 0.0609229020774364471
0.358465135097503662 0.28881719708442688 0.0848366767168045044
0.358465135097503662 0.297317177057266235 0.0728791207075119019
0.358465135097503662 0.281766712665557861 0.0733439326286315918
0.358465135097503662 0.239479109644889832 0.0468550436198711395
0.358465135097503662 0.253049343824386597 0.0665744543075561523
0.358465135097503662 0.208919763565063477 0.0909036546945571899
0.358465135097503662 0.14830133318901062 0.08600655198097229
0.358465135097503662 0.168149709701538086 0.0791273713111877441
0.358465135097503662 0.256544202566146851 0.0369269922375679016
0.358465135097503662 0.0908818840980529785 0.0963240638375282288
0.358465135097503662 0.284807860851287842 0.0750442966818809509
0.358465135097503662 0.0174191892147064209 0.0955876708030700684
0.358465135097503662 0.288994729518890381 0.0614113993942737579
0.358465135097503662 0.0704896599054336548 0.0986566394567489624
0.358465135097503662 0.264791905879974365 0.0854343622922897339
0.358465135097503662 0.0624611824750900269 0.0963252484798431396
0.358465135097503662 0.249660059809684753 0.0246817916631698608
0.358465135097503662 0.23634396493434906 0.0487370602786540985
0.358465135097503662 0.27915152907371521 0.0486711747944355011
0.358465135097503662 0.219371825456619263 0.0910610035061836243
0.358465135097503662 0.145615831017494202 0.0813019052147865295
0.358465135097503662 0.275944530963897705 0.0124866515398025513
0.358465135097503662 0.066216394305229187 0.0962370261549949646
0.358465135097503662 0.0215786397457122803 0.0941210687160491943
0.358465135097503662 0.223699465394020081 0.0316644385457038879
0.358465135097503662 0.192561641335487366 0.0577683858573436737
0.358465135097503662 0.200659692287445068 0.0759498476982116699
0.358465135097503662 0.134195730090141296 0.0785254985094070435
0.358465135097503662 0.25075840950012207 0.0908938050270080566
0.358465135097503662 0.187373951077461243 0.0968242287635803223
0.358465135097503662 0.0610363632440567017 0.0842482447624206543
0.358465135097503662 0.237731590867042542 0.0532720871269702911
0.358465135097503662 0.282978236675262451 0.027423366904258728
0.358465135097503662 0.231216281652450562 0.0683804228901863098
0.358465135097503662 0.185013160109519958 0.0476423278450965881
0.358465135097503662 0.0987392514944076538 0.0733536779880523682
0.358465135097503662 0.141578495502471924 0.0853979587554931641
0.358465135097503662 0.13739641010761261 0.0751894712448120117
0.358465135097503662 0.276209264993667603 0.0636026859283447266
0.358465135097503662 0.200068026781082153 0.0781587064266204834
0.358465135097503662 0.021847069263458252 0.0928292497992515564
0.358465135097503662 0.0972471386194229126 0.0744412392377853394
0.358465135097503662 0.285387098789215088 0.0913824215531349182
0.358465135097503662 0.171737313270568848 0.0486017428338527679
0.358465135097503662 0.206917479634284973 0.0755638480186462402
0.358465135097503662 0.0723289549350738525 0.0860640108585357666
0.358465135097503662 0.271638363599777222 0.0508757084608078003
0.358465135097503662 0.191734611988067627 0.0911586657166481018
0.358465135097503662 0.234306037425994873 0.0377376861870288849
0.358465135097503662 0.167810246348381042 0.060674712061882019
0.358465135097503662 0.277712374925613403 0.0197156891226768494
0.358465135097503662 0.114837855100631714 0.085445597767829895
0.358465135097503662 0.0910453498363494873 0.099925994873046875
0.358465135097503662 0.198182478547096252 0.0383805111050605774
0.358465135097503662 0.0780252963304519653 0.0994650498032569885
0.358465135097503662 0.290545552968978882 0.0252679511904716492
0.358465135097503662 0.265313267707824707 0.0570188425481319427
0.358465135097503662 0.0921570360660552979 0.0782773122191429138
0.358465135097503662 0.118205219507217407 0.0721211880445480347
0.358465135097503662 0.038349449634552002 0.0937642604112625122
0.358465135097503662 0.224026486277580261 0.0404760949313640594
0.358465135097503662 0.0767965167760848999 0.0881042256951332092
0.358465135097503662 0.175688028335571289 0.0665933340787887573
0.358465135097503662 0.061921924352645874 0.0908559039235115051
0.358465135097503662 0.10196201503276825 0.0697627663612365723
0.358465135097503662 0.283783972263336182 0.075407862663269043
0.358465135097503662 0.297315299510955811 0.000925578176975250244
0.358465135097503662 0.279577255249023438 0.0243741720914840698
0.358465135097503662 0.145482569932937622 0.0817250311374664307
0.358465135097503662 0.12527775764465332 0.0881123915314674377
0.358465135097503662 0.20445936918258667 0.06982431560754776
0.358465135097503662 0.0958739519119262695 0.0966303125023841858
0.358465135097503662 0.187445029616355896 0.0864501073956489563
0.358465135097503662 0.0588191449642181396 0.0837524458765983582
0.358465135097503662 0.234554976224899292 0.073542378842830658
0.358465135097503662 0.165779963135719299 0.0673644989728927612
0.358465135097503662 0.251791477203369141 0.0187803581357002258
0.358465135097503662 0.278306096792221069 0.0393335819244384766
0.358465135097503662 0.271747082471847534 0.0212357193231582642
0.358465135097503662 0.227807044982910156 0.0275446251034736633
0.358465135097503662 0.255590498447418213 0.0524740181863307953
0.358465135097503662 0.286907613277435303 0.0248098298907279968
0.358465135097503662 0.206332594156265259 0.0751089304685592651
0.358465135097503662 0.277264267206192017 0.0525125861167907715
0.358465135097503662 0.232345223426818848 0.0289327949285507202
0.358465135097503662 0.110788434743881226 0.0774784013628959656
0.358465135097503662 0.191939637064933777 0.0583187229931354523
0.358465135097503662 0.269734472036361694 0.0372785180807113647
0.358465135097503662 0.298646509647369385 0.0550692789256572723
0.358465135097503662 0.134968876838684082 0.0617464669048786163
0.358465135097503662 0.29085192084312439 0.0744408592581748962
0.358465135097503662 0.157161787152290344 0.0561107434332370758
0.358465135097503662 0.281415671110153198 0.0969227924942970276
0.358465135097503662 0.124111220240592957 0.0869365185499191284
0.358465135097503662 0.275255024433135986 0.0750962942838668823
0.358465135097503662 0.203075408935546875 0.088509880006313324
0.358465135097503662 0.117213323712348938 0.0980545058846473694
0.358465135097503662 0.198145464062690735 0.0699949115514755249
0.358465135097503662 0.034206002950668335 0.089483894407749176
0.358465135097503662 0.118158549070358276 0.097425416111946106
0.358465135097503662 0.227846965193748474 0.0801440775394439697
0.358465135097503662 0.286484718322753906 0.0124968066811561584
0.358465135097503662 0.148859202861785889 0.071555696427822113
0.358465135097503662 0.259132951498031616 0.0341934859752655029
0.358465135097503662 0.24448859691619873 0.0574486814439296722
0.358465135097503662 0.193083792924880981 0.0508502088487148285
0.358465135097503662 0.244688689708709717 0.0783126726746559143
0.358465135097503662 0.182831481099128723 0.0483109317719936371
0.358465135097503662 0.299220681190490723 0.0270081162452697754
0.358465135097503662 0.268591463565826416 0.0489692054688930511
0.358465135097503662 0.112760424613952637 0.0667532533407211304
0.358465135097503662 0.197308853268623352 0.0643793046474456787
0.358465135097503662 0.177491307258605957 0.0631472021341323853
0.358465135097503662 0.271842539310455322 0.0420630984008312225
0.358465135097503662 0.0726801007986068726 0.0819139555096626282
0.358465135097503662 0.265496432781219482 0.0731106549501419067
0.358465135097503662 0.226680785417556763 0.0460429973900318146
0.358465135097503662 0.19020882248878479 0.0490768924355506897
0.358465135097503662 0.24568428099155426 0.0764313414692878723
0.358465135097503662 0.224169835448265076 0.0578847527503967285
0.358465135097503662 0.0759750008583068848 0.0946534276008605957
0.358465135097503662 0.16138024628162384 0.0540464781224727631
0.358465135097503662 0.242122024297714233 0.0243792086839675903
0.358465135097503662 0.295942395925521851 0.0750055685639381409
0.358465135097503662 0.238483220338821411 0.0218117907643318176
0.358465135097503662 0.242418169975280762 0.0340152904391288757
0.358465135097503662 0.22710108757019043 0.0579438060522079468
0.358465135097503662 0.189094990491867065 0.046690475195646286
0.358465135097503662 0.21243661642074585 0.077435515820980072
0.358465135097503662 0.097795829176902771 0.0869862288236618042
0.358465135097503662 0.286804288625717163 0.0339347869157791138
0.358465135097503662 0.263702869415283203 0.075579032301902771
0.358465135097503662 0.276650667190551758 0.0952108129858970642
0.358465135097503662 0.196705907583236694 0.0585181489586830139
0.358465135097503662 0.277868181467056274 0.0388314090669155121
0.358465135097503662 0.29403415322303772 0.0656756684184074402
0.358465135097503662 0.245988517999649048 0.0237572938203811646
0.358465135097503662 0.184402734041213989 0.0524474345147609711
0.358465135097503662 0.0413077175617218018 0.0940139442682266235
0.358465135097503662 0.297200441360473633 0.0363800898194313049
0.358465135097503662 0.166396692395210266 0.0805496051907539368
0.358465135097503662 0.267051875591278076 0.0435801632702350616
0.358465135097503662 0.164170458912849426 0.0888014286756515503
0.358465135097503662 0.215605020523071289 0.0888886600732803345
0.358465135097503662 0.238837718963623047 0.0419586710631847382
0.358465135097503662 0.0990273058414459229 0.0896110013127326965
0.358465135097503662 0.031861037015914917 0.0983477979898452759
0.358465135097503662 0.00720205903053283691 0.0987687408924102783
0.358465135097503662 0.113883137702941895 0.0837492644786834717
0.358465135097503662 0.1624411940574646 0.0532607994973659515
0.358465135097503662 0.276006132364273071 0.0439826250076293945
0.358465135097503662 0.198273733258247375 0.070146024227142334
0.358465135097503662 0.0820540636777877808 0.0864879339933395386
0.358465135097503662 0.273633599281311035 0.083260759711265564
0.358465135097503662 0.186206698417663574 0.0778065919876098633
0.358465135097503662 0.0940588265657424927 0.0824569910764694214
0.358465135097503662 0.192771583795547485 0.0915515869855880737
0.358465135097503662 0.198214262723922729 0.0505118630826473236
0.358465135097503662 0.0335249006748199463 0.0941721871495246887
0.358465135097503662 0.18432973325252533 0.0495978780090808868
0.358465135097503662 0.25874561071395874 0.0697196200489997864
0.358465135097503662 0.195593476295471191 0.0372394174337387085
0.358465135097503662 0.113726764917373657 0.062323596328496933
0.358465135097503662 0.297633767127990723 0.0273206606507301331
0.358465135097503662 0.0679624229669570923 0.0787142440676689148
0.358465135097503662 0.211744099855422974 0.0674068108201026917
0.358465135097503662 0.114637702703475952 0.0830413922667503357
0.358465135097503662 0.23704373836517334 0.0621398761868476868
0.358465135097503662 0.162694036960601807 0.0848008319735527039
0.358465135097503662 0.111751437187194824 0.0761879310011863708
0.358465135097503662 0.157465234398841858 0.073037952184677124
0.358465135097503662 0.14947134256362915 0.0951839759945869446
0.358465135097503662 0.122924119234085083 0.0839625075459480286
0.358465135097503662 0.223054453730583191 0.0282694846391677856
0.358465135097503662 0.182779967784881592 0.0548253618180751801
0.358465135097503662 0.204842105507850647 0.0932404622435569763
0.358465135097503662 0.173085004091262817 0.0757085084915161133
0.358465135097503662 0.283520787954330444 0.0568630434572696686
0.358465135097503662 0.255412578582763672 0.0536954477429389954
0.358465135097503662 0.1147051602602005 0.0651589334011077881
0.358465135097503662 0.125532478094100952 0.0675723105669021606
0.358465135097503662 0.244862750172615051 0.0811444073915481567
0.358465135097503662 0.228411674499511719 0.0923555940389633179
0.358465135097503662 0.240598991513252258 0.0318848267197608948
0.358465135097503662 0.251315832138061523 0.0266802459955215454
0.358465135097503662 0.293495595455169678 0.0254233703017234802
0.358465135097503662 0.0989562124013900757 0.0780189186334609985
0.358465135097503662 0.282206445932388306 0.023043021559715271
0.358465135097503662 0.192005842924118042 0.0919603630900382996
0.358465135097503662 0.271548360586166382 0.0641037151217460632
0.358465135097503662 0.194835066795349121 0.0515881143510341644
0.358465135097503662 0.207745850086212158 0.0494424179196357727
0.358465135097503662 0.121142402291297913 0.0608805418014526367
0.358465135097503662 0.255996793508529663 0.0256353169679641724
0.358465135097503662 0.248636245727539062 0.0216940417885780334
0.358465135097503662 0.199407368898391724 0.0792435556650161743
0.358465135097503662 0.205575287342071533 0.0799555853009223938
0.358465135097503662 0.229922071099281311 0.0946817249059677124
0.358465135097503662 0.17797793447971344 0.0502130351960659027
0.358465135097503662 0.258831173181533813 0.0507578812539577484
0.358465135097503662 0.286571621894836426 0.0212607607245445251
0.358465135097503662 0.290630728006362915 0.0277732759714126587
0.358465135097503662 0.222897768020629883 0.055296625941991806
0.358465135097503662 0.197782278060913086 0.0985293537378311157
0.358465135097503662 0.218340739607810974 0.0975574254989624023
0.358465135097503662 0.238937199115753174 0.0797455385327339172
0.358465135097503662 0.162477806210517883 0.0930332988500595093
0.358465135097503662 0.113923937082290649 0.0734954327344894409
0.358465135097503662 0.244663819670677185 0.0601492114365100861
0.358465135097503662 0.286441385746002197 0.0482833869755268097
0.358465135097503662 0.141066178679466248 0.0857333466410636902
0.358465135097503662 0.295646369457244873 0.0390137434005737305
0.358465135097503662 0.118675291538238525 0.0802424252033233643
0.358465135097503662 0.0700668841600418091 0.0985300764441490173
0.358465135097503662 0.149845987558364868 0.0606293641030788422
0.358465135097503662 0.252455443143844604 0.0821708738803863525
0.358465135097503662 0.137560665607452393 0.0768391340970993042
0.358465135097503662 0.226566851139068604 0.0364289954304695129
0.358465135097503662 0.268329113721847534 0.0514462850987911224
0.358465135097503662 0.238918110728263855 0.0464715734124183655
0.358465135097503662 0.265146255493164062 0.0278564766049385071
0.358465135097503662 0.161601245403289795 0.068842567503452301
0.358465135097503662 0.251793444156646729 0.0473374426364898682
0.358465135097503662 0.082091212272644043 0.0934953168034553528
0.358465135097503662 0.181326776742935181 0.0770854055881500244
0.358465135097503662 0.18478471040725708 0.0904566794633865356
0.358465135097503662 0.29312211275100708 0.0661746561527252197
0.358465135097503662 0.206762552261352539 0.0704020708799362183
0.358465135097503662 0.193553611636161804 0.059139791876077652
0.358465135097503662 0.177954196929931641 0.0715959891676902771
0.358465135097503662 0.246792972087860107 0.0727522894740104675
0.358465135097503662 0.164318487048149109 0.0969627797603607178
0.358465135097503662 0.291499674320220947 0.00334035605192184448
0.358465135097503662 0.130799472332000732 0.0930079072713851929
0.358465135097503662 0.170632824301719666 0.0819944664835929871
0.358465135097503662 0.268481612205505371 0.0252690613269805908
0.358465135097503662 0.273427337408065796 0.0992508456110954285
0.358465135097503662 0.278191477060317993 0.0821572393178939819
0.358465135097503662 0.161994829773902893 0.0647063180804252625
0.358465135097503662 0.217288345098495483 0.0480893850326538086
0.358465135097503662 0.230340033769607544 0.0536137521266937256
0.358465135097503662 0.223987668752670288 0.0635795742273330688
0.358465135097503662 0.152071356773376465 0.094903700053691864
0.358465135097503662 0.220847845077514648 0.0964488759636878967
0.358465135097503662 0.201329395174980164 0.0871302634477615356
0.358465135097503662 0.257767826318740845 0.0338252857327461243
0.358465135097503662 0.210434824228286743 0.0789839327335357666
0.358465135097503662 0.15380580723285675 0.0696772858500480652
0.358465135097503662 0.12693120539188385 0.0614270530641078949
0.358465135097503662 0.286680877208709717 0.035374179482460022
0.358465135097503662 0.163157448172569275 0.0735083818435668945
0.358465135097503662 0.0498609840869903564 0.0961436480283737183
0.358465135097503662 0.078659549355506897 0.0751871764659881592
0.358465135097503662 0.277381449937820435 0.0187103301286697388
0.358465135097503662 0.109242334961891174 0.0669161677360534668
0.358465135097503662 0.134231686592102051 0.0603665262460708618
0.358465135097503662 0.11081559956073761 0.0752277076244354248
0.358465135097503662 0.285464584827423096 0.087716519832611084
0.358465135097503662 0.0535975247621536255 0.0963917970657348633
0.358465135097503662 0.216565728187561035 0.0575217567384243011
0.358465135097503662 0.230736404657363892 0.0500649623572826385
0.358465135097503662 0.185166031122207642 0.0834071114659309387
0.358465135097503662 0.0806377530097961426 0.0884919688105583191
0.358465135097503662 0.255783885717391968 0.0233923345804214478
0.358465135097503662 0.150558367371559143 0.0809648633003234863
0.358465135097503662 0.221909046173095703 0.0852433964610099792
0.358465135097503662 0.265766918659210205 0.0282059311866760254
0.358465135097503662 0.23856806755065918 0.0953389480710029602
0.358465135097503662 0.258110672235488892 0.0162825435400009155
0.358465135097503662 0.110030174255371094 0.0833200961351394653
0.358465135097503662 0.164862260222434998 0.0956083163619041443
0.358465135097503662 0.187790930271148682 0.0400278232991695404
0.358465135097503662 0.209585413336753845 0.0777148455381393433
0.358465135097503662 0.254826068878173828 0.0572289153933525085
0.358465135097503662 0.237294256687164307 0.0751413106918334961
0.358465135097503662 0.078162848949432373 0.0867879539728164673
0.358465135097503662 0.240829050540924072 0.0243561714887619019
0.358465135097503662 0.263198584318161011 0.0403325669467449188
0.358465135097503662 0.117414772510528564 0.0775440484285354614
0.358465135097503662 0.222769737243652344 0.0973728299140930176
0.358465135097503662 0.191948205232620239 0.0955911502242088318
0.358465135097503662 0.186583042144775391 0.0895643904805183411
0.358465135097503662 0.289062201976776123 0.0381387136876583099
0.358465135097503662 0.185168296098709106 0.0803345665335655212
0.358465135097503662 0.267972677946090698 0.0280028730630874634
0.358465135097503662 0.200140208005905151 0.0598637573421001434
0.358465135097503662 0.115675479173660278 0.0898762494325637817
0.358465135097503662 0.158731639385223389 0.0784439146518707275
0.358465135097503662 0.159546703100204468 0.0688902288675308228
0.358465135097503662 0.256738394498825073 0.0681820958852767944
0.358465135097503662 0.188529431819915771 0.0941175967454910278
0.358465135097503662 0.274961769580841064 0.0558923110365867615
0.358465135097503662 0.160127654671669006 0.0467651747167110443
0.358465135097503662 0.269970595836639404 0.0577410273253917694
0.358465135097503662 0.248637497425079346 0.0714457109570503235
0.358465135097503662 0.0791945159435272217 0.0739943310618400574
0.358465135097503662 0.199617251753807068 0.0840128660202026367
0.358465135097503662 0.0787042826414108276 0.0996811315417289734
0.358465135097503662 0.273871779441833496 0.0736015141010284424
0.358465135097503662 0.288968384265899658 0.0771663859486579895
0.358465135097503662 0.164118900895118713 0.0799660161137580872
0.358465135097503662 0.255392104387283325 0.0309028699994087219
0.358465135097503662 0.285450071096420288 0.0632246434688568115
0.358465135097503662 0.189635187387466431 0.0938180908560752869
0.358465135097503662 0.151343286037445068 0.0699751228094100952
0.358465135097503662 0.229521080851554871 0.0647216662764549255
0.358465135097503662 0.247035115957260132 0.0535332895815372467
0.358465135097503662 0.222611710429191589 0.0817310959100723267
0.358465135097503662 0.0529472231864929199 0.0828682929277420044
0.358465135097503662 0.27241891622543335 0.0456166155636310577
0.358465135097503662 0.12565179169178009 0.090509071946144104
0.358465135097503662 0.232103407382965088 0.0236512869596481323
0.358465135097503662 0.279072582721710205 0.0804851055145263672
0.358465135097503662 0.293366879224777222 0.0294571965932846069
0.358465135097503662 0.136186346411705017 0.0627118498086929321
0.358465135097503662 0.112258419394493103 0.0697577372193336487
0.358465135097503662 0.27378535270690918 0.0942864120006561279
0.358465135097503662 0.24996359646320343 0.0374820306897163391
0.358465135097503662 0.201040998101234436 0.0910438373684883118
0.358465135097503662 0.22499828040599823 0.0747478529810905457
0.358465135097503662 0.278603672981262207 0.0982004404067993164
0.358465135097503662 0.207610934972763062 0.0399440936744213104
0.358465135097503662 0.21915021538734436 0.0733854100108146667
0.358465135097503662 0.182134240865707397 0.054308183491230011
0.358465135097503662 0.188502371311187744 0.0777993723750114441
0.358465135097503662 0.192137375473976135 0.0517334491014480591
0.358465135097503662 0.238064110279083252 0.0348093807697296143
0.358465135097503662 0.213718831539154053 0.0432323329150676727
0.358465135097503662 0.170095473527908325 0.0992840304970741272
0.358465135097503662 0.0622265487909317017 0.0963783860206604004
0.358465135097503662 0.106764838099479675 0.0777275562286376953
0.358465135097503662 0.274548143148422241 0.0651680752635002136
0.358465135097503662 0.267846256494522095 0.0933810323476791382
0.358465135097503662 0.227253809571266174 0.0476888082921504974
0.358465135097503662 0.204540133476257324 0.090346217155456543
0.358465135097503662 0.1662864089012146 0.0729391276836395264
0.358465135097503662 0.0982474535703659058 0.0805203095078468323
0.358465135097503662 0.130655840039253235 0.0954696610569953918
0.358465135097503662 0.259992867708206177 0.0423056669533252716
0.358465135097503662 0.25719115138053894 0.0918151214718818665
0.358465135097503662 0.181639492511749268 0.044880010187625885
0.358465135097503662 0.218192428350448608 0.0905701443552970886
0.358465135097503662 0.15978887677192688 0.0870088562369346619
0.358465135097503662 0.22948649525642395 0.0619512200355529785
0.358465135097503662 0.116020724177360535 0.0833384543657302856
0.358465135097503662 0.298229992389678955 0.0143219754099845886
0.358465135097503662 0.0344997048377990723 0.091066211462020874
0.358465135097503662 0.288480699062347412 0.0699214339256286621
0.358465135097503662 0.176062196493148804 0.0753945857286453247
0.358465135097503662 0.207230657339096069 0.0514684021472930908
0.358465135097503662 0.260141462087631226 0.0536430291831493378
0.358465135097503662 0.232569217681884766 0.0420085787773132324
0.324246346950531006 0.300000011920928955 0.0137449093163013458
0.319770753383636475 0.300000011920928955 0.0589929409325122833
0.0565324723720550537 0.300000011920928955 0.00427063554525375366
0.297178924083709717 0.300000011920928955 0.00610478967428207397
0.296653985977172852 0.300000011920928955 0.0177468676120042801
0.147703751921653748 0.300000011920928955 0.0119322948157787323
0.0774246156215667725 0.300000011920928955 0.0153107419610023499
0.254672110080718994 0.300000011920928955 0.0587029531598091125
0.203217253088951111 0.300000011920928955 0.0116591788828372955
0.202503949403762817 0.300000011920928955 0.0438375882804393768
0.275087267160415649 0.300000011920928955 0.00053935125470161438
0.261449277400970459 0.300000011920928955 0.0290790237486362457
0.146279752254486084 0.300000011920928955 0.0108029916882514954
0.204297646880149841 0.300000011920928955 0.0531619004905223846
0.324878573417663574 0.300000011920928955 0.00640229973942041397
0.157081559300422668 0.300000011920928955 0.0314909368753433228
0.329941719770431519 0.300000011920928955 0.0323811396956443787
0.142217442393302917 0.300000011920928955 0.0336774326860904694
0.209310278296470642 0.300000011920928955 0.00957258790731430054
0.268959641456604004 0.300000011920928955 0.0176266711205244064
0.246925190091133118 0.300000011920928955 0.0583711080253124237
0.356337547302246094 0.300000011920928955 0.0277505479753017426
0.167962372303009033 0.300000011920928955 0.0137474462389945984
0.274820804595947266 0.300000011920928955 0.0164853241294622421
0.205234512686729431 0.300000011920928955 0.0553860068321228027
0.342738986015319824 0.300000011920928955 0.0419276803731918335
0.316242307424545288 0.300000011920928955 0.0665650516748428345
0.0991324186325073242 0.300000011920928955 0.0264361798763275146
0.313661456108093262 0.300000011920928955 0.0529148094356060028
0.224681496620178223 0.300000011920928955 0.0121943391859531403
0.114983439445495605 0.300000011920928955 0.00965991616249084473
0.238966435194015503 0.300000011920928955 0.0638790205121040344
0.305572241544723511 0.300000011920928955 0.0738489478826522827
0.293574094772338867 0.300000011920928955 0.00631937570869922638
0.225478142499923706 0.300000011920928955 0.0203079245984554291
0.170387357473373413 0.300000011920928955 0.0309663116931915283
0.300711333751678467 0.300000011920928955 0.0609118379652500153
0.294174492359161377 0.300000011920928955 0.0105220172554254532
0.310139954090118408 0.300000011920928955 0.0249792151153087616
0.206651866436004639 0.300000011920928955 0.0557421259582042694
0.0943152010440826416 0.300000011920928955 0.0154284313321113586
0.216241210699081421 0.300000011920928955 0.0404189527034759521
0.297184735536575317 0.300000011920928955 0.0697564780712127686
0.109573706984519958 0.300000011920928955 0.0147876143455505371
0.214089080691337585 0.300000011920928955 0.058656737208366394
0.25002056360244751 0.300000011920928955 0.0242059733718633652
0.267928957939147949 0.300000011920928955 0.0550872832536697388
0.194919124245643616 0.300000011920928955 0.0152769014239311218
0.11227552592754364 0.300000011920928955 0.0229524224996566772
0.275486171245574951 0.300000011920928955 0.0723564624786376953
0.245641991496086121 0.300000011920928955 0.00110260769724845886
0.0987333953380584717 0.300000011920928955 0.00186353921890258789
0.332175999879837036 0.300000011920928955 0.0192817375063896179
0.311018317937850952 0.300000011920928955 0.00972367636859416962
0.321343094110488892 0.300000011920928955 0.0556262247264385223
0.13615715503692627 0.300000011920928955 0.0331768803298473358
0.146584108471870422 0.300000011920928955 0.00305375829339027405
0.27079319953918457 0.300000011920928955 0.0113634038716554642
0.341476708650588989 0.300000011920928955 0.0109125636518001556
0.105945378541946411 0.300000011920928955 0.0195181071758270264
0.264132887125015259 0.300000011920928955 0.0166569072753190994
0.162916883826255798 0.300000011920928955 0.0311248749494552612
0.118799760937690735 0.300000011920928955 0.0154214799404144287
0.187138825654983521 0.300000011920928955 0.0358236618340015411
0.252409636974334717 0.300000011920928955 0.0615136623382568359
0.24794304370880127 0.300000011920928955 0.0396715998649597168
0.0947013497352600098 0.300000011920928955 0.0172671303153038025
0.340611159801483154 0.300000011920928955 0.00674714939668774605
0.327543139457702637 0.300000011920928955 0.0245310943573713303
0.236901819705963135 0.300000011920928955 0.0288059636950492859
0.147947892546653748 0.300000011920928955 0.0154596157371997833
0.285561203956604004 0.300000011920928955 0.000253612175583839417
0.347348123788833618 0.300000011920928955 0.066587984561920166
0.357547640800476074 0.300000011920928955 0.0565641671419143677
0.245010703802108765 0.300000011920928955 0.0505053102970123291
0.205961316823959351 0.300000011920928955 0.0550847761332988739
0.12919105589389801 0.300000011920928955 0.019282996654510498
0.244221419095993042 0.300000011920928955 0.0349361337721347809
0.259645402431488037 0.300000011920928955 0.0135321896523237228
0.351462781429290771 0.300000011920928955 0.0758477151393890381
0.336938828229904175 0.300000011920928955 0.0566414222121238708
0.199571818113327026 0.300000011920928955 0.0543691553175449371
0.274663478136062622 0.300000011920928955 0.0645514875650405884
0.332955211400985718 0.300000011920928955 0.0100446548312902451
0.282339304685592651 0.300000011920928955 0.0467426255345344543
0.34874531626701355 0.300000011920928955 0.00260086939670145512
0.268535077571868896 0.300000011920928955 0.0325727015733718872
0.174874678254127502 0.300000011920928955 0.04025278240442276
0.322140485048294067 0.300000011920928955 0.0196005702018737793
0.177641719579696655 0.300000011920928955 0.0289977230131626129
0.342103838920593262 0.300000011920928955 0.00640556588768959045
0.344031244516372681 0.300000011920928955 0.0538910850882530212
0.175692424178123474 0.300000011920928955 0.03477463498711586
0.259295463562011719 0.300000011920928955 0.0109124556183815002
0.271763920783996582 0.300000011920928955 0.0108337178826332092
0.202305033802986145 0.300000011920928955 0.0370757021009922028
0.216869711875915527 0.300000011920928955 0.0108615197241306305
0.173475220799446106 0.300000011920928955 0.0461619757115840912
0.330082625150680542 0.300000011920928955 0.0221275091171264648
0.338972032070159912 0.300000011920928955 0.0102744251489639282
0.22613939642906189 0.300000011920928955 0.0564748160541057587
0.333908677101135254 0.300000011920928955 0.0814257636666297913
0.32298588752746582 0.300000011920928955 0.0327782444655895233
0.317757844924926758 0.300000011920928955 0.0780317932367324829
0.148277789354324341 0.300000011920928955 0.0178199298679828644
0.339783936738967896 0.300000011920928955 0.0193842127919197083
0.268738001585006714 0.300000011920928955 0.0234369188547134399
0.0946114063262939453 0.300000011920928955 0.00367884337902069092
0.353980600833892822 0.300000011920928955 0.0528431572020053864
0.162391096353530884 0.300000011920928955 0.0101651512086391449
0.105235666036605835 0.300000011920928955 0.0239065662026405334
0.138128817081451416 0.300000011920928955 0.0383806340396404266
0.244387641549110413 0.300000011920928955 0.0397213250398635864
0.0555613934993743896 0.300000011920928955 0.0139677524566650391
0.249336272478103638 0.300000011920928955 0.0310972984880208969
0.266719132661819458 0.300000011920928955 0.0313336178660392761
0.273423999547958374 0.300000011920928955 0.0322113409638404846
0.0495286881923675537 0.300000011920928955 0.0118657723069190979
0.328901529312133789 0.300000011920928955 0.029799334704875946
0.328819841146469116 0.300000011920928955 0.0709670558571815491
0.26633763313293457 0.300000011920928955 0.0352955460548400879
0.237758100032806396 0.300000011920928955 0.0638275593519210815
0.284353971481323242 0.300000011920928955 0.0141079816967248917
0.298575997352600098 0.300000011920928955 0.0297904051840305328
0.276277065277099609 0.300000011920928955 0.0299888830631971359
0.236219286918640137 0.300000011920928955 0.00685474276542663574
0.208949774503707886 0.300000011920928955 0.00223826244473457336
0.0370576977729797363 0.300000011920928955 0.00642754137516021729
0.327342212200164795 0.300000011920928955 0.0578158944845199585
0.019088447093963623 0.300000011920928955 0.00119221955537796021
0.194652482867240906 0.300000011920928955 0.0265093743801116943
0.0967322587966918945 0.300000011920928955 0.00324574112892150879
0.0985300540924072266 0.300000011920928955 0.00914869457483291626
0.313000857830047607 0.300000011920928955 0.073757171630859375
0.266316324472427368 0.300000011920928955 0.0113965999335050583
0.21175442636013031 0.300000011920928955 0.0463368147611618042
0.265324652194976807 0.300000011920928955 0.0200117621570825577
0.0985279977321624756 0.300000011920928955 0.00252575427293777466
0.342054754495620728 0.300000011920928955 0.0402124635875225067
0.284603208303451538 0.300000011920928955 0.0375098027288913727
0.231700092554092407 0.300000011920928955 0.0129472352564334869
0.106967270374298096 0.300000011920928955 0.0254295319318771362
0.354442834854125977 0.300000011920928955 0.0700295791029930115
0.29137951135635376 0.300000011920928955 0.0548708513379096985
0.195154488086700439 0.300000011920928955 0.011391766369342804
0.265566468238830566 0.300000011920928955 0.0633288174867630005
0.276376187801361084 0.300000011920928955 0.00747356005012989044
0.0440922677516937256 0.300000011920928955 0.00546742230653762817
0.0560207664966583252 0.300000011920928955 0.0113811790943145752
0.0624506473541259766 0.300000011920928955 0.015299968421459198
0.311382174491882324 0.300000011920928955 0.00751884095370769501
0.294930160045623779 0.300000011920928955 0.0311735216528177261
0.275241434574127197 0.300000011920928955 0.0656794309616088867
0.125889644026756287 0.300000011920928955 0.00255864113569259644
0.107666820287704468 0.300000011920928955 0.0198844745755195618
0.322906911373138428 0.300000011920928955 0.0845958292484283447
0.226653888821601868 0.300000011920928955 0.0506081618368625641
0.221618041396141052 0.300000011920928955 0.0193306617438793182
0.040340721607208252 0.300000011920928955 0.00281553715467453003
0.321351706981658936 0.300000011920928955 0.0789268612861633301
0.285798639059066772 0.300000011920928955 0.0640098750591278076
0.331318408250808716 0.300000011920928955 0.0872283503413200378
0.199863404035568237 0.300000011920928955 0.0454016365110874176
0.312302678823471069 0.300000011920928955 0.033810783177614212
0.243554949760437012 0.300000011920928955 0.0205233469605445862
0.272181332111358643 0.300000011920928955 0.0202005337923765182
0.165413901209831238 0.300000011920928955 0.0270665325224399567
0.293894350528717041 0.300000011920928955 0.048643454909324646
0.333818554878234863 0.300000011920928955 0.0555004552006721497
0.127338111400604248 0.300000011920928955 0.0228787511587142944
0.212274536490440369 0.300000011920928955 0.0346571281552314758
0.195365399122238159 0.300000011920928955 0.00439774245023727417
0.184884846210479736 0.300000011920928955 0.0243878215551376343
0.247444629669189453 0.300000011920928955 0.0064179394394159317
0.264530330896377563 0.300000011920928955 0.0460960492491722107
0.311955928802490234 0.300000011920928955 0.043949127197265625
0.118896484375 0.300000011920928955 0.027490079402923584
0.317593753337860107 0.300000011920928955 0.0831125006079673767
0.333986878395080566 0.300000011920928955 0.0707908645272254944
0.25966411828994751 0.300000011920928955 0.0517257079482078552
0.319187253713607788 0.300000011920928955 0.00935042742639780045
0.308629393577575684 0.300000011920928955 0.0331265479326248169
0.153978437185287476 0.300000011920928955 0.030811011791229248
0.279238581657409668 0.300000011920928955 0.0390276387333869934
0.157919362187385559 0.300000011920928955 0.0341417752206325531
0.0702938437461853027 0.300000011920928955 0.0174573138356208801
0.245439544320106506 0.300000011920928955 0.00844559073448181152
0.273129582405090332 0.300000011920928955 0.0070883575826883316
0.250271439552307129 0.300000011920928955 0.0311022866517305374
0.301801204681396484 0.300000011920928955 0.0700985416769981384
0.327205151319503784 0.300000011920928955 0.00239920336753129959
0.312828689813613892 0.300000011920928955 0.0238962769508361816
0.149290725588798523 0.300000011920928955 0.025037471204996109
0.0497315526008605957 0.300000011920928955 0.00136513262987136841
0.198708206415176392 0.300000011920928955 0.0470519028604030609
0.253740549087524414 0.300000011920928955 0.0667278170585632324
0.165255874395370483 0.300000011920928955 0.0270993076264858246
0.174540877342224121 0.300000011920928955 0.0413975827395915985
0.137427479028701782 0.300000011920928955 0.0216383300721645355
0.233521759510040283 0.300000011920928955 0.00973150879144668579
0.273889690637588501 0.300000011920928955 0.0731244310736656189
0.269417643547058105 0.300000011920928955 0.0549905151128768921
0.143469184637069702 0.300000011920928955 0.0259801708161830902
0.266792744398117065 0.300000011920928955 0.0280873049050569534
0.286662459373474121 0.300000011920928955 0.041606999933719635
0.307757318019866943 0.300000011920928955 0.0504106581211090088
0.265079706907272339 0.300000011920928955 0.0641060769557952881
0.302145659923553467 0.300000011920928955 0.0782677978277206421
0.31791079044342041 0.300000011920928955 0.0182867720723152161
0.169796451926231384 0.300000011920928955 0.0436924323439598083
0.205643802881240845 0.300000011920928955 0.00930661708116531372
0.313661426305770874 0.300000011920928955 0.0138299176469445229
0.256700098514556885 0.300000011920928955 0.0654468908905982971
0.234712094068527222 0.300000011920928955 0.00919967889785766602
0.256778120994567871 0.300000011920928955 0.0636363103985786438
0.2632923424243927 0.300000011920928955 0.0377744138240814209
0.220431923866271973 0.300000011920928955 0.000915385782718658447
0.111468315124511719 0.300000011920928955 0.0278521105647087097
0.324522465467453003 0.300000011920928955 0.0895835086703300476
0.302935957908630371 0.300000011920928955 0.0286090169101953506
0.276800394058227539 0.300000011920928955 0.0245717968791723251
0.0495272576808929443 0.300000011920928955 0.008380107581615448
0.199022471904754639 0.300000011920928955 0.0229622945189476013
0.218006327748298645 0.300000011920928955 0.01506756991147995
0.322977066040039062 0.300000011920928955 0.00891971215605735779
0.338968098163604736 0.300000011920928955 0.0148787181824445724
0.355855852365493774 0.300000011920928955 0.0529473423957824707
0.327778100967407227 0.300000011920928955 0.0182092934846878052
0.0750418305397033691 0.300000011920928955 0.0192323103547096252
0.282937437295913696 0.300000011920928955 0.0230830460786819458
0.24510936439037323 0.300000011920928955 6.85714185237884521e-05
0.257389158010482788 0.300000011920928955 0.0140629056841135025
0.0727524757385253906 0.300000011920928955 0.000362306833267211914
0.351851195096969604 0.300000011920928955 0.0642546415328979492
0.344663053750991821 0.300000011920928955 0.0779068246483802795
0.353887856006622314 0.300000011920928955 0.070384785532951355
0.292479753494262695 0.300000011920928955 0.0703345388174057007
0.142351359128952026 0.300000011920928955 0.0176346972584724426
0.152032360434532166 0.300000011920928955 0.013463582843542099
0.259826540946960449 0.300000011920928955 0.0315448157489299774
0.292202681303024292 0.300000011920928955 0.0669663175940513611
0.260416746139526367 0.300000011920928955 0.0706755146384239197
0.20078587532043457 0.300000011920928955 0.0320513881742954254
0.348304510116577148 0.300000011920928955 0.0402580946683883667
0.22597186267375946 0.300000011920928955 0.0062145330011844635
0.263898491859436035 0.300000011920928955 0.0526768416166305542
0.296086430549621582 0.300000011920928955 0.0544864349067211151
0.286955833435058594 0.300000011920928955 0.0639733448624610901
0.341053605079650879 0.300000011920928955 0.0638012662529945374
0.329543441534042358 0.300000011920928955 0.0398742780089378357
0.279279500246047974 0.300000011920928955 0.0712355747818946838
0.314096927642822266 0.300000011920928955 0.0134361768141388893
0.357457339763641357 0.300000011920928955 0.065910831093788147
0.318348348140716553 0.300000011920928955 0.0774872899055480957
0.131549090147018433 0.300000011920928955 0.019634053111076355
0.0545785725116729736 0.300000011920928955 0.00446543842554092407
0.167027533054351807 0.300000011920928955 0.0435826517641544342
0.266441047191619873 0.300000011920928955 0.0135873463004827499
0.249351769685745239 0.300000011920928955 0.00846141763031482697
0.231675088405609131 0.300000011920928955 0.0103207230567932129
0.265601128339767456 0.300000011920928955 0.050286710262298584
0.225190147757530212 0.300000011920928955 0.0301577933132648468
0.201368018984794617 0.300000011920928955 0.0341116674244403839
0.252724558115005493 0.300000011920928955 0.0561573728919029236
0.350957334041595459 0.300000011920928955 0.0899932757019996643
0.118366926908493042 0.300000011920928955 0.0254191160202026367
0.326871603727340698 0.300000011920928955 0.0519182980060577393
0.334047675132751465 0.300000011920928955 0.0785622373223304749
0.326629489660263062 0.300000011920928955 0.0529493875801563263
0.308344066143035889 0.300000011920928955 0.00558511633425951004
0.139317020773887634 0.300000011920928955 0.0279022566974163055
0.181068792939186096 0.300000011920928955 0.0133963041007518768
0.252018600702285767 0.300000011920928955 0.0333855673670768738
0.330570727586746216 0.300000011920928955 0.0678877383470535278
0.335033923387527466 0.300000011920928955 0.0468444116413593292
0.218888178467750549 0.300000011920928955 0.0269007422029972076
0.29830440878868103 0.300000011920928955 0.00270318984985351562
0.304072439670562744 0.300000011920928955 0.0175291970372200012
0.188349738717079163 0.300000011920928955 0.025765102356672287
0.19958515465259552 0.300000011920928955 0.0244228541851043701
0.229119285941123962 0.300000011920928955 0.0311132483184337616
0.317108750343322754 0.300000011920928955 0.0405379012227058411
0.335172146558761597 0.300000011920928955 0.0389696210622787476
0.275827080011367798 0.300000011920928955 0.0105433352291584015
0.10558021068572998 0.300000011920928955 0.015789516270160675
0.181164756417274475 0.300000011920928955 0.0504251569509506226
0.140478849411010742 0.300000011920928955 0.0377765968441963196
0.216276407241821289 0.300000011920928955 0.0397065393626689911
0.191190525889396667 0.300000011920928955 0.0365182869136333466
0.304391086101531982 0.300000011920928955 0.0704768821597099304
0.353363394737243652 0.300000011920928955 0.034860614687204361
0.272752672433853149 0.300000011920928955 0.00321748852729797363
0.108466044068336487 0.300000011920928955 0.000741437077522277832
0.131804227828979492 0.300000011920928955 0.00937441736459732056
0.354530274868011475 0.300000011920928955 0.0978024303913116455
0.340027153491973877 0.300000011920928955 0.0501728355884552002
0.218987137079238892 0.300000011920928955 0.033959459513425827
0.307945430278778076 0.300000011920928955 0.0468617379665374756
0.32318878173828125 0.300000011920928955 0.027473796159029007
0.313882440328598022 0.300000011920928955 0.0458467341959476471
0.328389436006546021 0.300000011920928955 0.0799511745572090149
0.327666908502578735 0.300000011920928955 0.0393860787153244019
0.233195185661315918 0.300000011920928955 0.0475869663059711456
0.345240235328674316 0.300000011920928955 0.000908662797883152962
0.335049360990524292 0.300000011920928955 0.0118799842894077301
0.276097357273101807 0.300000011920928955 0.0362504497170448303
0.337804079055786133 0.300000011920928955 0.0176330152899026871
0.183888018131256104 0.300000011920928955 0.0179307498037815094
0.33315768837928772 0.300000011920928955 0.0325521565973758698
0.155757367610931396 0.300000011920928955 0.0382562875747680664
0.280690878629684448 0.300000011920928955 0.0132220983505249023
0.266172319650650024 0.300000011920928955 0.0320114307105541229
0.355178356170654297 0.300000011920928955 0.0923089683055877686
0.156369864940643311 0.300000011920928955 0.0204145722091197968
0.357558071613311768 0.300000011920928955 0.0353572703897953033
0.29523235559463501 0.300000011920928955 0.048350699245929718
0.219402715563774109 0.300000011920928955 0.0350997336208820343
0.188597202301025391 0.300000011920928955 0.00218701735138893127
0.346996694803237915 0.300000011920928955 0.08332090824842453
0.154881209135055542 0.300000011920928955 0.020335804671049118
0.313965082168579102 0.300000011920928955 0.0487681254744529724
0.326680809259414673 0.300000011920928955 0.00487485900521278381
0.270807266235351562 0.300000011920928955 0.0167291313409805298
0.0993816256523132324 0.300000011920928955 0.0236109271645545959
0.232635766267776489 0.300000011920928955 0.0232915729284286499
0.281707763671875 0.300000011920928955 0.0310689210891723633
0.179062113165855408 0.300000011920928955 0.0214282944798469543
0.21651807427406311 0.300000011920928955 0.0512309856712818146
0.08184090256690979 0.300000011920928955 0.0142303332686424255
0.307878017425537109 0.300000011920928955 0.010913473553955555
0.32793012261390686 0.300000011920928955 0.0293119065463542938
0.195624217391014099 0.300000011920928955 0.00310763716697692871
0.26755446195602417 0.300000011920928955 0.0321267582476139069
0.231224462389945984 0.300000011920928955 0.0172268077731132507
0.326689273118972778 0.300000011920928955 0.0403483882546424866
0.102444380521774292 0.300000011920928955 0.0118983462452888489
0.0469914674758911133 0.300000011920928955 0.00120837986469268799
0.183793112635612488 0.300000011920928955 0.0245211906731128693
0.033239513635635376 0.300000011920928955 0.00539901107549667358
0.208591029047966003 0.300000011920928955 0.0227878876030445099
0.303094178438186646 0.300000011920928955 0.0156669355928897858
0.206137120723724365 0.300000011920928955 0.0139547474682331085
0.269579589366912842 0.300000011920928955 0.0312297660857439041
0.232676789164543152 0.300000011920928955 0.0546371713280677795
0.331840753555297852 0.300000011920928955 0.0110082030296325684
0.112116217613220215 0.300000011920928955 0.00541218370199203491
0.168567061424255371 0.300000011920928955 0.0325243920087814331
0.233725816011428833 0.300000011920928955 0.0573092550039291382
0.30778968334197998 0.300000011920928955 0.00725260376930236816
0.329826235771179199 0.300000011920928955 0.0429028160870075226
0.320161044597625732 0.300000011920928955 0.0548503026366233826
0.164391085505485535 0.300000011920928955 0.0335134230554103851
0.31997978687286377 0.300000011920928955 0.0295895636081695557
0.166691198945045471 0.300000011920928955 0.0240593254566192627
0.335289895534515381 0.300000011920928955 0.0284506790339946747
0.11814098060131073 0.300000011920928955 0.0149579569697380066
0.291692078113555908 0.300000011920928955 0.0629446133971214294
0.340889692306518555 0.300000011920928955 0.036439649760723114
0.130566626787185669 0.300000011920928955 0.0331304445862770081
0.136543884873390198 0.300000011920928955 0.0326201654970645905
0.313193738460540771 0.300000011920928955 0.0105705512687563896
0.210095152258872986 0.300000011920928955 0.0463657788932323456
0.0314432680606842041 0.300000011920928955 0.00538336485624313354
0.203682407736778259 0.300000011920928955 0.0240410603582859039
0.21920950710773468 0.300000011920928955 0.0292571894824504852
0.122271567583084106 0.300000011920928955 0.0271135568618774414
0.217847108840942383 0.300000011920928955 0.0356178022921085358
0.204373210668563843 0.300000011920928955 0.0135924890637397766
0.35587155818939209 0.300000011920928955 0.0340558663010597229
0.184344112873077393 0.300000011920928955 0.00912505388259887695
0.35571742057800293 0.300000011920928955 0.0989619717001914978
0.303675949573516846 0.300000011920928955 0.0659210383892059326
