ply
format ascii 1.0
element vertex 825
property float x
property float y
property float z
end_header
-1027.317626953125 319.8734130859375 1.11016857624053955
-1027.318115234375 319.874359130859375 1.48714673519134521
-1027.318359375 319.87493896484375 1.3657984733581543
-1027.318603515625 319.875396728515625 1.54569554328918457
-1027.318603515625 319.87530517578125 1.43262946605682373
-1027.3187255859375 319.87567138671875 0.914068460464477539
-1027.318603515625 319.875457763671875 1.29296660423278809
-1027.317626953125 319.87335205078125 0.87099456787109375
-1027.3184814453125 319.87506103515625 1.91394579410552979
-1027.3184814453125 319.875213623046875 0.793021976947784424
-1027.3173828125 319.87298583984375 0.859178900718688965
-1027.318359375 319.8748779296875 1.24751269817352295
-1027.318603515625 319.875335693359375 1.10583531856536865
-1027.3175048828125 319.873260498046875 0.943833470344543457
-1027.3179931640625 319.874298095703125 1.62486958503723145
-1027.3177490234375 319.873779296875 1.57075357437133789
-1027.318603515625 319.875457763671875 1.91885685920715332
-1027.3184814453125 319.875213623046875 1.45383024215698242
-1027.3177490234375 319.873687744140625 1.25454127788543701
-1027.3182373046875 319.87469482421875 1.14508509635925293
-1027.318603515625 319.8753662109375 1.28153765201568604
-1027.318603515625 319.87548828125 2.24428248405456543
-1027.318115234375 319.87451171875 1.73687887191772461
-1027.318359375 319.87481689453125 0.783875584602355957
-1027.31787109375 319.874053955078125 1.51083755493164062
-1027.318359375 319.874786376953125 1.29520893096923828
-1027.318603515625 319.875335693359375 1.54713404178619385
-1027.3184814453125 319.87506103515625 1.21109187602996826
-1027.3187255859375 319.87567138671875 1.81919050216674805
-1027.3172607421875 319.8726806640625 0.904206037521362305
-1027.318359375 319.875 1.20020616054534912
-1027.31884765625 319.875762939453125 1.28128194808959961
-1027.318359375 319.874908447265625 1.9172818660736084
-1027.3179931640625 319.874298095703125 1.82092106342315674
-1027.3182373046875 319.874664306640625 1.25637960433959961
-1027.31884765625 319.87579345703125 1.17698192596435547
-1027.3177490234375 319.873626708984375 1.28950870037078857
-1027.317626953125 319.87353515625 0.794845700263977051
-1027.318359375 319.874969482421875 1.3856891393661499
-1027.3173828125 319.872955322265625 1.08227193355560303
-1027.318359375 319.874908447265625 2.13335275650024414
-1027.3184814453125 319.875244140625 1.75644493103027344
-1027.3177490234375 319.87371826171875 0.942438483238220215
-1027.3187255859375 319.875640869140625 2.43558001518249512
-1027.3187255859375 319.875518798828125 1.98381280899047852
-1027.317626953125 319.873443603515625 1.1955190896987915
-1027.3187255859375 319.87554931640625 2.2566981315612793
-1027.318115234375 319.87432861328125 1.55648612976074219
-1027.317626953125 319.873565673828125 1.06073832511901855
-1027.318359375 319.874969482421875 0.804219186305999756
-1027.318603515625 319.87542724609375 1.0354006290435791
-1027.3182373046875 319.874603271484375 1.88880455493927002
-1027.318359375 319.874969482421875 1.19631171226501465
-1027.3187255859375 319.875732421875 1.83717095851898193
-1027.3187255859375 319.875732421875 1.80052280426025391
-1027.318359375 319.874908447265625 1.18063771724700928
-1027.3184814453125 319.875152587890625 0.848025321960449219
-1027.3184814453125 319.8751220703125 1.87561571598052979
-1027.318359375 319.8748779296875 0.987334251403808594
-1027.3182373046875 319.87469482421875 1.97678637504577637
-1027.3184814453125 319.875152587890625 1.63555073738098145
-1027.318359375 319.874786376953125 1.07973980903625488
-1027.3182373046875 319.874725341796875 1.59231042861938477
-1027.3184814453125 319.875152587890625 0.910879313945770264
-1027.317626953125 319.873565673828125 0.941631555557250977
-1027.3184814453125 319.87518310546875 0.828843235969543457
-1027.3187255859375 319.8756103515625 2.3072969913482666
-1027.3179931640625 319.874176025390625 1.83732485771179199
-1027.3187255859375 319.875640869140625 1.11341953277587891
-1027.31884765625 319.875762939453125 1.74941694736480713
-1027.3173828125 319.8729248046875 1.03935420513153076
-1027.3182373046875 319.874725341796875 1.31759786605834961
-1027.318115234375 319.874359130859375 1.65583419799804688
-1027.3187255859375 319.875701904296875 0.797686576843261719
-1027.318359375 319.875030517578125 1.25926589965820312
-1027.31884765625 319.8758544921875 2.01230883598327637
-1027.3182373046875 319.874603271484375 1.58903884887695312
-1027.31787109375 319.874053955078125 1.45143580436706543
-1027.3173828125 319.873016357421875 1.06351792812347412
-1027.31787109375 319.874053955078125 1.17950618267059326
-1027.3184814453125 319.875152587890625 1.03857767581939697
-1027.31787109375 319.8739013671875 1.45485508441925049
-1027.318359375 319.875 2.2893829345703125
-1027.318603515625 319.87542724609375 1.15491151809692383
-1027.31787109375 319.873931884765625 1.47714722156524658
-1027.3184814453125 319.875213623046875 2.24281930923461914
-1027.318359375 319.874908447265625 1.61467075347900391
-1027.3179931640625 319.87420654296875 1.23203349113464355
-1027.3175048828125 319.8731689453125 0.899709582328796387
-1027.3187255859375 319.87548828125 1.26632893085479736
-1027.318359375 319.874847412109375 1.49813532829284668
-1027.31884765625 319.87579345703125 1.56905937194824219
-1027.3187255859375 319.875579833984375 1.55431747436523438
-1027.31884765625 319.875823974609375 2.68546271324157715
-1027.317626953125 319.87353515625 1.28389060497283936
-1027.3182373046875 319.87457275390625 1.66541790962219238
-1027.3187255859375 319.875701904296875 2.5064537525177002
-1027.317626953125 319.87347412109375 0.846442341804504395
-1027.318359375 319.874908447265625 1.8186647891998291
-1027.3182373046875 319.8746337890625 1.61180591583251953
-1027.318603515625 319.8753662109375 1.42260634899139404
-1027.318603515625 319.875396728515625 1.1717226505279541
-1027.318359375 319.874908447265625 1.59112071990966797
-1027.31787109375 319.87384033203125 1.20705091953277588
-1027.318359375 319.875 1.16340327262878418
-1027.3184814453125 319.875091552734375 2.00939464569091797
-1027.318115234375 319.87451171875 1.60090363025665283
-1027.3184814453125 319.875244140625 2.36935615539550781
-1027.3187255859375 319.875579833984375 1.93121600151062012
-1027.3175048828125 319.873321533203125 1.2197345495223999
-1027.317626953125 319.873565673828125 1.04920768737792969
-1027.3184814453125 319.8751220703125 2.27704715728759766
-1027.318359375 319.8748779296875 1.52226674556732178
-1027.31787109375 319.873992919921875 1.14379978179931641
-1027.3187255859375 319.87554931640625 2.28955221176147461
-1027.318115234375 319.874542236328125 1.02694249153137207
-1027.318115234375 319.8743896484375 1.62243509292602539
-1027.3184814453125 319.87518310546875 2.46139883995056152
-1027.3184814453125 319.875152587890625 1.21129560470581055
-1027.3184814453125 319.8751220703125 1.25010895729064941
-1027.318603515625 319.87542724609375 2.3538515567779541
-1027.3187255859375 319.875640869140625 2.64275288581848145
-1027.317626953125 319.87359619140625 0.994495272636413574
-1027.31884765625 319.875762939453125 1.90183925628662109
-1027.318115234375 319.874359130859375 1.87414002418518066
-1027.3179931640625 319.874176025390625 1.04446148872375488
-1027.31884765625 319.875823974609375 1.90408468246459961
-1027.318115234375 319.874420166015625 1.1926724910736084
-1027.318603515625 319.87542724609375 0.798969268798828125
-1027.3187255859375 319.875579833984375 1.40041422843933105
-1027.318603515625 319.87548828125 1.87246429920196533
-1027.3187255859375 319.8756103515625 1.34910345077514648
-1027.3177490234375 319.87371826171875 1.33011996746063232
-1027.318359375 319.8748779296875 1.89729917049407959
-1027.3179931640625 319.874176025390625 0.876786351203918457
-1027.3184814453125 319.87506103515625 0.839114367961883545
-1027.318359375 319.87481689453125 0.984600484371185303
-1027.3187255859375 319.875640869140625 2.20916533470153809
-1027.318603515625 319.87542724609375 2.4847872257232666
-1027.31787109375 319.87396240234375 1.05785393714904785
-1027.3179931640625 319.874298095703125 1.70419919490814209
-1027.318603515625 319.8753662109375 0.913507461547851562
-1027.318115234375 319.874481201171875 1.79759645462036133
-1027.3182373046875 319.874664306640625 1.03507685661315918
-1027.3177490234375 319.873687744140625 0.962292671203613281
-1027.3182373046875 319.874664306640625 0.787667751312255859
-1027.318115234375 319.874481201171875 1.35446560382843018
-1027.3187255859375 319.875701904296875 2.04927659034729004
-1027.3184814453125 319.875244140625 0.853864967823028564
-1027.31884765625 319.87579345703125 1.96544885635375977
-1027.3182373046875 319.874755859375 2.19240760803222656
-1027.3187255859375 319.875518798828125 2.01024842262268066
-1027.3187255859375 319.875732421875 1.95752525329589844
-1027.3173828125 319.873046875 0.890353083610534668
-1027.318359375 319.87481689453125 1.26624369621276855
-1027.31787109375 319.87396240234375 1.4115368127822876
-1027.3187255859375 319.87548828125 2.52468585968017578
-1027.318115234375 319.8743896484375 1.76778483390808105
-1027.3175048828125 319.873138427734375 0.86186063289642334
-1027.3187255859375 319.875518798828125 1.11762356758117676
-1027.3184814453125 319.875213623046875 2.4273536205291748
-1027.3187255859375 319.875701904296875 2.10857224464416504
-1027.31884765625 319.875762939453125 2.06375432014465332
-1027.318359375 319.8748779296875 1.81619358062744141
-1027.3173828125 319.872894287109375 0.89078056812286377
-1027.3187255859375 319.875640869140625 1.45166397094726562
-1027.3184814453125 319.875152587890625 1.44488418102264404
-1027.3172607421875 319.872650146484375 0.92313086986541748
-1027.31787109375 319.87396240234375 0.925513505935668945
-1027.318359375 319.87493896484375 2.03889107704162598
-1027.3182373046875 319.87457275390625 2.02161145210266113
-1027.3179931640625 319.8741455078125 1.30821466445922852
-1027.3187255859375 319.875518798828125 2.55605149269104004
-1027.3187255859375 319.875701904296875 0.985376179218292236
-1027.3182373046875 319.874786376953125 1.64328527450561523
-1027.3187255859375 319.875640869140625 1.51583230495452881
-1027.314697265625 319.869537353515625 2.36909890174865723
-1027.31591796875 319.87091064453125 2.28440403938293457
-1027.314453125 319.869232177734375 2.67659568786621094
-1027.3160400390625 319.871063232421875 2.52750158309936523
-1027.31494140625 319.869781494140625 2.35601091384887695
-1027.314697265625 319.869598388671875 1.40655529499053955
-1027.314697265625 319.86944580078125 2.23099088668823242
-1027.3153076171875 319.8702392578125 2.42785477638244629
-1027.3153076171875 319.870330810546875 2.59830093383789062
-1027.315673828125 319.8707275390625 2.05861091613769531
-1027.3153076171875 319.870269775390625 1.8071591854095459
-1027.3153076171875 319.870208740234375 1.6268775463104248
-1027.31494140625 319.869781494140625 1.77979862689971924
-1027.3155517578125 319.870574951171875 2.63300991058349609
-1027.3157958984375 319.870849609375 2.00131511688232422
-1027.3150634765625 319.86993408203125 1.72053778171539307
-1027.3145751953125 319.86932373046875 2.1703486442565918
-1027.31640625 319.87152099609375 2.59183335304260254
-1027.3154296875 319.870391845703125 1.95329892635345459
-1027.315185546875 319.870086669921875 2.75718545913696289
-1027.314697265625 319.8695068359375 2.60961675643920898
-1027.3165283203125 319.87164306640625 2.5375673770904541
-1027.3150634765625 319.869964599609375 2.11437201499938965
-1027.3154296875 319.870452880859375 2.17060232162475586
-1027.314453125 319.869293212890625 1.1964644193649292
-1027.31640625 319.87152099609375 2.60258007049560547
-1027.3150634765625 319.869964599609375 2.52285647392272949
-1027.31494140625 319.869842529296875 1.809562087059021
-1027.314697265625 319.869537353515625 2.8101966381072998
-1027.3145751953125 319.869384765625 2.2128136157989502
-1027.3145751953125 319.869354248046875 1.73145604133605957
-1027.3155517578125 319.87054443359375 1.80995333194732666
-1027.3160400390625 319.871124267578125 2.41184782981872559
-1027.315673828125 319.870758056640625 2.5406494140625
-1027.3148193359375 319.869720458984375 1.31214511394500732
-1027.3155517578125 319.870574951171875 2.20178723335266113
-1027.314697265625 319.86944580078125 2.6561121940612793
-1027.3153076171875 319.8702392578125 2.08442091941833496
-1027.3155517578125 319.870452880859375 2.07169508934020996
-1027.316162109375 319.871307373046875 2.74560070037841797
-1027.3148193359375 319.86962890625 1.32428824901580811
-1027.315185546875 319.87017822265625 1.45134866237640381
-1027.3153076171875 319.870269775390625 2.18993091583251953
-1027.3145751953125 319.86932373046875 1.98731637001037598
-1027.314697265625 319.869537353515625 2.74255895614624023
-1027.31591796875 319.871002197265625 2.41964387893676758
-1027.3148193359375 319.869659423828125 1.94473719596862793
-1027.3154296875 319.870361328125 2.2810676097869873
-1027.3155517578125 319.8704833984375 1.88810372352600098
-1027.3150634765625 319.86993408203125 1.99588394165039062
-1027.3154296875 319.87042236328125 1.80738604068756104
-1027.3145751953125 319.86944580078125 0.997744917869567871
-1027.3145751953125 319.869384765625 2.69114518165588379
-1027.3157958984375 319.870880126953125 2.27585983276367188
-1027.31494140625 319.86981201171875 2.43522834777832031
-1027.31591796875 319.871002197265625 2.67919754981994629
-1027.3153076171875 319.870208740234375 2.10059022903442383
-1027.3160400390625 319.87109375 2.49835014343261719
-1027.314697265625 319.869537353515625 1.08689391613006592
-1027.31494140625 319.86981201171875 2.58085441589355469
-1027.31494140625 319.869873046875 2.22972393035888672
-1027.314697265625 319.869598388671875 1.47181236743927002
-1027.3153076171875 319.87017822265625 1.48934400081634521
-1027.314697265625 319.86956787109375 1.08624792098999023
-1027.316162109375 319.871307373046875 2.36192560195922852
-1027.3154296875 319.870330810546875 2.4148414134979248
-1027.3153076171875 319.870208740234375 1.66495156288146973
-1027.315185546875 319.870147705078125 2.52049398422241211
-1027.314697265625 319.869537353515625 2.63881683349609375
-1027.3153076171875 319.870208740234375 2.16026973724365234
-1027.3148193359375 319.86962890625 2.85212969779968262
-1027.3150634765625 319.870025634765625 2.50336933135986328
-1027.316162109375 319.8712158203125 2.40333104133605957
-1027.3145751953125 319.86932373046875 2.76334476470947266
-1027.314697265625 319.869537353515625 2.83507347106933594
-1027.31494140625 319.869873046875 2.39362549781799316
-1027.3148193359375 319.86968994140625 2.2392582893371582
-1027.315185546875 319.8701171875 1.99753201007843018
-1027.3157958984375 319.870819091796875 2.75168371200561523
-1027.31640625 319.87158203125 2.51012182235717773
-1027.3157958984375 319.87078857421875 2.41082477569580078
-1027.3153076171875 319.87017822265625 2.24618220329284668
-1027.315673828125 319.870697021484375 1.94259738922119141
-1027.314697265625 319.869537353515625 1.48383247852325439
-1027.3145751953125 319.869415283203125 1.99705362319946289
-1027.31591796875 319.87103271484375 2.4299318790435791
-1027.31591796875 319.87103271484375 2.82300567626953125
-1027.3145751953125 319.869415283203125 1.774169921875
-1027.3153076171875 319.8702392578125 2.16584062576293945
-1027.3148193359375 319.869720458984375 1.78909778594970703
-1027.314453125 319.8692626953125 1.93946194648742676
-1027.3155517578125 319.870574951171875 2.49761104583740234
-1027.31494140625 319.869842529296875 1.38221967220306396
-1027.3150634765625 319.86993408203125 2.14293670654296875
-1027.314697265625 319.869537353515625 1.09467065334320068
-1027.315673828125 319.87066650390625 2.25742626190185547
-1027.315185546875 319.870086669921875 2.52894234657287598
-1027.31591796875 319.8709716796875 2.4627988338470459
-1027.3145751953125 319.869354248046875 1.25358271598815918
-1027.3157958984375 319.870819091796875 2.51322579383850098
-1027.3154296875 319.870330810546875 2.71072196960449219
-1027.316650390625 319.871795654296875 2.64299917221069336
-1027.31494140625 319.8697509765625 1.33824479579925537
-1027.314697265625 319.869476318359375 2.12293362617492676
-1027.3148193359375 319.869720458984375 1.87403619289398193
-1027.31494140625 319.869842529296875 1.47996830940246582
-1027.31494140625 319.869842529296875 1.49076390266418457
-1027.31640625 319.871612548828125 2.56225490570068359
-1027.3165283203125 319.87176513671875 2.80541515350341797
-1027.31640625 319.871490478515625 2.65269279479980469
-1027.3148193359375 319.869720458984375 2.26683497428894043
-1027.3154296875 319.870391845703125 2.75136971473693848
-1027.315185546875 319.870147705078125 1.54619503021240234
-1027.3154296875 319.870391845703125 1.70343518257141113
-1027.3153076171875 319.870269775390625 1.86375725269317627
-1027.316162109375 319.871307373046875 2.68257284164428711
-1027.3167724609375 319.8719482421875 2.83632731437683105
-1027.3148193359375 319.869720458984375 2.10169100761413574
-1027.3155517578125 319.870574951171875 2.63201808929443359
-1027.316162109375 319.871307373046875 2.60292172431945801
-1027.315673828125 319.870697021484375 2.48150730133056641
-1027.3150634765625 319.869964599609375 2.06586790084838867
-1027.3154296875 319.870361328125 1.93752098083496094
-1027.316162109375 319.8712158203125 2.17061614990234375
-1027.3148193359375 319.869720458984375 1.62747108936309814
-1027.3148193359375 319.86968994140625 2.04019832611083984
-1027.314453125 319.869232177734375 1.42774975299835205
-1027.3145751953125 319.86932373046875 1.96466779708862305
-1027.3167724609375 319.87200927734375 2.86007237434387207
-1027.31640625 319.871551513671875 2.48591899871826172
-1027.3154296875 319.870330810546875 2.39264750480651855
-1027.315673828125 319.870635986328125 1.95206403732299805
-1027.314697265625 319.8695068359375 2.70187926292419434
-1027.3157958984375 319.870758056640625 1.94370138645172119
-1027.314697265625 319.869537353515625 1.70365750789642334
-1027.3153076171875 319.870269775390625 2.33523893356323242
-1027.3155517578125 319.870513916015625 2.2440187931060791
-1027.3153076171875 319.87017822265625 2.77558779716491699
-1027.316162109375 319.871307373046875 2.37282180786132812
-1027.3145751953125 319.869354248046875 0.991890788078308105
-1027.3160400390625 319.87115478515625 2.38030719757080078
-1027.3148193359375 319.86962890625 2.84104037284851074
-1027.3162841796875 319.871429443359375 2.59142231941223145
-1027.3153076171875 319.870269775390625 1.8733597993850708
-1027.316162109375 319.87127685546875 2.34940934181213379
-1027.314697265625 319.869598388671875 1.31249046325683594
-1027.3155517578125 319.870574951171875 1.8579028844833374
-1027.3167724609375 319.8720703125 2.85537815093994141
-1027.3150634765625 319.86993408203125 1.56066310405731201
-1027.315673828125 319.87060546875 2.52916979789733887
-1027.3150634765625 319.869903564453125 1.96691596508026123
-1027.31494140625 319.869842529296875 2.02665996551513672
-1027.314697265625 319.869476318359375 1.08634114265441895
-1027.3153076171875 319.87030029296875 2.23655366897583008
-1027.3150634765625 319.8699951171875 1.60485029220581055
-1027.314697265625 319.869537353515625 1.23697197437286377
-1027.3160400390625 319.87115478515625 2.19646406173706055
-1027.31591796875 319.87103271484375 2.17118716239929199
-1027.3153076171875 319.870208740234375 2.79527759552001953
-1027.314697265625 319.869537353515625 2.00875377655029297
-1027.3162841796875 319.8714599609375 2.65576887130737305
-1027.314697265625 319.86956787109375 2.57736754417419434
-1027.3155517578125 319.87054443359375 2.68361473083496094
-1027.3162841796875 319.87139892578125 2.67450761795043945
-1027.3157958984375 319.870849609375 1.97016000747680664
-1027.3145751953125 319.869293212890625 2.16402268409729004
-1027.31494140625 319.86981201171875 2.66514229774475098
-1027.3145751953125 319.869415283203125 2.76140069961547852
-1027.3154296875 319.870330810546875 2.5884549617767334
-1027.3145751953125 319.869384765625 2.13889241218566895
-1027.314453125 319.8692626953125 2.30449748039245605
-1027.3150634765625 319.870025634765625 1.54779636859893799
-1027.31494140625 319.869873046875 1.8347853422164917
-1027.316162109375 319.871185302734375 2.30622005462646484
-1027.315185546875 319.8701171875 2.53746747970581055
-1027.314697265625 319.8695068359375 2.01117849349975586
-1027.3165283203125 319.87164306640625 2.61768341064453125
-1027.3150634765625 319.86993408203125 1.28494954109191895
-1027.314697265625 319.869537353515625 2.83944559097290039
-1027.3162841796875 319.87139892578125 2.51543784141540527
-1027.315185546875 319.870086669921875 1.56681311130523682
-1027.315185546875 319.87005615234375 2.581756591796875
-1027.3148193359375 319.869598388671875 2.71418166160583496
-1027.31591796875 319.871002197265625 2.10918998718261719
-1027.3150634765625 319.86993408203125 2.78179740905761719
-1027.3150634765625 319.8699951171875 1.94185876846313477
-1027.314697265625 319.869598388671875 1.16562354564666748
-1027.314697265625 319.869598388671875 1.38282096385955811
-1027.3145751953125 319.86944580078125 2.38249683380126953
-1027.3153076171875 319.870208740234375 1.45163559913635254
-1027.3157958984375 319.870849609375 2.79319572448730469
-1027.3162841796875 319.8714599609375 2.09155464172363281
-1027.3150634765625 319.869903564453125 0.854277610778808594
-1027.31640625 319.87158203125 2.15889430046081543
-1027.316162109375 319.871185302734375 2.05080461502075195
-1027.3170166015625 319.872283935546875 2.57684206962585449
-1027.3170166015625 319.872222900390625 1.92571461200714111
-1027.3165283203125 319.87164306640625 1.7426605224609375
-1027.3157958984375 319.87078857421875 0.962458133697509766
-1027.3167724609375 319.871978759765625 2.00695300102233887
-1027.316162109375 319.871337890625 0.892182469367980957
-1027.31591796875 319.87103271484375 0.842611968517303467
-1027.3160400390625 319.871063232421875 1.9797816276550293
-1027.3148193359375 319.869659423828125 0.800389528274536133
-1027.3150634765625 319.8699951171875 1.06185746192932129
-1027.316162109375 319.871185302734375 1.97054505348205566
-1027.3154296875 319.870391845703125 1.25695884227752686
-1027.316650390625 319.87188720703125 2.12012195587158203
-1027.3160400390625 319.871185302734375 1.60569310188293457
-1027.31689453125 319.872161865234375 2.4008331298828125
-1027.316650390625 319.87188720703125 1.15535855293273926
-1027.31689453125 319.87213134765625 1.45002889633178711
-1027.3165283203125 319.87176513671875 1.46567702293395996
-1027.3165283203125 319.8717041015625 1.09023869037628174
-1027.31689453125 319.8720703125 1.69146740436553955
-1027.3167724609375 319.87200927734375 2.35259318351745605
-1027.3157958984375 319.870880126953125 1.12009906768798828
-1027.3170166015625 319.872222900390625 0.848298788070678711
-1027.3157958984375 319.87078857421875 0.807938575744628906
-1027.3155517578125 319.87060546875 1.4788508415222168
-1027.31591796875 319.87091064453125 1.67917990684509277
-1027.31640625 319.871551513671875 0.970383405685424805
-1027.316162109375 319.8712158203125 1.19023299217224121
-1027.31591796875 319.871002197265625 1.9675372838973999
-1027.315185546875 319.870086669921875 0.992199063301086426
-1027.3153076171875 319.8702392578125 1.1910250186920166
-1027.315673828125 319.870697021484375 1.57346558570861816
-1027.31689453125 319.8720703125 0.829449772834777832
-1027.31689453125 319.872100830078125 1.77730631828308105
-1027.3148193359375 319.869659423828125 1.04956185817718506
-1027.31591796875 319.87103271484375 1.33922386169433594
-1027.3162841796875 319.871490478515625 1.03806281089782715
-1027.3162841796875 319.87139892578125 1.21925163269042969
-1027.3160400390625 319.871185302734375 1.75122606754302979
-1027.3170166015625 319.872283935546875 1.9386824369430542
-1027.3165283203125 319.871673583984375 1.10364091396331787
-1027.31591796875 319.871002197265625 0.97283017635345459
-1027.3170166015625 319.87225341796875 2.34471559524536133
-1027.3165283203125 319.8717041015625 1.33897960186004639
-1027.3167724609375 319.87200927734375 1.15649878978729248
-1027.316162109375 319.8712158203125 0.794770538806915283
-1027.31689453125 319.8721923828125 0.908346652984619141
-1027.3167724609375 319.872039794921875 0.891663074493408203
-1027.3165283203125 319.87164306640625 1.9978940486907959
-1027.3155517578125 319.87054443359375 1.5547182559967041
-1027.3157958984375 319.87078857421875 1.70589196681976318
-1027.3155517578125 319.870574951171875 1.61007404327392578
-1027.31591796875 319.87091064453125 0.831281185150146484
-1027.31689453125 319.872161865234375 1.36511421203613281
-1027.3162841796875 319.871368408203125 1.37886762619018555
-1027.316650390625 319.871795654296875 1.1711125373840332
-1027.3162841796875 319.87139892578125 1.17126905918121338
-1027.31689453125 319.872161865234375 1.97821450233459473
-1027.3155517578125 319.870513916015625 1.3284299373626709
-1027.315673828125 319.870697021484375 1.75621950626373291
-1027.316650390625 319.871856689453125 2.51488471031188965
-1027.3170166015625 319.87225341796875 2.58767294883728027
-1027.3155517578125 319.8704833984375 0.803801417350769043
-1027.3165283203125 319.871734619140625 0.785413026809692383
-1027.3167724609375 319.872039794921875 2.29193902015686035
-1027.316650390625 319.871917724609375 1.03020739555358887
-1027.316650390625 319.87176513671875 2.27822709083557129
-1027.316162109375 319.871246337890625 1.0960620641708374
-1027.31640625 319.871612548828125 1.21960115432739258
-1027.316162109375 319.871246337890625 1.12747490406036377
-1027.314697265625 319.869537353515625 0.923196077346801758
-1027.31689453125 319.8721923828125 1.06859266757965088
-1027.31689453125 319.872100830078125 2.00831389427185059
-1027.316162109375 319.871246337890625 2.01692342758178711
-1027.3153076171875 319.870208740234375 1.27835559844970703
-1027.3160400390625 319.871124267578125 1.76775598526000977
-1027.31640625 319.871612548828125 1.16363227367401123
-1027.316650390625 319.87176513671875 1.71058297157287598
-1027.3167724609375 319.871978759765625 1.31027770042419434
-1027.316162109375 319.87127685546875 1.90960586071014404
-1027.3167724609375 319.8719482421875 2.5132148265838623
-1027.316650390625 319.871856689453125 0.956350564956665039
-1027.3157958984375 319.870880126953125 1.78210926055908203
-1027.3148193359375 319.86968994140625 0.953248858451843262
-1027.31591796875 319.871063232421875 1.5364227294921875
-1027.3170166015625 319.872222900390625 2.71094250679016113
-1027.3153076171875 319.870269775390625 1.31584787368774414
-1027.3155517578125 319.8704833984375 1.58680045604705811
-1027.3160400390625 319.871185302734375 1.07259917259216309
-1027.3170166015625 319.872222900390625 1.96942830085754395
-1027.3165283203125 319.871673583984375 1.76022696495056152
-1027.3157958984375 319.870849609375 1.14836573600769043
-1027.3157958984375 319.870819091796875 1.03536593914031982
-1027.315185546875 319.87017822265625 1.14480388164520264
-1027.3162841796875 319.871368408203125 2.00797057151794434
-1027.316650390625 319.871795654296875 2.14210391044616699
-1027.31640625 319.871551513671875 1.43646478652954102
-1027.31640625 319.871612548828125 0.7961883544921875
-1027.31689453125 319.872161865234375 0.988311052322387695
-1027.3170166015625 319.872283935546875 2.07603001594543457
-1027.315185546875 319.870086669921875 0.830019235610961914
-1027.31591796875 319.870941162109375 1.49621677398681641
-1027.316162109375 319.87127685546875 1.97669589519500732
-1027.3167724609375 319.8719482421875 1.8178398609161377
-1027.31591796875 319.87103271484375 1.61952424049377441
-1027.31689453125 319.872100830078125 2.68274497985839844
-1027.3148193359375 319.86962890625 0.823558568954467773
-1027.3162841796875 319.8714599609375 1.73498666286468506
-1027.316650390625 319.871795654296875 0.863891243934631348
-1027.31640625 319.871551513671875 1.83184874057769775
-1027.31640625 319.87152099609375 1.74236297607421875
-1027.3162841796875 319.871490478515625 1.42903375625610352
-1027.31689453125 319.872100830078125 2.73789596557617188
-1027.315185546875 319.87005615234375 1.13373684883117676
-1027.315673828125 319.8707275390625 0.99311530590057373
-1027.316162109375 319.871307373046875 1.19657516479492188
-1027.316162109375 319.871307373046875 1.89817547798156738
-1027.3165283203125 319.871734619140625 1.20799732208251953
-1027.315673828125 319.870697021484375 1.03551566600799561
-1027.3167724609375 319.8719482421875 1.61628293991088867
-1027.3170166015625 319.87225341796875 2.48069357872009277
-1027.31494140625 319.8697509765625 0.944360733032226562
-1027.31591796875 319.8709716796875 1.21521902084350586
-1027.3170166015625 319.87225341796875 1.35067963600158691
-1027.316162109375 319.871307373046875 0.89166414737701416
-1027.3165283203125 319.87176513671875 0.953157305717468262
-1027.3167724609375 319.8719482421875 0.929894924163818359
-1027.3155517578125 319.87060546875 1.06295120716094971
-1027.31591796875 319.871002197265625 1.61380171775817871
-1027.3167724609375 319.8719482421875 2.17353177070617676
-1027.315673828125 319.8707275390625 0.951840758323669434
-1027.3162841796875 319.871490478515625 1.13406682014465332
-1027.316162109375 319.8712158203125 0.880984902381896973
-1027.316162109375 319.871337890625 1.02310442924499512
-1027.3160400390625 319.871185302734375 0.801624774932861328
-1027.316162109375 319.871246337890625 1.39772343635559082
-1027.316650390625 319.87188720703125 1.95984101295471191
-1027.3170166015625 319.87225341796875 2.78429174423217773
-1027.3167724609375 319.872039794921875 1.54064536094665527
-1027.315673828125 319.8707275390625 1.77386677265167236
-1027.31689453125 319.872161865234375 1.88021039962768555
-1027.31689453125 319.87213134765625 2.56221652030944824
-1027.3154296875 319.870330810546875 0.788127422332763672
-1027.3157958984375 319.870819091796875 1.78748011589050293
-1027.3154296875 319.870361328125 0.875584840774536133
-1027.3155517578125 319.870574951171875 1.02020585536956787
-1027.3153076171875 319.870269775390625 0.816364407539367676
-1027.3165283203125 319.8717041015625 1.88601338863372803
-1027.3155517578125 319.870574951171875 0.901986122131347656
-1027.3162841796875 319.871337890625 1.83280444145202637
-1027.31494140625 319.869842529296875 1.11901068687438965
-1027.3165283203125 319.871734619140625 1.05213272571563721
-1027.316650390625 319.871917724609375 1.89239847660064697
-1027.31689453125 319.8721923828125 1.56276750564575195
-1027.3162841796875 319.8714599609375 1.26958024501800537
-1027.3157958984375 319.870849609375 1.4800410270690918
-1027.3165283203125 319.871673583984375 1.96837162971496582
-1027.3150634765625 319.870025634765625 0.797615885734558105
-1027.3165283203125 319.871673583984375 1.83904719352722168
-1027.3157958984375 319.870880126953125 0.978287816047668457
-1027.3150634765625 319.86993408203125 1.16507625579833984
-1027.3160400390625 319.871185302734375 1.87231755256652832
-1027.3162841796875 319.871368408203125 1.89885449409484863
-1027.3157958984375 319.870849609375 1.72651612758636475
-1027.31640625 319.871490478515625 1.40635967254638672
-1027.315185546875 319.87005615234375 0.811004638671875
-1027.3167724609375 319.872039794921875 1.46759724617004395
-1027.3145751953125 319.869384765625 0.79550480842590332
-1027.31689453125 319.8720703125 1.24665164947509766
-1027.316162109375 319.871307373046875 1.90219569206237793
-1027.3167724609375 319.8719482421875 1.22905755043029785
-1027.3154296875 319.870391845703125 1.45205771923065186
-1027.3165283203125 319.871673583984375 1.13449001312255859
-1027.3167724609375 319.8720703125 1.49867916107177734
-1027.31689453125 319.8720703125 1.56907999515533447
-1027.3162841796875 319.8714599609375 2.2887732982635498
-1027.3160400390625 319.871185302734375 1.7325669527053833
-1027.3157958984375 319.87078857421875 0.923899531364440918
-1027.315673828125 319.870635986328125 1.5298994779586792
-1027.315185546875 319.870086669921875 0.983726263046264648
-1027.315673828125 319.8707275390625 1.19925451278686523
-1027.3150634765625 319.870025634765625 1.13972139358520508
-1027.3160400390625 319.87109375 1.11870694160461426
-1027.3162841796875 319.871368408203125 2.03860664367675781
-1027.3167724609375 319.8720703125 1.63369107246398926
-1027.316162109375 319.871337890625 1.42289519309997559
-1027.3155517578125 319.8704833984375 1.60845303535461426
-1027.3121337890625 319.867523193359375 2.47928237915039062
-1027.3118896484375 319.867340087890625 2.19202470779418945
-1027.312255859375 319.8675537109375 1.70270299911499023
-1027.3114013671875 319.866973876953125 2.28545951843261719
-1027.3116455078125 319.867156982421875 1.68390071392059326
-1027.3116455078125 319.86712646484375 2.2813115119934082
-1027.3126220703125 319.86785888671875 1.69865083694458008
-1027.3116455078125 319.8671875 2.01024007797241211
-1027.313232421875 319.868316650390625 2.65242385864257812
-1027.3126220703125 319.86785888671875 2.20884060859680176
-1027.3123779296875 319.86767578125 2.65807962417602539
-1027.3138427734375 319.868743896484375 2.76628851890563965
-1027.3125 319.867828369140625 2.19976997375488281
-1027.3116455078125 319.867156982421875 2.03271245956420898
-1027.313232421875 319.86834716796875 2.1244194507598877
-1027.3118896484375 319.867340087890625 1.35036301612854004
-1027.3126220703125 319.867828369140625 2.51450705528259277
-1027.311767578125 319.86724853515625 2.22199010848999023
-1027.3126220703125 319.867889404296875 2.73202991485595703
-1027.3131103515625 319.86822509765625 2.41079568862915039
-1027.3116455078125 319.86712646484375 2.27636981010437012
-1027.3128662109375 319.868072509765625 2.78206801414489746
-1027.3128662109375 319.868011474609375 1.97416973114013672
-1027.3116455078125 319.86712646484375 2.73359012603759766
-1027.312255859375 319.86761474609375 2.56751585006713867
-1027.3121337890625 319.867523193359375 2.48763561248779297
-1027.312255859375 319.8675537109375 2.54412031173706055
-1027.31298828125 319.86810302734375 2.7740943431854248
-1027.31201171875 319.867431640625 2.80017709732055664
-1027.313232421875 319.86834716796875 2.81537747383117676
-1027.311767578125 319.86724853515625 2.56027626991271973
-1027.3140869140625 319.868988037109375 2.63730573654174805
-1027.3131103515625 319.86822509765625 2.56907892227172852
-1027.31298828125 319.868133544921875 2.33846092224121094
-1027.313232421875 319.868316650390625 2.62824082374572754
-1027.313232421875 319.86834716796875 2.3035428524017334
-1027.3115234375 319.8670654296875 1.70088291168212891
-1027.311767578125 319.86724853515625 2.56623077392578125
-1027.3121337890625 319.8675537109375 1.55374610424041748
-1027.3123779296875 319.867645263671875 1.93572998046875
-1027.3135986328125 319.868560791015625 2.50014567375183105
-1027.3140869140625 319.868988037109375 2.8249201774597168
-1027.3115234375 319.867034912109375 1.12313318252563477
-1027.3116455078125 319.8671875 1.891998291015625
-1027.3134765625 319.8685302734375 2.71387147903442383
-1027.3123779296875 319.867706298828125 2.75634050369262695
-1027.312255859375 319.867584228515625 1.57051515579223633
-1027.31201171875 319.867401123046875 2.72083520889282227
-1027.3118896484375 319.8673095703125 2.19988822937011719
-1027.3131103515625 319.868255615234375 2.23167753219604492
-1027.311279296875 319.866912841796875 2.6800386905670166
-1027.313720703125 319.868682861328125 2.59901690483093262
-1027.3121337890625 319.86749267578125 2.7711021900177002
-1027.312744140625 319.867950439453125 2.48082542419433594
-1027.312744140625 319.867950439453125 2.83422112464904785
-1027.313232421875 319.868316650390625 2.51958250999450684
-1027.3115234375 319.867095947265625 1.76141190528869629
-1027.313232421875 319.8682861328125 2.30123615264892578
-1027.3114013671875 319.86700439453125 2.33345460891723633
-1027.3133544921875 319.868438720703125 2.64873862266540527
-1027.3114013671875 319.86700439453125 1.14185035228729248
-1027.3131103515625 319.868255615234375 2.75308990478515625
-1027.3125 319.867767333984375 1.81660103797912598
-1027.312255859375 319.86761474609375 1.65140223503112793
-1027.3126220703125 319.867919921875 2.81187558174133301
-1027.3128662109375 319.8680419921875 2.78513407707214355
-1027.313720703125 319.86871337890625 2.71279072761535645
-1027.3125 319.8677978515625 2.30976963043212891
-1027.3115234375 319.867095947265625 1.97646892070770264
-1027.311767578125 319.867279052734375 1.75860285758972168
-1027.3126220703125 319.867919921875 1.88772249221801758
-1027.3123779296875 319.867706298828125 1.62337231636047363
-1027.3138427734375 319.868804931640625 2.51298427581787109
-1027.3115234375 319.867095947265625 1.08098185062408447
-1027.3121337890625 319.867523193359375 2.13050937652587891
-1027.313720703125 319.86871337890625 2.67216682434082031
-1027.3121337890625 319.8675537109375 1.92314326763153076
-1027.311279296875 319.866912841796875 1.10547757148742676
-1027.3116455078125 319.86712646484375 1.00760364532470703
-1027.312255859375 319.86761474609375 2.82162189483642578
-1027.312744140625 319.86798095703125 2.25609540939331055
-1027.311767578125 319.86724853515625 1.18126881122589111
-1027.3118896484375 319.8673095703125 2.03441143035888672
-1027.3116455078125 319.8671875 1.10343658924102783
-1027.3123779296875 319.86773681640625 2.27418708801269531
-1027.3121337890625 319.86749267578125 1.57054126262664795
-1027.314208984375 319.8690185546875 2.80079483985900879
-1027.3115234375 319.867095947265625 1.69433820247650146
-1027.3115234375 319.867095947265625 1.87576699256896973
-1027.3116455078125 319.867156982421875 2.81454253196716309
-1027.31396484375 319.868896484375 2.78509783744812012
-1027.3114013671875 319.866973876953125 0.956547021865844727
-1027.3128662109375 319.8680419921875 2.58393168449401855
-1027.3115234375 319.8670654296875 2.53371930122375488
-1027.3121337890625 319.86749267578125 1.86654508113861084
-1027.3115234375 319.867095947265625 1.59624564647674561
-1027.3115234375 319.8670654296875 1.8216102123260498
-1027.3118896484375 319.8673095703125 1.75855088233947754
-1027.3123779296875 319.867706298828125 1.74305868148803711
-1027.3123779296875 319.86773681640625 2.56144618988037109
-1027.3114013671875 319.866943359375 2.102264404296875
-1027.3131103515625 319.8682861328125 2.09347105026245117
-1027.3126220703125 319.86785888671875 1.69769608974456787
-1027.3115234375 319.867034912109375 1.54488766193389893
-1027.312255859375 319.86761474609375 2.29345536231994629
-1027.3123779296875 319.86767578125 2.7770085334777832
-1027.3118896484375 319.86737060546875 1.28141725063323975
-1027.3126220703125 319.86785888671875 2.42492914199829102
-1027.311279296875 319.866912841796875 2.41385221481323242
-1027.3125 319.867767333984375 2.33025407791137695
-1027.3135986328125 319.868621826171875 2.60103845596313477
-1027.31201171875 319.867431640625 1.98797130584716797
-1027.3114013671875 319.86700439453125 2.34094572067260742
-1027.312255859375 319.867584228515625 1.91424083709716797
-1027.31201171875 319.867462158203125 1.50368118286132812
-1027.3116455078125 319.8671875 1.09947001934051514
-1027.312744140625 319.868011474609375 2.34105348587036133
-1027.3131103515625 319.868194580078125 2.01912069320678711
-1027.3115234375 319.8670654296875 1.81379318237304688
-1027.3126220703125 319.867889404296875 2.85599541664123535
-1027.3115234375 319.8670654296875 1.74758470058441162
-1027.3118896484375 319.867340087890625 1.58128201961517334
-1027.312255859375 319.867645263671875 2.8054802417755127
-1027.3118896484375 319.8673095703125 2.15215873718261719
-1027.3128662109375 319.868011474609375 2.51552486419677734
-1027.31201171875 319.867431640625 2.5708003044128418
-1027.3118896484375 319.8673095703125 1.82078647613525391
-1027.31298828125 319.8681640625 2.23363971710205078
-1027.3115234375 319.867034912109375 1.52901768684387207
-1027.3133544921875 319.868408203125 2.74910831451416016
-1027.3121337890625 319.867462158203125 1.37424814701080322
-1027.3114013671875 319.86700439453125 2.22272682189941406
-1027.31201171875 319.867462158203125 2.17960095405578613
-1027.31396484375 319.868896484375 2.71233296394348145
-1027.3114013671875 319.866973876953125 1.94606053829193115
-1027.3116455078125 319.867156982421875 2.4329826831817627
-1027.313720703125 319.86871337890625 2.47599053382873535
-1027.3114013671875 319.866943359375 1.29204189777374268
-1027.3116455078125 319.867156982421875 1.0850679874420166
-1027.3126220703125 319.867889404296875 2.16700649261474609
-1027.312744140625 319.86798095703125 2.27957296371459961
-1027.3116455078125 319.867156982421875 2.1305840015411377
-1027.312744140625 319.867950439453125 2.7717280387878418
-1027.3115234375 319.8670654296875 1.65311264991760254
-1027.3138427734375 319.868743896484375 2.83930397033691406
-1027.3116455078125 319.86712646484375 2.33588337898254395
-1027.3116455078125 319.8671875 2.3516993522644043
-1027.3123779296875 319.86773681640625 2.51731705665588379
-1027.3118896484375 319.867340087890625 2.19646048545837402
-1027.3125 319.8677978515625 2.57254576683044434
-1027.3114013671875 319.866973876953125 2.2598881721496582
-1027.312255859375 319.8675537109375 1.73681259155273438
-1027.3138427734375 319.868804931640625 2.56029176712036133
-1027.313720703125 319.86871337890625 2.73126363754272461
-1027.3128662109375 319.86810302734375 1.95896673202514648
-1027.31201171875 319.867401123046875 1.9691777229309082
-1027.313232421875 319.8682861328125 2.57326865196228027
-1027.311767578125 319.86724853515625 2.75209593772888184
-1027.3123779296875 319.867645263671875 2.14343714714050293
-1027.311279296875 319.866912841796875 1.72052431106567383
-1027.3128662109375 319.868072509765625 2.23523759841918945
-1027.3121337890625 319.867462158203125 2.6766667366027832
-1027.31201171875 319.867431640625 1.88504958152770996
-1027.3123779296875 319.86767578125 1.49227476119995117
-1027.3114013671875 319.866943359375 2.18905186653137207
-1027.3114013671875 319.86700439453125 1.56811952590942383
-1027.3114013671875 319.866973876953125 1.38752639293670654
-1027.3114013671875 319.866912841796875 2.10151171684265137
-1027.3116455078125 319.86712646484375 2.61678194999694824
-1027.3118896484375 319.86737060546875 1.80517888069152832
-1027.3114013671875 319.866973876953125 2.33614373207092285
-1027.3126220703125 319.86785888671875 1.98218917846679688
-1027.3114013671875 319.866943359375 2.69599294662475586
-1027.31298828125 319.868133544921875 2.31088972091674805
-1027.3118896484375 319.86737060546875 1.27085793018341064
-1027.3115234375 319.867095947265625 1.38614845275878906
-1027.3118896484375 319.8673095703125 2.2887275218963623
-1027.3115234375 319.867034912109375 2.71345162391662598
-1027.3115234375 319.867034912109375 2.71700072288513184
-1027.311767578125 319.86724853515625 1.89835011959075928
-1027.31201171875 319.867462158203125 1.57237148284912109
-1027.3114013671875 319.866973876953125 1.17437756061553955
-1027.3125 319.867828369140625 2.10805892944335938
-1027.3126220703125 319.867828369140625 2.29235482215881348
-1027.3118896484375 319.867340087890625 2.11964130401611328
-1027.312255859375 319.867645263671875 2.57410526275634766
-1027.311767578125 319.867218017578125 2.13908147811889648
-1027.3116455078125 319.8671875 2.60306739807128906
-1027.3128662109375 319.8680419921875 1.85386013984680176
-1027.3138427734375 319.8687744140625 1.3634941577911377
-1027.3128662109375 319.868072509765625 1.07043719291687012
-1027.3118896484375 319.86737060546875 1.08475065231323242
-1027.314208984375 319.86907958984375 1.58526718616485596
-1027.313232421875 319.868316650390625 1.89987635612487793
-1027.313720703125 319.86871337890625 1.81732177734375
-1027.3140869140625 319.868988037109375 1.14928305149078369
-1027.3131103515625 319.868255615234375 1.69361400604248047
-1027.31298828125 319.86810302734375 1.24378561973571777
-1027.312744140625 319.868011474609375 0.96961677074432373
-1027.31201171875 319.867401123046875 0.788213729858398438
-1027.312744140625 319.867950439453125 1.36770951747894287
-1027.3135986328125 319.86859130859375 1.52877426147460938
-1027.311767578125 319.867218017578125 0.821199297904968262
-1027.31396484375 319.86883544921875 1.95843505859375
-1027.3123779296875 319.86767578125 1.27741193771362305
-1027.312744140625 319.867950439453125 1.38624072074890137
-1027.313232421875 319.86834716796875 1.40529787540435791
-1027.3128662109375 319.8680419921875 1.31785058975219727
-1027.3126220703125 319.867889404296875 1.29041683673858643
-1027.3143310546875 319.869140625 2.012603759765625
-1027.3128662109375 319.868072509765625 1.71416032314300537
-1027.3138427734375 319.8687744140625 2.40557694435119629
-1027.3140869140625 319.868927001953125 0.982463955879211426
-1027.3134765625 319.868499755859375 1.73383784294128418
-1027.3131103515625 319.868194580078125 1.69377458095550537
-1027.31396484375 319.868896484375 1.48849070072174072
-1027.3115234375 319.867034912109375 0.903134942054748535
-1027.3133544921875 319.86846923828125 1.1146092414855957
-1027.3128662109375 319.8680419921875 1.67007112503051758
-1027.313720703125 319.86871337890625 1.52176189422607422
-1027.3121337890625 319.867523193359375 1.32778036594390869
-1027.3138427734375 319.868743896484375 0.824316203594207764
-1027.3128662109375 319.8680419921875 0.840127706527709961
-1027.3143310546875 319.869110107421875 2.33427691459655762
-1027.31396484375 319.86883544921875 2.36835741996765137
-1027.313720703125 319.86871337890625 1.32021379470825195
-1027.311767578125 319.867218017578125 0.820900201797485352
-1027.312255859375 319.867584228515625 1.06242501735687256
-1027.3134765625 319.8685302734375 2.05076694488525391
-1027.3138427734375 319.868804931640625 1.54674100875854492
-1027.3126220703125 319.86785888671875 1.48616242408752441
-1027.3138427734375 319.86883544921875 0.990574836730957031
-1027.31396484375 319.868896484375 1.25698983669281006
-1027.3135986328125 319.86859130859375 1.19639468193054199
-1027.313232421875 319.868377685546875 1.39139294624328613
-1027.3125 319.8677978515625 1.58482849597930908
-1027.3126220703125 319.86785888671875 1.52744662761688232
-1027.3140869140625 319.868927001953125 1.2538912296295166
-1027.31396484375 319.86883544921875 1.03711843490600586
-1027.3128662109375 319.868072509765625 0.865278720855712891
-1027.3133544921875 319.868438720703125 1.46982312202453613
-1027.312744140625 319.86798095703125 0.977966427803039551
-1027.31396484375 319.868927001953125 1.63492882251739502
-1027.3115234375 319.867034912109375 0.855630040168762207
-1027.3126220703125 319.86785888671875 1.55449461936950684
-1027.3133544921875 319.868408203125 1.85327410697937012
-1027.314208984375 319.8690185546875 2.49129366874694824
-1027.3138427734375 319.868804931640625 1.29374098777770996
-1027.3135986328125 319.86859130859375 1.15249252319335938
-1027.3114013671875 319.866973876953125 0.812416553497314453
-1027.3128662109375 319.868072509765625 1.613525390625
-1027.3135986328125 319.868621826171875 1.61583089828491211
-1027.3126220703125 319.867828369140625 1.50274980068206787
-1027.3140869140625 319.8690185546875 2.20579886436462402
-1027.3143310546875 319.869110107421875 2.25373291969299316
-1027.3135986328125 319.868621826171875 1.65406191349029541
-1027.31396484375 319.868896484375 2.2977449893951416
-1027.3140869140625 319.86895751953125 0.953229546546936035
-1027.3131103515625 319.86822509765625 0.992979645729064941
-1027.31201171875 319.867401123046875 0.993267297744750977
-1027.3131103515625 319.8682861328125 1.24941134452819824
-1027.3131103515625 319.868194580078125 1.35672855377197266
-1027.3135986328125 319.86865234375 1.62969207763671875
-1027.3134765625 319.86846923828125 1.9137951135635376
-1027.3131103515625 319.86822509765625 1.32750558853149414
-1027.3143310546875 319.869140625 2.10382962226867676
-1027.3121337890625 319.867523193359375 1.00065529346466064
