ply
format ascii 1.0
element vertex 759
property float x
property float y
property float z
end_header
0.00665902066975831985 0.0945195630192756653 0.468245923519134521
0.0390732362866401672 0.0931568741798400879 0.530271291732788086
0.0197678916156291962 0.103718794882297516 0.526889503002166748
0.0974997654557228088 0.0514261052012443542 0.513482868671417236
0.0497254654765129089 0.080295957624912262 0.512675642967224121
0.110907815396785736 0.040297292172908783 0.505334973335266113
0.0143163111060857773 0.109416909515857697 0.533448994159698486
0.033812500536441803 0.0951384603977203369 0.526868820190429688
0.0566113926470279694 0.0771472007036209106 0.515593409538269043
0.121396854519844055 0.035009630024433136 0.508419990539550781
0.0355875715613365173 0.0912297517061233521 0.519051134586334229
0.0157818961888551712 0.107184849679470062 0.529747962951660156
0.0458851531147956848 0.0791136473417282104 0.502917468547821045
0.077355504035949707 0.0656787604093551636 0.518896877765655518
0.0826248601078987122 0.061760488897562027 0.516954779624938965
0.0656041204929351807 0.0674931928515434265 0.50406879186630249
0.0205819718539714813 0.0964778214693069458 0.508227765560150146
0.0208498742431402206 0.104769438505172729 0.531624376773834229
0.0491044633090496063 0.0807779133319854736 0.512960374355316162
0.0644442513585090637 0.0710702016949653625 0.512007772922515869
0.111356295645236969 0.0400588735938072205 0.505432784557342529
0.0623981580138206482 0.0755524337291717529 0.520954787731170654
0.0188318509608507156 0.0955023318529129028 0.502572298049926758
0.0266138035804033279 0.0923420488834381104 0.50697171688079834
0.0660783573985099792 0.0689973384141921997 0.509031951427459717
0.12891639769077301 0.0202267765998840332 0.46965375542640686
0.130497589707374573 0.0221176855266094208 0.481712847948074341
0.133479773998260498 0.0199927389621734619 0.480426698923110962
0.130636066198348999 0.0234806723892688751 0.487824618816375732
0.121135391294956207 0.028031516820192337 0.482553601264953613
0.117482371628284454 0.0259962994605302811 0.464545488357543945
0.0509671270847320557 0.067882239818572998 0.469970524311065674
0.126048088073730469 0.0259880572557449341 0.486586958169937134
0.147485822439193726 0.0120563432574272156 0.483014672994613647
0.111940838396549225 0.030948154628276825 0.471171468496322632
0.0958636552095413208 0.043106716126203537 0.481072694063186646
0.102809838950634003 0.0374223589897155762 0.474974125623703003
0.0912376269698143005 0.0444871038198471069 0.474978446960449219
0.115009218454360962 0.0324508287012577057 0.485424220561981201
0.136535376310348511 0.0151435341686010361 0.467827200889587402
0.0731168985366821289 0.0548951029777526855 0.472221583127975464
0.1452513188123703 0.0106993652880191803 0.471526175737380981
0.0997645929455757141 0.0369743034243583679 0.465233832597732544
0.0577638521790504456 0.0647813379764556885 0.474394768476486206
0.0657973960041999817 0.0596023499965667725 0.473232418298721313
0.125772923231124878 0.0229925327003002167 0.473229855298995972
0.118529774248600006 0.0312116667628288269 0.489265620708465576
0.0552497170865535736 0.0641312897205352783 0.465170443058013916
0.139333620667457581 0.0197335705161094666 0.494419455528259277
0.115404456853866577 0.0404002480208873749 0.513215005397796631
0.11214011162519455 0.0434637255966663361 0.516178429126739502
0.0932757109403610229 0.0626015663146972656 0.537272274494171143
0.136354655027389526 0.0328817367553710938 0.527796626091003418
0.143644064664840698 0.0322287753224372864 0.538302123546600342
0.150734633207321167 0.0215558335185050964 0.520745038986206055
0.153653502464294434 0.0156012400984764099 0.509198009967803955
0.104318045079708099 0.0485887639224529266 0.517148137092590332
0.0613167136907577515 0.079149201512336731 0.52908092737197876
0.154776543378829956 0.0203330814838409424 0.524188637733459473
0.118634313344955444 0.0415219813585281372 0.521774530410766602
0.148818567395210266 0.0182942207902669907 0.508483290672302246
0.0372050255537033081 0.0955031439661979675 0.53360825777053833
0.0924702286720275879 0.0602777153253555298 0.529481291770935059
0.0425339005887508392 0.0938986390829086304 0.538169205188751221
0.139646783471107483 0.0304317325353622437 0.526577770709991455
0.0656140893697738647 0.0757465660572052002 0.526923894882202148
0.144052237272262573 0.0283696949481964111 0.528312921524047852
0.153375238180160522 0.0137909706681966782 0.503718674182891846
0.120696514844894409 0.046043984591960907 0.537770748138427734
0.152869969606399536 0.0216681547462940216 0.524662554264068604
0.110312789678573608 0.0444095134735107422 0.515709042549133301
0.0608631521463394165 0.0794262513518333435 0.529081463813781738
0.147345080971717834 0.0187730398029088974 0.507319450378417969
0.0432324521243572235 0.0984579399228096008 0.548327326774597168
0.0399996787309646606 0.110289894044399261 0.568289756774902344
0.109101958572864532 0.0704361647367477417 0.573000550270080566
0.0326694212853908539 0.114527627825737 0.567810535430908203
0.0351678282022476196 0.114717155694961548 0.571282267570495605
0.0412125252187252045 0.106308832764625549 0.561727702617645264
0.125055700540542603 0.0608346983790397644 0.573277473449707031
0.0851401388645172119 0.082347378134727478 0.567502796649932861
0.0284049268811941147 0.10757879912853241 0.548469305038452148
0.0243011228740215302 0.117349587380886078 0.563181579113006592
0.0625340789556503296 0.0945688933134078979 0.564309000968933105
0.097301386296749115 0.0746518969535827637 0.566951572895050049
0.11861150711774826 0.0612703748047351837 0.566194713115692139
0.0648516044020652771 0.0867843553423881531 0.551410794258117676
0.121039599180221558 0.0610189512372016907 0.568686723709106445
0.0654356777667999268 0.0868580937385559082 0.552282035350799561
0.0982224494218826294 0.0718512237071990967 0.56241905689239502
0.101573824882507324 0.0696741491556167603 0.562152981758117676
0.0713397711515426636 0.0939600840210914612 0.573959887027740479
0.14035893976688385 0.0522003397345542908 0.57470858097076416
0.0518571287393569946 0.096624225378036499 0.555274248123168945
0.0521534755825996399 0.105167686939239502 0.572939872741699219
0.0237594246864318848 0.114043422043323517 0.555817484855651855
0.0317911058664321899 0.105892680585384369 0.549240410327911377
0.0794817358255386353 0.0917980670928955078 0.578629493713378906
0.0461426153779029846 0.111373752355575562 0.577415406703948975
0.0343016646802425385 0.126989692449569702 0.590562939643859863
0.0884529799222946167 0.0965012162923812866 0.594584226608276367
0.0967557951807975769 0.0899754613637924194 0.592299461364746094
0.0524416007101535797 0.109311014413833618 0.580208718776702881
0.0498546287417411804 0.123628802597522736 0.600175142288208008
0.0898119211196899414 0.0843668431043624878 0.576865196228027344
0.0729461014270782471 0.094596564769744873 0.576762974262237549
0.0706835687160491943 0.110885128378868103 0.600128710269927979
0.0332217998802661896 0.131891876459121704 0.597213327884674072
0.0893706232309341431 0.087945789098739624 0.582052528858184814
0.117622099816799164 0.0692016556859016418 0.579702496528625488
0.0825965553522109985 0.0906376317143440247 0.579790651798248291
0.0635216832160949707 0.106403589248657227 0.586252391338348389
0.148077040910720825 0.0482103228569030762 0.57593834400177002
0.0458773896098136902 0.111766807734966278 0.577777743339538574
0.0644461363554000854 0.111919641494750977 0.595782577991485596
0.0881740525364875793 0.0909497290849685669 0.585616052150726318
0.0618187040090560913 0.112154930830001831 0.593637645244598389
0.0346109010279178619 0.126456350088119507 0.590022802352905273
0.116091452538967133 0.0745439678430557251 0.586611509323120117
0.0767407417297363281 0.103079453110694885 0.593689322471618652
0.0549889989197254181 0.111199960112571716 0.585606634616851807
0.158629298210144043 0.0372839607298374176 0.56708681583404541
0.154002398252487183 0.0329668745398521423 0.552626550197601318
0.115145578980445862 0.0572420135140419006 0.553754091262817383
0.0856906399130821228 0.0683979466557502747 0.53993755578994751
0.123158246278762817 0.0493481755256652832 0.547673642635345459
0.152527987957000732 0.0381626486778259277 0.561324954032897949
0.144151180982589722 0.0374563559889793396 0.549541175365447998
0.143416360020637512 0.0427657701075077057 0.559383809566497803
0.072781883180141449 0.0797106549143791199 0.546889245510101318
0.162687212228775024 0.0362749248743057251 0.57005918025970459
0.0962068215012550354 0.0654627978801727295 0.546992063522338867
0.155866906046867371 0.0369710512459278107 0.563038945198059082
0.069077223539352417 0.0778427571058273315 0.538528084754943848
0.0266314353793859482 0.103740818798542023 0.538505911827087402
0.126426294445991516 0.043606393039226532 0.540086567401885986
0.0598570182919502258 0.0885747149586677551 0.548862814903259277
0.116296283900737762 0.0589129067957401276 0.558559656143188477
0.145618781447410583 0.0357409194111824036 0.547881603240966797
0.137141361832618713 0.0491351597011089325 0.564525187015533447
0.138467743992805481 0.0455066338181495667 0.55881732702255249
0.147898748517036438 0.0417621433734893799 0.562891781330108643
0.161841213703155518 0.0280177183449268341 0.552293837070465088
0.138070285320281982 0.0437630824744701385 0.554795563220977783
0.0820240825414657593 0.0767732113599777222 0.552364468574523926
0.0745947211980819702 0.109160743653774261 0.601167857646942139
0.105197973549365997 0.0939106643199920654 0.606544375419616699
0.0927519798278808594 0.103530511260032654 0.609714806079864502
0.146512612700462341 0.0566557794809341431 0.587678849697113037
0.157182842493057251 0.0597062408924102783 0.602668642997741699
0.0937276780605316162 0.0957169756293296814 0.598401486873626709
0.156372204422950745 0.0528678223490715027 0.591174662113189697
0.137676119804382324 0.0678900331258773804 0.59683305025100708
0.101829119026660919 0.0979302674531936646 0.609621524810791016
0.107944473624229431 0.0859758332371711731 0.596735119819641113
0.166187062859535217 0.0543381720781326294 0.60286945104598999
0.165088057518005371 0.0513184145092964172 0.597084939479827881
0.11775130033493042 0.0840764492750167847 0.603140592575073242
0.13582293689250946 0.062497749924659729 0.586608290672302246
0.160739719867706299 0.0580361112952232361 0.603453874588012695
0.13382171094417572 0.0708805769681930542 0.597832739353179932
0.100999131798744202 0.0923816859722137451 0.600130677223205566
0.104554086923599243 0.091787487268447876 0.602600514888763428
0.163660407066345215 0.0494458116590976715 0.592783927917480469
0.10922221839427948 0.0869368687272071838 0.599463880062103271
0.145747959613800049 0.0590675920248031616 0.590727508068084717
0.132572188973426819 0.0737266615033149719 0.601098120212554932
0.106274455785751343 0.0902759730815887451 0.601877272129058838
0.057682134211063385 0.144116684794425964 0.633817613124847412
0.129537269473075867 0.0997268781065940857 0.63315504789352417
0.132592618465423584 0.102268204092979431 0.638671398162841797
0.0427208170294761658 0.140546530485153198 0.617914855480194092
0.0554623976349830627 0.138917550444602966 0.625612378120422363
0.126102596521377563 0.101584210991859436 0.632855534553527832
0.0609400197863578796 0.136933520436286926 0.627314388751983643
0.0936810970306396484 0.127676442265510559 0.640745282173156738
0.0783431679010391235 0.131921589374542236 0.634338974952697754
0.146542027592658997 0.0910543724894523621 0.635292351245880127
0.0973163247108459473 0.115902327001094818 0.628782868385314941
0.0836123824119567871 0.126652792096138 0.631769418716430664
0.0799456685781478882 0.122473478317260742 0.623735189437866211
0.0602716729044914246 0.14544185996055603 0.637455463409423828
0.0420177653431892395 0.146803244948387146 0.625210583209991455
0.164005905389785767 0.0836664587259292603 0.639388799667358398
0.0671407878398895264 0.145026475191116333 0.642184734344482422
0.121896266937255859 0.110417470335960388 0.64069974422454834
0.11167781800031662 0.113981723785400391 0.637353241443634033
0.102901861071586609 0.113894328474998474 0.63053739070892334
0.0466733649373054504 0.147669598460197449 0.629852890968322754
0.0624664686620235443 0.147951021790504456 0.642274022102355957
0.130616247653961182 0.102192841470241547 0.637066781520843506
0.08421296626329422 0.127480953931808472 0.633265197277069092
0.0784786045551300049 0.160837352275848389 0.665482521057128906
0.104459106922149658 0.124275252223014832 0.644422411918640137
0.0707674026489257812 0.167993485927581787 0.667973875999450684
0.124070227146148682 0.121563777327537537 0.653841078281402588
0.0646222084760665894 0.170606791973114014 0.666816592216491699
0.0745715275406837463 0.15639670193195343 0.658539414405822754
0.0664699003100395203 0.166538149118423462 0.663825094699859619
0.146164014935493469 0.100583486258983612 0.646217823028564453
0.158439025282859802 0.0936890244483947754 0.646826326847076416
0.135341078042984009 0.104351527988910675 0.643330633640289307
0.0690882056951522827 0.163860231637954712 0.662726819515228271
0.0731168240308761597 0.152213931083679199 0.653381407260894775
0.116262517869472504 0.128814652562141418 0.656368911266326904
0.0945152491331100464 0.143989399075508118 0.658301830291748047
0.139388859272003174 0.101735241711139679 0.643182575702667236
0.0998370647430419922 0.143899157643318176 0.661514401435852051
0.0662186518311500549 0.173585996031761169 0.670838356018066406
0.114783905446529388 0.133463576436042786 0.660179793834686279
0.147569611668586731 0.101931855082511902 0.648462176322937012
0.0660166889429092407 0.15612494945526123 0.652951180934906006
0.0614692606031894684 0.165564090013504028 0.659729301929473877
0.118458300828933716 0.124308302998542786 0.653148353099822998
0.144782990217208862 0.102455534040927887 0.647264599800109863
0.091004393994808197 0.14573359489440918 0.657896041870117188
0.0726834088563919067 0.117738790810108185 0.612258017063140869
0.145094245672225952 0.07839946448802948 0.618342936038970947
0.123479872941970825 0.0905515849590301514 0.617039263248443604
0.150187507271766663 0.0847574770450592041 0.630194902420043945
0.178597718477249146 0.0530769005417823792 0.612243592739105225
0.130796998739242554 0.0951965674757957458 0.628446042537689209
0.144947245717048645 0.0721955448389053345 0.610463738441467285
0.160609334707260132 0.0814984589815139771 0.6340789794921875
0.123199924826622009 0.0883394926786422729 0.614055931568145752
0.137879759073257446 0.0796479582786560059 0.61439281702041626
0.170646175742149353 0.0574373938143253326 0.611626267433166504
0.048742249608039856 0.132521823048591614 0.612469971179962158
0.0453285723924636841 0.133749261498451233 0.611397981643676758
0.159806057810783386 0.0815813466906547546 0.633568942546844482
0.182043761014938354 0.0670671164989471436 0.632391750812530518
0.147956669330596924 0.0839015617966651917 0.627418577671051025
0.0646467655897140503 0.124897211790084839 0.615078389644622803
0.178538233041763306 0.0558815374970436096 0.615709364414215088
0.157692253589630127 0.0654098615050315857 0.61170804500579834
0.0868569016456604004 0.110534384846687317 0.614069759845733643
0.121539130806922913 0.0875845775008201599 0.611841678619384766
0.173131048679351807 0.0764170363545417786 0.637286245822906494
0.162040784955024719 0.065678916871547699 0.61536794900894165
0.155995070934295654 0.0756312459707260132 0.623207569122314453
0.087198205292224884 0.173181086778640747 0.681675732135772705
0.123999841511249542 0.157563403248786926 0.687375307083129883
0.0709440037608146667 0.197435677051544189 0.693608283996582031
0.141776084899902344 0.13533589243888855 0.67790377140045166
0.154711067676544189 0.130338013172149658 0.680316150188446045
0.17976786196231842 0.108970344066619873 0.675260245800018311
0.080690532922744751 0.183465555310249329 0.68693077564239502
0.10926230251789093 0.157016575336456299 0.679430782794952393
0.148103952407836914 0.137683123350143433 0.683073580265045166
0.122211381793022156 0.153151199221611023 0.682793200016021729
0.105701401829719543 0.173383563756942749 0.691247165203094482
0.0773459002375602722 0.178231030702590942 0.680873215198516846
0.126655593514442444 0.140545114874839783 0.6745566725730896
0.158054649829864502 0.122850760817527771 0.675781905651092529
0.143004953861236572 0.136539861559867859 0.679530620574951172
0.0707338601350784302 0.201817214488983154 0.697149276733398438
0.112014494836330414 0.151065260171890259 0.675874769687652588
0.0786133408546447754 0.197654440999031067 0.697687864303588867
0.0752264559268951416 0.17860710620880127 0.680109262466430664
0.0908847525715827942 0.183381319046020508 0.692041099071502686
0.0589205287396907806 0.181089580059051514 0.673889636993408203
0.0786574408411979675 0.176099047064781189 0.679764747619628906
0.137112289667129517 0.147042959928512573 0.685280203819274902
0.178023308515548706 0.110639221966266632 0.675763130187988281
0.135117337107658386 0.123768478631973267 0.662943065166473389
0.186129137873649597 0.0764348134398460388 0.646468162536621094
0.161326289176940918 0.116880759596824646 0.672210276126861572
0.168844282627105713 0.105322308838367462 0.665120780467987061
0.169310212135314941 0.110753491520881653 0.670934855937957764
0.164610147476196289 0.0986955985426902771 0.655750930309295654
0.0947122573852539062 0.158515393733978271 0.673200309276580811
0.185510426759719849 0.096728980541229248 0.666727721691131592
0.17647869884967804 0.0857855752110481262 0.649987876415252686
0.0685387402772903442 0.174106895923614502 0.672808825969696045
0.172932863235473633 0.0885137766599655151 0.65056145191192627
0.129861012101173401 0.129383116960525513 0.665390670299530029
0.121371351182460785 0.139297455549240112 0.670204401016235352
0.192284941673278809 0.0778373181819915771 0.651717066764831543
0.189439505338668823 0.0940504148602485657 0.666442632675170898
0.191950231790542603 0.091713637113571167 0.665624618530273438
0.172745838761329651 0.0936999022960662842 0.655720770359039307
0.155314266681671143 0.11554524302482605 0.667118847370147705
0.0862497538328170776 0.160539939999580383 0.670005261898040771
0.0704482421278953552 0.171626865863800049 0.671471714973449707
0.158242985606193542 0.106059104204177856 0.659287750720977783
0.118759974837303162 0.140733376145362854 0.670043647289276123
0.117587387561798096 0.135679036378860474 0.664174139499664307
0.208085998892784119 0.11062583327293396 0.691029131412506104
0.19273725152015686 0.108494304120540619 0.681454718112945557
0.161759674549102783 0.134305283427238464 0.687200963497161865
0.175974905490875244 0.123535178601741791 0.68545842170715332
0.161594673991203308 0.135089889168739319 0.687770307064056396
0.122713133692741394 0.165847465395927429 0.693618178367614746
0.122007176280021667 0.169159621000289917 0.696016848087310791
0.200433164834976196 0.124786943197250366 0.698929667472839355
0.165324777364730835 0.145169615745544434 0.69805753231048584
0.148353874683380127 0.14857366681098938 0.692267239093780518
0.107373140752315521 0.177568048238754272 0.695580422878265381
0.146987095475196838 0.148046225309371948 0.691133618354797363
0.13359406590461731 0.16277022659778595 0.696585714817047119
0.208781152963638306 0.104770883917808533 0.686507999897003174
0.207623749971389771 0.108419314026832581 0.688957273960113525
0.163607820868492126 0.142608627676963806 0.695052921772003174
0.16898694634437561 0.136117205023765564 0.692382156848907471
0.192118197679519653 0.121559955179691315 0.692017614841461182
0.201111868023872375 0.100654318928718567 0.679183483123779297
0.151860445737838745 0.139484688639640808 0.686482429504394531
0.181481927633285522 0.115561217069625854 0.681618392467498779
0.0813090577721595764 0.198936909437179565 0.700125455856323242
0.203548461198806763 0.120460301637649536 0.696910738945007324
0.152609437704086304 0.140664294362068176 0.687845051288604736
0.113811872899532318 0.211835652589797974 0.722662150859832764
0.18506738543510437 0.17044183611869812 0.72409212589263916
0.17494732141494751 0.176527634263038635 0.724029779434204102
0.17572319507598877 0.17169170081615448 0.721060395240783691
0.0991671234369277954 0.210103020071983337 0.715398013591766357
0.203504517674446106 0.160100296139717102 0.724713265895843506
0.221761852502822876 0.148576930165290833 0.72445523738861084
0.117598213255405426 0.21423359215259552 0.725867569446563721
0.124810740351676941 0.190739735960960388 0.712872445583343506
0.0858291611075401306 0.226120680570602417 0.720759153366088867
0.152186721563339233 0.178081810474395752 0.715630888938903809
0.123790092766284943 0.20607110857963562 0.722884178161621094
0.170972198247909546 0.181154072284698486 0.725527346134185791
0.127459079027175903 0.206459939479827881 0.724673271179199219
0.101370155811309814 0.204024657607078552 0.712175905704498291
0.164980262517929077 0.171461433172225952 0.716440081596374512
0.110351666808128357 0.208381026983261108 0.718872964382171631
0.106499455869197845 0.208185091614723206 0.717139065265655518
0.169269025325775146 0.171324193477630615 0.718128621578216553
0.165316164493560791 0.184331685304641724 0.72534024715423584
0.187289029359817505 0.16847972571849823 0.723679602146148682
0.0981573089957237244 0.224989503622055054 0.725111424922943115
0.101604655385017395 0.214624479413032532 0.71948850154876709
0.146549463272094727 0.200511544942855835 0.728140711784362793
0.115080513060092926 0.24990418553352356 0.744780540466308594
0.149000167846679688 0.203259989619255066 0.730480551719665527
0.108605518937110901 0.221058696508407593 0.726699650287628174
0.171295762062072754 0.189405322074890137 0.730345249176025391
0.164102405309677124 0.187797203660011292 0.727038145065307617
0.113995574414730072 0.249806210398674011 0.744361460208892822
0.231633961200714111 0.145476281642913818 0.726431965827941895
0.178390204906463623 0.17972429096698761 0.727395594120025635
0.0946985706686973572 0.239787653088569641 0.732344865798950195
0.109565861523151398 0.23813357949256897 0.736435890197753906
0.138170301914215088 0.225040286779403687 0.738843321800231934
0.141586616635322571 0.205998748540878296 0.729495644569396973
0.128738135099411011 0.222842678427696228 0.734457910060882568
0.151396095752716064 0.21560882031917572 0.738094449043273926
0.104921340942382812 0.25382697582244873 0.743524551391601562
0.115716516971588135 0.226126670837402344 0.731886446475982666
0.117132179439067841 0.228202998638153076 0.733507454395294189
0.187860816717147827 0.182593256235122681 0.732164144515991211
0.152248919010162354 0.205590412020683289 0.732858479022979736
0.202663227915763855 0.163417980074882507 0.726574182510375977
0.147519677877426147 0.207182824611663818 0.732144951820373535
0.124832309782505035 0.243177697062492371 0.744353890419006348
0.221189931035041809 0.132867857813835144 0.713524699211120605
0.137614220380783081 0.166709452867507935 0.701835155487060547
0.181428462266921997 0.145878121256828308 0.705860018730163574
0.156922027468681335 0.166538730263710022 0.709741175174713135
0.179910421371459961 0.149334684014320374 0.70758211612701416
0.2153216153383255 0.143805712461471558 0.718531668186187744
0.200145930051803589 0.152756288647651672 0.718318819999694824
0.187187820672988892 0.14505419135093689 0.707692146301269531
0.206778809428215027 0.148094505071640015 0.717901527881622314
0.165322810411453247 0.1494244784116745 0.701582252979278564
0.158144637942314148 0.159668087959289551 0.705572426319122314
0.195994347333908081 0.156119972467422485 0.718883514404296875
0.182693272829055786 0.145487025380134583 0.706119358539581299
0.155209720134735107 0.172203615307807922 0.712885737419128418
0.141542300581932068 0.168203845620155334 0.704484462738037109
0.130050987005233765 0.176443353295326233 0.7053183913230896
0.215394303202629089 0.12302900105714798 0.704419493675231934
0.118425443768501282 0.184371650218963623 0.705884754657745361
0.190749555826187134 0.150397539138793945 0.712809145450592041
0.141045942902565002 0.164938598871231079 0.702055633068084717
0.179166600108146667 0.161034971475601196 0.715237259864807129
0.211398318409919739 0.149648994207382202 0.720879018306732178
0.213465079665184021 0.131474241614341736 0.709366500377655029
0.206887200474739075 0.191830024123191833 0.743658602237701416
0.196431845426559448 0.192982211709022522 0.740775525569915771
0.22404855489730835 0.182559236884117126 0.744322657585144043
0.205438926815986633 0.181885123252868652 0.737688839435577393
0.217039912939071655 0.165413454174995422 0.732512056827545166
0.191385835409164429 0.20500829815864563 0.745707273483276367
0.188464105129241943 0.198542982339859009 0.741159915924072266
0.162743061780929565 0.217579871416091919 0.742999374866485596
0.228772610425949097 0.168009012937545776 0.737891018390655518
0.224236339330673218 0.185200810432434082 0.745842099189758301
0.20581546425819397 0.181497693061828613 0.737601935863494873
0.208413615822792053 0.186338275671005249 0.741144776344299316
0.188575416803359985 0.203483685851097107 0.743921101093292236
0.207164198160171509 0.185338661074638367 0.740173220634460449
0.169075906276702881 0.210015043616294861 0.740960061550140381
0.18988354504108429 0.185243159532546997 0.73430556058883667
0.204499676823616028 0.185228347778320312 0.73921579122543335
0.20723491907119751 0.194324150681495667 0.745150566101074219
0.197980284690856934 0.192709624767303467 0.741146326065063477
0.183334410190582275 0.204649627208709717 0.742800235748291016
0.231913506984710693 0.151820659637451172 0.730023622512817383
0.215918153524398804 0.184759706258773804 0.742799818515777588
0.201417684555053711 0.19082815945148468 0.741265773773193359
0.149642184376716614 0.229200482368469238 0.744997084140777588
0.176977500319480896 0.227023392915725708 0.751966297626495361
0.14857541024684906 0.238410040736198425 0.749362587928771973
0.202475249767303467 0.220260873436927795 0.755817651748657227
0.249080866575241089 0.192500874400138855 0.756118834018707275
0.236186295747756958 0.188966244459152222 0.751127898693084717
0.246534854173660278 0.18898262083530426 0.753899216651916504
0.18195071816444397 0.232458204030990601 0.755672872066497803
0.247674092650413513 0.194268375635147095 0.756516516208648682
0.241706788539886475 0.197532594203948975 0.756350994110107422
0.126011624932289124 0.249239936470985413 0.748074710369110107
0.152366995811462402 0.242141216993331909 0.75200808048248291
0.242769867181777954 0.200256079435348511 0.757826685905456543
0.207631766796112061 0.219015270471572876 0.756649911403656006
0.228428497910499573 0.186809346079826355 0.748111903667449951
0.150387272238731384 0.244014844298362732 0.752299129962921143
0.248151689767837524 0.190515428781509399 0.75500178337097168
0.266153484582901001 0.201841488480567932 0.764766335487365723
0.218874678015708923 0.19456268846988678 0.748952805995941162
0.180449396371841431 0.227275341749191284 0.753003895282745361
0.244250684976577759 0.196646779775619507 0.756642818450927734
0.246295034885406494 0.177769675850868225 0.748928487300872803
0.216697052121162415 0.214152485132217407 0.756943404674530029
0.133591413497924805 0.249526843428611755 0.750224888324737549
0.132907062768936157 0.28634268045425415 0.766152322292327881
0.159466713666915894 0.261342704296112061 0.762306809425354004
0.164101988077163696 0.262626409530639648 0.764106690883636475
0.149798035621643066 0.255853623151779175 0.757322311401367188
0.147870123386383057 0.254316598176956177 0.756134748458862305
0.158620119094848633 0.245001405477523804 0.754929900169372559
0.150934100151062012 0.255125671625137329 0.757307171821594238
0.129462137818336487 0.282293885946273804 0.763460457324981689
0.198293596506118774 0.234863877296447754 0.76109081506729126
0.148558422923088074 0.247380271553993225 0.753283321857452393
0.171703800559043884 0.248986184597015381 0.760168313980102539
0.144467324018478394 0.265923619270324707 0.760304927825927734
0.139221101999282837 0.277038395404815674 0.763767361640930176
0.121733777225017548 0.272459030151367188 0.757092535495758057
0.221913233399391174 0.229784414172172546 0.765177071094512939
0.166455268859863281 0.263507544994354248 0.765120804309844971
0.128818720579147339 0.270017415285110474 0.757916510105133057
0.205886483192443848 0.231444969773292542 0.761622846126556396
0.152224734425544739 0.262699663639068604 0.760966241359710693
0.156463980674743652 0.263155639171600342 0.762298107147216797
0.207069545984268188 0.239074856042861938 0.765277624130249023
0.130733698606491089 0.27698555588722229 0.761477231979370117
0.113498061895370483 0.261374801397323608 0.750042378902435303
0.181258320808410645 0.244672775268554688 0.760832905769348145
0.152690708637237549 0.30949169397354126 0.777963101863861084
0.169547423720359802 0.296610146760940552 0.777094721794128418
0.17912253737449646 0.262086361646652222 0.767487406730651855
0.161946490406990051 0.296754896640777588 0.7755889892578125
0.158781737089157104 0.272317290306091309 0.766755402088165283
0.221981525421142578 0.236158549785614014 0.767565608024597168
0.160635292530059814 0.276450395584106445 0.768518984317779541
0.156816393136978149 0.284118175506591797 0.770306766033172607
0.145940303802490234 0.30830267071723938 0.776184439659118652
0.202294647693634033 0.25598376989364624 0.77018129825592041
0.134002044796943665 0.296666920185089111 0.769845426082611084
0.151822790503501892 0.295237153768539429 0.773010432720184326
0.181532725691795349 0.278227776288986206 0.773387491703033447
0.172958970069885254 0.292545676231384277 0.776430785655975342
0.24790404736995697 0.222185149788856506 0.768185257911682129
0.136078700423240662 0.30967673659324646 0.774628221988677979
0.18393397331237793 0.257827520370483398 0.767044603824615479
0.180487871170043945 0.269758403301239014 0.770336687564849854
0.145148754119873047 0.283584564924240112 0.76774221658706665
0.160172075033187866 0.299381107091903687 0.776105880737304688
0.210339933633804321 0.258546173572540283 0.772684812545776367
0.222900241613388062 0.233340740203857422 0.766809523105621338
0.141943112015724182 0.301426947116851807 0.773063778877258301
0.135618701577186584 0.301612675189971924 0.771832764148712158
0.250481069087982178 0.241400822997093201 0.775149345397949219
0.27161407470703125 0.24073733389377594 0.779248356819152832
0.255778998136520386 0.220104902982711792 0.769098639488220215
0.281066149473190308 0.225655093789100647 0.776128709316253662
0.168661355972290039 0.305306732654571533 0.779826819896697998
0.26848292350769043 0.230615705251693726 0.775217413902282715
0.262573003768920898 0.225804954767227173 0.772397398948669434
0.172494590282440186 0.302985250949859619 0.779832959175109863
0.272672981023788452 0.232728451490402222 0.776781976222991943
0.233616068959236145 0.239922195672988892 0.771205425262451172
0.2006569504737854 0.275086283683776855 0.776245653629302979
0.166631445288658142 0.309027642011642456 0.780658245086669922
0.233955502510070801 0.249638736248016357 0.774529814720153809
0.28641510009765625 0.235609710216522217 0.780557155609130859
0.198299020528793335 0.272169530391693115 0.774786412715911865
0.270740538835525513 0.233702123165130615 0.776713013648986816
0.251079320907592773 0.241575777530670166 0.775330305099487305
0.253772169351577759 0.252866119146347046 0.7796630859375
0.16640472412109375 0.303951948881149292 0.7789115309715271
0.28249785304069519 0.226230442523956299 0.776614189147949219
0.266540825366973877 0.23626360297203064 0.776712298393249512
0.236907720565795898 0.252133041620254517 0.775969088077545166
0.17180025577545166 0.301207363605499268 0.77909541130065918
0.266699522733688354 0.243351057171821594 0.779119014739990234
0.181037098169326782 0.328815311193466187 0.787552535533905029
0.167448446154594421 0.341492265462875366 0.788604974746704102
0.17842121422290802 0.302990734577178955 0.780967295169830322
0.18378092348575592 0.316136211156845093 0.784909904003143311
0.189185038208961487 0.309122085571289062 0.784017622470855713
0.205132335424423218 0.311605691909790039 0.786951780319213867
0.246179983019828796 0.263657748699188232 0.781454086303710938
0.14883837103843689 0.331901341676712036 0.783573687076568604
0.2193165123462677 0.280121326446533203 0.781470000743865967
0.192215636372566223 0.310502767562866211 0.784793436527252197
0.162420287728309631 0.353613197803497314 0.790778815746307373
0.154706373810768127 0.335444360971450806 0.785284757614135742
0.186171218752861023 0.322440564632415771 0.786774277687072754
0.166031092405319214 0.318080365657806396 0.782774865627288818
0.179245218634605408 0.311354279518127441 0.783096611499786377
0.263132989406585693 0.256820112466812134 0.782297194004058838
0.265664339065551758 0.249233722686767578 0.780846357345581055
0.187225237488746643 0.301528096199035645 0.781906604766845703
0.157812654972076416 0.334697484970092773 0.785560727119445801
0.241774708032608032 0.272115767002105713 0.782839536666870117
0.15291459858417511 0.331882506608963013 0.784166693687438965
0.278398782014846802 0.242244958877563477 0.781034708023071289
0.217429563403129578 0.284296095371246338 0.782195925712585449
0.15659603476524353 0.332222580909729004 0.784788012504577637
0.231416955590248108 0.300490736961364746 0.788135528564453125
0.185590595006942749 0.336245179176330566 0.790004372596740723
0.27667313814163208 0.258719503879547119 0.784738123416900635
0.277053922414779663 0.252146154642105103 0.783215343952178955
0.233357921242713928 0.290099382400512695 0.785924553871154785
0.298156023025512695 0.25486263632774353 0.786961078643798828
0.206326708197593689 0.321088999509811401 0.78940427303314209
0.286115497350692749 0.249920308589935303 0.784009158611297607
0.188027605414390564 0.335471987724304199 0.790175914764404297
0.297848492860794067 0.26436498761177063 0.789198040962219238
0.230919137597084045 0.306338995695114136 0.789467036724090576
0.264707714319229126 0.273036539554595947 0.786422431468963623
0.27219805121421814 0.262734949588775635 0.78504645824432373
0.289936184883117676 0.251503407955169678 0.784949421882629395
0.235670074820518494 0.297734439373016357 0.788097023963928223
0.263203948736190796 0.275298207998275757 0.786745131015777588
0.258358776569366455 0.267090052366256714 0.784063637256622314
0.286441147327423096 0.24528755247592926 0.782944321632385254
0.219641745090484619 0.307629704475402832 0.788123846054077148
0.266726374626159668 0.271314412355422974 0.786304771900177002
0.274031311273574829 0.259750396013259888 0.784598469734191895
0.236967235803604126 0.291525363922119141 0.786796092987060547
0.240291506052017212 0.29124683141708374 0.787216484546661377
0.196711421012878418 0.340886235237121582 0.792307615280151367
0.294000804424285889 0.291015923023223877 0.793739736080169678
0.221312269568443298 0.327618718147277832 0.792570829391479492
0.304797649383544922 0.274905174970626831 0.792306900024414062
0.26373291015625 0.317504644393920898 0.794945716857910156
0.27742612361907959 0.297649860382080078 0.793215453624725342
0.324757754802703857 0.295736521482467651 0.797275781631469727
0.256290465593338013 0.312015771865844727 0.793435931205749512
0.277484476566314697 0.28867611289024353 0.791870236396789551
0.271541208028793335 0.293329060077667236 0.792024552822113037
0.309337437152862549 0.287499219179153442 0.794619381427764893
0.31134110689163208 0.279370874166488647 0.793580114841461182
0.312520802021026611 0.297858625650405884 0.796470999717712402
0.250531494617462158 0.315027773380279541 0.79336017370223999
0.288718044757843018 0.28936341404914856 0.793005704879760742
0.26255345344543457 0.313598126173019409 0.794249415397644043
0.294748693704605103 0.307999491691589355 0.796364545822143555
0.224537581205368042 0.32181781530380249 0.791994094848632812
0.231674328446388245 0.318071454763412476 0.792085886001586914
0.317209899425506592 0.281758397817611694 0.79447859525680542
0.269109547138214111 0.320495247840881348 0.795889794826507568
0.302650511264801025 0.300810068845748901 0.796008408069610596
0.244447201490402222 0.32539743185043335 0.794361889362335205
0.294685065746307373 0.297861069440841675 0.794832825660705566
0.262885808944702148 0.331401705741882324 0.796959459781646729
0.202201619744300842 0.348618686199188232 0.793975770473480225
0.25712817907333374 0.330146372318267822 0.796241581439971924
0.178275629878044128 0.379420667886734009 0.796413540840148926
0.215048745274543762 0.352210551500320435 0.795696616172790527
0.217478185892105103 0.361864268779754639 0.797372698783874512
0.210870534181594849 0.349162876605987549 0.794854044914245605
0.197570741176605225 0.362850844860076904 0.795692324638366699
0.225081875920295715 0.350577235221862793 0.796372473239898682
0.301598131656646729 0.317418068647384644 0.798411309719085693
0.294095516204833984 0.316020548343658447 0.797511696815490723
0.284364700317382812 0.326370745897293091 0.798175513744354248
0.207992643117904663 0.364744067192077637 0.796934723854064941
0.178864315152168274 0.357611894607543945 0.79318535327911377
0.196734115481376648 0.380997449159622192 0.798346579074859619
0.198349684476852417 0.357906639575958252 0.795019745826721191
0.193963170051574707 0.370939701795578003 0.796578288078308105
0.199831396341323853 0.370506495237350464 0.797052204608917236
0.214686796069145203 0.364596158266067505 0.797527432441711426
0.206723675131797791 0.359313309192657471 0.796000778675079346
0.22524753212928772 0.358561515808105469 0.797589361667633057
0.233504623174667358 0.35423395037651062 0.79769665002822876
0.221988573670387268 0.340436309576034546 0.794562101364135742
0.172784969210624695 0.358751267194747925 0.792798340320587158
0.219752594828605652 0.392322272062301636 0.8000527024269104
0.243670940399169922 0.373788774013519287 0.799801111221313477
0.219410702586174011 0.392934232950210571 0.80007857084274292
0.269452989101409912 0.345951378345489502 0.799027144908905029
0.208112269639968872 0.417495191097259521 0.801208436489105225
0.217276856303215027 0.407425075769424438 0.800922155380249023
0.270286649465560913 0.356931000947952271 0.799761950969696045
0.223167687654495239 0.393921196460723877 0.800288379192352295
0.239064991474151611 0.3663807213306427 0.799147427082061768
0.288134157657623291 0.339785486459732056 0.799362123012542725
0.290844231843948364 0.327995896339416504 0.798713862895965576
0.246687918901443481 0.361455142498016357 0.799129962921142578
0.218454033136367798 0.391114860773086548 0.799924790859222412
0.213120684027671814 0.401822149753570557 0.800401449203491211
0.219447016716003418 0.391066700220108032 0.799960494041442871
0.207985177636146545 0.390296369791030884 0.79946368932723999
0.230798631906509399 0.387535423040390015 0.800177812576293945
0.228355467319488525 0.38697582483291626 0.800046682357788086
0.240836247801780701 0.358245283365249634 0.798696160316467285
0.231488615274429321 0.379563361406326294 0.799694836139678955
0.283273756504058838 0.345231384038925171 0.799520671367645264
0.24480457603931427 0.357774436473846436 0.798820972442626953
0.251048833131790161 0.377219617366790771 0.800308644771575928
0.294423520565032959 0.335238337516784668 0.799316823482513428
0.317902714014053345 0.33803364634513855 0.800412356853485107
0.319831132888793945 0.336082547903060913 0.800362884998321533
0.248150333762168884 0.389233231544494629 0.800963938236236572
0.309031397104263306 0.325707316398620605 0.799277544021606445
0.314947217702865601 0.337379157543182373 0.800255119800567627
0.266979217529296875 0.380854278802871704 0.801163136959075928
0.328673303127288818 0.309589356184005737 0.799013495445251465
0.288339465856552124 0.349396497011184692 0.799984931945800781
0.277305871248245239 0.353806823492050171 0.799836218357086182
0.304891407489776611 0.334322154521942139 0.799666941165924072
0.269399493932723999 0.371541500091552734 0.800661921501159668
0.327617019414901733 0.315680563449859619 0.799361824989318848
0.310069382190704346 0.347209721803665161 0.80069345235824585
0.304808348417282104 0.339969545602798462 0.800024926662445068
0.291087239980697632 0.36788293719291687 0.801274657249450684
0.282450020313262939 0.363781720399856567 0.800675094127655029
0.318477928638458252 0.328636258840560913 0.799833714962005615
0.230248719453811646 0.407827407121658325 0.801454305648803711
0.322446614503860474 0.34329572319984436 0.800926387310028076
0.333226859569549561 0.308852076530456543 0.799144089221954346
0.29560425877571106 0.348352909088134766 0.800201833248138428
0.337442725896835327 0.336402148008346558 0.801070928573608398
0.250854939222335815 0.390846103429794312 0.80117267370223999
0.260138988494873047 0.387475252151489258 0.801319539546966553
0.289038509130477905 0.376779139041900635 0.801373481750488281
0.269563078880310059 0.3863353431224823 0.801423132419586182
0.32782706618309021 0.349106818437576294 0.801458537578582764
0.307518541812896729 0.370359808206558228 0.801270008087158203
0.31958383321762085 0.362336069345474243 0.801284074783325195
0.275091677904129028 0.392234563827514648 0.801225721836090088
0.292260408401489258 0.385477900505065918 0.801146447658538818
0.337860018014907837 0.350432038307189941 0.801299989223480225
0.286126196384429932 0.394681543111801147 0.801030278205871582
0.302473336458206177 0.373334676027297974 0.801272273063659668
0.361089020967483521 0.35762980580329895 0.800844967365264893
0.214336737990379333 0.420032262802124023 0.801423430442810059
0.270533710718154907 0.390594542026519775 0.80131983757019043
0.338116645812988281 0.368484079837799072 0.800912380218505859
0.289748817682266235 0.385995149612426758 0.801168084144592285
0.31082502007484436 0.368098229169845581 0.801275193691253662
0.280816435813903809 0.383952617645263672 0.801327645778656006
0.307926446199417114 0.384193897247314453 0.800970256328582764
0.267490595579147339 0.392733633518218994 0.801313877105712891
0.318029820919036865 0.370190709829330444 0.801137030124664307
0.284945636987686157 0.37752377986907959 0.801410853862762451
0.305212676525115967 0.381755560636520386 0.801057398319244385
0.339107215404510498 0.342886984348297119 0.801444411277770996
0.351540565490722656 0.378577709197998047 0.800523102283477783
0.219646468758583069 0.441029906272888184 0.800907492637634277
0.231525138020515442 0.4405975341796875 0.800762355327606201
0.280115693807601929 0.400192081928253174 0.800991058349609375
0.26922270655632019 0.423547029495239258 0.800635457038879395
0.274666905403137207 0.424872517585754395 0.800536513328552246
0.274524003267288208 0.410251080989837646 0.800849616527557373
0.344533145427703857 0.382795661687850952 0.800524413585662842
0.229597702622413635 0.416518062353134155 0.801299929618835449
0.299426466226577759 0.397579193115234375 0.800795793533325195
0.281755656003952026 0.398541450500488281 0.801004886627197266
0.304414689540863037 0.39486163854598999 0.800788819789886475
0.30543982982635498 0.392882764339447021 0.800817608833312988
0.258296936750411987 0.414640903472900391 0.800966978073120117
0.274266809225082397 0.423166811466217041 0.800577998161315918
0.219593018293380737 0.428701639175415039 0.801170587539672852
0.238914206624031067 0.443164408206939697 0.800611674785614014
0.212831005454063416 0.431035459041595459 0.801208734512329102
0.213531732559204102 0.434942811727523804 0.801116466522216797
0.259995043277740479 0.434917718172073364 0.800513327121734619
0.260492116212844849 0.417249560356140137 0.800882935523986816
0.296520322561264038 0.413274079561233521 0.800499439239501953
0.234548673033714294 0.433045804500579834 0.800883769989013672
0.319844633340835571 0.397254496812820435 0.800537407398223877
0.358248710632324219 0.387708902359008789 0.799294948577880859
0.276786535978317261 0.430597841739654541 0.800026118755340576
0.364518046379089355 0.404503822326660156 0.797089159488677979
0.258741796016693115 0.445418447256088257 0.799619019031524658
0.32645907998085022 0.407887786626815796 0.799212098121643066
0.344640195369720459 0.390934497117996216 0.799838423728942871
0.304992377758026123 0.4292774498462677 0.798325777053833008
0.345430046319961548 0.389199823141098022 0.799972355365753174
0.333215773105621338 0.404103279113769531 0.799175739288330078
0.33747747540473938 0.410720109939575195 0.798189759254455566
0.384232133626937866 0.395233720541000366 0.796793580055236816
0.327831387519836426 0.407850176095962524 0.799126505851745605
0.363351285457611084 0.392475485801696777 0.798451900482177734
0.275388389825820923 0.439550906419754028 0.799159765243530273
0.346981555223464966 0.393103629350662231 0.799453496932983398
0.349214076995849609 0.383370816707611084 0.800348818302154541
0.330919533967971802 0.401834309101104736 0.799568355083465576
0.325723409652709961 0.417824894189834595 0.79819720983505249
0.366580784320831299 0.392103642225265503 0.798280835151672363
0.379425644874572754 0.404873013496398926 0.796076357364654541
0.350260466337203979 0.415441900491714478 0.796850085258483887
0.375151276588439941 0.397705256938934326 0.79712212085723877
0.357876956462860107 0.379777908325195312 0.800167500972747803
0.290603458881378174 0.427893608808517456 0.799413204193115234
0.311236411333084106 0.437814474105834961 0.797004938125610352
0.314825445413589478 0.433067232370376587 0.797278404235839844
0.306684702634811401 0.436997264623641968 0.797389507293701172
0.328268170356750488 0.425225526094436646 0.797239482402801514
0.232961222529411316 0.467061132192611694 0.798987269401550293
0.292946875095367432 0.448632240295410156 0.797041952610015869
0.251046955585479736 0.470937907695770264 0.797391772270202637
0.311972349882125854 0.440876781940460205 0.79662930965423584
0.31739652156829834 0.446279168128967285 0.795697331428527832
0.258317619562149048 0.465394258499145508 0.797510027885437012
0.284445881843566895 0.450966596603393555 0.797347307205200195
0.289132922887802124 0.439468711614608765 0.798271119594573975
0.248653039336204529 0.464326322078704834 0.798255264759063721
0.322388947010040283 0.426796853542327881 0.797455251216888428
0.325335681438446045 0.426753818988800049 0.797267436981201172
0.284763127565383911 0.442904502153396606 0.798188924789428711
0.30299803614616394 0.432669252157211304 0.798093199729919434
0.252372562885284424 0.467063337564468384 0.797719657421112061
0.242996379733085632 0.48554345965385437 0.796355128288269043
0.313817650079727173 0.444184184074401855 0.796155095100402832
0.261685937643051147 0.461884528398513794 0.79766547679901123
0.322345882654190063 0.425546854734420776 0.797591745853424072
0.282018542289733887 0.453588187694549561 0.797225356101989746
0.281867057085037231 0.50930333137512207 0.787791192531585693
0.27514570951461792 0.511705100536346436 0.78812253475189209
0.302929788827896118 0.46499517560005188 0.793918430805206299
0.360695570707321167 0.428055316209793091 0.794245600700378418
0.283421427011489868 0.47482144832611084 0.794323980808258057
0.269084542989730835 0.517343878746032715 0.787744760513305664
0.332605123519897461 0.443038046360015869 0.794667184352874756
0.276533782482147217 0.501073241233825684 0.790028750896453857
0.257884621620178223 0.494369179010391235 0.7935524582862854
0.318179130554199219 0.456492066383361816 0.793761551380157471
0.378025621175765991 0.416031360626220703 0.794527232646942139
0.302955597639083862 0.46883663535118103 0.793166995048522949
0.267192244529724121 0.517048895359039307 0.78802722692489624
0.266359061002731323 0.510812640190124512 0.789341270923614502
0.333648890256881714 0.45022737979888916 0.793142437934875488
0.298125922679901123 0.469140201807022095 0.79368215799331665
0.27266499400138855 0.509101688861846924 0.788924694061279297
0.374924749135971069 0.413829326629638672 0.795324981212615967
0.260508418083190918 0.513269186019897461 0.789558470249176025
0.311677873134613037 0.463864177465438843 0.79309844970703125
0.272984683513641357 0.494521737098693848 0.791727125644683838
0.258829951286315918 0.486034989356994629 0.79506373405456543
0.341887027025222778 0.442539513111114502 0.793660461902618408
