ply
format ascii 1.0
element vertex 701
property float x
property float y
property float z
end_header
0.0228373855352401733 -0.0234383698552846909 -0.0142431706190109253
0.0662505030632019043 -0.0192169882357120514 -0.0112091964110732079
0.0323764793574810028 -0.0225381292402744293 -0.013527747243642807
0.0402442589402198792 -0.0217086747288703918 -0.0130929099395871162
0.0599709339439868927 -0.0197630636394023895 -0.0117632858455181122
0.0215615183115005493 -0.0235360376536846161 -0.0143794696778059006
0.0158351436257362366 -0.024194495752453804 -0.0145981693640351295
0.0421133190393447876 -0.0216266363859176636 -0.0127842538058757782
0.070879817008972168 -0.0185802672058343887 -0.0112188355997204781
0.0420918948948383331 -0.0215743687003850937 -0.0128828007727861404
0.0142715312540531158 -0.0242622047662734985 -0.0148580335080623627
0.0455269664525985718 -0.0211571827530860901 -0.0127912489697337151
0.0197376757860183716 -0.0238592922687530518 -0.0142463920637965202
0.0645689070224761963 -0.0192076768726110458 -0.0116353230550885201
0.0519829690456390381 -0.0209151413291692734 -0.0116512998938560486
0.0643906444311141968 -0.0194943938404321671 -0.0111667625606060028
0.0672926083207130432 -0.0190914813429117203 -0.0111795393750071526
0.0544443279504776001 -0.0202869586646556854 -0.0121736237779259682
0.00885815173387527466 -0.0248434115201234818 -0.0151384575292468071
0.071097448468208313 -0.0185469761490821838 -0.011225283145904541
0.0528220683336257935 -0.0208135992288589478 -0.0116282841190695763
0.0300320163369178772 -0.0227398313581943512 -0.0137384962290525436
0.0747326686978340149 -0.0188902877271175385 -0.00972701795399188995
0.0694214329123497009 -0.019339289516210556 -0.0102186398580670357
0.0668223649263381958 -0.0196220241487026215 -0.010346696712076664
0.061179138720035553 -0.0200539212673902512 -0.0109497066587209702
0.0219156071543693542 -0.0236998274922370911 -0.0140007734298706055
0.0746053829789161682 -0.0181934069842100143 -0.0110023887827992439
0.0703236684203147888 -0.0190170351415872574 -0.0105743594467639923
0.0530919954180717468 -0.020733710378408432 -0.0117052029818296432
0.0667407587170600891 -0.0195781700313091278 -0.0104448776692152023
0.0720093771815299988 -0.0186422038823366165 -0.0108331711962819099
0.0268658548593521118 -0.0231858789920806885 -0.0137130320072174072
0.0623507127165794373 -0.0197211951017379761 -0.0112585350871086121
0.038081534206867218 -0.0221716891974210739 -0.0127927996218204498
0.0487922579050064087 -0.0210639871656894684 -0.0121625075116753578
0.0756267234683036804 -0.0211041178554296494 -0.00102650630287826061
0.0450959503650665283 -0.0247324723750352859 -0.00121018732897937298
0.0619477853178977966 -0.0227463766932487488 -0.000685810926370322704
0.0438010320067405701 -0.0248877666890621185 -0.00118225859478116035
0.0292154010385274887 -0.026591101661324501 -0.00203506392426788807
0.0584798753261566162 -0.0231435969471931458 -0.00108626170549541712
0.0646996647119522095 -0.0224212445318698883 -0.000620719278231263161
0.0341203324496746063 -0.0260344259440898895 -0.00133777107112109661
0.0704511553049087524 -0.0217513926327228546 -0.000238215085119009018
0.0343916863203048706 -0.0259907990694046021 -0.00162570446263998747
0.013964412733912468 -0.0284082479774951935 -0.00200772378593683243
0.0118322912603616714 -0.0286593958735466003 -0.00207758182659745216
0.0610965117812156677 -0.0228058043867349625 -0.00175332685466855764
0.0446629971265792847 -0.0247697383165359497 -0.00157392385881394148
0.0636297315359115601 -0.0225317459553480148 -0.00105097738560289145
0.0168906301259994507 -0.0280659422278404236 -0.00185130967292934656
0.064777672290802002 -0.0223933905363082886 -0.00109324255026876926
0.0696918368339538574 -0.0218044109642505646 -0.00119007064495235682
0.075730547308921814 -0.0210708882659673691 -0.00155763747170567513
0.0187406968325376511 -0.0278474986553192139 -0.00180395261850208044
0.0618780814111232758 -0.0227280706167221069 -0.001363017363473773
0.0468182042241096497 -0.0245209243148565292 -0.00137472408823668957
0.074953615665435791 -0.0211675502359867096 -0.00145207927562296391
0.0530389323830604553 -0.0237947795540094376 -0.00100278458558022976
0.0373673848807811737 -0.0256225597113370895 -0.00197943812236189842
0.0373441576957702637 -0.0256282445043325424 -0.00190514465793967247
0.067309357225894928 -0.0220893323421478271 -0.00115902896504849195
0.0379982516169548035 -0.0255482159554958344 -0.00195957766845822334
0.0084996512159705162 -0.0290486551821231842 -0.00227069947868585587
0.0229839421808719635 -0.0273367650806903839 -0.00194277812261134386
0.0268963482230901718 -0.0268867015838623047 -0.00154008413664996624
0.0392003096640110016 -0.0254236441105604172 -0.00148699246346950531
0.0485925748944282532 -0.0243282541632652283 -0.000900807441212236881
0.0684250816702842712 -0.0219408981502056122 -0.00155549310147762299
0.0306330770254135132 -0.0264324862509965897 -0.00177547510247677565
0.04876699298620224 -0.0242814347147941589 -0.00156383169814944267
0.0448960773646831512 -0.0247316807508468628 -0.00183613353874534369
0.0667166635394096375 -0.0221606139093637466 -0.00114114489406347275
0.0407787896692752838 -0.0241687651723623276 -0.00741690909489989281
0.031466655433177948 -0.0252918340265750885 -0.00751682277768850327
0.0271532721817493439 -0.0256930924952030182 -0.00798486173152923584
0.0366483591496944427 -0.0246556736528873444 -0.00750106014311313629
0.0620043165981769562 -0.0218933615833520889 -0.00618057278916239738
0.0414374098181724548 -0.0241418387740850449 -0.00722367502748966217
0.0319404713809490204 -0.0250952579081058502 -0.00800612941384315491
0.0744213685393333435 -0.020331505686044693 -0.00627543264999985695
0.0697145536541938782 -0.0210523549467325211 -0.00578274298459291458
0.0576187968254089355 -0.0223352797329425812 -0.00653606513515114784
0.0369551517069339752 -0.024601425975561142 -0.00755891483277082443
0.0396332591772079468 -0.0243930574506521225 -0.00712378276512026787
0.0450654439628124237 -0.0238157007843255997 -0.00678970804437994957
0.0585083812475204468 -0.0222417302429676056 -0.00647781183943152428
0.0255979746580123901 -0.0258129574358463287 -0.00824162736535072327
0.0622236505150794983 -0.0217695143073797226 -0.00652356445789337158
0.0724795758724212646 -0.020526837557554245 -0.00643402663990855217
0.0704507455229759216 -0.0207559149712324142 -0.00651112431660294533
0.0656750872731208801 -0.021344577893614769 -0.00651732040569186211
0.0363037846982479095 -0.0247106309980154037 -0.00745723582804203033
0.0731195956468582153 -0.0206506513059139252 -0.00571446632966399193
0.0639222115278244019 -0.0215344037860631943 -0.00661262590438127518
0.0394391752779483795 -0.0242980588227510452 -0.0075456937775015831
0.0665273219347000122 -0.0214451942592859268 -0.00578697724267840385
0.0162291862070560455 -0.0268739126622676849 -0.00858660973608493805
0.0485589392483234406 -0.023186173290014267 -0.00749045610427856445
0.0428171120584011078 -0.0239653307944536209 -0.00724472757428884506
0.0642993524670600891 -0.0214415173977613449 -0.00677665695548057556
0.0734665095806121826 -0.0205016937106847763 -0.00609055906534194946
0.0739396959543228149 -0.0205133818089962006 -0.00584168313071131706
0.0244911313056945801 -0.0259828865528106689 -0.00812428910285234451
0.0495288707315921783 -0.0231515634804964066 -0.00718800071626901627
0.0624484680593013763 -0.0217068120837211609 -0.00664733443409204483
0.0516220554709434509 -0.0229828245937824249 -0.00686874287202954292
0.0230766572058200836 -0.0260767228901386261 -0.0084116058424115181
0.0556607544422149658 -0.0224983692169189453 -0.00681611150503158569
0.074467487633228302 -0.0202693697065114975 -0.00647553335875272751
0.0467377826571464539 -0.0236145965754985809 -0.00676969438791275024
0.0655986294150352478 -0.0214651022106409073 -0.00612348644062876701
0.0588814020156860352 -0.0227035172283649445 -0.00437412317842245102
0.0649923533201217651 -0.0220242533832788467 -0.00406189542263746262
0.0353893600404262543 -0.0253244563937187195 -0.00552575709298253059
0.063222639262676239 -0.0221185125410556793 -0.00466739153489470482
0.0654421523213386536 -0.0218636952340602875 -0.00459474092349410057
0.0374014526605606079 -0.0250071771442890167 -0.00589363882318139076
0.049063950777053833 -0.0238383468240499496 -0.00465668831020593643
0.0622983165085315704 -0.0222167670726776123 -0.00473717693239450455
0.056629180908203125 -0.0227980390191078186 -0.00527258776128292084
0.0740710943937301636 -0.0207413323223590851 -0.00497438479214906693
0.0372122116386890411 -0.025086602196097374 -0.00560976099222898483
0.0508463159203529358 -0.0235658958554267883 -0.00493931537494063377
0.0503189489245414734 -0.0235755890607833862 -0.00521222501993179321
0.0648525804281234741 -0.0219162087887525558 -0.00469032768160104752
0.0124130323529243469 -0.027904510498046875 -0.00656839320436120033
0.0437643527984619141 -0.0242933854460716248 -0.00560133205726742744
0.0423506610095500946 -0.0245028883218765259 -0.00541030429303646088
0.0455354191362857819 -0.0241552460938692093 -0.00521561736240983009
0.0381916016340255737 -0.0249815955758094788 -0.00554032623767852783
0.0723049342632293701 -0.0211491100490093231 -0.00400153454393148422
0.0430071018636226654 -0.0244526490569114685 -0.00526250340044498444
0.0469667688012123108 -0.0239929612725973129 -0.00515848398208618164
0.0608708485960960388 -0.0222854316234588623 -0.00526260770857334137
0.058857448399066925 -0.022513972595334053 -0.00534164207056164742
0.0549022331833839417 -0.0231893956661224365 -0.00435837637633085251
0.0637246295809745789 -0.0221378318965435028 -0.0042641032487154007
0.0330583415925502777 -0.0256139449775218964 -0.00549210608005523682
0.038304600864648819 -0.0249239001423120499 -0.00576146040111780167
0.032569296658039093 -0.0256464555859565735 -0.0056269373744726181
0.0404339507222175598 -0.0247601363807916641 -0.00528605189174413681
0.0670190900564193726 -0.0217361729592084885 -0.00427405070513486862
0.0322432667016983032 -0.0256614908576011658 -0.00575020536780357361
0.0371433980762958527 -0.0250596590340137482 -0.00578718259930610657
0.0747980102896690369 -0.0207276977598667145 -0.00459957262501120567
0.0570221208035945892 -0.0228060651570558548 -0.00499257678166031837
0.0402405522763729095 -0.0247624199837446213 -0.00539252208545804024
0.00198163092136383057 -0.0290906019508838654 -0.0069677131250500679
0.041051715612411499 -0.0246199052780866623 -0.00561425834894180298
0.0590920858085155487 -0.0226713269948959351 -0.00440745986998081207
0.0708089694380760193 -0.0215897690504789352 -0.00222295545972883701
0.0273192711174488068 -0.026589125394821167 -0.00400971248745918274
0.0233130026608705521 -0.0270939357578754425 -0.00380028458312153816
0.0580047853291034698 -0.0230130273848772049 -0.0031600254587829113
0.030602630227804184 -0.0262084919959306717 -0.00390180433169007301
0.0245221145451068878 -0.0269329287111759186 -0.00393659248948097229
0.0423815585672855377 -0.0248951762914657593 -0.00307374889962375164
0.0475522316992282867 -0.0242115594446659088 -0.00361514976248145103
0.0358335822820663452 -0.0256277024745941162 -0.00351340090855956078
0.0741596594452857971 -0.0211679302155971527 -0.00239502964541316032
0.0642982348799705505 -0.0222992859780788422 -0.00281930854544043541
0.0756030231714248657 -0.0209273975342512131 -0.00296611152589321136
0.0603430196642875671 -0.0227905884385108948 -0.00267231231555342674
0.0688381791114807129 -0.0216943584382534027 -0.00333438394591212273
0.0717012733221054077 -0.0214357078075408936 -0.00262129027396440506
0.0687650144100189209 -0.0218197628855705261 -0.00234891008585691452
0.0189525149762630463 -0.0275912992656230927 -0.00401234487071633339
0.0399087369441986084 -0.025126015767455101 -0.00362672191113233566
0.0496964156627655029 -0.0239759646356105804 -0.00343504943884909153
0.0718919336795806885 -0.0214287061244249344 -0.00248744431883096695
0.0637048184871673584 -0.0222993846982717514 -0.00341921462677419186
0.0740900635719299316 -0.0212411805987358093 -0.00184658821672201157
0.0259697902947664261 -0.0267791431397199631 -0.00377038400620222092
0.066832616925239563 -0.0219325274229049683 -0.00335239456035196781
0.0666856393218040466 -0.0220508277416229248 -0.00250166747719049454
0.0589791759848594666 -0.0228906311094760895 -0.00320773874409496784
0.0560974180698394775 -0.0232181847095489502 -0.00335755175910890102
0.0308973714709281921 -0.0262153800576925278 -0.00354523141868412495
0.0642906874418258667 -0.0222606658935546875 -0.00315324915573000908
0.038781486451625824 -0.0252320021390914917 -0.00387240154668688774
0.0712730139493942261 -0.0215013846755027771 -0.00249993964098393917
0.0731139034032821655 -0.0212541595101356506 -0.0027251318097114563
0.0386048108339309692 -0.0252688974142074585 -0.00373951555229723454
0.0584608912467956543 -0.0230181086808443069 -0.00265534967184066772
0.034058988094329834 -0.0258221235126256943 -0.00366723351180553436
0.0512912832200527191 -0.0238151438534259796 -0.00317927217110991478
0.0238408036530017853 -0.0270215775817632675 -0.00387732754461467266
0.0704573318362236023 -0.021580621600151062 -0.00265622697770595551
0.0543885044753551483 -0.0234892778098583221 -0.00279707647860050201
0.0406316667795181274 -0.0236039124429225922 -0.0090926559641957283
0.0239388681948184967 -0.0253261961042881012 -0.0101628024131059647
0.0165743492543697357 -0.0261516943573951721 -0.0104569476097822189
0.0316376835107803345 -0.0245035756379365921 -0.00974594056606292725
0.0586451217532157898 -0.0214647967368364334 -0.00869836565107107162
0.0694233700633049011 -0.0204093605279922485 -0.00785393267869949341
0.0720331370830535889 -0.020256873220205307 -0.00737009057775139809
0.0580521076917648315 -0.0216291807591915131 -0.00845665205270051956
0.0737889483571052551 -0.0202191807329654694 -0.00686865812167525291
0.0292532891035079956 -0.0247780587524175644 -0.00982162076979875565
0.0694280341267585754 -0.0204581618309020996 -0.00772005179896950722
0.0616297386586666107 -0.0214398130774497986 -0.00774004915729165077
0.0403546653687953949 -0.0234545748680830002 -0.00959267932921648026
0.0754865929484367371 -0.0199275780469179153 -0.00707546388730406761
0.0648096129298210144 -0.0210271198302507401 -0.0077655320055782795
0.0354679599404335022 -0.0240498427301645279 -0.00965907424688339233
0.0624798238277435303 -0.0209885295480489731 -0.00867106113582849503
0.0506188683211803436 -0.0224838629364967346 -0.00869530905038118362
0.0609847381711006165 -0.0215828195214271545 -0.00757414661347866058
0.0617084205150604248 -0.0213815364986658096 -0.00787096656858921051
0.0547426342964172363 -0.0221958011388778687 -0.00805847719311714172
0.0145705267786979675 -0.0262721758335828781 -0.0108192404732108116
0.0454434305429458618 -0.0229311957955360413 -0.00926195830106735229
0.055036444216966629 -0.0218339934945106506 -0.00893819518387317657
0.0669217780232429504 -0.0205698572099208832 -0.00827888026833534241
0.0688502341508865356 -0.020688941702246666 -0.00729312887415289879
0.071646466851234436 -0.0200184173882007599 -0.00814938824623823166
0.0720120221376419067 -0.0202168207615613937 -0.0074859163723886013
0.0473475046455860138 -0.0228455383330583572 -0.0088395681232213974
0.0410950742661952972 -0.023504301905632019 -0.00920335482805967331
0.0539563931524753571 -0.0222763996571302414 -0.00811030436307191849
0.0484785512089729309 -0.0228022951632738113 -0.00856795534491539001
0.0637658536434173584 -0.0211282800883054733 -0.00785014405846595764
0.0323929786682128906 -0.0244853086769580841 -0.00953580066561698914
0.0708273351192474365 -0.0201604254543781281 -0.00804605148732662201
0.0745952650904655457 -0.0197459869086742401 -0.0078741125762462616
0.0658064335584640503 -0.0209407582879066467 -0.00765694305300712585
0.0202913582324981689 -0.0257488898932933807 -0.0102709736675024033
0.0457070544362068176 -0.00849406793713569641 -0.0231810510158538818
0.0489299297332763672 -0.00772649189457297325 -0.0230554807931184769
0.075507238507270813 -0.00663425307720899582 -0.0200877320021390915
0.0359989069402217865 -0.00860312022268772125 -0.0243720673024654388
0.0702513754367828369 -0.00694754300639033318 -0.0206387341022491455
0.0706058964133262634 -0.00703988270834088326 -0.0205597057938575745
0.0341563262045383453 -0.00813068076968193054 -0.0247800480574369431
0.039660971611738205 -0.0082278028130531311 -0.0240460820496082306
0.0508042983710765839 -0.00769614055752754211 -0.0228289589285850525
0.0654361769556999207 -0.00695747369900345802 -0.0212457664310932159
0.0326924696564674377 -0.00849280599504709244 -0.0248321052640676498
0.0549205541610717773 -0.00806454196572303772 -0.0221709981560707092
0.0456052795052528381 -0.00824717618525028229 -0.0232850424945354462
0.0273593664169311523 -0.00865335948765277863 -0.0254492536187171936
0.0392423383891582489 -0.00863644760102033615 -0.0239484198391437531
0.0202613361179828644 -0.00893590226769447327 -0.0262452326714992523
0.0445140190422534943 -0.00807970017194747925 -0.023485228419303894
0.0735460668802261353 -0.00665468955412507057 -0.0203289221972227097
0.0727874040603637695 -0.0072302049957215786 -0.0202128197997808456
0.0318858548998832703 -0.00819384586066007614 -0.0250446982681751251
0.0733051598072052002 -0.00755490502342581749 -0.0200273655354976654
0.0759314447641372681 -0.00716073717921972275 -0.0198397021740674973
0.0277797747403383255 -0.00877736415714025497 -0.0253501851111650467
0.0442853234708309174 -0.00827891379594802856 -0.0234407391399145126
0.0634112060070037842 -0.00772470608353614807 -0.0212195366621017456
0.0522177517414093018 -0.0076397014781832695 -0.0226705186069011688
0.0435497313737869263 -0.00780293205752968788 -0.0237096305936574936
0.0332092717289924622 -0.00833498220890760422 -0.0248247869312763214
0.0172705259174108505 -0.00878556352108716965 -0.0266800075769424438
0.0261429492384195328 -0.00853772182017564774 -0.0256461873650550842
0.0529197454452514648 -0.00799949653446674347 -0.0224487502127885818
0.0724571347236633301 -0.00803450774401426315 -0.0199579820036888123
0.0475493557751178741 -0.00767288915812969208 -0.0232503488659858704
0.0562769174575805664 -0.00828543584793806076 -0.0219174847006797791
0.0349683202803134918 -0.00839318335056304932 -0.024580223485827446
0.0716859996318817139 -0.00773060787469148636 -0.0201678983867168427
0.0395234599709510803 -0.00828983541578054428 -0.0240406394004821777
0.0656576305627822876 -0.00774806365370750427 -0.0209260135889053345
0.0736427754163742065 -0.00287454924546182156 -0.0211731083691120148
0.0446720756590366364 -0.00217714370228350163 -0.0247268527746200562
0.0406154505908489227 -0.00236149248667061329 -0.0251910872757434845
0.0533917099237442017 -0.00200966279953718185 -0.0237019099295139313
0.0437611863017082214 -0.00219757645390927792 -0.0248335748910903931
0.0541707836091518402 -0.00203273934312164783 -0.0236058291047811508
0.059520229697227478 -0.0029418538324534893 -0.022857271134853363
0.0467317290604114532 -0.00269812438637018204 -0.0244184061884880066
0.0454057306051254272 -0.0028095003217458725 -0.0245641022920608521
0.0622538179159164429 -0.00249641714617609978 -0.0225824601948261261
0.0745504796504974365 -0.00279150647111237049 -0.0210741758346557617
0.0626456886529922485 -0.00254026008769869804 -0.0225303173065185547
0.0371391847729682922 -0.00243771821260452271 -0.0255985837429761887
0.0668325945734977722 -0.00248095439746975899 -0.0220356732606887817
0.0419906452298164368 -0.00266537931747734547 -0.024990348145365715
0.0568662881851196289 -0.00212708069011569023 -0.0232716966420412064
0.0484865456819534302 -0.00229685939848423004 -0.0242556408047676086
0.0259241499006748199 -0.00236768531613051891 -0.0269506331533193588
0.0742441564798355103 -0.00241712154820561409 -0.0211551915854215622
0.0306713543832302094 -0.00253810128197073936 -0.0263616647571325302
0.0502960309386253357 -0.00271054450422525406 -0.0239898711442947388
0.0717859044671058655 -0.0017779467161744833 -0.0215253829956054688
0.0454547517001628876 -0.00213941652327775955 -0.0246375389397144318
0.0755748599767684937 -0.00265571195632219315 -0.020967511460185051
0.0358136966824531555 -0.00240977993234992027 -0.0257607065141201019
0.0719807446002960205 -0.00272261654026806355 -0.0213902294635772705
0.070685461163520813 -0.00242526829242706299 -0.021580621600151062
0.0460266172885894775 -0.0026604081504046917 -0.0245073568075895309
0.0105332229286432266 -0.00237143202684819698 -0.0287942942231893539
0.0752849876880645752 -0.00253525329753756523 -0.0210164990276098251
0.0243983268737792969 -0.00254246662370860577 -0.0271127671003341675
0.0587683841586112976 -0.00226273084990680218 -0.0230277348309755325
0.0413803979754447937 -0.00221373257227241993 -0.0251169241964817047
0.0330363772809505463 -0.00208967598155140877 -0.0261313673108816147
0.0635074824094772339 -0.00270327180624008179 -0.0224077664315700531
0.0704428702592849731 -0.00298181129619479179 -0.0215438175946474075
0.0665743127465248108 -0.00300010107457637787 -0.022005174309015274
0.0171381644904613495 -0.00244186399504542351 -0.0279945693910121918
0.0311271399259567261 -0.00450391089543700218 -0.0260447990149259567
0.0566802360117435455 -0.00446346122771501541 -0.0229527875781059265
0.0713523775339126587 -0.00486414413899183273 -0.0210930891335010529
0.0650447756052017212 -0.0045970291830599308 -0.0219114497303962708
0.0317613258957862854 -0.0046907900832593441 -0.0259306877851486206
0.0539299659430980682 -0.00410953070968389511 -0.0233568474650382996
0.068448483943939209 -0.00470029236748814583 -0.0214779786765575409
0.0672823861241340637 -0.00372220319695770741 -0.0218139998614788055
0.0562065877020359039 -0.00380341662093997002 -0.023141542449593544
0.0695440769195556641 -0.00423686625435948372 -0.0214372426271438599
0.0747766941785812378 -0.00393134728074073792 -0.0208632014691829681
0.0733611062169075012 -0.00457053864374756813 -0.0209077950567007065
0.0561512112617492676 -0.00395471369847655296 -0.0231181643903255463
0.0432455167174339294 -0.00457242736592888832 -0.0245609916746616364
0.0566304922103881836 -0.00440161209553480148 -0.0229711271822452545
0.043496251106262207 -0.00395604595541954041 -0.0246531777083873749
0.0611912161111831665 -0.00467841606587171555 -0.0223627667874097824
0.00968746747821569443 -0.00456553231924772263 -0.0286335665732622147
0.0656929314136505127 -0.00411170860752463341 -0.0219293516129255295
0.025546293705701828 -0.00467785494402050972 -0.0266872588545084
0.06362152099609375 -0.0042774667963385582 -0.0221476815640926361
0.0677259266376495361 -0.00433130422607064247 -0.0216390322893857956
0.0633049160242080688 -0.00400855811312794685 -0.0222395788878202438
0.0340242683887481689 -0.00454917643219232559 -0.0256843212991952896
0.0271708182990550995 -0.00461748475208878517 -0.0265021827071905136
0.0472417846322059631 -0.0040457271970808506 -0.0241809394210577011
0.0505238845944404602 -0.0047194906510412693 -0.0236487388610839844
0.0266646295785903931 -0.00453351670876145363 -0.0265802927315235138
0.0392547771334648132 -0.00462916027754545212 -0.0250338539481163025
0.0431324392557144165 -0.0041333148255944252 -0.0246620532125234604
0.0311149992048740387 -0.00465332064777612686 -0.0260165538638830185
0.0421903282403945923 -0.00418950431048870087 -0.0247651729732751846
0.0200770553201436996 -0.0047699538990855217 -0.0273324586451053619
0.0541474819183349609 -0.00394542329013347626 -0.0233631003648042679
0.0580054372549057007 -0.00454485975205898285 -0.0227758269757032394
0.0574902482330799103 -0.00381456036120653152 -0.0229835938662290573
0.0544982515275478363 -0.00376911484636366367 -0.0233556181192398071
0.05681571364402771 -0.00405177660286426544 -0.0230182409286499023
0.0271021667867898941 -0.00657872017472982407 -0.0260959826409816742
0.0465173833072185516 -0.00586769683286547661 -0.0238962303847074509
0.0661355629563331604 -0.00571204535663127899 -0.0215147584676742554
0.050775039941072464 -0.00646488973870873451 -0.0232014376670122147
0.023609459400177002 -0.00665572052821516991 -0.0265060663223266602
0.0151633517816662788 -0.00665486697107553482 -0.0275504868477582932
0.0724867731332778931 -0.00627122260630130768 -0.0205718632787466049
0.038321278989315033 -0.00630768574774265289 -0.0247854162007570267
0.0364639982581138611 -0.00617707334458827972 -0.0250518657267093658
0.0443357415497303009 -0.00653398875147104263 -0.0239780321717262268
0.0124577973037958145 -0.00682067126035690308 -0.0278382096439599991
0.0725372433662414551 -0.00549469608813524246 -0.0207846276462078094
0.0619844719767570496 -0.00602721329778432846 -0.0219390671700239182
0.0602529868483543396 -0.00607365462929010391 -0.0221400316804647446
0.0593941174447536469 -0.0055601014755666256 -0.0223910491913557053
0.0150815276429057121 -0.00677957059815526009 -0.0275254324078559875
0.0567928999662399292 -0.00638536782935261726 -0.0224798843264579773
0.0595519095659255981 -0.00617203209549188614 -0.0221989583224058151
0.0480190031230449677 -0.00576218171045184135 -0.0237403474748134613
0.0696462169289588928 -0.00604893453419208527 -0.020985729992389679
0.0318990647792816162 -0.00673010013997554779 -0.0254602544009685516
0.0146060558035969734 -0.00666254572570323944 -0.0276172198355197906
0.0254709571599960327 -0.00643220031633973122 -0.0263389702886343002
0.0636394470930099487 -0.00572242867201566696 -0.0218204222619533539
0.0581875964999198914 -0.00574070494621992111 -0.0224892757833003998
0.0735706984996795654 -0.0059107108972966671 -0.0205395333468914032
0.0601774044334888458 -0.00589750474318861961 -0.0221990533173084259
0.0301588214933872223 -0.00675371987745165825 -0.0256687365472316742
0.0617931447923183441 -0.00626821722835302353 -0.0218947511166334152
0.0240055546164512634 -0.00667327176779508591 -0.0264521464705467224
0.0397526733577251434 -0.00623255548998713493 -0.024629645049571991
0.034058593213558197 -0.00609768787398934364 -0.0253716334700584412
0.0712058618664741516 -0.00616857782006263733 -0.0207591690123081207
0.0710757970809936523 -0.00568017736077308655 -0.0209129918366670609
0.0658041462302207947 -0.00656953081488609314 -0.0213138982653617859
0.0422349274158477783 -0.00672011123970150948 -0.0241852626204490662
0.0450851321220397949 -0.00611200230196118355 -0.024004397913813591
0.0435457602143287659 -0.00653389748185873032 -0.024075724184513092
0.0593144893646240234 -0.0151229370385408401 -0.0174359790980815887
0.0478729270398616791 -0.0160454418510198593 -0.0184371769428253174
0.0403836481273174286 -0.0167142860591411591 -0.0190324429422616959
0.0593885332345962524 -0.0150245344266295433 -0.0175149440765380859
0.0565561354160308838 -0.0158954299986362457 -0.0171688497066497803
0.049768008291721344 -0.0163414590060710907 -0.0178564693778753281
0.0602286159992218018 -0.0156307537108659744 -0.016818435862660408
0.0635819882154464722 -0.0148630952462553978 -0.0169846843928098679
0.0726151838898658752 -0.0151228290051221848 -0.0152808809652924538
0.0717633143067359924 -0.014776693657040596 -0.0157388783991336823
0.0703114420175552368 -0.0149801792576909065 -0.0157860349863767624
0.0552986264228820801 -0.0160750076174736023 -0.0172066129744052887
0.0335757508873939514 -0.017445683479309082 -0.0194594748318195343
0.0535574592649936676 -0.0157723277807235718 -0.0177685394883155823
0.0217691753059625626 -0.0182451680302619934 -0.0206335354596376419
0.0646952018141746521 -0.0146104330196976662 -0.0170378629118204117
0.0478328727185726166 -0.0164256729185581207 -0.0180921871215105057
0.0411198101937770844 -0.0164369400590658188 -0.0191695317625999451
0.0445015057921409607 -0.0166758038103580475 -0.0184007715433835983
0.0131156928837299347 -0.0186202824115753174 -0.0216889660805463791
0.0149054694920778275 -0.0186067987233400345 -0.0214114189147949219
0.0752166062593460083 -0.0146051002666354179 -0.0153379384428262711
0.0445043407380580902 -0.0165989138185977936 -0.0184713862836360931
0.0465217269957065582 -0.0165649894624948502 -0.0181758571416139603
0.0535608232021331787 -0.0158900395035743713 -0.0176591817289590836
0.0718076601624488831 -0.0148950247094035149 -0.0156223122030496597
0.0131781939417123795 -0.0187271181493997574 -0.0215800777077674866
0.038136754184961319 -0.016739431768655777 -0.0193732772022485733
0.0726233646273612976 -0.0151189239695668221 -0.0152831664308905602
0.0451173409819602966 -0.016660589724779129 -0.018315047025680542
0.0179460905492305756 -0.0184471551328897476 -0.021066298708319664
0.0512425452470779419 -0.0160982757806777954 -0.0178423374891281128
0.046922631561756134 -0.0160125978291034698 -0.0186215192079544067
0.0436886735260486603 -0.0163925886154174805 -0.018794279545545578
0.0326506942510604858 -0.0174094997346401215 -0.0196428149938583374
0.0278213899582624435 -0.0175588522106409073 -0.0202872790396213531
0.0102737536653876305 -0.0189488250762224197 -0.0218457598239183426
0.0585253089666366577 -0.0157310180366039276 -0.0170017518103122711
0.063221372663974762 -0.010924006812274456 -0.0197898037731647491
0.0466249808669090271 -0.0112611176446080208 -0.021864352747797966
0.0670401230454444885 -0.0103958835825324059 -0.0195647813379764557
0.0239283330738544464 -0.0126091772690415382 -0.0242046713829040527
0.0714525356888771057 -0.0107995262369513512 -0.0187369845807552338
0.0629931539297103882 -0.0106051107868552208 -0.0199995152652263641
0.0555741004645824432 -0.0106995692476630211 -0.0209583938121795654
0.0556968525052070618 -0.010967843234539032 -0.0207914132624864578
0.0136291598901152611 -0.013205348514020443 -0.0252753552049398422
0.0752012282609939575 -0.010263386182487011 -0.0185260102152824402
0.0649356842041015625 -0.0105498796328902245 -0.0197655335068702698
0.0583757907152175903 -0.0114668142050504684 -0.020146634429693222
0.0414423644542694092 -0.0118565531447529793 -0.022237677127122879
0.0679097026586532593 -0.0108823534101247787 -0.0191737562417984009
0.0746920481324195862 -0.0100893005728721619 -0.0186929404735565186
0.0583023317158222198 -0.0106933703646063805 -0.0205898024141788483
0.0745212957262992859 -0.0101501680910587311 -0.0186821389943361282
0.0519223883748054504 -0.0111470120027661324 -0.0212058182805776596
0.0447533540427684784 -0.0120308324694633484 -0.021688537672162056
0.0463480576872825623 -0.0120556782931089401 -0.0214571431279182434
0.0201269462704658508 -0.012758932076394558 -0.0246392209082841873
0.0503211915493011475 -0.0119018377736210823 -0.0210014618933200836
0.0123932827264070511 -0.0131177576258778572 -0.0254929531365633011
0.018619513139128685 -0.0128588955849409103 -0.0247888173907995224
0.0598426498472690582 -0.0111624253913760185 -0.0201170574873685837
0.0630717352032661438 -0.0113285034894943237 -0.019583679735660553
0.0312991514801979065 -0.0120089044794440269 -0.0235356409102678299
0.0684557035565376282 -0.0104248868301510811 -0.0193554889410734177
0.0751154795289039612 -0.0101875849068164825 -0.0185801535844802856
0.0750006884336471558 -0.0107360528782010078 -0.0182886496186256409
0.0557665452361106873 -0.0109338639304041862 -0.0208009369671344757
0.0428139939904212952 -0.0117686577141284943 -0.0220998432487249374
0.0433985106647014618 -0.011490553617477417 -0.0221758745610713959
0.0606143325567245483 -0.0112241236492991447 -0.0199772659689188004
0.0479342266917228699 -0.0115905590355396271 -0.0215013101696968079
0.0385095849633216858 -0.0122661981731653214 -0.0224082227796316147
0.0618259608745574951 -0.0110538993030786514 -0.0199073590338230133
0.0472459644079208374 -0.0112680476158857346 -0.0217757858335971832
0.0441986620426177979 -0.0137283708900213242 -0.0207351036369800568
0.0679029673337936401 -0.0123883336782455444 -0.0182382911443710327
0.0360246449708938599 -0.0136633580550551414 -0.0219482854008674622
0.0639761835336685181 -0.0128836371004581451 -0.0184692833572626114
0.0643378645181655884 -0.0122797824442386627 -0.0188210085034370422
0.0582796633243560791 -0.0127533888444304466 -0.0193715095520019531
0.0490673407912254333 -0.0129167810082435608 -0.0205806605517864227
0.0570298135280609131 -0.0131926052272319794 -0.0192568935453891754
0.0726132690906524658 -0.0123273264616727829 -0.0176049899309873581
0.0754161998629570007 -0.0120328944176435471 -0.0174006111919879913
0.0726458579301834106 -0.0113895554095506668 -0.0182269252836704254
0.0698382556438446045 -0.0126445600762963295 -0.0177901368588209152
0.0754485875368118286 -0.0117872236296534538 -0.0175601299852132797
0.0735582038760185242 -0.0113715855404734612 -0.0181083716452121735
0.0577032677829265594 -0.0128828100860118866 -0.0193675179034471512
0.0670983120799064636 -0.0121378935873508453 -0.0185207817703485489
0.065806172788143158 -0.0119244642555713654 -0.0188483018428087234
0.0587732493877410889 -0.0127066243439912796 -0.0193321239203214645
0.070467829704284668 -0.0117144361138343811 -0.0183215346187353134
0.0243815183639526367 -0.0142794391140341759 -0.0232028160244226456
0.0366670265793800354 -0.0140821617096662521 -0.0215765200555324554
0.0670042037963867188 -0.0123690888285636902 -0.0183797683566808701
0.0663180500268936157 -0.0117581086233258247 -0.0188862048089504242
0.0732498764991760254 -0.0121225295588374138 -0.0176507290452718735
0.0477584972977638245 -0.0127846021205186844 -0.0208562817424535751
0.0690855607390403748 -0.0124633042141795158 -0.0180189628154039383
0.0457788929343223572 -0.0136406412348151207 -0.0205675847828388214
0.0675123333930969238 -0.0115614719688892365 -0.0188466869294643402
0.0505172424018383026 -0.0134311318397521973 -0.0200294945389032364
0.0521956123411655426 -0.013371606357395649 -0.0198290850967168808
0.035435359925031662 -0.0139571893960237503 -0.0218362808227539062
0.074067629873752594 -0.0117060123011469841 -0.0178120136260986328
0.0639643296599388123 -0.012837488204240799 -0.0185018144547939301
0.0398299209773540497 -0.0135109787806868553 -0.0215055495500564575
0.0731953755021095276 -0.0113969398662447929 -0.0181433539837598801
0.0679117962718009949 -0.0117862652987241745 -0.0186393186450004578
0.0518239215016365051 -0.0129399411380290985 -0.0201707072556018829
0.0532714091241359711 -0.0127187883481383324 -0.0201113335788249969
0.0412769578397274017 -0.0148433344438672066 -0.0204069316387176514
0.0044313305988907814 -0.0174214895814657211 -0.0239571351557970047
0.0673248618841171265 -0.0134244859218597412 -0.0175788179039955139
0.0447471663355827332 -0.015065537765622139 -0.0197059717029333115
0.0597017854452133179 -0.0135996900498867035 -0.0185957085341215134
0.0626190900802612305 -0.0136198820546269417 -0.0181377734988927841
0.0324751287698745728 -0.015492553822696209 -0.0212287362664937973
0.0694804787635803223 -0.013316434808075428 -0.0173373930156230927
0.0241504814475774765 -0.0161156579852104187 -0.0219988282769918442
0.0541943684220314026 -0.0142539236694574356 -0.0189144071191549301
0.0273684281855821609 -0.0158570744097232819 -0.021715112030506134
0.052808806300163269 -0.0142872985452413559 -0.0190980304032564163
0.0335358157753944397 -0.0156533550471067429 -0.0209412612020969391
0.0588472820818424225 -0.0140737984329462051 -0.0183514207601547241
0.053491588681936264 -0.014095894992351532 -0.0191454682499170303
0.0646581873297691345 -0.013203255832195282 -0.0181572623550891876
0.0676108002662658691 -0.0136001352220773697 -0.0173970256000757217
0.0593930445611476898 -0.0144698861986398697 -0.0179564803838729858
0.0511217862367630005 -0.0144927874207496643 -0.019191645085811615
0.0719515606760978699 -0.0135718546807765961 -0.0167616307735443115
0.06748933345079422 -0.0136044491082429886 -0.0174120273441076279
0.0499426499009132385 -0.0142951859161257744 -0.0195260755717754364
0.0719861239194869995 -0.0139077119529247284 -0.0164916254580020905
0.0368106700479984283 -0.0156911686062812805 -0.0204152632504701614
0.0474624447524547577 -0.0145399114117026329 -0.0197089370340108871
0.0281390715390443802 -0.0160657875239849091 -0.0214338116347789764
0.0628023892641067505 -0.0142660206183791161 -0.0176006276160478592
0.0676049068570137024 -0.0136722382158041 -0.0173410754650831223
0.0411706194281578064 -0.0155101893469691277 -0.0198973380029201508
0.0521859563887119293 -0.0141001036390662193 -0.019339974969625473
0.0655786246061325073 -0.0140236532315611839 -0.0173710547387599945
0.0337248742580413818 -0.0155189735814929008 -0.0210185535252094269
0.0436307340860366821 -0.0147318784147500992 -0.0201381649821996689
0.0692741051316261292 -0.0134414546191692352 -0.0172701030969619751
0.0394556522369384766 -0.0154320355504751205 -0.0202187933027744293
0.0508687123656272888 -0.014208449050784111 -0.0194541420787572861
0.0585788264870643616 -0.0136844730004668236 -0.0186990145593881607
0.0313491187989711761 -0.0157154425978660583 -0.0212236326187849045
0.063953794538974762 -0.00945757795125246048 -0.0204346291720867157
0.0586151257157325745 -0.00988471880555152893 -0.0209372006356716156
0.0645916163921356201 -0.00949343107640743256 -0.0203345306217670441
0.0283652320504188538 -0.010542379692196846 -0.0245974306017160416
0.0564909428358078003 -0.0100004002451896667 -0.0211621858179569244
0.0605047643184661865 -0.00921438727527856827 -0.0209986418485641479
0.0742243826389312744 -0.00846821069717407227 -0.0195450559258460999
0.0167050007730722427 -0.0108036193996667862 -0.0260047484189271927
0.054137401282787323 -0.0100901313126087189 -0.021429186686873436
0.0558160915970802307 -0.00979071017354726791 -0.0213472750037908554
0.0444753840565681458 -0.00953836459666490555 -0.0229494944214820862
0.0262551270425319672 -0.0106918448582291603 -0.0248049963265657425
0.0205145943909883499 -0.0109425252303481102 -0.0254415683448314667
0.0605741888284683228 -0.00913886167109012604 -0.0210243649780750275
0.0475725717842578888 -0.0102738058194518089 -0.0222046505659818649
0.069445684552192688 -0.00896449200809001923 -0.0199423842132091522
0.0525231547653675079 -0.00925366301089525223 -0.0220263060182332993
0.0518412068486213684 -0.00966539420187473297 -0.0219258461147546768
0.0590425729751586914 -0.00921394024044275284 -0.0211904272437095642
0.039934162050485611 -0.00979458168148994446 -0.023426378145813942
0.0439848378300666809 -0.010109245777130127 -0.02275058813393116
0.042289000004529953 -0.00962893292307853699 -0.0231942087411880493
0.0618866086006164551 -0.00949177052825689316 -0.0206897128373384476
0.0477803125977516174 -0.00986313167959451675 -0.0223667565733194351
0.0738221108913421631 -0.00850941240787506104 -0.0195787679404020309
0.0351033508777618408 -0.0100967111065983772 -0.0239200405776500702
0.0681692808866500854 -0.00913735851645469666 -0.0200299285352230072
0.0707978978753089905 -0.00838691834360361099 -0.0200314782559871674
0.0670485347509384155 -0.00909117516130208969 -0.0201980620622634888
0.0728452056646347046 -0.00869529880583286285 -0.019621068611741066
0.0693386346101760864 -0.00856585334986448288 -0.0201401840895414352
0.0434290505945682526 -0.0103217596188187599 -0.0227254405617713928
0.0604757890105247498 -0.00988667085766792297 -0.0206925123929977417
0.0388725847005844116 -0.0102012110874056816 -0.0233780127018690109
0.0737667903304100037 -0.00866438820958137512 -0.019514571875333786
0.0306332539767026901 -0.0106053836643695831 -0.0242712218314409256
0.0472705177962779999 -0.00962310563772916794 -0.0225442033261060715
0.0561953485012054443 -0.00901265256106853485 -0.0216562729328870773
0.0564997494220733643 -0.0165932569652795792 -0.0165279880166053772
0.0715221241116523743 -0.0160383004695177078 -0.0144950607791543007
0.0664193034172058105 -0.0158131569623947144 -0.0156330931931734085
0.0564117841422557831 -0.0166362151503562927 -0.0164969339966773987
0.0513248927891254425 -0.0173592101782560349 -0.0166064854711294174
0.0583813413977622986 -0.0164888687431812286 -0.0163110885769128799
0.0589168667793273926 -0.0164514239877462387 -0.0162577256560325623
0.0280286744236946106 -0.0192468203604221344 -0.0186480805277824402
0.0614100173115730286 -0.0165868531912565231 -0.0156741924583911896
0.018773641437292099 -0.0199180077761411667 -0.0195443090051412582
0.0651498734951019287 -0.0165862813591957092 -0.0150192519649863243
0.0734898746013641357 -0.0158211980015039444 -0.0143849905580282211
0.0497762635350227356 -0.0176428835839033127 -0.01657106913626194
0.0464700981974601746 -0.0175538696348667145 -0.0172469019889831543
0.0594241060316562653 -0.0169793087989091873 -0.0155977476388216019
0.00865979492664337158 -0.0207128953188657761 -0.0204572658985853195
0.0294104553759098053 -0.018904397264122963 -0.0187762975692749023
0.0391679555177688599 -0.0180395971983671188 -0.0180014409124851227
0.0531595051288604736 -0.0175290368497371674 -0.0161011777818202972
0.0201972164213657379 -0.0198594909161329269 -0.0193580742925405502
0.0623699203133583069 -0.0161178708076477051 -0.0160132721066474915
0.0508039742708206177 -0.0177605561912059784 -0.0162636246532201767
0.0591952092945575714 -0.0169528760015964508 -0.0156664643436670303
0.0483999475836753845 -0.0176352765411138535 -0.0168205518275499344
0.0411800146102905273 -0.0180913656949996948 -0.0175927430391311646
0.0659285783767700195 -0.0163161810487508774 -0.0151749448850750923
0.0644513741135597229 -0.0159915108233690262 -0.0157851111143827438
0.0650054365396499634 -0.0159938912838697433 -0.0156854148954153061
0.0403655730187892914 -0.0179815255105495453 -0.0178543310612440109
0.0335264131426811218 -0.0188959036022424698 -0.0180639997124671936
0.0732387155294418335 -0.0156848784536123276 -0.0145764881744980812
0.0159656517207622528 -0.0201098024845123291 -0.0198290422558784485
0.0146996602416038513 -0.020157400518655777 -0.0199994668364524841
0.0544898435473442078 -0.0175214949995279312 -0.0158761404454708099
0.0604216083884239197 -0.0170239359140396118 -0.0153746176511049271
0.0600419603288173676 -0.0167482420802116394 -0.0157394111156463623
0.0632835477590560913 -0.0160587653517723083 -0.0159170646220445633
0.0649816542863845825 -0.0164662599563598633 -0.0151785751804709435
0.0198911502957344055 -0.0244131963700056076 -0.0132199488580226898
0.0435315296053886414 -0.021873127669095993 -0.0119987549260258675
0.0591423027217388153 -0.0205138344317674637 -0.0106244701892137527
0.0494353398680686951 -0.0214474089443683624 -0.0113212615251541138
0.0230999402701854706 -0.0240619275718927383 -0.0130657926201820374
0.0551288947463035583 -0.0208107214421033859 -0.0110716726630926132
0.0445642955601215363 -0.0216787345707416534 -0.0120943747460842133
0.0118456780910491943 -0.0249434951692819595 -0.0142322331666946411
0.0149220917373895645 -0.0248202104121446609 -0.0137032186612486839
0.0424521490931510925 -0.0219061430543661118 -0.0122026484459638596
0.0629708617925643921 -0.0200691614300012589 -0.0104861771687865257
0.0677618458867073059 -0.0195942092686891556 -0.0101675847545266151
0.00781711935997009277 -0.0253234673291444778 -0.0145347658544778824
0.0245801545679569244 -0.0241780020296573639 -0.012498069554567337
0.00776841863989830017 -0.0253946166485548019 -0.0144195780158042908
0.0181810017675161362 -0.0244902279227972031 -0.0134988520294427872
0.0167619958519935608 -0.0249833669513463974 -0.0129638342186808586
0.0248625054955482483 -0.0237097013741731644 -0.0132655231282114983
0.0157905146479606628 -0.0249487441033124924 -0.0132622327655553818
0.0265230927616357803 -0.0239987019449472427 -0.0123450979590415955
0.0371407829225063324 -0.0225311815738677979 -0.0123799657449126244
0.00753260869532823563 -0.0258917193859815598 -0.0135893607512116432
0.0434385612607002258 -0.0221377182751893997 -0.0115489335730671883
0.0136647550389170647 -0.0253257490694522858 -0.0131066953763365746
0.0374780818819999695 -0.0223307479172945023 -0.0126557284966111183
0.0227964967489242554 -0.0236483830958604813 -0.0138781238347291946
0.00209814496338367462 -0.0263457056134939194 -0.0141020901501178741
0.000546887516975402832 -0.0257118139415979385 -0.015611741691827774
0.00217895954847335815 -0.0260835718363523483 -0.0145504819229245186
0.00434038462117314339 -0.0263098888099193573 -0.013620021753013134
0.0322418063879013062 -0.0229752678424119949 -0.0127799734473228455
0.00910009816288948059 -0.0250096786767244339 -0.0147826476022601128
0.00514630228281021118 -0.0253451317548751831 -0.0151464678347110748
0.0230857469141483307 -0.0238592755049467087 -0.0134311113506555557
0.0065679759718477726 -0.0261135473847389221 -0.0134281627833843231
0.00332583393901586533 -0.0263301953673362732 -0.0138308219611644745
0.0343731977045536041 -0.0231532789766788483 -0.0119430823251605034
0.0114372875541448593 -0.0252555087208747864 -0.0137745430693030357
0.0659180879592895508 -0.0197453666478395462 -0.0103466557338833809
0.0286315791308879852 -0.0231113843619823456 -0.0134160667657852173
0.00516114756464958191 -0.0254158060997724533 -0.0150166545063257217
0.023393191397190094 -0.0241559706628322601 -0.0128264548256993294
0.05703720822930336 -0.0206306986510753632 -0.0109284212812781334
0.0601425692439079285 -0.0204571839421987534 -0.0104820486158132553
0.0360847003757953644 -0.0227668844163417816 -0.0122162606567144394
0.0218006893992424011 -0.0242007635533809662 -0.0131342709064483643
0.0107955913990736008 -0.025659630075097084 -0.0132091986015439034
0.0159928221255540848 -0.0247738733887672424 -0.0135252214968204498
0.00811852328479290009 -0.0256116166710853577 -0.0139468405395746231
0.0482894405722618103 -0.0215423256158828735 -0.0114308185875415802
0.00566486269235610962 -0.0252160858362913132 -0.015250619500875473
0.0175208672881126404 -0.0245077069848775864 -0.0136283915489912033
0.0140154501423239708 -0.0251695141196250916 -0.0133002744987607002
0.0150011572986841202 -0.0249641276895999908 -0.0134269837290048599
0.0418854355812072754 -0.022328721359372139 -0.0115860849618911743
0.0251335073262453079 -0.0214504003524780273 -0.0166223999112844467
0.0442477874457836151 -0.0199664495885372162 -0.0148311033844947815
0.00610880553722381592 -0.0224863160401582718 -0.018964812159538269
0.0104776322841644287 -0.0225634798407554626 -0.0180272608995437622
0.00756513979285955429 -0.0234280955046415329 -0.0174902696162462234
0.00967971049249172211 -0.0233217626810073853 -0.0172187425196170807
0.00237268581986427307 -0.0239523258060216904 -0.0178232528269290924
0.0074973665177822113 -0.0227437447756528854 -0.0183713901787996292
0.0226498991250991821 -0.0213035587221384048 -0.017286006361246109
0.051202818751335144 -0.0193706303834915161 -0.0142501676455140114
0.0244027338922023773 -0.0213585346937179565 -0.0168793853372335434
0.0605421103537082672 -0.0184934474527835846 -0.0135678974911570549
0.0210613124072551727 -0.0219959896057844162 -0.0167129840701818466
0.00383779779076576233 -0.0228805951774120331 -0.0189011488109827042
0.0383557677268981934 -0.0202464330941438675 -0.0156083656474947929
0.0159051269292831421 -0.0217616762965917587 -0.0180012024939060211
0.064843304455280304 -0.0179917383939027786 -0.0133776431903243065
0.0484833195805549622 -0.0196764674037694931 -0.0143848937004804611
0.0130275711417198181 -0.022686246782541275 -0.0173814445734024048
0.000862486660480499268 -0.0232845991849899292 -0.0189605150371789932
0.0172238312661647797 -0.0216996762901544571 -0.0178264006972312927
0.00413499027490615845 -0.0235021263360977173 -0.0180556215345859528
0.0262991264462471008 -0.0217968802899122238 -0.0159588642418384552
0.0364773273468017578 -0.0203589033335447311 -0.0158267281949520111
0.00382287055253982544 -0.0235807448625564575 -0.0180158820003271103
0.0478309839963912964 -0.0194640215486288071 -0.0147797539830207825
0.00513607403263449669 -0.023884851485490799 -0.0173777323216199875
0.0126240607351064682 -0.0229111909866333008 -0.0171736571937799454
0.0216333344578742981 -0.022217772901058197 -0.0163217112421989441
0.0453063622117042542 -0.0198652520775794983 -0.014756019227206707
0.0368376560509204865 -0.0207476373761892319 -0.0152643648907542229
0.0341308563947677612 -0.0206218212842941284 -0.0159441959112882614
0.0534767583012580872 -0.018874017521739006 -0.0144430771470069885
0.0216720364987850189 -0.0214789435267448425 -0.0172514747828245163
0.0121056921780109406 -0.0222597233951091766 -0.0180996693670749664
0.00785461068153381348 -0.0227434113621711731 -0.0183031540364027023
0.0385507382452487946 -0.0203918535262346268 -0.0153864296153187752
