ply
format ascii 1.0
element vertex 696
property float x
property float y
property float z
end_header
-0.0375000014901161194 0.00764364283531904221 -0.00891896244138479233
-0.0375000014901161194 0.0145054766908288002 0.00443148892372846603
-0.0375000014901161194 0.0165420174598693848 -0.000470085447886958718
-0.0375000014901161194 -0.00444290135055780411 -0.0115794269368052483
-0.0375000014901161194 0.00117766670882701874 -0.0157783795148134232
-0.0375000014901161194 0.00660927407443523407 -0.000637015677057206631
-0.0375000014901161194 0.0152324233204126358 -0.0126900747418403625
-0.0375000014901161194 0.00521611608564853668 -0.00176774722058326006
-0.0375000014901161194 0.000927162356674671173 -0.00516914715990424156
-0.0375000014901161194 0.0142819928005337715 -0.00836898665875196457
-0.0375000014901161194 -0.0105719100683927536 -0.0128758158534765244
-0.0375000014901161194 0.0122001022100448608 -0.0054619302973151207
-0.0375000014901161194 -0.0132708325982093811 -0.0141575243324041367
-0.0375000014901161194 -0.00290893344208598137 -0.00666417274624109268
-0.0375000014901161194 0.018434964120388031 0.00591420195996761322
-0.0375000014901161194 -0.00336266309022903442 -0.0127674974501132965
-0.0375000014901161194 0.0103329559788107872 -0.00469924835488200188
-0.0375000014901161194 0.0067407623864710331 -0.000185334021807648242
-0.0375000014901161194 0.0143686123192310333 -0.0106437224894762039
-0.0375000014901161194 0.018064059317111969 -0.0149525860324501991
-0.0375000014901161194 0.0171168781816959381 -0.0114814043045043945
-0.0375000014901161194 -0.00647465931251645088 -0.0126225082203745842
-0.0375000014901161194 0.0113826757296919823 0.00189855939242988825
-0.0375000014901161194 -0.0124998912215232849 -0.0128653217107057571
-0.0375000014901161194 0.00905922707170248032 -0.00119892461225390434
-0.0375000014901161194 -0.000590652227401733398 -0.0104955080896615982
-0.0375000014901161194 0.00989804323762655258 -0.00782431848347187042
-0.0375000014901161194 -0.000983684905804693699 -0.00119395775254815817
-0.0375000014901161194 0.00309508852660655975 -0.00741602946072816849
-0.0375000014901161194 -0.00620629452168941498 -0.0136347450315952301
-0.0375000014901161194 0.0175686553120613098 -0.00741048948839306831
-0.0375000014901161194 0.016322653740644455 -0.00849627051502466202
-0.0375000014901161194 0.00777687877416610718 -0.0158950798213481903
-0.0375000014901161194 0.0178266409784555435 0.000683444028254598379
-0.0375000014901161194 0.00482635479420423508 -0.0084641454741358757
-0.0375000014901161194 0.017194848507642746 0.00515816966071724892
-0.0375000014901161194 0.00643416866660118103 -0.0157082471996545792
-0.0375000014901161194 -0.000964153558015823364 -0.0119120590388774872
-0.0375000014901161194 0.00771960988640785217 -0.0122505351901054382
-0.0375000014901161194 0.0106470175087451935 -0.0124694481492042542
-0.0375000014901161194 -0.00438078306615352631 -0.0116478428244590759
-0.0375000014901161194 0.00820621568709611893 -0.0079367244616150856
-0.0375000014901161194 0.0108663644641637802 -0.0116327647119760513
-0.0375000014901161194 0.0115070166066288948 -0.0092159593477845192
-0.0375000014901161194 0.0154407452791929245 0.000371948321117088199
-0.0375000014901161194 0.0035925721749663353 -0.00351661187596619129
-0.0375000014901161194 0.00637118145823478699 -0.00710826599970459938
-0.0375000014901161194 -0.00321528082713484764 -0.00326140644028782845
-0.0375000014901161194 0.00360102253034710884 -0.00162350235041230917
-0.0375000014901161194 -0.00874603446573019028 -0.0161275211721658707
-0.0375000014901161194 0.00131680350750684738 -0.0072727566584944725
-0.0375000014901161194 0.0141954636201262474 0.000346192275173962116
-0.0375000014901161194 -0.0136308623477816582 -0.0125444261357188225
-0.0375000014901161194 -0.00354644912295043468 -0.00343028898350894451
-0.0375000014901161194 0.0138054471462965012 -0.0135834068059921265
-0.0375000014901161194 0.0019671265035867691 0.000211576480069197714
-0.0375000014901161194 0.00128931738436222076 -0.0124849332496523857
-0.0375000014901161194 0.0144390976056456566 -0.012069125659763813
-0.0375000014901161194 -0.00612104684114456177 -0.00763303693383932114
-0.0375000014901161194 0.00919607281684875488 0.00056529586436226964
-0.0375000014901161194 0.0174102000892162323 -0.0126302726566791534
-0.0375000014901161194 0.0169876907020807266 0.0109703661873936653
-0.0375000014901161194 0.0129451043903827667 -0.0155272427946329117
-0.0375000014901161194 0.015020378865301609 -0.00486106611788272858
-0.0375000014901161194 0.0135881584137678146 -0.0159601550549268723
-0.0375000014901161194 -0.0015359390527009964 -0.0129815191030502319
-0.0375000014901161194 0.0149156544357538223 -0.00798386894166469574
-0.0375000014901161194 0.00134234316647052765 -0.013503367081284523
-0.0375000014901161194 -0.00328453350812196732 -0.0143310539424419403
-0.0375000014901161194 0.0155449174344539642 0.00521431257948279381
-0.0375000014901161194 0.00956673361361026764 -0.00256155640818178654
-0.0375000014901161194 0.0119090545922517776 -0.0144131341949105263
-0.0375000014901161194 0.015347994863986969 -0.0057163960300385952
-0.0375000014901161194 0.0128356637433171272 0.00443774648010730743
-0.0375000014901161194 -0.000606112182140350342 -0.0137436818331480026
-0.0375000014901161194 0.0168000273406505585 -0.0132068153470754623
-0.0375000014901161194 -0.0058716312050819397 -0.00700079090893268585
-0.0375000014901161194 0.0120717128738760948 -0.00584973068907856941
-0.0375000014901161194 0.0136845782399177551 0.00887848064303398132
-0.0375000014901161194 -0.0126051539555191994 -0.0134196458384394646
-0.0375000014901161194 0.0113053200766444206 -0.00932603701949119568
-0.0375000014901161194 0.00733549054712057114 -7.04260855854954571e-06
-0.0375000014901161194 0.0185120254755020142 -0.00794114824384450912
-0.0375000014901161194 0.00937742274254560471 -0.0075318911112844944
-0.0375000014901161194 0.00118633173406124115 -0.00787783041596412659
-0.0375000014901161194 0.0129452301189303398 0.000100538571132346988
-0.0375000014901161194 -0.00145247206091880798 -0.0102157695218920708
-0.0375000014901161194 0.0111764660105109215 0.00791697017848491669
-0.0375000014901161194 0.00813102908432483673 0.00105478777550160885
-0.0375000014901161194 0.00785272195935249329 0.00398322474211454391
-0.0375000014901161194 0.00668252864852547646 0.00179864873643964529
-0.0375000014901161194 0.00893560610711574554 -0.0159859266132116318
-0.0375000014901161194 0.0138153433799743652 -0.0082525741308927536
-0.0375000014901161194 0.00744420383125543594 -0.00378609425388276577
-0.0375000014901161194 0.00782437808811664581 -0.00813547335565090179
-0.0375000014901161194 -0.000293403863906860352 -0.00469614984467625618
-0.0375000014901161194 0.00312930159270763397 -0.00751223787665367126
-0.0375000014901161194 0.0030912403017282486 -0.014741918072104454
-0.0375000014901161194 0.00801078323274850845 -0.00724450172856450081
-0.0375000014901161194 -0.00520056858658790588 -0.0135463709011673927
-0.0375000014901161194 -0.00416208617389202118 -0.0151622146368026733
-0.0375000014901161194 0.00250652991235256195 -0.00469036120921373367
-0.0375000014901161194 0.0081901969388127327 -0.000451576343039050698
-0.0375000014901161194 0.018340136855840683 -0.0148507729172706604
-0.0375000014901161194 0.0094260023906826973 -0.00164459028746932745
-0.0375000014901161194 -0.0133462166413664818 -0.0125365108251571655
-0.0375000014901161194 0.0149477357044816017 0.00105959258507937193
-0.0375000014901161194 -0.0114952456206083298 -0.0121361678466200829
-0.0375000014901161194 0.00853529851883649826 -0.00594121869653463364
-0.0375000014901161194 0.00335920415818691254 0.00224541826173663139
-0.0375000014901161194 -0.00669612409546971321 -0.0118740638718008995
-0.0375000014901161194 0.00494671706110239029 -0.0126114357262849808
-0.0375000014901161194 -0.0104455696418881416 -0.0147705515846610069
-0.0375000014901161194 -0.00294487038627266884 -0.0085093742236495018
-0.0375000014901161194 -0.00800567865371704102 -0.00960649456828832626
-0.0375000014901161194 -0.0152490623295307159 -0.0161782316863536835
-0.0375000014901161194 -0.0055385492742061615 -0.0161135774105787277
-0.0375000014901161194 0.0038764183409512043 6.37085177004337311e-05
-0.0375000014901161194 0.0175027865916490555 -0.0118897054344415665
-0.0375000014901161194 0.012257138267159462 0.00254122610203921795
-0.0375000014901161194 -0.0077864830382168293 -0.0115492884069681168
-0.0375000014901161194 -0.00734702590852975845 -0.00873421132564544678
-0.0375000014901161194 0.00900021754205226898 -0.0154031431302428246
-0.0375000014901161194 -0.0158607754856348038 -0.0148191656917333603
-0.0375000014901161194 0.0158741511404514313 -0.00950037967413663864
-0.0375000014901161194 -0.00591371627524495125 -0.00868118740618228912
-0.0375000014901161194 -0.00182276871055364609 -0.0111565645784139633
-0.0375000014901161194 0.00689101312309503555 -0.0050463811494410038
-0.0375000014901161194 0.0157335251569747925 -0.0124939633533358574
-0.0375000014901161194 -0.00224766135215759277 0.000473640859127044678
-0.0375000014901161194 -0.0182717200368642807 0.00830277148634195328
-0.0375000014901161194 -0.000835821032524108887 0.00498968455940485001
-0.0375000014901161194 -0.00300462543964385986 0.0149520775303244591
-0.0375000014901161194 -0.0122367069125175476 0.00210782047361135483
-0.0375000014901161194 0.00210594572126865387 0.00521949119865894318
-0.0375000014901161194 -0.0116268936544656754 -0.00595976272597908974
-0.0375000014901161194 0.00192146003246307373 0.0119489049538969994
-0.0375000014901161194 -0.0178991444408893585 0.0150101864710450172
-0.0375000014901161194 0.00247664935886859894 0.00821266323328018188
-0.0375000014901161194 0.0107665788382291794 0.0152090359479188919
-0.0375000014901161194 -0.0122389309108257294 0.0116110537201166153
-0.0375000014901161194 -0.0162418726831674576 -0.00761704891920089722
-0.0375000014901161194 0.00448028743267059326 0.0088984193280339241
-0.0375000014901161194 -0.00346202589571475983 0.000303583219647407532
-0.0375000014901161194 -0.0173370670527219772 0.00357724144123494625
-0.0375000014901161194 -0.00106390193104743958 0.00342987664043903351
-0.0375000014901161194 -0.00171913951635360718 0.00873166229575872421
-0.0375000014901161194 0.00204352661967277527 0.00532604753971099854
-0.0375000014901161194 -0.016669154167175293 -0.00402089674025774002
-0.0375000014901161194 -0.0114985965192317963 0.00984494201838970184
-0.0375000014901161194 -0.00971783045679330826 -0.00172785110771656036
-0.0375000014901161194 0.0110661238431930542 0.0127265918999910355
-0.0375000014901161194 -0.0147189553827047348 0.0151182133704423904
-0.0375000014901161194 -0.00768967438489198685 0.012341783381998539
-0.0375000014901161194 0.00232689641416072845 0.015322614461183548
-0.0375000014901161194 0.0107385646551847458 0.0120026664808392525
-0.0375000014901161194 -0.00654172338545322418 -0.000679505057632923126
-0.0375000014901161194 -0.000254563987255096436 0.00944723095744848251
-0.0375000014901161194 -0.0149539010599255562 -0.00903813913464546204
-0.0375000014901161194 -0.0164091587066650391 -0.0073307049460709095
-0.0375000014901161194 -0.01467878557741642 0.00899091362953186035
-0.0375000014901161194 0.00253836251795291901 0.0106414230540394783
-0.0375000014901161194 0.00242628529667854309 0.0027485378086566925
-0.0375000014901161194 -0.016304701566696167 0.0100289201363921165
-0.0375000014901161194 -0.00819411128759384155 0.00557348690927028656
-0.0375000014901161194 -0.0147401578724384308 0.00812167208641767502
-0.0375000014901161194 -0.00995915010571479797 -0.00579867558553814888
-0.0375000014901161194 0.0103958118706941605 0.0097779836505651474
-0.0375000014901161194 -0.000380538403987884521 0.0121779786422848701
-0.0375000014901161194 -0.00316215027123689651 0.0072716977447271347
-0.0375000014901161194 0.0155237261205911636 0.0155406799167394638
-0.0375000014901161194 0.0101247131824493408 0.0159528478980064392
-0.0375000014901161194 -0.00777626130729913712 0.00285001844167709351
-0.0375000014901161194 -0.0152605632320046425 0.00660853460431098938
-0.0375000014901161194 -0.000874666497111320496 -0.000376217067241668701
-0.0375000014901161194 0.000468082726001739502 0.00703465379774570465
-0.0375000014901161194 -0.00553251802921295166 0.00810539629310369492
-0.0375000014901161194 -0.0177723448723554611 0.00864744652062654495
-0.0375000014901161194 -0.0139836650341749191 -0.00971440505236387253
-0.0375000014901161194 -0.0104568284004926682 -0.000161975622177124023
-0.0375000014901161194 -0.0156933143734931946 0.012258497066795826
-0.0375000014901161194 -0.00486817490309476852 0.011189551092684269
-0.0375000014901161194 -0.012850574217736721 0.00460611842572689056
-0.0375000014901161194 0.00591986067593097687 0.00626607146114110947
-0.0375000014901161194 -0.0166908856481313705 0.00889081414788961411
-0.0375000014901161194 -0.00494616944342851639 0.00788576714694499969
-0.0375000014901161194 0.000518202781677246094 0.0069338558241724968
-0.0375000014901161194 0.0028281044214963913 0.00897233746945858002
-0.0375000014901161194 0.00206260941922664642 0.00644260458648204803
-0.0375000014901161194 -0.0116572510451078415 0.00532399769872426987
-0.0375000014901161194 -0.00687734130769968033 0.0158216003328561783
-0.0375000014901161194 -0.0139225991442799568 0.0128642544150352478
-0.0375000014901161194 0.00458834134042263031 0.00994217861443758011
-0.0375000014901161194 0.0123964808881282806 0.0112195145338773727
-0.0375000014901161194 -0.00509019661694765091 0.000116250477731227875
-0.0375000014901161194 -0.00809195172041654587 -0.00681988894939422607
-0.0375000014901161194 -0.013039933517575264 0.00184243032708764076
-0.0375000014901161194 -0.0153787834569811821 -0.00239677750505506992
-0.0375000014901161194 -0.0148509079590439796 -0.00726089999079704285
-0.0375000014901161194 -0.0109549425542354584 0.00234564905986189842
-0.0375000014901161194 0.00140798836946487427 0.00555409304797649384
-0.0375000014901161194 -0.0103422878310084343 -0.00830426998436450958
-0.0375000014901161194 -0.0043979790061712265 0.013102787546813488
-0.0375000014901161194 -0.00915760546922683716 0.0158847682178020477
-0.0375000014901161194 -0.0171798206865787506 0.00353251677006483078
-0.0375000014901161194 0.00130696408450603485 0.012132975272834301
-0.0375000014901161194 -0.0164255406707525253 -0.0113375922664999962
-0.0375000014901161194 -0.00792544521391391754 0.014017028734087944
-0.0375000014901161194 -0.0113588050007820129 -0.00854709744453430176
-0.0375000014901161194 -0.0145410355180501938 -0.0127244237810373306
-0.0375000014901161194 -0.00602378789335489273 0.0154925035312771797
-0.0375000014901161194 0.00800728239119052887 0.00994217675179243088
-0.0375000014901161194 -0.00801357906311750412 0.016437627375125885
-0.0375000014901161194 0.00121253728866577148 0.00976675469428300858
-0.0375000014901161194 0.00447684712707996368 0.00668495241552591324
-0.0375000014901161194 -0.0154588539153337479 -0.0123376194387674332
-0.0375000014901161194 -0.00936730392277240753 0.00621720030903816223
-0.0375000014901161194 -0.00952762924134731293 0.00786661915481090546
-0.0375000014901161194 -0.0126944649964570999 -0.00295916246250271797
-0.0375000014901161194 0.00408544577658176422 0.00845799781382083893
-0.0375000014901161194 -0.0177074596285820007 -0.0132545474916696548
-0.0375000014901161194 -0.00961036048829555511 -0.00682001467794179916
-0.0375000014901161194 -0.0114877000451087952 -0.00260119978338479996
-0.0375000014901161194 0.0147162023931741714 0.015827033668756485
-0.0375000014901161194 -0.00428563728928565979 -0.0030859215185046196
-0.0375000014901161194 -0.00157995149493217468 0.0156246582046151161
-0.0375000014901161194 -0.0168507564812898636 -0.00836265180259943008
-0.0375000014901161194 -0.0087012462317943573 -0.00318068359047174454
-0.0375000014901161194 -0.0145092476159334183 0.00590009056031703949
-0.0375000014901161194 -0.0114878155291080475 0.0116895763203501701
-0.0375000014901161194 -0.00289149209856987 0.00673948973417282104
-0.0375000014901161194 0.00428629107773303986 0.0156755615025758743
-0.0375000014901161194 0.0055319610983133316 0.0108334608376026154
-0.0375000014901161194 -0.017136894166469574 -0.011526607908308506
-0.0375000014901161194 -0.00614268053323030472 0.00619472377002239227
-0.0375000014901161194 -0.00524916499853134155 0.00495595484972000122
-0.0375000014901161194 -0.0066938251256942749 0.00683887023478746414
-0.0375000014901161194 -0.00712234340608119965 0.00963204726576805115
-0.0375000014901161194 -0.00776978395879268646 0.000425757840275764465
-0.0375000014901161194 -0.0110332723706960678 -0.00842799991369247437
-0.0375000014901161194 -0.0159444771707057953 9.48777887970209122e-05
-0.0375000014901161194 -0.00109633803367614746 0.00112121552228927612
-0.0375000014901161194 -0.0132543705403804779 0.0109228016808629036
-0.0375000014901161194 -0.0142392897978425026 0.00495221931487321854
-0.0375000014901161194 -0.00488108769059181213 -0.000569126568734645844
-0.0375000014901161194 -0.0111905178055167198 -0.00756425317376852036
-0.0375000014901161194 -0.0164114274084568024 0.0163281280547380447
-0.0375000014901161194 0.00341753661632537842 0.00605340674519538879
-0.0375000014901161194 0.00315804220736026764 0.01321363914757967
-0.0375000014901161194 -0.0180824529379606247 0.00144410203211009502
-0.0375000014901161194 -0.0173603706061840057 -0.00608918210491538048
-0.0375000014901161194 0.0148715432733297348 0.0138534661382436752
-0.0375000014901161194 -0.00405426602810621262 0.0157139990478754044
-0.0375000014901161194 0.0030081477016210556 0.00363103020936250687
-0.0375000014901161194 -0.0138476276770234108 -0.00598995527252554893
-0.0375000014901161194 -8.06227326393127441e-05 0.00866514537483453751
-0.0375000014901161194 -0.0114281792193651199 0.00772793823853135109
-0.0375000014901161194 0.00841601565480232239 0.0117178242653608322
-0.0375000014901161194 -0.00710497796535491943 0.00882658641785383224
-0.0375000014901161194 -0.010744292289018631 -0.00405068043619394302
-0.0375000014901161194 -0.0127787869423627853 0.0139187397435307503
-0.0375000014901161194 0.0096842646598815918 0.0113202929496765137
-0.0375000014901161194 0.00421082600951194763 0.0154671361669898033
-0.0375000014901161194 -0.0082356845960021019 0.0101216435432434082
-0.0375000014901161194 -0.0117739327251911163 0.0054004020057618618
-0.0375000014901161194 -0.00384730193763971329 0.00629723817110061646
-0.0375000014901161194 -0.00972613133490085602 0.00152968335896730423
-0.0375000014901161194 -0.0149834565818309784 -0.00143242045305669308
-0.0375000014901161194 -0.00673459190875291824 0.00996115431189537048
-0.0375000014901161194 -0.00556073244661092758 0.00900152139365673065
-0.0375000014901161194 -0.00663867313414812088 0.00947204511612653732
-0.0375000014901161194 -0.00611324142664670944 0.00370995607227087021
-0.0375000014901161194 -0.00416742637753486633 0.0104771191254258156
-0.0375000014901161194 -0.00778473075479269028 0.0159805119037628174
-0.0375000014901161194 -0.00475884042680263519 0.000122511759400367737
-0.0375000014901161194 -0.0104692280292510986 0.00655354512855410576
-0.0375000014901161194 -0.00200637057423591614 0.00182724837213754654
-0.0375000014901161194 -0.010267878882586956 0.00715006515383720398
-0.0375000014901161194 0.00790222920477390289 0.0155183253809809685
-0.0375000014901161194 0.0111368950456380844 0.0145249636843800545
-0.0375000014901161194 -0.00435875821858644485 0.00528335291892290115
-0.0375000014901161194 -0.00860036909580230713 0.0119557175785303116
-0.0375000014901161194 -0.00492604728788137436 0.00531843863427639008
-0.0375000014901161194 0.00351873226463794708 0.00745121762156486511
-0.0375000014901161194 -0.00269123725593090057 -0.000347126275300979614
-0.0375000014901161194 0.00882478244602680206 0.0132248345762491226
-0.0375000014901161194 -0.0109478598460555077 0.00597473559901118279
-0.0375000014901161194 0.0031965300440788269 0.0127503005787730217
-0.0375000014901161194 -0.00641413219273090363 -0.00471365079283714294
-0.0375000014901161194 0.00131870992481708527 0.0155574772506952286
-0.0375000014901161194 -0.00511666201055049896 0.003384394571185112
-0.0375000014901161194 -0.0168334431946277618 -0.00414861645549535751
-0.0375000014901161194 -0.0145212728530168533 -0.0103868544101715088
-0.0375000014901161194 0.00552957318723201752 0.00744389183819293976
-0.0375000014901161194 -0.0152634857222437859 0.0120481066405773163
-0.0375000014901161194 -0.0161750037223100662 0.0162340924143791199
-0.0375000014901161194 0.00832572206854820251 0.00822461582720279694
-0.0375000014901161194 -0.00707641802728176117 0.0051112789660692215
-0.0375000014901161194 -0.0117594944313168526 0.0131777795031666756
-0.0375000014901161194 -0.0184215232729911804 -0.000650877947919070721
-0.0375000014901161194 -0.00141033902764320374 0.0073423897847533226
-0.0375000014901161194 -0.00494749937206506729 0.0044131893664598465
-0.0375000014901161194 0.00112112239003181458 0.00936220772564411163
-0.0375000014901161194 0.00446025095880031586 0.0081126699224114418
-0.0375000014901161194 -0.00365607999265193939 0.00160574354231357574
-0.0375000014901161194 -0.00621792115271091461 0.0132064064964652061
-0.0375000014901161194 -0.0175113659352064133 -0.00140130752697587013
-0.0375000014901161194 -0.0128426710143685341 0.00655483407899737358
-0.0375000014901161194 -0.0146948006004095078 0.0101516284048557281
-0.0375000014901161194 -0.0117485793307423592 -0.00445717526599764824
-0.0375000014901161194 0.00518429279327392578 0.0057331649586558342
-0.0375000014901161194 -0.00394602864980697632 0.0101181007921695709
-0.0375000014901161194 -0.00914353877305984497 -0.00236898381263017654
-0.0375000014901161194 -0.00524451863020658493 0.0101765096187591553
-0.0375000014901161194 -0.0172333959490060806 0.0107125267386436462
-0.0375000014901161194 -0.0122044570744037628 -0.00581885036081075668
-0.0375000014901161194 -0.00948048196732997894 0.00741876289248466492
-0.0375000014901161194 -0.0041776653379201889 0.00419990625232458115
-0.0375000014901161194 -0.0166633911430835724 0.00971594266593456268
-0.0375000014901161194 -0.00841452460736036301 0.0100532136857509613
-0.0375000014901161194 -0.016560681164264679 -0.0122358957305550575
-0.0375000014901161194 0.00685190409421920776 0.00751511845737695694
-0.0375000014901161194 0.00122008286416530609 0.0140068996697664261
-0.0375000014901161194 -0.0125849265605211258 0.00234294496476650238
-0.0375000014901161194 -0.0138843320310115814 -0.0078909238800406456
-0.0375000014901161194 -0.0142970513552427292 0.00542365154251456261
-0.0375000014901161194 -0.00839895382523536682 0.00399960950016975403
-0.0375000014901161194 -0.0181966517120599747 -0.0133889829739928246
-0.0375000014901161194 -0.00923953019082546234 0.0113323628902435303
-0.0375000014901161194 0.00626550987362861633 0.0150883365422487259
-0.0375000014901161194 0.00870601460337638855 0.0106242550536990166
-0.0375000014901161194 -0.0168855004012584686 -0.0081273149698972702
-0.0375000014901161194 -0.000994266942143440247 0.00110623054206371307
-0.0375000014901161194 0.0025394093245267868 0.0150502277538180351
-0.0375000014901161194 -0.0121331168338656425 -0.00864983163774013519
-0.0375000014901161194 -0.00876466464251279831 0.00489481911063194275
-0.0375000014901161194 -0.00605951063334941864 -0.00345069169998168945
-0.0375000014901161194 -0.00422391947358846664 0.00342585891485214233
-0.0375000014901161194 -0.00588192418217658997 0.0138318091630935669
-0.0375000014901161194 0.00540237873792648315 0.0149604585021734238
-0.0375000014901161194 0.000433292239904403687 0.0047230161726474762
-0.0375000014901161194 0.00337655842304229736 0.0131052723154425621
-0.0375000014901161194 0.00969316251575946808 0.0154360737651586533
-0.0375000014901161194 -0.0173635948449373245 -0.00712797604501247406
-0.0375000014901161194 0.00249450001865625381 -0.0202726013958454132
-0.0375000014901161194 4.37656417489051819e-05 -0.0211712755262851715
-0.0375000014901161194 0.00679618725553154945 -0.0181989260017871857
-0.0375000014901161194 0.0146080804988741875 -0.0179168805480003357
-0.0375000014901161194 0.00131335621699690819 -0.0180116333067417145
-0.0375000014901161194 0.00746375136077404022 -0.01698271743953228
-0.0375000014901161194 0.00122006307356059551 -0.0166372638195753098
-0.0375000014901161194 -0.00226992927491664886 -0.0199259854853153229
-0.0375000014901161194 -0.00284925429150462151 -0.017895035445690155
-0.0375000014901161194 -0.0137194525450468063 -0.0168249160051345825
-0.0375000014901161194 0.0108338426798582077 -0.0201894268393516541
-0.0375000014901161194 -0.000742476433515548706 -0.0192581173032522202
-0.0375000014901161194 -0.000994386151432991028 -0.0207606256008148193
-0.0375000014901161194 0.00852051936089992523 -0.0174675043672323227
-0.0375000014901161194 0.000596119090914726257 -0.022322552278637886
-0.0375000014901161194 -0.00395064800977706909 -0.0203850716352462769
-0.0375000014901161194 0.00588759873062372208 -0.0188772175461053848
-0.0375000014901161194 0.00656049791723489761 -0.0200177859514951706
-0.0375000014901161194 -0.0046229921281337738 -0.0172458868473768234
-0.0375000014901161194 0.00270526017993688583 -0.0193871986120939255
-0.0375000014901161194 0.00312669668346643448 -0.021595025435090065
-0.0375000014901161194 -0.0104940552264451981 -0.0181888304650783539
-0.0375000014901161194 -0.00719807948917150497 -0.0172736886888742447
-0.0375000014901161194 -0.00577616970986127853 -0.0190059300512075424
-0.0375000014901161194 -0.00559469172731041908 -0.0169715676456689835
-0.0375000014901161194 0.00302932783961296082 -0.0221785195171833038
-0.0375000014901161194 0.0044099763035774231 -0.0182818900793790817
-0.0375000014901161194 -0.00386910978704690933 -0.0207227393984794617
-0.0375000014901161194 0.00366013403981924057 -0.0221047177910804749
-0.0375000014901161194 -0.00147799588739871979 -0.0192306600511074066
-0.0375000014901161194 0.0138730872422456741 -0.0172566063702106476
-0.0375000014901161194 0.0156938917934894562 -0.0172154363244771957
-0.0375000014901161194 -0.00925532914698123932 -0.0177461877465248108
-0.0375000014901161194 0.00682370271533727646 -0.0176243633031845093
-0.0375000014901161194 0.00428259279578924179 -0.0172653328627347946
-0.0375000014901161194 -0.0044078286737203598 -0.0192254465073347092
-0.0375000014901161194 0.00357004767283797264 -0.0184857044368982315
-0.0375000014901161194 0.00508148036897182465 -0.0195758529007434845
-0.0375000014901161194 0.000311446376144886017 -0.0204883292317390442
-0.0375000014901161194 0.00590224936604499817 -0.0218416452407836914
-0.0375000014901161194 -0.00246782926842570305 -0.0180010199546813965
-0.0375000014901161194 -0.00308095663785934448 -0.0193795114755630493
-0.0375000014901161194 -0.0122743630781769753 -0.0170846674591302872
-0.0375000014901161194 -0.00889368075877428055 -0.0175962187349796295
-0.0375000014901161194 -0.00438440404832363129 -0.0197837147861719131
-0.0375000014901161194 -0.000589918345212936401 -0.0193062126636505127
-0.0375000014901161194 0.00658779311925172806 -0.0209553893655538559
-0.0375000014901161194 0.0103679206222295761 -0.0211036726832389832
-0.0375000014901161194 -0.000399187207221984863 -0.018018750473856926
-0.0375000014901161194 0.0135262692347168922 -0.0190425664186477661
-0.0375000014901161194 -0.00187916215509176254 -0.0237905737012624741
-0.0375000014901161194 -0.000691659224685281515 -0.0223295576870441437
-0.0375000014901161194 -0.00364308198913931847 -0.0223244130611419678
-0.0375000014901161194 -0.00775349792093038559 -0.0216516666114330292
-0.0375000014901161194 -0.00765549670904874802 -0.0199657659977674484
-0.0375000014901161194 -0.000112604524474591017 -0.0224555842578411102
-0.0375000014901161194 -0.00455789966508746147 -0.0230387803167104721
-0.0375000014901161194 -0.0064551839604973793 -0.0232729688286781311
-0.0375000014901161194 -0.000967868603765964508 -0.0234117675572633743
-0.0375000014901161194 -0.000838445965200662613 -0.0233166813850402832
-0.0375000014901161194 -0.0128212915733456612 -0.0193368978798389435
-0.0375000014901161194 -0.00489245029166340828 -0.0220254398882389069
-0.0375000014901161194 0.00372961605899035931 -0.0236900299787521362
-0.0375000014901161194 -0.00897733122110366821 -0.0206260792911052704
-0.0375000014901161194 -0.00042555294930934906 -0.0240712668746709824
-0.0340083017945289612 -0.0244880560785531998 -0.00156956783030182123
-0.0363653786480426788 -0.024717230349779129 -3.91378889617044479e-05
-0.0314035713672637939 -0.0243950039148330688 -0.000910529168322682381
-0.0364239588379859924 -0.0245777778327465057 -0.00213052635081112385
-0.0351819954812526703 -0.0246487390249967575 -0.000124329482787288725
-0.0329092256724834442 -0.0244540944695472717 -0.00121369853150099516
-0.0372087210416793823 -0.0246320124715566635 -0.00194470747373998165
-0.034983266144990921 0.0254895258694887161 -0.000268702569883316755
-0.0365905798971652985 0.0248773694038391113 -0.00167831126600503922
-0.0350921303033828735 0.0254677962511777878 -0.000167961319675669074
-0.027690524235367775 0.0369203798472881317 -0.00337367202155292034
-0.0277894381433725357 0.0358236208558082581 -0.000818952219560742378
-0.028018532320857048 0.0373643562197685242 -0.000793072627857327461
-0.0336403399705886841 0.00411137193441390991 -0.0246427077800035477
-0.0355400778353214264 0.00223577767610549927 -0.0247995760291814804
-0.0343991518020629883 0.0046377331018447876 -0.0245042759925127029
-0.0370012037456035614 0.00253843585960566998 -0.0246450863778591156
-0.037250228226184845 0.00355469831265509129 -0.0244666710495948792
-0.0264903344213962555 0.0027044245507568121 -0.0253870170563459396
-0.0234453547745943069 0.00284703145734965801 -0.0255870502442121506
-0.0373040512204170227 0.0033244637306779623 -0.0244990363717079163
-0.0273015443235635757 0.00321648619137704372 -0.0252470076084136963
-0.0276793129742145538 0.00316998176276683807 -0.0252267327159643173
-0.0338613837957382202 0.00196730694733560085 -0.0249320901930332184
-0.0292343162000179291 0.00150905468035489321 -0.0252254679799079895
-0.0305670164525508881 0.0021442838478833437 -0.0251399911940097809
-0.0300544630736112595 0.00148788257502019405 -0.0251736659556627274
-0.0343383811414241791 0.000853120931424200535 -0.0249041039496660233
-0.0262583587318658829 0.00212523061782121658 -0.0254123900085687637
-0.0284093990921974182 0.00198777089826762676 -0.0252766832709312439
-0.0338306427001953125 0.00188184226863086224 -0.0249342005699872971
-0.0301250871270895004 0.00164728716481477022 -0.0251688938587903976
-0.031685657799243927 0.000274614081718027592 -0.0250729098916053772
-0.0364955328404903412 -0.00447482895106077194 -0.0243182871490716934
-0.032359778881072998 -0.00168194842990487814 -0.0247979946434497833
-0.0293835978955030441 8.69429204612970352e-05 -0.0251061618328094482
-0.035104997456073761 -0.00179380492772907019 -0.024747408926486969
-0.0295307282358407974 -0.000769515754655003548 -0.0249726902693510056
-0.0265271831303834915 0.00102380325552076101 -0.0252849459648132324
-0.0351634137332439423 -0.00291224941611289978 -0.0245747379958629608
-0.0321699976921081543 -0.000554559985175728798 -0.0249736420810222626
-0.0362383797764778137 -0.00157715147361159325 -0.0247669368982315063
-0.0340747907757759094 -0.00175265083089470863 -0.0247662663459777832
-0.0374759621918201447 0.0115945814177393913 -0.0218292232602834702
-0.0347707420587539673 0.0117002297192811966 -0.022284388542175293
-0.0359334051609039307 0.0110143767669796944 -0.0224072840064764023
-0.028974141925573349 0.0114490184932947159 -0.0234972182661294937
-0.0302356164902448654 0.0112007502466440201 -0.0233839415013790131
-0.0329996794462203979 0.0122837964445352554 -0.0223265495151281357
-0.0355617813766002655 0.0120180416852235794 -0.0219778697937726974
-0.0323337912559509277 0.0102270171046257019 -0.0234114229679107666
-0.0359304510056972504 0.00755663122981786728 -0.0237442627549171448
-0.0281433220952749252 0.0112477615475654602 -0.0236895382404327393
-0.0314221419394016266 0.0105959288775920868 -0.023425152525305748
-0.0354978255927562714 0.00717576174065470695 -0.0239278655499219894
-0.0364466942846775055 0.00928833149373531342 -0.0231183357536792755
-0.0319981984794139862 0.00945449993014335632 -0.0237058103084564209
-0.02789328433573246 0.00966552086174488068 -0.0240119379013776779
-0.0276045799255371094 0.0111801736056804657 -0.0237473640590906143
-0.0306103192269802094 0.00671070907264947891 -0.0243834014981985092
-0.0237946212291717529 0.00432856148108839989 -0.0252878088504076004
-0.0268036387860774994 0.00803147535771131516 -0.0243914760649204254
-0.0262261144816875458 0.00813803728669881821 -0.0244102906435728073
-0.0309282634407281876 0.00838678888976573944 -0.0240478161722421646
-0.026032373309135437 0.00655580637976527214 -0.0247199386358261108
-0.03084598109126091 0.00535034574568271637 -0.0246226117014884949
-0.0321614071726799011 0.00512405484914779663 -0.0245766807347536087
-0.0343102812767028809 0.00559531943872570992 -0.0243439916521310806
-0.0249151680618524551 0.00469448138028383255 -0.0251439381390810013
-0.0276972409337759018 0.00823965109884738922 -0.0242924261838197708
-0.0299505330622196198 0.00674229441210627556 -0.0244217962026596069
-0.0263113901019096375 0.00512609770521521568 -0.0249692369252443314
-0.0276128705590963364 0.00972047261893749237 -0.0240204706788063049
-0.0284039191901683807 0.00547919375821948051 -0.0247624851763248444
-0.0254346858710050583 0.00730026466771960258 -0.0246205143630504608
-0.0289492011070251465 0.00446689408272504807 -0.0249156448990106583
-0.0312829576432704926 0.00867222994565963745 -0.0239704791456460953
-0.0357951149344444275 0.00539811281487345695 -0.0242812279611825943
-0.0269051995128393173 0.00897788442671298981 -0.0242072232067584991
-0.0374154224991798401 0.0197043456137180328 -0.0149335972964763641
-0.0328354910016059875 0.0200001131743192673 -0.0164258163422346115
-0.0338350273668766022 0.0191352758556604385 -0.0171540863811969757
-0.0358422063291072845 0.0198838338255882263 -0.0153435990214347839
-0.0370503067970275879 0.0201458819210529327 -0.0145021304488182068
-0.033553488552570343 0.0195237286388874054 -0.0167581886053085327
-0.0357231646776199341 0.0178732071071863174 -0.0177199933677911758
-0.0358195863664150238 0.0183288734406232834 -0.0172439143061637878
-0.0347762256860733032 0.0182291977107524872 -0.0177180804312229156
-0.0353462547063827515 0.0180734135210514069 -0.0176625810563564301
-0.0372300669550895691 0.0161861758679151535 -0.0188079420477151871
-0.0339821986854076385 0.0174536015838384628 -0.0187183134257793427
-0.0359413884580135345 0.0161084625869989395 -0.0192208010703325272
-0.033784773200750351 0.0164741408079862595 -0.019458157941699028
-0.0314602479338645935 0.0187083762139081955 -0.0184094719588756561
-0.0330223254859447479 0.0172972287982702255 -0.0190501995384693146
-0.0323082804679870605 0.0159326661378145218 -0.020088953897356987
-0.0283138398081064224 0.0126861715689301491 -0.0229033213108778
-0.0302691981196403503 0.0153833609074354172 -0.0208050981163978577
-0.0317454114556312561 0.015384024940431118 -0.0205448251217603683
-0.0301511306315660477 0.0177937038242816925 -0.0192583817988634109
-0.0300482455641031265 0.0141276968643069267 -0.0216605756431818008
-0.0283116120845079422 0.0125239212065935135 -0.0230092275887727737
-0.034121297299861908 0.0156253483146429062 -0.0199696831405162811
-0.0281648747622966766 0.0128988735377788544 -0.0227912161499261856
-0.0310876742005348206 0.013821922242641449 -0.0216764677315950394
-0.0316289588809013367 0.0178931094706058502 -0.0189336109906435013
-0.0348545387387275696 0.0145601872354745865 -0.020533313974738121
-0.0305491834878921509 0.0141913266852498055 -0.0215310212224721909
-0.0298958346247673035 0.0168911758810281754 -0.0198902543634176254
-0.0309400521218776703 0.014400845393538475 -0.021325964480638504
-0.0312136448919773102 0.0133765647187829018 -0.0219439193606376648
-0.0302072688937187195 0.0125386342406272888 -0.0226659867912530899
-0.00133718491997569799 0.0314293913543224335 -0.0276970509439706802
0.0001347358338534832 0.0373532660305500031 -0.028027411550283432
-0.00336566008627414703 0.0317577384412288666 -0.0276090595871210098
0.000121744349598884583 0.0358181223273277283 -0.0279603637754917145
-0.00144371145870536566 0.0347876846790313721 -0.0278369300067424774
-0.0018070336664095521 0.0335876531898975372 -0.0277667250484228134
-0.00256015942431986332 0.0248124320060014725 -0.0273492559790611267
-0.00193568307440727949 0.0329309143126010895 -0.0277318395674228668
-0.000601031351834535599 0.0342273600399494171 -0.0278551504015922546
-0.000626618508249521255 0.0329073667526245117 -0.027796771377325058
-0.00252978922799229622 0.028210710734128952 -0.0274977628141641617
-0.00273453211411833763 0.0262700412422418594 -0.0274035129696130753
-0.0363022461533546448 0.0243452917784452438 -0.00612488994374871254
-0.036924406886100769 0.0230673998594284058 -0.00955217331647872925
-0.0359809473156929016 0.0239996351301670074 -0.00763356126844882965
-0.032869245857000351 0.0246003381907939911 -0.00937173701822757721
-0.0353962332010269165 0.0244160499423742294 -0.00697053130716085434
-0.0341138914227485657 0.0233172327280044556 -0.0110953906551003456
-0.0356100238859653473 0.0232979170978069305 -0.010069691576063633
-0.0340106450021266937 0.0235249940305948257 -0.0107735199853777885
-0.036100827157497406 0.0230265576392412186 -0.0102373221889138222
-0.0329057872295379639 0.0241935253143310547 -0.0102844638749957085
-0.0338383279740810394 0.0229454971849918365 -0.0117456438019871712
-0.0308777652680873871 0.0210978183895349503 -0.0155876222997903824
-0.0320362448692321777 0.0219146236777305603 -0.0139473164454102516
-0.0319188237190246582 0.0216297749429941177 -0.0144085278734564781
-0.0346254408359527588 0.022528601810336113 -0.0120498267933726311
-0.032162301242351532 0.0207012947648763657 -0.0156697146594524384
-0.0342729315161705017 0.0230965930968523026 -0.0113570243120193481
-0.0323171913623809814 0.0219261534512042999 -0.0138218412175774574
-0.0315512120723724365 0.0199189484119415283 -0.0170480422675609589
-0.0312549211084842682 0.0214910581707954407 -0.0148677490651607513
-0.0346469283103942871 0.0255057103931903839 -0.00074935518205165863
-0.032657083123922348 0.0248198676854372025 -0.00838898401707410812
-0.0357500500977039337 0.0245947465300559998 -0.00536909047514200211
-0.032806985080242157 0.0248492620885372162 -0.0079662129282951355
-0.0338355675339698792 0.0248492807149887085 -0.006448378786444664
-0.0352511890232563019 0.0244900193065404892 -0.00682341540232300758
-0.0342979356646537781 0.0250004436820745468 -0.00472944462671875954
-0.0326361581683158875 0.025687042623758316 -0.00462556304410099983
-0.0329891107976436615 0.0254197008907794952 -0.00488766422495245934
-0.03293585404753685 0.0257973913103342056 -0.00342554762028157711
-0.0322920344769954681 0.0249979514628648758 -0.00837496761232614517
-0.0330920815467834473 0.0262559168040752411 -0.00110900960862636566
-0.0317020006477832794 0.025803297758102417 -0.00723356939852237701
-0.0320283174514770508 0.0265736337751150131 -0.00263102096505463123
-0.031233740970492363 0.027927519753575325 -0.000158621463924646378
-0.0318654365837574005 0.0268336478620767593 -0.00219841673970222473
-0.0311365183442831039 0.0272261425852775574 -0.00352855632081627846
-0.0259458571672439575 0.0135622862726449966 -0.0232519898563623428
-0.0212273355573415756 0.0201831813901662827 -0.0220257993787527084
-0.0241679977625608444 0.0188394337892532349 -0.0213949903845787048
-0.0188919622451066971 0.0178434513509273529 -0.0242347884923219681
-0.0249887555837631226 0.0197843872010707855 -0.0205571558326482773
-0.0248503722250461578 0.0173655115067958832 -0.0218312274664640427
-0.0219040494412183762 0.0164407342672348022 -0.0236018579453229904
-0.0213858634233474731 0.0205806083977222443 -0.0217562280595302582
-0.0238240677863359451 0.0173771139234304428 -0.0222806856036186218
-0.020419098436832428 0.0172614865005016327 -0.0238491110503673553
-0.0228301025927066803 0.0188423562794923782 -0.0219870228320360184
-0.0235785376280546188 0.0212957970798015594 -0.0204249974340200424
-0.0241767801344394684 0.0152210425585508347 -0.0232051536440849304
-0.0209801550954580307 0.0166446063667535782 -0.0239094924181699753
-0.0254701599478721619 0.0162196531891822815 -0.0221307575702667236
-0.0220740064978599548 0.0167255382984876633 -0.0233836807310581207
-0.0208496786653995514 0.0195007305592298508 -0.022535473108291626
-0.0234102029353380203 0.0221070293337106705 -0.0200929641723632812
-0.0208458174020051956 0.0203110538423061371 -0.0221309345215559006
-0.0229887180030345917 0.0196323320269584656 -0.0215206090360879898
-0.026172492653131485 0.017320120707154274 -0.021239742636680603
-0.0273403320461511612 0.0156317092478275299 -0.0215201769024133682
-0.0276166461408138275 0.0210326425731182098 -0.0186018943786621094
-0.0258884895592927933 0.0183209478855133057 -0.020867837592959404
-0.0280621182173490524 0.019283052533864975 -0.0192777328193187714
-0.0285099707543849945 0.0194724351167678833 -0.0189546626061201096
-0.0263607446104288101 0.0167859494686126709 -0.0214197635650634766
-0.0259472299367189407 0.0216661039739847183 -0.0191169772297143936
-0.0254447460174560547 0.0215494111180305481 -0.0194301679730415344
-0.0267295315861701965 0.02131623774766922 -0.0189028885215520859
-0.0273514743894338608 0.0209357403218746185 -0.0187853481620550156
-0.0257536880671977997 0.0212105810642242432 -0.0194488726556301117
-0.0265149474143981934 0.0152168497443199158 -0.0221494641155004501
-0.0246016029268503189 0.023286871612071991 -0.0189609136432409286
-0.00833947025239467621 0.0329840555787086487 -0.0265081189572811127
-0.00740861706435680389 0.0361563637852668762 -0.0269343666732311249
-0.00863798148930072784 0.0340369530022144318 -0.026516154408454895
-0.00461092917248606682 0.0372963063418865204 -0.0276286061853170395
-0.0102791320532560349 0.0323661342263221741 -0.026038849726319313
-0.00495990226045250893 0.0372832566499710083 -0.0275510363280773163
-0.00714426301419734955 0.03719324991106987 -0.0270649231970310211
-0.0105537101626396179 0.0315020009875297546 -0.0259181242436170578
-0.0117894141003489494 0.036027073860168457 -0.0254347026348114014
-0.0108533119782805443 0.0356024503707885742 -0.0258110612630844116
-0.0122914873063564301 0.0290368646383285522 -0.0252607185393571854
-0.0123051125556230545 0.0369825735688209534 -0.0252245813608169556
-0.01044424157589674 0.0323767997324466705 -0.0259872656315565109
-0.00857007503509521484 0.0369998104870319366 -0.0267196353524923325
-0.0101935258135199547 0.0351807102560997009 -0.0260767992585897446
-0.0111810034140944481 0.0372425355017185211 -0.0256735533475875854
-0.00950232148170471191 0.0363487675786018372 -0.0263489745557308197
-0.0134260812774300575 0.0331184864044189453 -0.0246060416102409363
-0.0150777595117688179 0.0367010533809661865 -0.0235907379537820816
-0.0139923058450222015 0.0323307625949382782 -0.0242619607597589493
-0.0127837127074599266 0.0327442623674869537 -0.0249988976866006851
-0.0136820143088698387 0.0356734730303287506 -0.0244447644799947739
-0.0130983535200357437 0.0293744783848524094 -0.0248134937137365341
-0.0145452134311199188 0.0349607877433300018 -0.023919256404042244
-0.0133490096777677536 0.0346819497644901276 -0.0246500000357627869
-0.0142215080559253693 0.0336256958544254303 -0.0241194926202297211
-0.0037623443640768528 0.0304936952888965607 -0.0274466704577207565
-0.0069391569122672081 0.0299141872674226761 -0.0266594402492046356
-0.00442413287237286568 0.0359583944082260132 -0.0275869648903608322
-0.00820528343319892883 0.027923237532377243 -0.0262498036026954651
-0.00406928732991218567 0.0248654298484325409 -0.027067035436630249
-0.00868065003305673599 0.0311535745859146118 -0.0263127163052558899
-0.0101421242579817772 0.0297659561038017273 -0.0258894842118024826
-0.00810845941305160522 0.0258590225130319595 -0.0261603780090808868
-0.00495824869722127914 0.0302293170243501663 -0.0271477997303009033
-0.00370792299509048462 0.0309164505451917648 -0.0274826474487781525
-0.00927369296550750732 0.0295564364641904831 -0.0260846409946680069
-0.00754479598253965378 0.0325991921126842499 -0.0266616549342870712
-0.00386566855013370514 0.0334313511848449707 -0.0275821350514888763
-0.00425688456743955612 0.0296331644058227539 -0.0272821541875600815
-0.00396138988435268402 0.0296977180987596512 -0.0273559596389532089
-0.0102445576339960098 0.0265455469489097595 -0.0256896726787090302
-0.00605034176260232925 0.02886204794049263 -0.0268135406076908112
-0.00684010190889239311 0.0315530411899089813 -0.0267722848802804947
-0.00410759635269641876 0.0330518074333667755 -0.0275039114058017731
-0.00722726620733737946 0.0279028546065092087 -0.026481330394744873
-0.00712156528607010841 0.032701786607503891 -0.0267679169774055481
-0.00599652715027332306 0.025313984602689743 -0.0266330447047948837
-0.00597765063866972923 0.0248616952449083328 -0.0266128946095705032
-0.0081960093230009079 0.0312429405748844147 -0.0264328662306070328
-0.00425897631794214249 0.0322483368217945099 -0.0274241287261247635
-0.029788576066493988 0.0277784354984760284 -0.00633941777050495148
-0.0295334737747907639 0.0279230568557977676 -0.0067004016600549221
-0.0291773509234189987 0.0278342682868242264 -0.008381684310734272
-0.0316089577972888947 0.0257374383509159088 -0.00785029865801334381
-0.0300303827971220016 0.0272281672805547714 -0.00767080113291740417
-0.0312727056443691254 0.0256359241902828217 -0.00950937997549772263
-0.0296927634626626968 0.0286441352218389511 -0.00318860448896884918
-0.0301872380077838898 0.026891019195318222 -0.00845424272119998932
-0.0305626336485147476 0.0278914570808410645 -0.00300892302766442299
-0.0298164132982492447 0.0292036756873130798 -0.00100851466413587332
-0.0289113949984312057 0.0292890369892120361 -0.00460706232115626335
-0.030038829892873764 0.0290769767016172409 -0.000402480887714773417
-0.0296704862266778946 0.0288304276764392853 -0.00260768691077828407
-0.0289132595062255859 0.0295024123042821884 -0.00403741002082824707
-0.0287528205662965775 0.0263571478426456451 -0.0117512913420796394
-0.0300232023000717163 0.0248608589172363281 -0.0120629919692873955
-0.0291971340775489807 0.0262120552361011505 -0.0114226778969168663
-0.0311700291931629181 0.0254685096442699432 -0.0100783901289105415
-0.0292337052524089813 0.0243214145302772522 -0.013569382019340992
-0.0312046483159065247 0.0224606581032276154 -0.013519948348402977
-0.0285002216696739197 0.027216913178563118 -0.0110387662425637245
-0.0312249399721622467 0.0241220947355031967 -0.0115749025717377663
-0.0310923401266336441 0.0244648344814777374 -0.0113265104591846466
-0.0258619710803031921 0.0252133700996637344 -0.0159095227718353271
-0.026089206337928772 0.0232838578522205353 -0.0178647711873054504
-0.0297821946442127228 0.0204930379986763 -0.0173724088817834854
-0.0274789314717054367 0.0247390903532505035 -0.0148493926972150803
-0.0293420460075139999 0.0207218211144208908 -0.0175483878701925278
-0.0290102157741785049 0.0205432195216417313 -0.0180776305496692657
-0.0281593706458806992 0.0239192508161067963 -0.0151039008051156998
-0.0286114215850830078 0.0210654027760028839 -0.0178813766688108444
-0.0270828083157539368 0.026638297364115715 -0.0130950603634119034
-0.0266580153256654739 0.023685576394200325 -0.016849614679813385
-0.0282920505851507187 0.0239988379180431366 -0.0148830553516745567
-0.0283398609608411789 0.0212971232831478119 -0.0178876481950283051
-0.02799236960709095 0.0253488421440124512 -0.0136538976803421974
-0.0290239918977022171 0.0234394781291484833 -0.014792504720389843
-0.015560319647192955 0.0305644143372774124 -0.023077813908457756
-0.0135227357968688011 0.0289278551936149597 -0.024511413648724556
-0.0179743673652410507 0.0308666098862886429 -0.0212966464459896088
-0.0180507823824882507 0.0319450236856937408 -0.0212942678481340408
