ply
format ascii 1.0
element vertex 710
property float x
property float y
property float z
end_header
-0.00185472692828625441 0.0250006616115570068 0.0158706493675708771
-0.0024068872444331646 0.0250008571892976761 0.0152932405471801758
-0.00259128189645707607 0.0250009223818778992 0.0195506773889064789
-0.00198255875147879124 0.0250007063150405884 0.0101744746789336205
-0.00280006881803274155 0.0250009968876838684 0.0195792969316244125
-0.00183397717773914337 0.0250006541609764099 0.0137591157108545303
-0.00372284557670354843 0.0250013247132301331 0.0239710398018360138
-0.00378189049661159515 0.0250013470649719238 0.0231518130749464035
-0.00394302792847156525 0.02500140480697155 0.0246597416698932648
-0.00314078666269779205 0.0250011198222637177 0.0204186439514160156
-0.00295598502270877361 0.0250010527670383453 0.020640883594751358
-0.00383318774402141571 0.0250013638287782669 0.0237816888839006424
-0.00358399515971541405 0.0250012762844562531 0.0221287589520215988
-0.00243780948221683502 0.0250008702278137207 0.00921807624399662018
-0.00112939625978469849 0.0250004027038812637 0.0117577342316508293
-0.00199224706739187241 0.0250007100403308868 0.019408712163567543
-0.00319583434611558914 0.02500113844871521 0.0235223621129989624
-0.00316990399733185768 0.0250011291354894638 0.0226640533655881882
-0.00324562960304319859 0.025001155212521553 0.0227734483778476715
-0.00247922586277127266 0.0250008832663297653 0.0192731171846389771
-0.00090256787370890379 0.0250003226101398468 0.0154075250029563904
-0.00173683068715035915 0.0250006187707185745 0.016884317621588707
-0.00378151889890432358 0.0250013452023267746 0.0253108013421297073
-0.000950976042076945305 0.0250003393739461899 0.0144177377223968506
-0.00382555089890956879 0.0250013619661331177 0.0256840363144874573
-0.00160452956333756447 0.0250005722045898438 0.0179653819650411606
-0.000702189863659441471 0.025000251829624176 0.0154167059808969498
-0.00275493995286524296 0.0250009819865226746 0.0210914239287376404
-0.00150699657388031483 0.0250005368143320084 0.0153730129823088646
-0.00209326040931046009 0.0250007454305887222 0.0180727150291204453
-0.00205057905986905098 0.0250007323920726776 0.0195955149829387665
-0.00343951210379600525 0.0250012241303920746 0.0235816873610019684
-0.00211208104155957699 0.0250007528811693192 0.0187299400568008423
-0.00371818849816918373 0.0250013228505849838 0.0249428749084472656
-0.0026812390424311161 0.0250009540468454361 0.0202343445271253586
-0.000422600074671208858 0.0250001512467861176 0.0135487774387001991
-0.00229264562949538231 0.0250008180737495422 0.0188088454306125641
-0.00160054466687142849 0.0250005703419446945 0.0158810373395681381
-0.000752282852772623301 0.0250002685934305191 0.0131599241867661476
-0.000660515797790139914 0.0250002369284629822 0.0152160469442605972
-0.00199736794456839561 0.0250007119029760361 0.0197096318006515503
-0.00346789811737835407 0.02500123530626297 0.0248530004173517227
-0.000174476546817459166 0.0250000637024641037 0.0144839752465486526
-0.00236698216758668423 0.0250008422881364822 0.021374434232711792
-0.000769852660596370697 0.025000276044011116 0.0181472655385732651
-0.00130544579587876797 0.0250004660338163376 0.0184997543692588806
-0.00314928451552987099 0.0250011216849088669 0.0242172069847583771
-0.0021292960736900568 0.0250007584691047668 0.0217050462961196899
-0.000600161845795810223 0.0250002164393663406 0.0153908561915159225
-0.00100456830114126205 0.0250003580003976822 0.0174867138266563416
-0.00244802352972328663 0.0250008720904588699 0.0219741631299257278
-0.00217750528827309608 0.0250007770955562592 0.0210861321538686752
-0.00145011220593005419 0.0250005181878805161 0.0188116859644651413
-0.00142111675813794136 0.0250005070120096207 0.0199965890496969223
-0.00260571995750069618 0.0250009279698133469 0.0225743390619754791
-0.00240330630913376808 0.0250008571892976761 0.0225380156189203262
-0.00128197285812348127 0.0250004567205905914 0.019780237227678299
-0.00276803900487720966 0.025000985711812973 0.022672649472951889
-0.000759209215175360441 0.0250002723187208176 0.01847098208963871
-0.00182006636168807745 0.0250006485730409622 0.0213496070355176926
-0.00129867356736212969 0.0250004641711711884 0.0185289382934570312
-0.0250000003725290298 0.0052727721631526947 0.0170863419771194458
-0.0250000003725290298 0.00934530980885028839 0.0132743874564766884
-0.0250000003725290298 0.0149421021342277527 0.0118152797222137451
-0.0250000003725290298 0.0121550783514976501 0.0135975917801260948
-0.0250000003725290298 0.00414423830807209015 0.017355114221572876
-0.0250000003725290298 0.0103930551558732986 0.0133202169090509415
-0.0250000003725290298 0.0256799738854169846 0.00539224501699209213
-0.0250000003725290298 0.000886066816747188568 0.0169943235814571381
-0.0250000003725290298 0.0141499005258083344 0.0111349895596504211
-0.0250000003725290298 0.00137921608984470367 0.0201220642775297165
-0.0250000003725290298 0.0108597157523036003 0.0129561359062790871
-0.0250000003725290298 0.0132071394473314285 0.0128394607454538345
-0.0250000003725290298 0.00420959992334246635 0.0158723145723342896
-0.0250000003725290298 0.01201675646007061 0.0129947084933519363
-0.0250000003725290298 0.00275012105703353882 0.0162345021963119507
-0.0250000003725290298 0.00836609676480293274 0.0153701482340693474
-0.0250000003725290298 0.0143750188872218132 0.0114330854266881943
-0.0250000003725290298 0.00286157149821519852 0.0174338947981595993
-0.0250000003725290298 0.00728644244372844696 0.0157719217240810394
-0.0250000003725290298 0.0225166790187358856 0.00708503369241952896
-0.0250000003725290298 0.0187320113182067871 0.00874232780188322067
-0.0250000003725290298 0.00905300863087177277 0.015105915255844593
-0.0250000003725290298 0.00480744056403636932 0.0164291281253099442
-0.0250000003725290298 0.00659883022308349609 0.0170693825930356979
-0.0250000003725290298 0.00291346386075019836 0.0174985267221927643
-0.0250000003725290298 0.00076035037636756897 0.0200930703431367874
-0.0250000003725290298 0.00385032594203948975 0.0185479316860437393
-0.0250000003725290298 0.00797668099403381348 0.0150432176887989044
-0.0250000003725290298 0.013896486721932888 0.011868499219417572
-0.0250000003725290298 0.00742645701393485069 0.0136220147833228111
-0.0250000003725290298 0.0104394778609275818 0.0147597622126340866
-0.0250000003725290298 0.00101009383797645569 0.0170816890895366669
-0.0250000003725290298 0.0147521328181028366 0.0105041265487670898
-0.0250000003725290298 0.020741855725646019 0.00865128356963396072
-0.0250000003725290298 0.0155201274901628494 0.0115585224702954292
-0.0250000003725290298 0.00120369449723511934 0.0161822736263275146
-0.0250000003725290298 0.00605161767452955246 0.016226746141910553
-0.0250000003725290298 0.0188936032354831696 0.00917079765349626541
-0.0250000003725290298 0.0230663176625967026 0.00692129461094737053
-0.0250000003725290298 0.0213527139276266098 0.00743565056473016739
-0.0250000003725290298 0.00350734032690525055 0.0175612382590770721
-0.0250000003725290298 0.0171220600605010986 0.00965466629713773727
-0.0250000003725290298 0.0138465920463204384 0.0118997460231184959
-0.0250000003725290298 0.00590072711929678917 0.0141166970133781433
-0.0250000003725290298 0.00944565795361995697 0.0151574891060590744
-0.0250000003725290298 0.00337182730436325073 0.0167349427938461304
-0.0250000003725290298 0.0135391447693109512 0.0125073445960879326
-0.0250000003725290298 0.0164762996137142181 0.010855628177523613
-0.0250000003725290298 0.0213378369808197021 0.00768428109586238861
-0.0250000003725290298 0.0107360547408461571 0.0140124745666980743
-0.0250000003725290298 0.00388152617961168289 0.0153832295909523964
-0.0250000003725290298 0.00640999199822545052 0.0147632025182247162
-0.0250000003725290298 0.0131976082921028137 0.0121131166815757751
-0.0250000003725290298 0.00208173971623182297 0.0177584625780582428
-0.0250000003725290298 0.00540955550968647003 0.0171783417463302612
-0.0250000003725290298 0.00204830057919025421 0.0172075536102056503
-0.0250000003725290298 0.00794685445725917816 0.0161343030631542206
-0.0250000003725290298 0.0040198545902967453 0.0182661879807710648
-0.0250000003725290298 0.0167356058955192566 0.0102591942995786667
-0.0250000003725290298 0.0107154306024312973 0.0122944144532084465
-0.0250000003725290298 0.0222425460815429688 0.00746317580342292786
-0.0250000003725290298 0.0092710563912987709 0.0146448332816362381
-0.0250000003725290298 0.00233873911201953888 0.0190196335315704346
-0.0250000003725290298 0.00871190149337053299 0.0139023344963788986
-0.0250000003725290298 0.00345142115838825703 0.01552596315741539
-0.0250000003725290298 0.010190294124186039 0.0125657720491290092
-0.0250000003725290298 0.000241597183048725128 0.0183136649429798126
-0.0250000003725290298 0.0162071771919727325 0.0110960938036441803
-0.0250000003725290298 0.0183224081993103027 0.00929167214781045914
-0.0250000003725290298 0.0052382349967956543 0.0171382185071706772
-0.0250000003725290298 0.00869795866310596466 0.0147478813305497169
-0.0250000003725290298 0.00461843656376004219 0.0149904852733016014
-0.0250000003725290298 0.00616797618567943573 0.0157192312180995941
-0.0250000003725290298 0.0197046156972646713 0.00801262352615594864
-0.0250000003725290298 0.00586832500994205475 0.0155552197247743607
-0.0250000003725290298 0.00283818691968917847 0.0171255115419626236
-0.0250000003725290298 0.00881553441286087036 0.0143683440983295441
-0.0250000003725290298 0.00247728824615478516 0.0166982263326644897
-0.0250000003725290298 0.0219966322183609009 0.00731167197227478027
-0.0250000003725290298 0.011681683361530304 0.013390539214015007
-0.0250000003725290298 0.0151076912879943848 0.0109446598216891289
-0.0250000003725290298 0.0120742637664079666 0.0115725137293338776
-0.0250000003725290298 0.0143817374482750893 0.01059005968272686
-0.0250000003725290298 0.0122400922700762749 0.0126508194953203201
-0.0250000003725290298 0.000225077848881483078 0.0172920729964971542
-0.0250000003725290298 0.00506862718611955643 0.0168774537742137909
-0.0250000003725290298 0.0154646141454577446 0.0100483512505888939
-0.0250000003725290298 0.00442945957183837891 0.0165478046983480453
-0.0250000003725290298 0.00241643562912940979 0.0187260862439870834
-0.0250000003725290298 0.000587886199355125427 0.0194406714290380478
-0.0250000003725290298 0.00484818685799837112 0.0149902841076254845
-0.0250000003725290298 0.000674706883728504181 0.0180639792233705521
-0.0250000003725290298 0.00117897149175405502 0.0180298946797847748
-0.0250000003725290298 0.0162438657134771347 0.00980805046856403351
-0.0250000003725290298 0.0172494426369667053 0.0101010790094733238
-0.0250000003725290298 0.0110608357936143875 0.0120452381670475006
-0.0250000003725290298 0.0115319816395640373 0.0116436416283249855
-0.0250000003725290298 0.0066886385902762413 0.0150028187781572342
-0.0250000003725290298 0.00306004099547863007 0.0179758165031671524
-0.0250000003725290298 0.0074847247451543808 0.0156670659780502319
-0.0250000003725290298 0.00682462193071842194 0.0169453360140323639
-0.0250000003725290298 0.00642290059477090836 0.0155733758583664894
-0.0250000003725290298 0.0113212214782834053 0.0137654505670070648
-0.0250000003725290298 0.00426883995532989502 0.0173322949558496475
-0.0250000003725290298 0.0137454681098461151 0.0117599833756685257
-0.0250000003725290298 0.00630574673414230347 0.0168012455105781555
-0.0250000003725290298 0.0108637232333421707 0.0144438119605183601
-0.0250000003725290298 0.00512049533426761627 0.0176814030855894089
-0.0250000003725290298 0.0179384369403123856 0.00989198684692382812
-0.0250000003725290298 0.0051317666657269001 0.0154875684529542923
-0.0250000003725290298 0.0080230003222823143 0.0145547846332192421
-0.0250000003725290298 0.00389016442932188511 0.0150100542232394218
-0.0250000003725290298 0.00698203966021537781 0.0138630475848913193
-0.0250000003725290298 0.00105330534279346466 0.0201318934559822083
-0.0250000003725290298 0.0171593260020017624 0.0102120637893676758
-0.0250000003725290298 0.0119725717231631279 0.0128972362726926804
-0.0250000003725290298 0.012081364169716835 0.0129978414624929428
-0.0250000003725290298 0.0101082278415560722 0.0128440782427787781
-0.0250000003725290298 0.00328102312050759792 0.0155498627573251724
-0.0250000003725290298 0.00753536075353622437 0.0146495625376701355
-0.0250000003725290298 0.0231295730918645859 0.00690448842942714691
-0.0250000003725290298 0.00364425498992204666 0.0151457656174898148
-0.0250000003725290298 0.0174750741571187973 0.00951862800866365433
-0.0250000003725290298 0.0193176791071891785 0.00859037879854440689
-0.0250000003725290298 0.0118628907948732376 0.0122375823557376862
-0.0250000003725290298 0.00821554381400346756 0.0153352664783596992
-0.0250000003725290298 0.000725920312106609344 0.0175547897815704346
-0.0250000003725290298 0.00102897291071712971 0.0165694747120141983
-0.0250000003725290298 0.00173753872513771057 0.0192889757454395294
-0.0250000003725290298 0.0118006616830825806 0.0123370923101902008
-0.0250000003725290298 0.016476999968290329 0.0110008846968412399
-0.0250000003725290298 0.00413200026378035545 0.0160802770406007767
-0.0250000003725290298 0.0222566314041614532 0.00755963847041130066
-0.0250000003725290298 0.00707162730395793915 0.0164839737117290497
-0.0250000003725290298 0.0022516222670674324 0.0167156942188739777
-0.0250000003725290298 0.00112638343125581741 0.0181391350924968719
-0.0250000003725290298 0.0141423223540186882 0.0117997713387012482
-0.0250000003725290298 0.0117523688822984695 0.0121187632903456688
-0.0250000003725290298 0.00665154401212930679 0.0151433218270540237
-0.0250000003725290298 0.023004310205578804 0.0068651554174721241
-0.0250000003725290298 0.00309411436319351196 0.0171784590929746628
-0.0250000003725290298 0.0094081507995724678 0.0144006051123142242
-0.0250000003725290298 0.00184104591608047485 0.018466683104634285
-0.0250000003725290298 0.0211764797568321228 0.00751522183418273926
-0.0250000003725290298 0.00625872798264026642 0.0156456790864467621
-0.0250000003725290298 0.00235415250062942505 0.0190248191356658936
-0.0250000003725290298 0.0105492277070879936 0.0139938211068511009
-0.0250000003725290298 0.0176241341978311539 0.00904279015958309174
-0.0250000003725290298 0.000955263152718544006 0.0185277238488197327
-0.0250000003725290298 0.0108325071632862091 0.0122457081452012062
-0.0250000003725290298 0.00258987024426460266 0.0171971004456281662
-0.0250000003725290298 0.016313919797539711 0.0102701904252171516
-0.0250000003725290298 0.00746373087167739868 0.0164927225559949875
-0.0250000003725290298 0.00465058162808418274 0.0174976587295532227
-0.0250000003725290298 0.0116894720122218132 0.0122322589159011841
-0.0250000003725290298 0.0142243877053260803 0.0121380593627691269
-0.0250000003725290298 0.0167548339813947678 0.010857701301574707
-0.0250000003725290298 0.0133932642638683319 0.0113733923062682152
-0.0250000003725290298 0.00878887996077537537 0.0138255525380373001
-0.0250000003725290298 0.0152473049238324165 0.0101657053455710411
-0.0250000003725290298 0.0168579854071140289 0.00996095035225152969
-0.0250000003725290298 0.0234702825546264648 0.00682195788249373436
-0.0250000003725290298 0.00576954986900091171 0.0144900931045413017
-0.0250000003725290298 0.0206802953034639359 0.00943112559616565704
-0.0250000003725290298 0.00773460324853658676 0.0178906228393316269
-0.0250000003725290298 0.00274438410997390747 0.0225335098803043365
-0.0250000003725290298 0.0111916530877351761 0.0150063764303922653
-0.0250000003725290298 0.0104442322626709938 0.0165722724050283432
-0.0250000003725290298 0.00353612075559794903 0.0194291472434997559
-0.0250000003725290298 0.00890049990266561508 0.0180542059242725372
-0.0250000003725290298 0.00840110704302787781 0.0168169531971216202
-0.0250000003725290298 0.0147770661860704422 0.0126282703131437302
-0.0250000003725290298 0.0149625977501273155 0.0128303952515125275
-0.0250000003725290298 0.0108503028750419617 0.0157333090901374817
-0.0250000003725290298 0.00982169527560472488 0.0155485132709145546
-0.0250000003725290298 0.0149248484522104263 0.0126795079559087753
-0.0250000003725290298 0.0200778767466545105 0.00949410349130630493
-0.0250000003725290298 0.0075289066880941391 0.0176048427820205688
-0.0250000003725290298 0.0148576293140649796 0.0131936818361282349
-0.0250000003725290298 0.0215102639049291611 0.00845130160450935364
-0.0250000003725290298 0.0130834104493260384 0.0138128325343132019
-0.0250000003725290298 0.00746640004217624664 0.0200372599065303802
-0.0250000003725290298 0.0038697216659784317 0.0197295844554901123
-0.0250000003725290298 0.0137500585988163948 0.0145920915529131889
-0.0250000003725290298 0.00632441602647304535 0.0187340714037418365
-0.0250000003725290298 0.00838630087673664093 0.0170423015952110291
-0.0250000003725290298 0.00616914406418800354 0.0208101756870746613
-0.0250000003725290298 0.0197266191244125366 0.0101068643853068352
-0.0250000003725290298 0.0106450244784355164 0.0160698853433132172
-0.0250000003725290298 0.00535746989771723747 0.0190593767911195755
-0.0250000003725290298 0.00362412631511688232 0.0190233495086431503
-0.0250000003725290298 0.0198418516665697098 0.0100410506129264832
-0.0250000003725290298 0.0174151286482810974 0.011282668448984623
-0.0250000003725290298 0.00148230511695146561 0.0211232565343379974
-0.0250000003725290298 0.00402201712131500244 0.0218290276825428009
-0.0250000003725290298 0.0170716941356658936 0.0126759139820933342
-0.0250000003725290298 0.0144336409866809845 0.0129577126353979111
-0.0250000003725290298 0.017000170424580574 0.0127643737941980362
-0.0250000003725290298 0.00374834798276424408 0.0207668934017419815
-0.0250000003725290298 0.0205524805933237076 0.0094247329980134964
-0.0250000003725290298 0.0226891208440065384 0.00809556432068347931
-0.0250000003725290298 0.00522811990231275558 0.0205805599689483643
-0.0250000003725290298 0.0106650516390800476 0.015346696600317955
-0.0250000003725290298 0.0110984332859516144 0.0153114330023527145
-0.0250000003725290298 0.0095524713397026062 0.0184150077402591705
-0.0250000003725290298 0.00266564264893531799 0.0227813627570867538
-0.0250000003725290298 0.0143660074099898338 0.0144559983164072037
-0.0250000003725290298 0.00499873608350753784 0.0215900428593158722
-0.0250000003725290298 0.0144110154360532761 0.014417051337659359
-0.0250000003725290298 0.00481780478730797768 0.0193674191832542419
-0.0250000003725290298 0.0147339710965752602 0.0144385136663913727
-0.0250000003725290298 0.00441738031804561615 0.022030908614397049
-0.0250000003725290298 0.00874454621225595474 0.0181646514683961868
-0.0250000003725290298 0.00568140577524900436 0.0195169374346733093
-0.0250000003725290298 0.00166762247681617737 0.0224420148879289627
-0.0250000003725290298 0.0248399693518877029 0.00674071954563260078
-0.0250000003725290298 0.00710257655009627342 0.0172947905957698822
-0.0250000003725290298 0.0145133910700678825 0.0140806715935468674
-0.0250000003725290298 0.00266372226178646088 0.0218613073229789734
-0.0250000003725290298 0.00615322031080722809 0.0209843777120113373
-0.0250000003725290298 0.00392495095729827881 0.0204726383090019226
-0.0250000003725290298 0.015551416203379631 0.0126524828374385834
-0.0250000003725290298 0.00843612384051084518 0.0171688180416822433
-0.0250000003725290298 0.00935931690037250519 0.0187513101845979691
-0.0250000003725290298 0.00297376513481140137 0.021070573478937149
-0.0250000003725290298 0.0149734243750572205 0.0139761976897716522
-0.0250000003725290298 0.0133205968886613846 0.0137753710150718689
-0.0250000003725290298 0.00554305501282215118 0.0186328571289777756
-0.0250000003725290298 0.0105465101078152657 0.0152460988610982895
-0.0250000003725290298 0.0206593293696641922 0.00927300192415714264
-0.0250000003725290298 0.0148773053660988808 0.0126169919967651367
-0.0250000003725290298 0.0106621906161308289 0.0149076199159026146
-0.0250000003725290298 0.00491638015955686569 0.0201295092701911926
-0.0250000003725290298 0.00681417947635054588 0.0178127437829971313
-0.0250000003725290298 0.00398938963189721107 0.0194112937897443771
-0.0250000003725290298 0.0201762448996305466 0.00952584017068147659
-0.0250000003725290298 0.00743536278605461121 0.0193891860544681549
-0.0250000003725290298 0.0211868714541196823 0.00943198055028915405
-0.0250000003725290298 0.00161472149193286896 0.0202417969703674316
-0.0250000003725290298 0.0216029901057481766 0.00821453891694545746
-0.0250000003725290298 0.00545061752200126648 0.020674409344792366
-0.0250000003725290298 0.00451598688960075378 0.0202098675072193146
-0.0250000003725290298 0.0028704451397061348 0.0204012971371412277
-0.0250000003725290298 0.00764743797481060028 0.0187877267599105835
-0.0250000003725290298 0.0127549637109041214 0.0137733016163110733
-0.0250000003725290298 0.0261773988604545593 0.00562783284112811089
-0.0250000003725290298 0.0213576424866914749 0.00845077261328697205
-0.0250000003725290298 0.00380026735365390778 0.0216618776321411133
-0.0250000003725290298 0.0149939339607954025 0.014431072399020195
-0.0250000003725290298 0.00624737422913312912 0.0194919798523187637
-0.0250000003725290298 0.0123114008456468582 0.0144745232537388802
-0.0250000003725290298 0.00275688245892524719 0.022414039820432663
-0.0250000003725290298 0.0146686825901269913 0.0126576507464051247
-0.0250000003725290298 0.0057700425386428833 0.0216267071664333344
-0.0250000003725290298 0.0120047181844711304 0.0145630901679396629
-0.0250000003725290298 0.0258431173861026764 0.00574874272570014
-0.0250000003725290298 0.0125605324283242226 0.0140178799629211426
-0.0250000003725290298 0.00121577922254800797 0.0223129317164421082
-0.0250000003725290298 0.0118392203003168106 0.0149521101266145706
-0.0250000003725290298 0.00457210931926965714 0.0203911568969488144
-0.0250000003725290298 0.0107820481061935425 0.0176618117839097977
-0.0250000003725290298 0.00313178077340126038 0.0224651247262954712
-0.0250000003725290298 0.00392192509025335312 0.0206454843282699585
-0.0250000003725290298 0.00991518981754779816 0.0166111085563898087
-0.0250000003725290298 0.0130365379154682159 0.0147670600563287735
-0.0250000003725290298 0.0189510080963373184 0.00990304257720708847
-0.0250000003725290298 0.0128808394074440002 0.0149724269285798073
-0.0250000003725290298 0.00587711995467543602 0.0177997909486293793
-0.0250000003725290298 0.0024697035551071167 0.0212569590657949448
-0.0250000003725290298 0.0147614134475588799 0.0143232792615890503
-0.0250000003725290298 0.00423787254840135574 0.0206573083996772766
-0.0250000003725290298 0.0101469643414020538 0.0153658408671617508
-0.0250000003725290298 0.00719664199277758598 0.0174127519130706787
-0.0250000003725290298 0.0134704029187560081 0.0139676043763756752
-0.0250000003725290298 0.00539307110011577606 0.0180234666913747787
-0.0250000003725290298 0.012672988697886467 0.0140337087213993073
-0.0250000003725290298 0.0102469809353351593 0.0178493931889533997
-0.0250000003725290298 0.0118291247636079788 0.0164153426885604858
-0.0250000003725290298 0.0163085944950580597 0.012053072452545166
-0.0250000003725290298 0.00749301817268133163 0.0173357650637626648
-0.0250000003725290298 0.00201285909861326218 0.0211722850799560547
-0.0250000003725290298 0.0113606927916407585 0.0159124601632356644
-0.0250000003725290298 0.0027108117938041687 0.0239362530410289764
-0.0250000003725290298 0.0152546009048819542 0.0120316315442323685
-0.0250000003725290298 0.020356442779302597 0.0101143978536128998
-0.0250000003725290298 0.004322858527302742 0.0193416941910982132
-0.0250000003725290298 0.0170634537935256958 0.0118135008960962296
-0.0250000003725290298 0.00732978526502847672 0.0195175744593143463
-0.0250000003725290298 0.0111480383202433586 0.0161143019795417786
-0.0250000003725290298 0.00345307891257107258 0.0193968750536441803
-0.0250000003725290298 0.0103182876482605934 0.0151749299839138985
-0.0250000003725290298 0.00183765124529600143 0.0210133660584688187
-0.0250000003725290298 0.0207984335720539093 0.00889753177762031555
-0.0250000003725290298 0.00432560732588171959 0.0184962097555398941
-0.0250000003725290298 0.0044427262619137764 0.0202199369668960571
-0.0250000003725290298 0.0075972583144903183 0.0198733843863010406
-0.0250000003725290298 0.0130552388727664948 0.0133927026763558388
-0.0250000003725290298 0.0228262152522802353 0.00833814404904842377
-0.0250000003725290298 0.0102926064282655716 0.0176447071135044098
-0.0250000003725290298 0.0207244865596294403 0.00918189529329538345
-0.0250000003725290298 0.0145431859418749809 0.0138195715844631195
-0.0250000003725290298 0.0150390630587935448 0.0136156724765896797
-0.0250000003725290298 0.0193203520029783249 0.00971029046922922134
-0.0250000003725290298 0.0108471699059009552 0.0147645836696028709
-0.0250000003725290298 0.013324701227247715 0.01475503109395504
-0.0250000003725290298 0.0120480423793196678 0.0157383047044277191
-0.0250000003725290298 0.00258257053792476654 0.021538957953453064
-0.0250000003725290298 0.00257837865501642227 0.0206832773983478546
-0.0250000003725290298 0.0071973470039665699 0.0177182592451572418
-0.0250000003725290298 0.0116280382499098778 0.0151667017489671707
-0.0250000003725290298 0.00347152817994356155 0.0218388848006725311
-0.0250000003725290298 0.0048810974694788456 0.018943415954709053
-0.0250000003725290298 0.00128714833408594131 0.0220978520810604095
-0.0250000003725290298 0.0139702064916491508 0.0141538623720407486
-0.0250000003725290298 0.00199414510279893875 0.0211144909262657166
-0.0250000003725290298 0.00396706350147724152 0.0191075000911951065
-0.0250000003725290298 0.00280928006395697594 0.0195745900273323059
-0.0250000003725290298 0.00197239499539136887 0.0216704420745372772
-0.0250000003725290298 0.00957563519477844238 0.0177194960415363312
-0.0250000003725290298 0.0177266616374254227 0.011553213931620121
-0.0250000003725290298 0.0161037631332874298 0.0118371546268463135
-0.0250000003725290298 0.017075810581445694 0.0110945766791701317
-0.0250000003725290298 0.0210687536746263504 0.0093508642166852951
-0.0250000003725290298 0.0179994534701108932 0.0105368932709097862
-0.0250000003725290298 0.00764557952061295509 0.0165552143007516861
-0.0250000003725290298 0.0103987231850624084 0.0178794153034687042
-0.0250000003725290298 0.0125622190535068512 0.0158678051084280014
-0.0250000003725290298 0.0112643353641033173 0.014583660289645195
-0.0250000003725290298 0.0232364926487207413 0.00721119996160268784
-0.0250000003725290298 0.0240209512412548065 0.00719321239739656448
-0.0250000003725290298 0.0146167734637856483 0.0130928456783294678
-0.0250000003725290298 0.00397437345236539841 0.0194902811199426651
-0.0250000003725290298 0.00324973464012145996 0.0219926908612251282
-0.0250000003725290298 0.017261940985918045 0.0125955939292907715
-0.0250000003725290298 0.0247258562594652176 0.00672017131000757217
-0.0250000003725290298 0.0170007944107055664 0.0128906760364770889
-0.0250000003725290298 0.0128831742331385612 0.0148391611874103546
-0.0250000003725290298 0.00989190582185983658 0.0173969976603984833
-0.0250000003725290298 0.00321362260729074478 0.0214737728238105774
-0.0250000003725290298 0.00261482549831271172 0.0196801703423261642
-0.0250000003725290298 0.0110300611704587936 0.0181170590221881866
-0.0250000003725290298 0.0192275140434503555 0.0124870333820581436
-0.0250000003725290298 0.0167834833264350891 0.0147645995020866394
-0.0250000003725290298 0.00697881681844592094 0.0211408473551273346
-0.0250000003725290298 0.0137216858565807343 0.0160721968859434128
-0.0250000003725290298 0.0129068680107593536 0.0190111864358186722
-0.0250000003725290298 0.0180315561592578888 0.0126371299847960472
-0.0250000003725290298 0.00527558848261833191 0.026600424200296402
-0.0250000003725290298 0.0111811710521578789 0.0179124027490615845
-0.0250000003725290298 0.0100774876773357391 0.0221243537962436676
-0.0250000003725290298 0.0103727774694561958 0.0182397402822971344
-0.0250000003725290298 0.0169786252081394196 0.0141606181859970093
-0.0250000003725290298 0.00589472055435180664 0.0227168835699558258
-0.0250000003725290298 0.0218790117651224136 0.0103439372032880783
-0.0250000003725290298 0.00589730776846408844 0.0225160736590623856
-0.0250000003725290298 0.0136763863265514374 0.0176614075899124146
-0.0250000003725290298 0.0208543594926595688 0.011066594161093235
-0.0250000003725290298 0.00551410112529993057 0.024012438952922821
-0.0250000003725290298 0.00774256978183984756 0.0228272080421447754
-0.0250000003725290298 0.00924994051456451416 0.0211294349282979965
-0.0250000003725290298 0.00917540397495031357 0.0214724205434322357
-0.0250000003725290298 0.00834885798394680023 0.0207596272230148315
-0.0250000003725290298 0.0130508793517947197 0.0182731971144676208
-0.0250000003725290298 0.00947696808725595474 0.0201178416609764099
-0.0250000003725290298 0.00311840977519750595 0.0241316575556993484
-0.0250000003725290298 0.00352095020934939384 0.0243259482085704803
-0.0250000003725290298 0.00736626051366329193 0.0212871171534061432
-0.0250000003725290298 0.00975758489221334457 0.0205763056874275208
-0.0250000003725290298 0.00470695644617080688 0.0268191210925579071
-0.0250000003725290298 0.00699999788776040077 0.0214033555239439011
-0.0250000003725290298 0.0137935290113091469 0.0160119682550430298
-0.0250000003725290298 0.0027586156502366066 0.0250328034162521362
-0.0250000003725290298 0.0216021966189146042 0.00939169619232416153
-0.0250000003725290298 0.00714290142059326172 0.0237413123250007629
-0.0250000003725290298 0.012987261638045311 0.0174879040569067001
-0.0250000003725290298 0.0144680943340063095 0.0157046057283878326
-0.0250000003725290298 0.00861894246190786362 0.0198398958891630173
-0.0250000003725290298 0.0114733027294278145 0.0201594140380620956
-0.0250000003725290298 0.00896413251757621765 0.0222918745130300522
-0.0250000003725290298 0.00243277475237846375 0.0245829038321971893
-0.0250000003725290298 0.0146973393857479095 0.0166780427098274231
-0.0250000003725290298 0.0144335273653268814 0.015000821091234684
-0.0250000003725290298 0.00780735118314623833 0.0202547106891870499
-0.0250000003725290298 0.014923672191798687 0.0153152011334896088
-0.0250000003725290298 0.0105035388842225075 0.0205760970711708069
-0.0250000003725290298 0.0228114929050207138 0.00882853101938962936
-0.0250000003725290298 0.00591458380222320557 0.0226599909365177155
-0.0250000003725290298 0.014500168152153492 0.0172247327864170074
-0.0250000003725290298 0.00871300976723432541 0.0197973791509866714
-0.0250000003725290298 0.00794298481196165085 0.0217687338590621948
-0.0250000003725290298 0.00273577170446515083 0.0253011398017406464
-0.0250000003725290298 0.0124539071694016457 0.0168489459902048111
-0.0250000003725290298 0.0117351654917001724 0.0185400769114494324
-0.0250000003725290298 0.0108855972066521645 0.0193174388259649277
-0.0250000003725290298 0.0219569895416498184 0.00908333063125610352
-0.0250000003725290298 0.0114917280152440071 0.0174376759678125381
-0.0250000003725290298 0.0130946729332208633 0.0190412327647209167
-0.0250000003725290298 0.0108420159667730331 0.0191540159285068512
-0.0250000003725290298 0.00798797514289617538 0.0199523735791444778
-0.0250000003725290298 0.0147929610684514046 0.0170892030000686646
-0.0250000003725290298 0.00518863648176193237 0.0263206660747528076
-0.0250000003725290298 0.0164328329265117645 0.0140300747007131577
-0.0250000003725290298 0.0102882739156484604 0.020440664142370224
-0.0250000003725290298 0.0100464578717947006 0.0201420411467552185
-0.0250000003725290298 0.00881276652216911316 0.0228342227637767792
-0.0250000003725290298 0.00940763577818870544 0.0190110616385936737
-0.0250000003725290298 0.0088750738650560379 0.0202942974865436554
-0.0250000003725290298 0.00720551423728466034 0.0211691521108150482
-0.0250000003725290298 0.0251819323748350143 0.00666219834238290787
-0.0250000003725290298 0.0132923098281025887 0.0178632289171218872
-0.0250000003725290298 0.00734541099518537521 0.021216120570898056
-0.0250000003725290298 0.00845492351800203323 0.0215025339275598526
-0.0250000003725290298 0.00785265117883682251 0.022048506885766983
-0.0250000003725290298 0.00875326991081237793 0.0234738998115062714
-0.0250000003725290298 0.0114539163187146187 0.0173507370054721832
-0.0250000003725290298 0.0142663409933447838 0.0177321620285511017
-0.0250000003725290298 0.0202527809888124466 0.0105489464476704597
-0.0250000003725290298 0.0230191554874181747 0.00901361461728811264
-0.0250000003725290298 0.00432984158396720886 0.0235214363783597946
-0.0250000003725290298 0.00385882426053285599 0.0233477335423231125
-0.0250000003725290298 0.00444302521646022797 0.0266600009053945541
-0.0250000003725290298 0.0115668745711445808 0.0197793189436197281
-0.0250000003725290298 0.0103943413123488426 0.0211242362856864929
-0.0250000003725290298 0.0155344763770699501 0.0146383419632911682
-0.0250000003725290298 0.00228849821723997593 0.0244127660989761353
-0.0250000003725290298 0.00429040193557739258 0.0257735401391983032
-0.0250000003725290298 0.00366214942187070847 0.0264026112854480743
-0.0250000003725290298 0.00626791361719369888 0.0242497362196445465
-0.0250000003725290298 0.0106500852853059769 0.0186743997037410736
-0.0250000003725290298 0.0143131483346223831 0.0158905480057001114
-0.0250000003725290298 0.0141477193683385849 0.0161647573113441467
-0.0250000003725290298 0.0105693209916353226 0.0195574648678302765
-0.0250000003725290298 0.0119593702256679535 0.0176165029406547546
-0.0250000003725290298 0.00999486818909645081 0.0186208188533782959
-0.0250000003725290298 0.0166014507412910461 0.0153170060366392136
-0.0250000003725290298 0.00794199854135513306 0.0242903083562850952
-0.0250000003725290298 0.0199412424117326736 0.0106343729421496391
-0.0250000003725290298 0.00554410181939601898 0.0253684688359498978
-0.0250000003725290298 0.0112850014120340347 0.0193995609879493713
-0.0250000003725290298 0.00952267087996006012 0.0195233449339866638
-0.0250000003725290298 0.0122372154146432877 0.0178510211408138275
-0.0250000003725290298 0.0041762213222682476 0.0240876749157905579
-0.0250000003725290298 0.0106202233582735062 0.0208746492862701416
-0.0250000003725290298 0.0200060419738292694 0.0115331634879112244
-0.0250000003725290298 0.0170394796878099442 0.014143671840429306
-0.0250000003725290298 0.010334014892578125 0.020764010027050972
-0.0250000003725290298 0.0179583840072154999 0.013123340904712677
-0.0250000003725290298 0.0092970728874206543 0.0192508511245250702
-0.0250000003725290298 0.0115414280444383621 0.0175752881914377213
-0.0250000003725290298 0.0107667166739702225 0.01989792101085186
-0.0250000003725290298 0.00991478655487298965 0.0213218294084072113
-0.0250000003725290298 0.0120073519647121429 0.0203299019485712051
-0.0250000003725290298 0.0120652290061116219 0.0197033677250146866
-0.0250000003725290298 0.0068667139858007431 0.0234327167272567749
-0.0250000003725290298 0.0127274729311466217 0.0170461852103471756
-0.0250000003725290298 0.0135299237444996834 0.0181755945086479187
-0.0250000003725290298 0.0120089054107666016 0.0180352777242660522
-0.0250000003725290298 0.00748712942004203796 0.0248076543211936951
-0.0250000003725290298 0.020771292969584465 0.011221778579056263
-0.0250000003725290298 0.00541072525084018707 0.0227981582283973694
-0.0250000003725290298 0.0144170783460140228 0.0159094426780939102
-0.0250000003725290298 0.020440446212887764 0.0107840746641159058
-0.0250000003725290298 0.0136734088882803917 0.0163636170327663422
-0.0250000003725290298 0.00614815577864646912 0.0250978749245405197
-0.0250000003725290298 0.0202589835971593857 0.0106526520103216171
-0.0250000003725290298 0.00350782368332147598 0.0238840151578187943
-0.0250000003725290298 0.0153782330453395844 0.0148558598011732101
-0.0250000003725290298 0.00243254657834768295 0.0251550246030092239
-0.0250000003725290298 0.00371942529454827309 0.0248483307659626007
-0.0250000003725290298 0.00393794197589159012 0.0257560797035694122
-0.0250000003725290298 0.00525234732776880264 0.0241945255547761917
-0.0250000003725290298 0.00658107735216617584 0.0250729937106370926
-0.0250000003725290298 0.00990326236933469772 0.0190766770392656326
-0.0250000003725290298 0.00870130117982625961 0.0212775655090808868
-0.0250000003725290298 0.0121993664652109146 0.0195602588355541229
-0.0250000003725290298 0.0114198010414838791 0.019960600882768631
-0.0250000003725290298 0.0130944075062870979 0.0184657759964466095
-0.0250000003725290298 0.0128943612799048424 0.0192456431686878204
-0.0250000003725290298 0.00498711457476019859 0.0231276191771030426
-0.0250000003725290298 0.0141708683222532272 0.0156660992652177811
-0.0250000003725290298 0.00787876639515161514 0.0223177596926689148
-0.0250000003725290298 0.00842731166630983353 0.020013442263007164
-0.0250000003725290298 0.0108067132532596588 0.0203263461589813232
-0.0250000003725290298 0.0227746497839689255 0.00903151277452707291
-0.0250000003725290298 0.023338664323091507 0.00883372779935598373
-0.0250000003725290298 0.0110738128423690796 0.0192056372761726379
-0.0250000003725290298 0.00620289519429206848 0.0259120799601078033
-0.0250000003725290298 0.0157034508883953094 0.0161225497722625732
-0.0250000003725290298 0.0181275159120559692 0.0126383574679493904
-0.0250000003725290298 0.00602917606011033058 0.0226683560758829117
-0.0250000003725290298 0.0104239154607057571 0.0211501438170671463
-0.0250000003725290298 0.0114536909386515617 0.0182953588664531708
-0.0250000003725290298 0.0115554714575409889 0.0202725175768136978
-0.0250000003725290298 0.00298529490828514099 0.0256803594529628754
-0.0250000003725290298 0.0171266887336969376 0.0150628136470913887
-0.0250000003725290298 0.00591303501278162003 0.0231186896562576294
-0.0250000003725290298 0.0137815428897738457 0.0180331077426671982
-0.0250000003725290298 0.00433723349124193192 0.025099094957113266
-0.0250000003725290298 0.0239035040140151978 0.00812438875436782837
-0.0250000003725290298 0.0203941091895103455 0.0107274269685149193
-0.0250000003725290298 0.0222092941403388977 0.00972535833716392517
-0.0250000003725290298 0.0154876671731472015 0.0150982029736042023
-0.0250000003725290298 0.010645303875207901 0.0195159800350666046
-0.0250000003725290298 0.024691091850399971 0.00744477193802595139
-0.0250000003725290298 0.0235691256821155548 0.00787987466901540756
-0.0250000003725290298 0.0108097651973366737 0.0197457149624824524
-0.0250000003725290298 0.0193684063851833344 0.0114760491997003555
-0.0250000003725290298 0.0113033279776573181 0.0206040423363447189
-0.0250000003725290298 0.00823992397636175156 0.0203860942274332047
-0.0250000003725290298 0.00449023209512233734 0.0253966785967350006
-0.0250000003725290298 0.00568070076406002045 0.026494218036532402
-0.0250000003725290298 0.0107996007427573204 0.0204245150089263916
-0.0250000003725290298 0.00692776963114738464 0.0248418599367141724
-0.0250000003725290298 0.0105893742293119431 0.0199321545660495758
-0.0250000003725290298 0.0255306083709001541 0.00660580489784479141
-0.0250000003725290298 0.0165018197149038315 0.0133586116135120392
-0.0250000003725290298 0.0114953760057687759 0.018666466698050499
-0.0250000003725290298 0.0105153433978557587 0.0183810759335756302
-0.0250000003725290298 0.0203515477478504181 0.0110133383423089981
-0.0250000003725290298 0.0200745034962892532 0.0110116694122552872
-0.0250000003725290298 0.0107931289821863174 0.0189719665795564651
-0.0250000003725290298 0.0118231726810336113 0.0183227136731147766
-0.0250000003725290298 0.00628373678773641586 0.0219673532992601395
-0.0250000003725290298 0.0221344567835330963 0.00979834049940109253
-0.0250000003725290298 0.0160481221973896027 0.0161898303776979446
-0.0250000003725290298 0.0143227577209472656 0.0182358641177415848
-0.0250000003725290298 0.0155284581705927849 0.0171629078686237335
-0.0250000003725290298 0.0183665044605731964 0.0159049555659294128
-0.0250000003725290298 0.0167970675975084305 0.0161980204284191132
-0.0250000003725290298 0.00745830591768026352 0.0274706762284040451
-0.0250000003725290298 0.0141963083297014236 0.0212734062224626541
-0.0250000003725290298 0.0130120255053043365 0.0211255811154842377
-0.0250000003725290298 0.0181258507072925568 0.0142715489491820335
-0.0250000003725290298 0.0186118874698877335 0.0140955261886119843
-0.0250000003725290298 0.00888172723352909088 0.0265250019729137421
-0.0250000003725290298 0.00736325373873114586 0.0271855127066373825
-0.0250000003725290298 0.0115830115973949432 0.0227061137557029724
-0.0250000003725290298 0.02311721071600914 0.00978499464690685272
-0.0250000003725290298 0.018252907320857048 0.0163317546248435974
-0.0250000003725290298 0.0125215137377381325 0.0233411975204944611
-0.0250000003725290298 0.00661640986800193787 0.0282439794391393661
-0.0250000003725290298 0.0134814325720071793 0.0216332338750362396
-0.0250000003725290298 0.018714001402258873 0.0149514507502317429
-0.0250000003725290298 0.0213445518165826797 0.011807403527200222
-0.0250000003725290298 0.0128155620768666267 0.023290485143661499
-0.0250000003725290298 0.0103128310292959213 0.0226087421178817749
-0.0250000003725290298 0.00929736252874135971 0.0265467148274183273
-0.0250000003725290298 0.0127095133066177368 0.0216847248375415802
-0.0250000003725290298 0.0121153350919485092 0.0220954325050115585
-0.0250000003725290298 0.0118134105578064919 0.0248433426022529602
-0.0250000003725290298 0.0225012954324483871 0.0110618788748979568
-0.0250000003725290298 0.00560291390866041183 0.0279167555272579193
-0.0250000003725290298 0.00630517210811376572 0.0292103961110115051
-0.0250000003725290298 0.0087365955114364624 0.0254322849214076996
-0.0250000003725290298 0.00597496237605810165 0.0269772782921791077
-0.0250000003725290298 0.00826810672879219055 0.0270742699503898621
-0.0250000003725290298 0.00746352598071098328 0.0257561448961496353
-0.0250000003725290298 0.0133977252990007401 0.0219691023230552673
-0.0250000003725290298 0.0134679349139332771 0.0206225700676441193
-0.0250000003725290298 0.00848639663308858871 0.0253938063979148865
-0.0250000003725290298 0.0107629960402846336 0.0242046527564525604
-0.0250000003725290298 0.00756707647815346718 0.0248564090579748154
-0.0250000003725290298 0.00757322739809751511 0.0266235172748565674
-0.0250000003725290298 0.00825752504169940948 0.029603937640786171
-0.0250000003725290298 0.00737026892602443695 0.0279868301004171371
-0.0250000003725290298 0.0197459179908037186 0.0143517889082431793
-0.0250000003725290298 0.0197861194610595703 0.0142910080030560493
-0.0250000003725290298 0.00860780104994773865 0.0247728750109672546
-0.0250000003725290298 0.0193787179887294769 0.0135546065866947174
-0.0250000003725290298 0.0146825108677148819 0.018363218754529953
-0.0250000003725290298 0.00983187556266784668 0.0244052167981863022
-0.0250000003725290298 0.0102924071252346039 0.023395732045173645
-0.0250000003725290298 0.0143497716635465622 0.0182197242975234985
-0.0250000003725290298 0.0118468422442674637 0.0250934064388275146
-0.0250000003725290298 0.0161778125911951065 0.0170894544571638107
-0.0250000003725290298 0.0185887999832630157 0.0141728883609175682
-0.0250000003725290298 0.00749018043279647827 0.0304030776023864746
-0.0250000003725290298 0.0168291721493005753 0.0166432745754718781
-0.0250000003725290298 0.0185471866279840469 0.0143325226381421089
-0.0250000003725290298 0.0181098300963640213 0.0153450444340705872
-0.0250000003725290298 0.0192229412496089935 0.0135347964242100716
-0.0250000003725290298 0.0195345990359783173 0.01284759771078825
-0.0250000003725290298 0.0209849998354911804 0.0116202514618635178
-0.0250000003725290298 0.0233959108591079712 0.00980031490325927734
-0.0250000003725290298 0.0149171026423573494 0.0202575773000717163
-0.0250000003725290298 0.0221241749823093414 0.0106940940022468567
-0.0250000003725290298 0.0152945742011070251 0.0176800154149532318
-0.0250000003725290298 0.0114661790430545807 0.0225463025271892548
-0.0250000003725290298 0.0075500141829252243 0.0279243774712085724
-0.0250000003725290298 0.0139349335804581642 0.0192880537360906601
-0.0250000003725290298 0.0184975173324346542 0.0139689864590764046
-0.0250000003725290298 0.00724190846085548401 0.0296676177531480789
-0.0250000003725290298 0.00757101457566022873 0.0255424417555332184
-0.0250000003725290298 0.00727788824588060379 0.0287222657352685928
-0.0250000003725290298 0.018027646467089653 0.0162689574062824249
-0.0250000003725290298 0.00910556968301534653 0.0238659977912902832
-0.0250000003725290298 0.00827488210052251816 0.0250406339764595032
-0.0250000003725290298 0.00755398347973823547 0.0264076124876737595
-0.0250000003725290298 0.00635393848642706871 0.0262035783380270004
-0.0250000003725290298 0.00803755223751068115 0.0277119465172290802
-0.0250000003725290298 0.0131157245486974716 0.0214767437428236008
-0.0250000003725290298 0.0123777519911527634 0.0202571414411067963
-0.0250000003725290298 0.00945151876658201218 0.0269359499216079712
-0.0250000003725290298 0.013621428981423378 0.0214772112667560577
-0.0250000003725290298 0.00826552323997020721 0.0255040358752012253
-0.0250000003725290298 0.0135854771360754967 0.0226264726370573044
-0.0250000003725290298 0.00996972993016242981 0.0245603099465370178
-0.0250000003725290298 0.0190596692264080048 0.0134921558201313019
-0.0250000003725290298 0.0132373925298452377 0.0198233984410762787
-0.0250000003725290298 0.0120128905400633812 0.0223549921065568924
-0.0250000003725290298 0.0195210985839366913 0.0137954968959093094
-0.0250000003725290298 0.0131869008764624596 0.0220980588346719742
-0.0250000003725290298 0.0121966535225510597 0.0208831541240215302
-0.0250000003725290298 0.00903218518942594528 0.0265436600893735886
-0.0250000003725290298 0.0185615960508584976 0.0164092779159545898
-0.0250000003725290298 0.00865330547094345093 0.0238500554114580154
-0.0250000003725290298 0.00763055076822638512 0.0268536247313022614
-0.0250000003725290298 0.0114551056176424026 0.0236336831003427505
-0.0250000003725290298 0.0157687477767467499 0.0175330266356468201
-0.0250000003725290298 0.0135884014889597893 0.0226916298270225525
-0.0250000003725290298 0.0113567356020212173 0.0229262653738260269
-0.0250000003725290298 0.0129139190539717674 0.0202578678727149963
-0.0250000003725290298 0.00780563056468963623 0.030322730541229248
-0.0250000003725290298 0.00824182853102684021 0.0293164663016796112
-0.0250000003725290298 0.0150657230988144875 0.0179363861680030823
-0.0250000003725290298 0.00776344817131757736 0.0252689942717552185
-0.0250000003725290298 0.0144992191344499588 0.0214819461107254028
-0.0250000003725290298 0.00761046633124351501 0.0264812223613262177
-0.0250000003725290298 0.006765022873878479 0.0293491948395967484
-0.0250000003725290298 0.00563242705538868904 0.027052760124206543
-0.0250000003725290298 0.0107480110600590706 0.0242067836225032806
-0.0250000003725290298 0.00728423893451690674 0.0267248116433620453
-0.0250000003725290298 0.011470334604382515 0.0216788537800312042
-0.0250000003725290298 0.00880451314151287079 0.0277846604585647583
-0.0250000003725290298 0.021152811124920845 0.0125535484403371811
-0.0250000003725290298 0.0098165879026055336 0.0263725593686103821
-0.0250000003725290298 0.0101048508659005165 0.0253063477575778961
-0.0250000003725290298 0.010118718259036541 0.0252602472901344299
-0.0250000003725290298 0.024150066077709198 0.00891616567969322205
-0.0250000003725290298 0.0097307991236448288 0.0270193405449390411
-0.0250000003725290298 0.0079579520970582962 0.0283193085342645645
-0.0250000003725290298 0.00621286593377590179 0.0288815144449472427
-0.0250000003725290298 0.0107495691627264023 0.0246319621801376343
-0.0250000003725290298 0.00805857963860034943 0.0249324142932891846
-0.0250000003725290298 0.0133665455505251884 0.0219308678060770035
-0.0250000003725290298 0.0205753445625305176 0.0134201748296618462
-0.0250000003725290298 0.013968098908662796 0.0191114600747823715
-0.0250000003725290298 0.00612305523827672005 0.0284704957157373428
-0.0250000003725290298 0.00815694313496351242 0.0275735743343830109
