ply
format ascii 1.0
element vertex 721
property float x
property float y
property float z
end_header
0.0166492350399494171 0.0972499996423721313 -0.00850786641240119934
0.0148690426722168922 0.0972499996423721313 -0.022299623116850853
0.00831783842295408249 0.0972499996423721313 -0.0355415232479572296
0.0109354089945554733 0.0972499996423721313 -0.0259812809526920319
0.013055846095085144 0.0972499996423721313 -0.0359720364212989807
-0.00216995575465261936 0.0972499996423721313 -0.0352187380194664001
0.0112645020708441734 0.0972499996423721313 -0.0115064214915037155
0.00797992199659347534 0.0972499996423721313 -0.028636174276471138
0.0275547821074724197 0.0972499996423721313 0.0220692306756973267
0.00327732809819281101 0.0972499996423721313 -0.0353975743055343628
0.0120532773435115814 0.0972499996423721313 -0.00879368744790554047
0.0169005692005157471 0.0972499996423721313 0.00247986242175102234
0.0108687495812773705 0.0972499996423721313 -0.00577851012349128723
-0.00404784455895423889 0.0972499996423721313 -0.0351081863045692444
0.0138170383870601654 0.0972499996423721313 6.96964561939239502e-05
-0.00577081739902496338 0.0972499996423721313 -0.027099955826997757
0.000936570577323436737 0.0972499996423721313 -0.0193915646523237228
0.00597643852233886719 0.0972499996423721313 -0.00473158992826938629
0.00818889401853084564 0.0972499996423721313 0.000730134546756744385
-0.0105399694293737411 0.0972499996423721313 -0.0294778719544410706
0.0122214388102293015 0.0972499996423721313 0.00379326194524765015
0.0105346981436014175 0.0972499996423721313 -0.000402852892875671387
-0.0112117212265729904 0.0972499996423721313 -0.0281069763004779816
0.00862088799476623535 0.0972499996423721313 -0.000623401254415512085
-0.015391678549349308 0.0972499996423721313 -0.0155694866552948952
-0.0219900254160165787 0.0972499996423721313 -0.0242632031440734863
0.00118367187678813934 0.0972499996423721313 -0.0021442025899887085
-0.0017400495707988739 0.0972499996423721313 -0.00154634751379489899
0.0269404053688049316 0.0972499996423721313 0.0232632812112569809
-0.0134351123124361038 0.0972499996423721313 -0.0205330271273851395
-0.00740980915725231171 0.0972499996423721313 -0.0080631207674741745
-0.0269456394016742706 0.0972499996423721313 -0.0213032104074954987
0.0217624716460704803 0.0972499996423721313 0.0196457915008068085
-0.0155349913984537125 0.0972499996423721313 -0.0122041786089539528
-0.00839673168957233429 0.0972499996423721313 -0.00652599520981311798
0.0256338715553283691 0.0972499996423721313 0.0229547824710607529
-0.0131495948880910873 0.0972499996423721313 -0.00419218279421329498
-0.00166307389736175537 0.0972499996423721313 0.00147289782762527466
-0.0315451733767986298 0.0972499996423721313 -0.00870828144252300262
-0.0324641503393650055 0.0972499996423721313 -0.0127111347392201424
-0.0202013570815324783 0.0972499996423721313 -0.00484347622841596603
-0.0282293930649757385 0.0972499996423721313 -0.0109825413674116135
-0.0201621595770120621 0.0972499996423721313 -0.00449247285723686218
-0.00887022726237773895 0.0972499996423721313 0.0052054431289434433
-0.03057066909968853 0.0972499996423721313 -0.0111123835667967796
-0.00495707616209983826 0.0972499996423721313 0.0097460281103849411
0.0253559499979019165 0.0972499996423721313 0.0242104381322860718
0.00630092993378639221 0.0972499996423721313 0.0157826263457536697
-0.0161237027496099472 0.0972499996423721313 0.00803200900554656982
-0.0280120857059955597 0.0972499996423721313 -0.00267306109890341759
0.00471601635217666626 0.0972499996423721313 0.0141941094771027565
-0.0172957759350538254 0.0972499996423721313 0.00679466128349304199
-0.0225170478224754333 0.0972499996423721313 0.0109672462567687035
-0.031388498842716217 0.0972499996423721313 0.00799151696264743805
0.0215361826121807098 0.0972499996423721313 0.0252130459994077682
-0.0193323027342557907 0.0972499996423721313 0.00973518192768096924
0.0099596753716468811 0.0972499996423721313 0.020812641829252243
-0.0162493195384740829 0.0972499996423721313 0.0131753459572792053
-0.0216355994343757629 0.0972499996423721313 0.00839684717357158661
-0.00859720632433891296 0.0972499996423721313 0.019228493794798851
-0.022581838071346283 0.0972499996423721313 0.0196381621062755585
0.0240023806691169739 0.0972499996423721313 0.0278576482087373734
-0.0344312191009521484 0.0972499996423721313 0.015107898972928524
-0.0331318005919456482 0.0972499996423721313 0.0139412907883524895
-0.00728840753436088562 0.0972499996423721313 0.0212706662714481354
-0.0062197614461183548 0.0972499996423721313 0.0275679547339677811
0.0114029161632061005 0.0972499996423721313 0.0283387992531061172
-0.0055842958390712738 0.0972499996423721313 0.0287837069481611252
-0.0368042252957820892 0.0972499996423721313 0.0223350413143634796
0.0157397761940956116 0.0972499996423721313 0.0287931207567453384
-0.00382966361939907074 0.0972499996423721313 0.0277615580707788467
0.010066082701086998 0.0972499996423721313 0.0290402043610811234
-0.0234988648444414139 0.0972499996423721313 0.0319680236279964447
0.0206868313252925873 0.0972499996423721313 0.0293289851397275925
-0.0193108320236206055 0.0972499996423721313 0.0325107462704181671
-0.0256608873605728149 0.0972499996423721313 0.0310130324214696884
-0.0105495229363441467 0.0972499996423721313 0.0379342176020145416
-0.000965530052781105042 0.0972499996423721313 0.0341423042118549347
-0.00994013156741857529 0.0972499996423721313 0.0351434648036956787
0.0256574787199497223 0.0972499996423721313 0.0315010920166969299
0.00686264503747224808 0.0972499996423721313 0.0379925407469272614
0.00674257520586252213 0.0972499996423721313 0.0419282577931880951
0.0109042413532733917 0.0972499996423721313 0.0418469719588756561
0.0412745214998722076 0.0972499996423721313 0.00737748388200998306
0.034720446914434433 0.0972499996423721313 0.0213116444647312164
0.0384975112974643707 0.0972499996423721313 -0.00111886486411094666
0.0382050015032291412 0.0972499996423721313 3.52784991264343262e-05
0.0390498600900173187 0.0972499996423721313 -0.00444521196186542511
0.0343884415924549103 0.0972499996423721313 0.00578056089580059052
0.035003960132598877 0.0972499996423721313 -0.0145479710772633553
0.0342568196356296539 0.0972499996423721313 -0.00456547364592552185
0.0303362924605607986 0.0972499996423721313 -0.0248141568154096603
0.0259701944887638092 0.0972499996423721313 -0.0280449371784925461
0.0291516277939081192 0.0972499996423721313 -0.0279037747532129288
0.0299163591116666794 0.0972499996423721313 -0.0212576016783714294
0.02395615354180336 0.0972499996423721313 -0.0337506160140037537
0.0286388248205184937 0.0972499996423721313 0.00901228189468383789
0.0184546280652284622 0.0972499996423721313 -0.0392259024083614349
0.0246760901063680649 0.0972499996423721313 -0.0329288318753242493
0.0246968455612659454 0.0972499996423721313 -0.00515432283282279968
0.0138024734333157539 0.0972499996423721313 -0.0314360484480857849
0.0173862800002098083 0.0972499996423721313 -0.0325994789600372314
0.00867013260722160339 0.0972499996423721313 -0.0393445789813995361
0.0149763980880379677 0.0972499996423721313 -0.0262407120317220688
0.0206940248608589172 0.0972499996423721313 -0.0153880231082439423
0.0124647356569766998 0.0972499996423721313 -0.0258471034467220306
-0.00122626358643174171 0.0972499996423721313 -0.0424842089414596558
0.0103050973266363144 0.0972499996423721313 -0.0284755323082208633
0.00707996077835559845 0.0972499996423721313 -0.037011466920375824
-0.000509204808622598648 0.0972499996423721313 -0.0372677221894264221
0.0108850002288818359 0.0972499996423721313 -0.0239503383636474609
0.0101936571300029755 0.0972499996423721313 -0.0261591728776693344
0.00740790786221623421 0.0972499996423721313 -0.026640942320227623
0.0176791995763778687 0.0972499996423721313 -0.00159521028399467468
0.0169807150959968567 0.0972499996423721313 0.00171453133225440979
-0.00521829864010214806 0.0972499996423721313 -0.0431049615144729614
0.00609218794852495193 0.0972499996423721313 -0.0109884627163410187
-0.0018718792125582695 0.0972499996423721313 -0.0274760909378528595
-0.00477059744298458099 0.0972499996423721313 -0.0295394714921712875
-0.00364795513451099396 0.0972499996423721313 -0.0389289259910583496
-0.00281079486012458801 0.0972499996423721313 -0.0333945006132125854
0.00200999248772859573 0.0972499996423721313 -0.0270124040544033051
0.0181104186922311783 0.0972499996423721313 0.00936207547783851624
-0.0234406720846891403 0.0972499996423721313 -0.0348628051578998566
-0.00233587063848972321 0.0972499996423721313 -0.0123079437762498856
0.0182892642915248871 0.0972499996423721313 0.0100794881582260132
0.00460513681173324585 0.0972499996423721313 -0.00816054642200469971
-0.00116298161447048187 0.0972499996423721313 -0.0135486554354429245
-0.0183207672089338303 0.0972499996423721313 -0.031296607106924057
0.0117417015135288239 0.0972499996423721313 0.00452870503067970276
-0.00885618105530738831 0.0972499996423721313 -0.0166279338300228119
-0.00649670884013175964 0.0972499996423721313 -0.012093719094991684
-0.0156882628798484802 0.0972499996423721313 -0.0224516540765762329
-0.00912714004516601562 0.0972499996423721313 -0.0166477113962173462
-0.0260719768702983856 0.0972499996423721313 -0.0298418104648590088
0.014498978853225708 0.0972499996423721313 0.00894721038639545441
-0.0103801507502794266 0.0972499996423721313 -0.0190920829772949219
-0.00867613963782787323 0.0972499996423721313 -0.0142601653933525085
-0.0249784626066684723 0.0972499996423721313 -0.0351638533174991608
-0.00773847661912441254 0.0972499996423721313 -0.00276339799165725708
-0.0339057222008705139 0.0972499996423721313 -0.0220145788043737411
-0.0333299599587917328 0.0972499996423721313 -0.0261957366019487381
0.0116522274911403656 0.0972499996423721313 0.013497205451130867
-0.016990000382065773 0.0972499996423721313 -0.010560021735727787
-0.0337815657258033752 0.0972499996423721313 -0.0273502897471189499
-0.00957116670906543732 0.0972499996423721313 -0.00295856781303882599
-0.0237212777137756348 0.0972499996423721313 -0.0163025595247745514
0.0178608782589435577 0.0972499996423721313 0.0168218538165092468
-0.0235277824103832245 0.0972499996423721313 -0.00570535380393266678
-0.0372690297663211823 0.0972499996423721313 -0.0178907439112663269
-0.0228830613195896149 0.0972499996423721313 -0.00900085177272558212
0.0151776336133480072 0.0972499996423721313 0.0182194449007511139
-0.0197974443435668945 0.0972499996423721313 -0.00394379161298274994
-0.00999585725367069244 0.0972499996423721313 0.00213398411870002747
-0.00349932163953781128 0.0972499996423721313 0.00510730966925621033
-0.0400445684790611267 0.0972499996423721313 -0.0131704909726977348
-0.0336334630846977234 0.0972499996423721313 0.000450072810053825378
-0.0301084034144878387 0.0972499996423721313 0.00244657043367624283
0.00258388370275497437 0.0972499996423721313 0.0143702412024140358
0.0155810527503490448 0.0972499996423721313 0.0222831256687641144
0.000262409448623657227 0.0972499996423721313 0.0164152160286903381
-0.0363705456256866455 0.0972499996423721313 0.00148909818381071091
-0.0178490523248910904 0.0972499996423721313 0.00453062215819954872
0.0336558371782302856 0.109250001609325409 -0.0113489199429750443
0.0351897403597831726 0.109250001609325409 -0.0100688114762306213
0.0338185727596282959 0.109250001609325409 -0.00977196916937828064
0.0327509120106697083 0.109250001609325409 -0.0101480633020401001
0.0299640968441963196 0.109250001609325409 -0.0138054601848125458
0.0309748370200395584 0.109250001609325409 0.00462215952575206757
0.0301925688982009888 0.109250001609325409 0.0183677561581134796
0.0273971166461706161 0.109250001609325409 0.0249934326857328415
0.0270536132156848907 0.109250001609325409 0.011793818324804306
0.024788515642285347 0.109250001609325409 0.0187553465366363525
0.026418294757604599 0.109250001609325409 -0.00186535343527793884
0.0258703846484422684 0.109250001609325409 -0.0097434408962726593
0.0235893111675977707 0.109250001609325409 -0.000352073460817337036
0.0248575750738382339 0.109250001609325409 -0.000381149351596832275
0.0153377354145050049 0.109250001609325409 0.0172374099493026733
0.00630474928766489029 0.109250001609325409 0.0380437597632408142
0.0230354815721511841 0.109250001609325409 -0.00770476087927818298
0.0247203819453716278 0.109250001609325409 -0.00869341567158699036
0.00874678604304790497 0.109250001609325409 0.0305427871644496918
0.0214972738176584244 0.109250001609325409 -0.00855973735451698303
0.00383878685534000397 0.109250001609325409 0.0238735564053058624
0.00909931957721710205 0.109250001609325409 0.0232552401721477509
0.00507238833233714104 0.109250001609325409 0.022491132840514183
0.00677598873153328896 0.109250001609325409 0.0287761576473712921
0.000964011065661907196 0.109250001609325409 0.0350238196551799774
-0.000613451935350894928 0.109250001609325409 0.0238342471420764923
0.003502625972032547 0.109250001609325409 0.0206954870373010635
0.0204008817672729492 0.109250001609325409 -0.010672248899936676
0.00602646730840206146 0.109250001609325409 0.00892770849168300629
0.000360202975571155548 0.109250001609325409 0.0277045685797929764
0.0123115628957748413 0.109250001609325409 0.00174617022275924683
-0.0111001031473278999 0.109250001609325409 0.0275438856333494186
0.00571127422153949738 0.109250001609325409 0.00639940425753593445
-0.00158958695828914642 0.109250001609325409 0.0135758928954601288
-0.0141836283728480339 0.109250001609325409 0.0232824720442295074
0.0181713160127401352 0.109250001609325409 -0.0117615051567554474
-0.00334322266280651093 0.109250001609325409 0.017986031249165535
-0.0138329248875379562 0.109250001609325409 0.0307689439505338669
0.0129934437572956085 0.109250001609325409 -0.010708637535572052
-0.00952340476214885712 0.109250001609325409 0.00909811072051525116
0.000184550881385803223 0.109250001609325409 0.00191497616469860077
-0.0267938189208507538 0.109250001609325409 0.0242295302450656891
-0.00486085936427116394 0.109250001609325409 0.0113959349691867828
0.0162302758544683456 0.109250001609325409 -0.0116569045931100845
0.0152725633233785629 0.109250001609325409 -0.0126618742942810059
-0.0165657736361026764 0.109250001609325409 0.00995630212128162384
-0.0263727940618991852 0.109250001609325409 0.0204124785959720612
0.0227861702442169189 0.109250001609325409 -0.0210312716662883759
-0.0217460505664348602 0.109250001609325409 0.01721181720495224
0.015240885317325592 0.109250001609325409 -0.0162341296672821045
-0.00958647206425666809 0.109250001609325409 0.00374513305723667145
-0.0331433676183223724 0.109250001609325409 0.018220929428935051
-0.01611299067735672 0.109250001609325409 -0.000384202226996421814
-0.0279287081211805344 0.109250001609325409 0.00468443054705858231
-0.0301437750458717346 0.109250001609325409 0.0124851986765861511
0.00618550926446914673 0.109250001609325409 -0.0103222494944930077
0.0109915770590305328 0.109250001609325409 -0.0161289386451244354
-4.51542437076568604e-05 0.109250001609325409 -0.00599829945713281631
-0.0200322400778532028 0.109250001609325409 0.00396322924643754959
0.00362584739923477173 0.109250001609325409 -0.0157889164984226227
-0.00116531550884246826 0.109250001609325409 -0.012098509818315506
-0.0388966277241706848 0.109250001609325409 0.00220440584234893322
-0.0275697037577629089 0.109250001609325409 -0.000448722857981920242
-0.0107227247208356857 0.109250001609325409 -0.00705424975603818893
-0.00235514342784881592 0.109250001609325409 -0.0134390918537974358
-0.0203065630048513412 0.109250001609325409 -0.00497572869062423706
-0.0266252998262643814 0.109250001609325409 -0.0110331298783421516
0.00326626375317573547 0.109250001609325409 -0.0175660476088523865
-0.0186238251626491547 0.109250001609325409 -0.00939930975437164307
-0.0110501497983932495 0.109250001609325409 -0.0144630586728453636
-0.0127678848803043365 0.109250001609325409 -0.0121684316545724869
0.0055527910590171814 0.109250001609325409 -0.0186202265322208405
-0.005030851811170578 0.109250001609325409 -0.0178329441696405411
-0.0155949071049690247 0.109250001609325409 -0.0180185846984386444
-0.0223236605525016785 0.109250001609325409 -0.0187225639820098877
-0.0323550216853618622 0.109250001609325409 -0.0130799645557999611
-0.0155733432620763779 0.109250001609325409 -0.0205985438078641891
-0.0283857565373182297 0.109250001609325409 -0.0222881976515054703
-0.012642350047826767 0.109250001609325409 -0.0253481417894363403
-0.0244287438690662384 0.109250001609325409 -0.0256338976323604584
-0.0194161757826805115 0.109250001609325409 -0.0229128729552030563
-0.00792426709085702896 0.109250001609325409 -0.0302673354744911194
-0.0222467388957738876 0.109250001609325409 -0.0315914861857891083
0.0155158434063196182 0.109250001609325409 -0.026944432407617569
0.0204177964478731155 0.109250001609325409 -0.0275431405752897263
-0.0139013705775141716 0.109250001609325409 -0.0351445227861404419
-0.00972164422273635864 0.109250001609325409 -0.0340326391160488129
-0.00938022322952747345 0.109250001609325409 -0.0369909331202507019
0.00552461948245763779 0.109250001609325409 -0.0350909531116485596
0.00992478802800178528 0.109250001609325409 -0.0349869690835475922
0.0214460678398609161 0.109250001609325409 -0.0307252965867519379
0.0382345542311668396 0.109250001609325409 -0.0056671779602766037
-0.00593320652842521667 0.109250001609325409 -0.0150088518857955933
0.00867537781596183777 0.109250001609325409 -0.0210555382072925568
-0.0175369549542665482 0.109250001609325409 -0.0162658430635929108
-0.0337975546717643738 0.109250001609325409 -0.00633333763107657433
-0.00958948582410812378 0.109250001609325409 -0.0133774615824222565
-0.0383916981518268585 0.109250001609325409 -0.00304869189858436584
0.0109393894672393799 0.109250001609325409 -0.0223086737096309662
0.0180543698370456696 0.109250001609325409 -0.0270644351840019226
0.00347471609711647034 0.109250001609325409 -0.0218811016529798508
0.0121849514544010162 0.109250001609325409 -0.024500744417309761
-0.0136587545275688171 0.109250001609325409 -0.0194786675274372101
-0.0394739769399166107 0.109250001609325409 -0.0123641975224018097
0.0147459208965301514 0.109250001609325409 -0.0258987024426460266
-0.0300179719924926758 0.109250001609325409 -0.0213128924369812012
-0.0310725197196006775 0.109250001609325409 -0.0214338246732950211
-0.00067000463604927063 0.109250001609325409 -0.0277798306196928024
-0.0274506434798240662 0.109250001609325409 -0.0224165860563516617
-0.0165954641997814178 0.109250001609325409 -0.0254003815352916718
-0.033758159726858139 0.109250001609325409 -0.024390731006860733
-0.0236584581434726715 0.109250001609325409 -0.0279872827231884003
-0.0122465342283248901 0.109250001609325409 -0.0312908217310905457
-0.0255969110876321793 0.109250001609325409 -0.0290774703025817871
-0.0244345217943191528 0.109250001609325409 -0.0347543172538280487
-0.00757864303886890411 0.109250001609325409 -0.030778171494603157
0.0144993588328361511 0.109250001609325409 -0.0329255647957324982
0.0206965599209070206 0.109250001609325409 -0.0319047681987285614
-0.0207381881773471832 0.109250001609325409 -0.0370778404176235199
0.0260845273733139038 0.109250001609325409 -0.0312521308660507202
-0.00761087983846664429 0.109250001609325409 -0.0422875285148620605
0.0133872376754879951 0.109250001609325409 -0.0365036986768245697
0.0163971446454524994 0.109250001609325409 -0.0373277515172958374
0.0181373469531536102 0.109250001609325409 -0.0368816889822483063
0.0401238128542900085 0.109250001609325409 -0.000231895595788955688
0.0394136980175971985 0.109250001609325409 -0.00723656732589006424
0.0366479866206645966 0.109250001609325409 0.000592108815908432007
0.0400895439088344574 0.109250001609325409 0.0120098330080509186
0.0363738462328910828 0.109250001609325409 -0.00244416855275630951
0.0344089232385158539 0.109250001609325409 0.0028842538595199585
0.0365126244723796844 0.109250001609325409 0.00932497065514326096
0.0334275141358375549 0.109250001609325409 -0.00867342576384544373
0.0295945014804601669 0.109250001609325409 0.0107956528663635254
0.0276194475591182709 0.109250001609325409 0.0186405926942825317
0.0310623086988925934 0.109250001609325409 0.000460844486951828003
0.0316483490169048309 0.109250001609325409 0.0193800553679466248
0.0250504296272993088 0.109250001609325409 0.0182552486658096313
0.023249700665473938 0.109250001609325409 0.0209655296057462692
0.0298177693039178848 0.109250001609325409 -0.0153313875198364258
0.0266595538705587387 0.109250001609325409 0.00965767726302146912
0.0220319442451000214 0.109250001609325409 0.0260654725134372711
0.0137039106339216232 0.109250001609325409 0.0335880778729915619
0.015493413433432579 0.109250001609325409 0.0334773063659667969
0.0259472634643316269 0.109250001609325409 -0.00843254849314689636
0.0105667384341359138 0.109250001609325409 0.0323749333620071411
0.0171489976346492767 0.109250001609325409 0.0193032491952180862
0.0214060023427009583 0.109250001609325409 0.00337181612849235535
0.0125261005014181137 0.109250001609325409 0.0236156564205884933
0.00211836909875273705 0.109250001609325409 0.0376723520457744598
0.00390497175976634026 0.109250001609325409 0.0322167612612247467
-0.000103687401860952377 0.109250001609325409 0.0345684550702571869
0.01282537542283535 0.109250001609325409 0.0211442373692989349
0.0260341577231884003 0.109250001609325409 -0.0159291140735149384
0.025242045521736145 0.109250001609325409 -0.0119857080280780792
0.00489189848303794861 0.109250001609325409 0.0247800648212432861
0.0216405689716339111 0.109250001609325409 -0.0106117464601993561
-0.000876259058713912964 0.109250001609325409 0.0251717902719974518
0.0058900788426399231 0.109250001609325409 0.0143312849104404449
-0.00206517335027456284 0.109250001609325409 0.0329116508364677429
0.00344447791576385498 0.109250001609325409 0.0207380782812833786
-0.00480733253061771393 0.109250001609325409 0.0303995553404092789
0.000615226104855537415 0.109250001609325409 0.0201843585819005966
-0.0201838389039039612 0.109250001609325409 0.0371335223317146301
-0.0118721220642328262 0.109250001609325409 0.0308168902993202209
0.00282628834247589111 0.109250001609325409 0.0113049708306789398
0.02101161889731884 0.109250001609325409 -0.0125406496226787567
-0.00812669284641742706 0.109250001609325409 0.0188386868685483932
-0.0132470373064279556 0.109250001609325409 0.0305348541587591171
-0.0186566673219203949 0.109250001609325409 0.0391589067876338959
-0.0169110074639320374 0.109250001609325409 0.0350589752197265625
-0.0100911390036344528 0.109250001609325409 0.0192862004041671753
0.00385554693639278412 0.109250001609325409 0.0029438212513923645
-0.0053681693971157074 0.109250001609325409 0.0127872135490179062
-0.0144296847283840179 0.109250001609325409 0.0132044684141874313
0.0147583559155464172 0.109250001609325409 -0.00977941974997520447
-0.0255507826805114746 0.109250001609325409 0.0346471257507801056
0.0265996567904949188 0.109250001609325409 -0.0228266604244709015
-0.00958078540861606598 0.109250001609325409 0.0177122969180345535
-0.0136733595281839371 0.109250001609325409 0.0178190097212791443
0.00314313545823097229 0.109250001609325409 -0.0074512530118227005
-0.00865456275641918182 0.109250001609325409 0.00429743900895118713
-0.0162638705223798752 0.109250001609325409 0.00570490583777427673
-0.0326192714273929596 0.109250001609325409 0.0184935051947832108
-0.0350531600415706635 0.109250001609325409 0.0213800054043531418
-0.0249573513865470886 0.109250001609325409 0.0141475964337587357
-0.0094113573431968689 0.109250001609325409 0.00148331373929977417
0.00445163622498512268 0.109250001609325409 -0.00889223255217075348
0.0178143344819545746 0.109250001609325409 -0.0179078634828329086
-0.0312816351652145386 0.109250001609325409 0.00796002615243196487
-0.0377658270299434662 0.109250001609325409 0.0161769594997167587
-0.0312003679573535919 0.109250001609325409 0.00818701833486557007
0.00444340705871582031 0.109250001609325409 -0.013161306269466877
-0.0283736716955900192 0.109250001609325409 0.0107570085674524307
0.0125059410929679871 0.109250001609325409 -0.0167922023683786392
-0.0187825635075569153 0.109250001609325409 0.00632179528474807739
-0.031660810112953186 0.109250001609325409 0.0140636302530765533
-0.04000110924243927 0.109250001609325409 0.000949182547628879547
-0.0411428734660148621 0.109250001609325409 -0.000182182877324521542
-0.00084736943244934082 0.109250001609325409 -0.0138452267274260521
-0.0343269780278205872 0.109250001609325409 0.0010118512436747551
-0.0361512042582035065 0.109250001609325409 -0.00124737306032329798
-0.0389357954263687134 0.109250001609325409 -0.00144411053042858839
-0.0336774289608001709 0.109250001609325409 0.00416360329836606979
-0.0262540522962808609 0.109250001609325409 -0.00240360340103507042
-0.04311390221118927 0.0997940152883529663 -0.00523872300982475281
-0.0426870211958885193 0.105979070067405701 -0.00875442195683717728
-0.0404780879616737366 0.106889627873897552 -0.0157452467828989029
-0.0399319007992744446 0.0981636866927146912 -0.0171854253858327866
-0.041188802570104599 0.0986941233277320862 -0.0138712450861930847
-0.0334849096834659576 0.107723146677017212 -0.0279430747032165527
-0.0361862517893314362 0.100814007222652435 -0.0240295026451349258
-0.0251617524772882462 0.103904254734516144 -0.0357318669557571411
-0.030545651912689209 0.0984896570444107056 -0.0309621449559926987
-0.0195094384253025055 0.103071078658103943 -0.0388099774718284607
-0.0223833546042442322 0.105096980929374695 -0.0373016297817230225
-0.00870476476848125458 0.108671188354492188 -0.042585279792547226
-0.0124143734574317932 0.101248778402805328 -0.0416709445416927338
-0.00366232171654701233 0.108888424932956696 -0.043431013822555542
0.000857103615999221802 0.103718101978302002 -0.043431013822555542
-0.00322874891571700573 0.102897718548774719 -0.043431013822555542
-0.00430154800415039062 0.105767138302326202 -0.043431013822555542
0.00913359597325325012 0.105186820030212402 -0.0424795821309089661
0.00753012904897332191 0.0995858535170555115 -0.0428747981786727905
0.0187047179788351059 0.108035683631896973 -0.0392323248088359833
0.018987094983458519 0.102193862199783325 -0.0390841215848922729
0.0280214119702577591 0.10893818736076355 -0.033198431134223938
0.0272972621023654938 0.0989446863532066345 -0.0338399708271026611
0.0372681319713592529 0.1025710329413414 -0.0224621258676052094
0.0362665243446826935 0.101510383188724518 -0.0239132065325975418
0.0416571423411369324 0.104679957032203674 -0.0126363355666399002
0.0390707366168498993 0.0987207666039466858 -0.0194561313837766647
0.0435672812163829803 0.103238947689533234 -0.00150480761658400297
0.043366212397813797 0.101891763508319855 -0.00316075677983462811
0.0433806143701076508 0.0990391075611114502 -0.00304216938093304634
0.0436866544187068939 0.107654273509979248 0.000521700829267501831
0.0432563163340091705 0.108433797955513 0.00406584702432155609
0.04254908487200737 0.0986287295818328857 0.00989042781293392181
0.0392960533499717712 0.101061500608921051 0.0188620258122682571
0.0406092330813407898 0.101206518709659576 0.0153994541615247726
0.0398425757884979248 0.0989008322358131409 0.0174209661781787872
0.0331751853227615356 0.103028967976570129 0.0283917840570211411
0.0370712578296661377 0.102420598268508911 0.0227473489940166473
0.0309052281081676483 0.106933653354644775 0.0306435897946357727
0.0287979096174240112 0.107996843755245209 0.032510511577129364
0.0326132215559482574 0.101113788783550262 0.0291304420679807663
0.0194001421332359314 0.105237878859043121 0.0388673394918441772
0.0212002061307430267 0.10010557621717453 0.037922590970993042
0.0127017907798290253 0.108299538493156433 0.0416001006960868835
0.0102350702509284019 0.0989855676889419556 0.0422080904245376587
-0.00258919969201087952 0.107087694108486176 0.043431013822555542
-0.00105864321812987328 0.101936273276805878 0.043431013822555542
-0.0152515675872564316 0.0993469506502151489 0.0409716367721557617
-0.00953843072056770325 0.1025051549077034 0.0423797965049743652
-0.0175590459257364273 0.106725014746189117 0.0398336201906204224
-0.0199374575167894363 0.0980119630694389343 0.0385853350162506104
-0.0304797962307929993 0.108445972204208374 0.0310204923152923584
-0.0293741635978221893 0.100430957973003387 0.0319999940693378448
-0.0280362349003553391 0.103174291551113129 0.0331852957606315613
-0.0376080796122550964 0.101719856262207031 0.0219696275889873505
-0.0341408997774124146 0.104521669447422028 0.0269927084445953369
-0.041151534765958786 0.108767494559288025 0.0139695154502987862
-0.039941888302564621 0.10229773074388504 0.0171590931713581085
-0.0433885194361209869 0.105286106467247009 0.00297704199329018593
-0.0428135618567466736 0.0977194532752037048 0.00771223288029432297
0.0358567908406257629 0.0971994698047637939 0.0167327001690864563
0.036452174186706543 0.0949745252728462219 0.0151627957820892334
0.0307250991463661194 0.0957943126559257507 0.0249512381851673126
0.0267791450023651123 0.0951955392956733704 0.0289939995855093002
-0.0194011442363262177 0.0954585596919059753 0.0343822985887527466
-0.0353541150689125061 0.110559925436973572 -0.0180581491440534592
-0.0377504602074623108 0.110549516975879669 -0.0117395073175430298
-0.0310948863625526428 0.110834166407585144 -0.024415506049990654
-0.0145396087318658829 0.110541157424449921 -0.0369338355958461761
-0.020387331023812294 0.110891364514827728 -0.0338647104799747467
-0.000667979475110769272 0.110329918563365936 -0.0394601784646511078
0.0163568425923585892 0.10985904186964035 -0.0359800755977630615
0.0241753365844488144 0.109356671571731567 -0.031300768256187439
0.0377979129552841187 0.111309081315994263 -0.0116143776103854179
-0.0618244409561157227 0.0907500013709068298 -0.00639345962554216385
-0.052762053906917572 0.0907500013709068298 -0.0011123602744191885
-0.0723046436905860901 0.0907500013709068298 -0.0138995824381709099
-0.0393653325736522675 0.0907500013709068298 -0.000398213742300868034
-0.0605527572333812714 0.0907500013709068298 -0.0110217658802866936
-0.0579220391809940338 0.0907500013709068298 -0.0136457104235887527
-0.0501753762364387512 0.0907500013709068298 -0.00683294981718063354
-0.048092324286699295 0.0907500013709068298 -0.00461895391345024109
-0.0485134720802307129 0.0907500013709068298 -0.00931570865213871002
-0.0458965152502059937 0.0907500013709068298 -0.00200851354748010635
-0.0248873811215162277 0.0907500013709068298 -0.0290345568209886551
-0.0150907654315233231 0.0907500013709068298 -0.033068094402551651
0.0373327024281024933 0.0907500013709068298 -0.00584175204858183861
0.00318052899092435837 0.0907500013709068298 -0.0390232652425765991
0.0413085483014583588 0.0907500013709068298 -0.00783043261617422104
0.0168475434184074402 0.0907500013709068298 -0.034901052713394165
0.0617493763566017151 0.0907500013709068298 -0.00494887912645936012
0.0658236891031265259 0.0907500013709068298 -0.00551698589697480202
0.0535290613770484924 0.0907500013709068298 -0.0138531113043427467
0.0469028279185295105 0.0907500013709068298 -0.00538827385753393173
0.0487215667963027954 0.0907500013709068298 -0.0133745986968278885
0.0506158433854579926 0.0907500013709068298 -0.00563437491655349731
0.0456246733665466309 0.0907500013709068298 -0.00567524507641792297
-0.0327300913631916046 0.11574999988079071 -0.02094314806163311
-0.0500216484069824219 0.11574999988079071 -0.00269209174439311028
-0.0392480529844760895 0.11574999988079071 -0.0142540708184242249
-0.054924841970205307 0.11574999988079071 -0.0137684326618909836
-0.0519159808754920959 0.11574999988079071 -0.00792337488383054733
-0.0567549653351306915 0.11574999988079071 -0.00247654551640152931
-0.0719587504863739014 0.11574999988079071 -0.0056032128632068634
-0.01798262819647789 0.11574999988079071 -0.0329563841223716736
-0.0387519225478172302 0.11574999988079071 -0.00657808734104037285
-0.0372229628264904022 0.11574999988079071 -0.00175920990295708179
0.00163564493414014578 0.11574999988079071 -0.0381928086280822754
0.0162712018936872482 0.11574999988079071 -0.0349505394697189331
0.0216451045125722885 0.11574999988079071 -0.0285183098167181015
0.0353869646787643433 0.11574999988079071 -0.0163931995630264282
0.0350413471460342407 0.11574999988079071 -0.0109854824841022491
0.04105333611369133 0.11574999988079071 -0.00390645675361156464
0.0448850430548191071 0.11574999988079071 -0.00245661614462733269
0.0419485047459602356 0.11574999988079071 -0.00792837515473365784
0.0510500967502593994 0.11574999988079071 -0.00991177745163440704
0.0574357174336910248 0.11574999988079071 -0.0135284122079610825
0.0633428171277046204 0.11574999988079071 -0.00949463341385126114
0.0458214245736598969 0.11574999988079071 -0.0112787671387195587
0.0536743849515914917 0.11574999988079071 -0.00249389279633760452
0.0564224161207675934 0.11574999988079071 -0.00357580813579261303
0.0426651053130626678 0.0955833643674850464 0
0.0407943874597549438 0.0958141162991523743 0
0.0462338440120220184 0.110205039381980896 0
0.0469509400427341461 0.0956092774868011475 0
0.0361619703471660614 0.114846780896186829 0
0.0392133891582489014 0.114539012312889099 0
0.0716475993394851685 0.0975018143653869629 -0.00482779694721102715
0.0690151676535606384 0.100030750036239624 -0.00429599452763795853
0.0484016872942447662 0.0922195017337799072 -0.00013165392738301307
0.0609362944960594177 0.112621650099754333 -0.00266389851458370686
0.0669521838426589966 0.113019838929176331 -0.00387922907248139381
0.0724999979138374329 0.0931023508310317993 -0.00907018221914768219
0.0724999979138374329 0.0915370509028434753 -0.00517311738803982735
0.0724999979138374329 0.109514400362968445 -0.00888787303119897842
0.0724999979138374329 0.113868847489356995 -0.00873369164764881134
0.0425720922648906708 0.0926107242703437805 -0.0143250003457069397
0.0498441979289054871 0.0929312482476234436 -0.0143250003457069397
0.059698689728975296 0.108449347317218781 -0.0143250003457069397
0.0705312266945838928 0.115251913666725159 -0.0143250003457069397
0.0423726290464401245 0.101096555590629578 -0.0143250003457069397
0.0618834011256694794 0.0938482433557510376 -0.0143250003457069397
0.0653408318758010864 0.10472165048122406 -0.0143250003457069397
0.069632895290851593 0.110640585422515869 -0.0143250003457069397
0.0723398029804229736 0.108006015419960022 -0.0143250003457069397
0.0646478533744812012 0.0945511907339096069 -0.0143250003457069397
0.0702520832419395447 0.106694884598255157 -0.0143250003457069397
0.0666253715753555298 0.108868859708309174 -0.0143250003457069397
0.0390374287962913513 0.115231819450855255 -0.0143250003457069397
0.0550974756479263306 0.115043945610523224 -0.0143250003457069397
-0.0341687053442001343 0.0918524563312530518 -0.0197960417717695236
-0.0330466590821743011 0.0966206341981887817 -0.0219053253531455994
-0.0301328152418136597 0.0956521853804588318 -0.0255045145750045776
-0.030200522392988205 0.0928788706660270691 -0.0254287533462047577
-0.0237878933548927307 0.0923370197415351868 -0.0315381512045860291
-0.00890534184873104095 0.0936360061168670654 -0.038674280047416687
0.00394266098737716675 0.0945343077182769775 -0.0392737463116645813
0.0127841867506504059 0.0967253893613815308 -0.0373549312353134155
0.0156210390850901604 0.0912812948226928711 -0.0362850651144981384
0.0192750599235296249 0.0967589095234870911 -0.0346325896680355072
0.0197837166488170624 0.09579506516456604 -0.0342838019132614136
0.0303347781300544739 0.0936008244752883911 -0.0252785235643386841
0.0281708836555480957 0.0942301973700523376 -0.0276998654007911682
0.036319434642791748 0.0942281335592269897 -0.0157529879361391068
0.0336614400148391724 0.0939364060759544373 -0.0207496285438537598
-0.0391170233488082886 0.0910434573888778687 -0.0143250003457069397
-0.0457877740263938904 0.0931805670261383057 -0.0143250003457069397
-0.0562217198312282562 0.109061457216739655 -0.0143250003457069397
-0.0646791532635688782 0.0957319885492324829 -0.0143250003457069397
-0.0461290329694747925 0.109339907765388489 -0.0143250003457069397
-0.05921182781457901 0.099178805947303772 -0.0143250003457069397
-0.067990228533744812 0.0991333574056625366 -0.0143250003457069397
-0.0623013414442539215 0.10006377100944519 -0.0143250003457069397
-0.0553504526615142822 0.105075180530548096 -0.0143250003457069397
-0.050572320818901062 0.0990724563598632812 -0.0143250003457069397
-0.0542767420411109924 0.0993475094437599182 -0.0143250003457069397
-0.0432189144194126129 0.103485889732837677 -0.0143250003457069397
-0.0431344099342823029 0.112384706735610962 -0.0143250003457069397
-0.0603400617837905884 0.115380160510540009 -0.0143250003457069397
-0.0724999979138374329 0.110174506902694702 -0.01406109519302845
-0.0724999979138374329 0.100559502840042114 -0.0111248437315225601
-0.0724999979138374329 0.110550612211227417 -0.0118329655379056931
-0.0724999979138374329 0.107568830251693726 -0.0074066556990146637
-0.0593500323593616486 0.0932514816522598267 -0.00234344135969877243
-0.0564664602279663086 0.091889306902885437 -0.00176090176682919264
-0.0501222312450408936 0.112403728067874908 -0.000479238922707736492
-0.0644272342324256897 0.115392826497554779 -0.00336913764476776123
-0.0714853927493095398 0.107704557478427887 -0.00479502975940704346
-0.0363822653889656067 0.0964530408382415771 0
-0.0451184734702110291 0.104170821607112885 0
-0.0464554056525230408 0.104226529598236084 0
0.0351786650717258453 0.0969182476401329041 -0.00470537925139069557
0.0347411483526229858 0.0951891019940376282 -0.00830864626914262772
0.0151581363752484322 0.094403684139251709 -0.0321246981620788574
0.020050492137670517 0.0915427878499031067 -0.0295569878071546555
0.00568373128771781921 0.0955199897289276123 -0.0351505465805530548
0.0077802855521440506 0.09638996422290802 -0.0346337966620922089
-0.000606274465098977089 0.0935872122645378113 -0.0354893431067466736
-0.0014321089256554842 0.0952517539262771606 -0.0354893431067466736
-0.00798573531210422516 0.0913209691643714905 -0.0345831550657749176
-0.0340452753007411957 0.0918228775262832642 -0.0103113614022731781
-0.0344673879444599152 0.0972178354859352112 -0.00919833779335021973
-0.0349569208920001984 0.0970194116234779358 -0.00653159758076071739
-0.0487462803721427917 0.11136549711227417 -0.0103249996900558472
-0.0585423335433006287 0.108535140752792358 -0.0103249996900558472
-0.065973237156867981 0.0984221175312995911 -0.0103249996900558472
-0.060372568666934967 0.0970193594694137573 -0.0103249996900558472
-0.0508224256336688995 0.0973412096500396729 -0.0103249996900558472
-0.0600533038377761841 0.0987994000315666199 -0.0103249996900558472
-0.0493036732077598572 0.111749999225139618 -0.00183170696254819632
-0.0629187747836112976 0.111749999225139618 -0.00464469613507390022
-0.0625655055046081543 0.111749999225139618 -0.0101047279313206673
-0.0684999972581863403 0.111054979264736176 -0.00692877033725380898
-0.0684999972581863403 0.101050488650798798 -0.00695721618831157684
-0.0564205870032310486 0.0947500020265579224 -0.00645923754200339317
-0.0671548396348953247 0.0947500020265579224 -0.00413870718330144882
-0.0601660311222076416 0.0947500020265579224 -0.00877691619098186493
-0.0477499999105930328 0.096224270761013031 -0.00538184680044651031
-0.0477499999105930328 0.108027689158916473 -0.00026151072233915329
-0.0477499999105930328 0.103004343807697296 -0.00725517887622117996
-0.0477499999105930328 0.106902964413166046 -0.00418537110090255737
0.0628392621874809265 0.111749999225139618 -0.00431946711614727974
0.0598291158676147461 0.111749999225139618 -0.00460577057674527168
0.0615282803773880005 0.111749999225139618 -0.00837342441082000732
0.0477499999105930328 0.100930750370025635 -0.000651009846478700638
0.0477499999105930328 0.106475353240966797 -0.00125800888054072857
0.0477499999105930328 0.10156530886888504 -0.00923528708517551422
0.0477499999105930328 0.1011638343334198 -0.00804859399795532227
0.057115066796541214 0.0947500020265579224 -0.00736542744562029839
0.0521046742796897888 0.0947500020265579224 -0.00458797160536050797
0.0568697564303874969 0.0947500020265579224 -0.00930740032345056534
0.0684999972581863403 0.0993481427431106567 -0.00809413660317659378
0.0684999972581863403 0.109963074326515198 -0.00785044394433498383
-0.040285155177116394 0.0972499996423721313 -0.0123853618279099464
-0.0210912227630615234 0.0972499996423721313 -0.0296239405870437622
-0.0321697145700454712 0.0972499996423721313 -0.0200466439127922058
-0.0405544079840183258 0.0972499996423721313 -0.010783512145280838
-0.00285429670475423336 0.0972499996423721313 -0.0380050800740718842
-0.0432845056056976318 0.0972499996423721313 -0.00470690056681632996
-0.0405828133225440979 0.0972499996423721313 -0.00368280196562409401
0.0394282974302768707 0.0972499996423721313 -0.00810414925217628479
-0.0411556735634803772 0.109250001609325409 -0.00610822718590497971
-0.0354199185967445374 0.109250001609325409 -0.0075559285469353199
-0.00512424204498529434 0.109250001609325409 -0.0367685519158840179
0.0375286638736724854 0.109250001609325409 -0.00591649953275918961
0.0357818081974983215 0.109250001609325409 -0.0116799855604767799
0.0415581129491329193 0.109250001609325409 -0.00675069401040673256
0.0155914612114429474 0.109250001609325409 -0.0326005183160305023
0.0185827519744634628 0.109250001609325409 -0.0348526909947395325
-0.0436747632920742035 0.0994835495948791504 -0.00135183881502598524
-0.0436266958713531494 0.106909886002540588 -0.0022155598271638155
-0.0427043028175830841 0.108355045318603516 -0.00946112815290689468
-0.042773514986038208 0.0986585095524787903 -0.00905004050582647324
-0.0426575504243373871 0.102785550057888031 -0.00970216933637857437
0.0429840870201587677 0.101252980530261993 -0.00779925845563411713
0.0437038913369178772 0.102096647024154663 -0.000828448391985148191
0.0437079779803752899 0.0982857421040534973 -0.000755065819248557091
0.0613823644816875458 0.109876163303852081 -0.0103249996900558472
0.0515741482377052307 0.106230951845645905 -0.0103249996900558472
0.0518331341445446014 0.101332046091556549 -0.0103249996900558472
0.0486935749650001526 0.0949118286371231079 -0.0103249996900558472
0.0551765300333499908 0.0997014269232749939 -0.0103249996900558472
0.0606820657849311829 0.101934082806110382 -0.0103249996900558472
0.0351303219795227051 0.113059118390083313 -0.00510351080447435379
0.0294142458587884903 0.112497016787528992 -0.0198602266609668732
0.0238914117217063904 0.109808787703514099 -0.0262473262846469879
0.023808090016245842 0.112996049225330353 -0.0263211429119110107
0.0193030741065740585 0.115710176527500153 -0.0299492646008729935
0.00684210145846009254 0.109715476632118225 -0.0348650366067886353
0.00785575807094573975 0.114874288439750671 -0.0346151888370513916
-3.48743051290512085e-05 0.112504705786705017 -0.0354893431067466736
0.00396088836714625359 0.112417638301849365 -0.0354893431067466736
-0.00550679769366979599 0.112833380699157715 -0.0351941585540771484
-0.0187715794891119003 0.113754451274871826 -0.0302282143384218216
-0.0163508281111717224 0.113894931972026825 -0.0314987264573574066
-0.0263745523989200592 0.112002730369567871 -0.024047456681728363
-0.0207658112049102783 0.111781932413578033 -0.0290163643658161163
-0.0291257891803979874 0.110360614955425262 -0.0202781260013580322
-0.0327321067452430725 0.1156049445271492 -0.0137738976627588272
-0.0350205972790718079 0.109380997717380524 -0.00600718380883336067
-0.0351058654487133026 0.112324647605419159 -0.00530493585392832756
-0.0353829637169837952 0.115105584263801575 -0.0175134185701608658
-0.0361995138227939606 0.110539421439170837 -0.015978420153260231
-0.0294126067310571671 0.115215890109539032 -0.026310410350561142
-0.0311063658446073532 0.109570495784282684 -0.024415135383605957
-0.022993091493844986 0.113852612674236298 -0.0320831462740898132
-0.0138446837663650513 0.111847832798957825 -0.0369549840688705444
-0.00412428425624966621 0.114600494503974915 -0.0392518080770969391
-0.00478599732741713524 0.112289540469646454 -0.0391718745231628418
0.013332044705748558 0.110648207366466522 -0.0371483154594898224
0.0325125753879547119 0.111123926937580109 -0.0228416230529546738
0.0363230369985103607 0.112245053052902222 -0.0157462190836668015
0.0354655086994171143 0.111391156911849976 -0.0173582471907138824
-0.0691033080220222473 0.0907500013709068298 0.00909830071032047272
-0.0702031776309013367 0.0907500013709068298 0.00715616438537836075
-0.0418072529137134552 0.0907500013709068298 0.00115421111695468426
-0.0514725781977176666 0.0907500013709068298 0.00411128439009189606
-0.0456280969083309174 0.0907500013709068298 0.0112645998597145081
-0.0679210275411605835 0.0907500013709068298 0.0136831346899271011
-0.0608824156224727631 0.0907500013709068298 0.0130364866927266121
-0.0373061336576938629 0.0907500013709068298 0.00698604760691523552
-0.0270608514547348022 0.0907500013709068298 0.0270196869969367981
-0.00908720679581165314 0.0907500013709068298 0.0367341861128807068
-0.00299340998753905296 0.0907500013709068298 0.0365246012806892395
0.0405945815145969391 0.0907500013709068298 0.00020634836982935667
0.046948753297328949 0.0907500013709068298 0.00103951245546340942
0.0315815359354019165 0.0907500013709068298 0.0208099111914634705
0.0342570394277572632 0.0907500013709068298 0.0174960140138864517
0.0665000230073928833 0.0907500013709068298 0.00445564044639468193
0.0691245198249816895 0.0907500013709068298 0.011541600339114666
0.0508238412439823151 0.0907500013709068298 0.00406478904187679291
0.0483524389564990997 0.0907500013709068298 0.00739901186898350716
0.0528754368424415588 0.0907500013709068298 0.00813669059425592422
0.043483637273311615 0.0907500013709068298 0.0139613943174481392
0.0626834332942962646 0.0907500013709068298 0.0104146711528301239
0.0668956488370895386 0.11574999988079071 0.00981784798204898834
0.0704274922609329224 0.11574999988079071 0.00862249452620744705
0.0415324941277503967 0.11574999988079071 0.00108289159834384918
0.039826124906539917 0.11574999988079071 0.0127206211909651756
0.0484992899000644684 0.11574999988079071 0.00557275675237178802
0.0447821244597434998 0.11574999988079071 0.00744093069806694984
0.0427108742296695709 0.11574999988079071 0.0119937099516391754
0.0529965795576572418 0.11574999988079071 0.00721968710422515869
0.0428774245083332062 0.11574999988079071 0.00574743561446666718
0.0288046374917030334 0.11574999988079071 0.021986132487654686
0.0254662372171878815 0.11574999988079071 0.0269102472811937332
0.021575435996055603 0.11574999988079071 0.029842764139175415
0.00878181867301464081 0.11574999988079071 0.0345476642251014709
0.00616930238902568817 0.11574999988079071 0.0380754806101322174
-0.035335153341293335 0.11574999988079071 0.00534056220203638077
-0.0429954826831817627 0.11574999988079071 0.00590588245540857315
-0.031914789229631424 0.11574999988079071 0.0177820120006799698
-0.0548402033746242523 0.11574999988079071 0.00337830488570034504
-0.0597427785396575928 0.11574999988079071 0.00519773876294493675
-0.0629848018288612366 0.11574999988079071 0.00724929710850119591
-0.0449400134384632111 0.11574999988079071 0.00477930903434753418
-0.0623947642743587494 0.11574999988079071 0.010914800688624382
-0.0535440519452095032 0.11574999988079071 0.0107802990823984146
-0.052635829895734787 0.11574999988079071 0.00992830097675323486
0.0407566018402576447 0.0944440364837646484 0
0.0475403480231761932 0.0947633609175682068 0
0.0427197664976119995 0.110031105577945709 0
0.0473164916038513184 0.106783464550971985 0
0.0457258597016334534 0.115691401064395905 0
0.0492966212332248688 0.0936803817749023438 0.000312448712065815926
0.0690609514713287354 0.0914151817560195923 0.00430524349212646484
0.0589246153831481934 0.112599551677703857 0.00225749914534389973
0.0572786480188369751 0.114183209836483002 0.00192497950047254562
0.0724999979138374329 0.0924296677112579346 0.0118536418303847313
0.0724999979138374329 0.0920820459723472595 0.0120238633826375008
0.0724999979138374329 0.114808924496173859 0.00645466754212975502
0.0724999979138374329 0.112442232668399811 0.00616089021787047386
0.0437034368515014648 0.090999700129032135 0.0143250003457069397
0.0512360855937004089 0.0929760485887527466 0.0143250003457069397
