ply
format ascii 1.0
element vertex 711
property float x
property float y
property float z
end_header
0.102388910949230194 0.0201586447656154633 -0.0760626122355461121
0.0991881713271141052 0.0214772280305624008 -0.0758409276604652405
0.104632601141929626 0.0157910417765378952 -0.0777659565210342407
0.0996054261922836304 0.0183666571974754333 -0.0771909207105636597
0.100862361490726471 0.022608492523431778 -0.0751382634043693542
0.103327944874763489 0.0224946625530719757 -0.0749035775661468506
0.103059105575084686 0.0291832238435745239 -0.0719278827309608459
0.0942711234092712402 0.0231857672333717346 -0.0756429210305213928
0.0997873991727828979 0.0206043999642133713 -0.0761638358235359192
0.101138807833194733 0.0246991142630577087 -0.0741663649678230286
0.100417442619800568 0.0205021053552627563 -0.0761367753148078918
0.123582899570465088 0.0267792977392673492 -0.071394696831703186
0.124548763036727905 0.0236552860587835312 -0.0731635391712188721
0.124742202460765839 0.0304731354117393494 -0.0692249312996864319
0.122991964221000671 0.0196870565414428711 -0.075505085289478302
0.123188726603984833 0.0210005771368741989 -0.0747408419847488403
0.105905309319496155 0.0172667335718870163 -0.0770507976412773132
0.117087654769420624 0.0190697778016328812 -0.0761257484555244446
0.109037719666957855 0.0217002052813768387 -0.0750256627798080444
0.115972071886062622 0.0216502267867326736 -0.0749771296977996826
0.11190333217382431 0.0185870807617902756 -0.0763958245515823364
0.110142119228839874 0.0185272786766290665 -0.0764407441020011902
0.107116781175136566 0.0213938392698764801 -0.0751830562949180603
0.111755691468715668 0.020205741748213768 -0.0756696686148643494
0.109590023756027222 0.0241064298897981644 -0.0739382877945899963
0.107606515288352966 0.0208696182817220688 -0.0754137039184570312
0.111894525587558746 0.0256578978151082993 -0.0732172355055809021
0.113470852375030518 0.0220732875168323517 -0.0748125538229942322
0.108405902981758118 0.0217025112360715866 -0.0750310942530632019
0.112135216593742371 0.0200047679245471954 -0.0757561326026916504
0.10561785101890564 0.0234699100255966187 -0.0742651075124740601
0.107112541794776917 0.0141431279480457306 -0.0784426480531692505
0.109562762081623077 0.0257050059735774994 -0.0732199326157569885
0.112678833305835724 0.0181089378893375397 -0.0766028314828872681
0.106725811958312988 0.0231534074991941452 -0.0743960440158843994
0.108391687273979187 0.0146763231605291367 -0.0781898573040962219
0.114589676260948181 0.02796943299472332 -0.0715979039669036865
0.111447036266326904 0.0272543560713529587 -0.0723491311073303223
0.121950522065162659 0.0261951498687267303 -0.0718275681138038635
0.107019275426864624 0.0310022104531526566 -0.070665016770362854
0.111390091478824615 0.0277293547987937927 -0.0720813274383544922
0.11576785147190094 0.0305627211928367615 -0.0699752494692802429
0.120698772370815277 0.0207971502095460892 -0.0750757157802581787
0.111300215125083923 0.0277093444019556046 -0.0721025615930557251
0.117617510259151459 0.0285165980458259583 -0.0709558874368667603
0.122196868062019348 0.0186942145228385925 -0.0761270150542259216
0.110140144824981689 0.0271111447364091873 -0.0725726261734962463
0.119230739772319794 0.0202832277864217758 -0.0755303874611854553
0.112958557903766632 0.0290593095123767853 -0.0711451992392539978
0.11219489574432373 0.0305698662996292114 -0.0703563541173934937
0.119042426347732544 0.0274323038756847382 -0.0714276060461997986
0.112562239170074463 0.0280309133231639862 -0.0717810317873954773
0.13951931893825531 0.0114285731688141823 -0.0776462256908416748
0.129762202501296997 0.0159974023699760437 -0.0768573135137557983
0.138180375099182129 0.0110242664813995361 -0.077792145311832428
0.137357726693153381 0.00987458042800426483 -0.0781039521098136902
0.136448994278907776 0.0115882735699415207 -0.0777129754424095154
0.134772881865501404 0.0139390565454959869 -0.077191479504108429
0.136003404855728149 0.0138230808079242706 -0.0771775469183921814
0.139596983790397644 0.0204313993453979492 -0.0741362348198890686
0.138890177011489868 0.0217119846493005753 -0.0735086053609848022
0.137113228440284729 0.0180949978530406952 -0.0755187347531318665
0.13881877064704895 0.0237454622983932495 -0.0724458470940589905
0.13707183301448822 0.0162540562450885773 -0.0764875411987304688
0.13553503155708313 0.0185574349015951157 -0.0753753185272216797
0.132284894585609436 0.0190579090267419815 -0.0753171294927597046
0.132427096366882324 0.0167704317718744278 -0.076508745551109314
0.12548963725566864 0.023230038583278656 -0.0733704715967178345
0.123949959874153137 0.0197291150689125061 -0.0754343718290328979
0.12443581223487854 0.0181712526828050613 -0.0762690752744674683
0.127672240138053894 0.0215471889823675156 -0.0741536542773246765
0.137841492891311646 0.0239436831325292587 -0.0723956897854804993
0.128801092505455017 0.0282586589455604553 -0.0703424587845802307
0.133950695395469666 0.0216651931405067444 -0.0738200545310974121
0.13630126416683197 0.0252988170832395554 -0.071699872612953186
0.130364865064620972 0.0230233054608106613 -0.0732028856873512268
0.13008466362953186 0.0281566251069307327 -0.0703490078449249268
0.128588229417800903 0.0216593742370605469 -0.0740338414907455444
0.129039466381072998 0.0188600793480873108 -0.0755783915519714355
0.131445035338401794 0.0197392087429761887 -0.0749933123588562012
0.131091758608818054 0.0231498926877975464 -0.0731036961078643799
0.112915791571140289 0.0372267365455627441 -0.064665667712688446
0.11271030455827713 0.0374132245779037476 -0.0645209178328514099
0.122467465698719025 0.0339464247226715088 -0.0664088502526283264
0.115345478057861328 0.0356987416744232178 -0.0657507553696632385
0.115735247731208801 0.0366462580859661102 -0.0648214370012283325
0.11824759840965271 0.0345743149518966675 -0.0663985908031463623
0.106470793485641479 0.041078321635723114 -0.0612241961061954498
0.1115923672914505 0.0401815362274646759 -0.0612984821200370789
0.106594473123550415 0.0450409464538097382 -0.0560476593673229218
0.109602011740207672 0.0416442528367042542 -0.0598214864730834961
0.109194673597812653 0.040045127272605896 -0.0619866475462913513
0.114739462733268738 0.0378052704036235809 -0.0637163296341896057
0.112920843064785004 0.0390050336718559265 -0.062544502317905426
0.114597082138061523 0.0386732965707778931 -0.0626185014843940735
0.106256991624832153 0.0448526032269001007 -0.0563643574714660645
0.108802564442157745 0.0427842698991298676 -0.0585101582109928131
0.105064786970615387 0.0432185828685760498 -0.0587421022355556488
0.115128956735134125 0.0394481383264064789 -0.0614981204271316528
0.111442811787128448 0.035578407347202301 -0.0663266107439994812
0.106364279985427856 0.0312559455633163452 -0.0705229341983795166
0.116073518991470337 0.0313997939229011536 -0.0694144740700721741
0.113016262650489807 0.0311945024877786636 -0.0698997452855110168
0.107873447239398956 0.0379493758082389832 -0.0646701827645301819
0.107111603021621704 0.0312363468110561371 -0.0704637393355369568
0.105053529143333435 0.0348681360483169556 -0.0675802379846572876
0.109707750380039215 0.0324538722634315491 -0.0691633671522140503
0.107296355068683624 0.0380384214222431183 -0.0646529719233512878
0.116451583802700043 0.0334645844995975494 -0.0676179006695747375
0.108030498027801514 0.0366807132959365845 -0.0657345131039619446
0.0940093398094177246 0.0414628870785236359 -0.0632499381899833679
0.0974022373557090759 0.041283629834651947 -0.0629398152232170105
0.0935455113649368286 0.0412728451192378998 -0.0635063871741294861
0.0878141596913337708 0.0395464710891246796 -0.066054806113243103
0.0901401340961456299 0.0410924926400184631 -0.0641771033406257629
0.0986260324716567993 0.039798881858587265 -0.0642448142170906067
0.0953543409705162048 0.0412267334759235382 -0.0632917210459709167
0.0989416465163230896 0.0435599908232688904 -0.0596908479928970337
0.10022590309381485 0.0417675785720348358 -0.0617281645536422729
0.0995934382081031799 0.0437754131853580475 -0.0592625327408313751
0.0958930999040603638 0.0419991016387939453 -0.0624132566154003143
0.10304887592792511 0.0451950058341026306 -0.0566311702132225037
0.099444173276424408 0.0438027158379554749 -0.0592610202729701996
0.0954993069171905518 0.0424664467573165894 -0.061895463615655899
0.0974570736289024353 0.0447089038789272308 -0.058535449206829071
0.103986777365207672 0.043520800769329071 -0.0585936754941940308
0.100225187838077545 0.0412784852087497711 -0.0623640045523643494
0.102446794509887695 0.0454135313630104065 -0.0564841590821743011
0.101289249956607819 0.0371122807264328003 -0.0662058964371681213
0.103739053010940552 0.0357732772827148438 -0.0669953897595405579
0.0912311449646949768 0.0383904539048671722 -0.0665573105216026306
0.100304350256919861 0.0370775312185287476 -0.0663764774799346924
0.0933324992656707764 0.0385880507528781891 -0.0660882517695426941
0.102295704185962677 0.037464924156665802 -0.0657615512609481812
0.101927570998668671 0.0354369357228279114 -0.0675410926342010498
0.104516401886940002 0.0315915830433368683 -0.070444844663143158
0.0976704508066177368 0.0372289270162582397 -0.0666245892643928528
0.0988831222057342529 0.0349714122712612152 -0.0683732852339744568
0.0929529964923858643 0.0391922406852245331 -0.0656281113624572754
0.0998555421829223633 0.0377274416387081146 -0.0658873245120048523
0.0026175682432949543 -0.00383734120987355709 -0.0836647897958755493
0.000283402390778064728 0.000959852710366249084 -0.0836863964796066284
0.00194571912288665771 -0.00375836505554616451 -0.0836710110306739807
0.0070359986275434494 -0.00213160947896540165 -0.0836238935589790344
0.00511031504720449448 0.00157190486788749695 -0.0836417227983474731
0.00440395763143897057 0.000653747003525495529 -0.0836482569575309753
0.00501552456989884377 0.00106084858998656273 -0.0836425945162773132
0.00668563460931181908 -0.00457491073757410049 -0.0836271420121192932
0.00228724116459488869 0.00153372203931212425 -0.083667851984500885
0.00417047692462801933 0.00088681420311331749 -0.0836504176259040833
0.00277726771309971809 -0.000488168094307184219 -0.0836633145809173584
0.008336593396961689 -0.00349472835659980774 -0.0836118534207344055
0.00101983267813920975 -0.0234274957329034805 -0.0805031582713127136
0.00515772821381688118 -0.0118614872917532921 -0.0826538130640983582
0.00547575158998370171 -0.0139006031677126884 -0.0821967273950576782
0.00430516665801405907 -0.00765191670507192612 -0.0836119949817657471
0.00330617325380444527 -0.0154734794050455093 -0.0820237770676612854
0.00387250306084752083 -0.0120135936886072159 -0.0827170759439468384
0.00104753486812114716 -0.014028412289917469 -0.0824989303946495056
0.000913093099370598793 -0.0227489061653614044 -0.0806553289294242859
0.00273933494463562965 -0.0139544587582349777 -0.0823888182640075684
0.00754688913002610207 -0.0106019424274563789 -0.0827438309788703918
0.00254532322287559509 -0.00847085379064083099 -0.0835688263177871704
0.00378007814288139343 -0.0126282703131437302 -0.0825932919979095459
0.0159459728747606277 0.0130879320204257965 -0.0817662999033927917
0.0133551368489861488 0.02185092493891716 -0.0800895541906356812
0.0142206018790602684 0.0170174781233072281 -0.0810446292161941528
0.0166272744536399841 0.0174096599221229553 -0.0808342695236206055
0.0163110587745904922 0.020535200834274292 -0.0802036076784133911
0.0171359311789274216 0.0254017319530248642 -0.0791510045528411865
0.0160984881222248077 0.0108248284086585045 -0.0822270438075065613
0.0245102923363447189 0.0175690315663814545 -0.0807870775461196899
0.0180785004049539566 0.0205510184168815613 -0.0801392719149589539
0.0296719707548618317 0.0140112750232219696 -0.0815482810139656067
0.0208129528909921646 0.0227705873548984528 -0.0796920880675315857
0.022679254412651062 0.00974289700388908386 -0.0824001654982566833
0.0214905627071857452 0.00901453197002410889 -0.0825455412268638611
0.0317985638976097107 0.017080400139093399 -0.080922245979309082
0.0216698013246059418 0.0240273978561162949 -0.0794356688857078552
0.0258115269243717194 0.013861154206097126 -0.0815614238381385803
0.0290834736078977585 0.0144443400204181671 -0.0814558118581771851
0.0178141221404075623 0.0247710105031728745 -0.079263642430305481
0.0207256358116865158 0.0179185457527637482 -0.0806970447301864624
0.0250758342444896698 0.0127760320901870728 -0.0817828327417373657
0.0183318983763456345 0.0184004753828048706 -0.0805860459804534912
0.0270694103091955185 0.0133243175223469734 -0.0816785097122192383
0.0230539366602897644 0.0213343072682619095 -0.0800001248717308044
0.0234132446348667145 0.0121226571500301361 -0.0819104835391044617
0.0215524956583976746 0.0139131844043731689 -0.0815308243036270142
0.0242909640073776245 0.0195717699825763702 -0.0803710818290710449
0.0265243221074342728 0.0163598731160163879 -0.0810469910502433777
0.0180810075253248215 0.0208963844925165176 -0.0800677165389060974
0.0301830526441335678 0.0185354966670274734 -0.0806132331490516663
0.00905486568808555603 0.0158348195254802704 -0.081625916063785553
0.0141563843935728073 0.0151391010731458664 -0.0814430788159370422
0.0110422857105731964 0.020669424906373024 -0.0804818123579025269
0.0148280300199985504 0.00810599885880947113 -0.0828776583075523376
0.0054378807544708252 0.0120633179321885109 -0.0826517343521118164
0.0100250039249658585 0.0211244300007820129 -0.0804518163204193115
0.0105132181197404861 0.0236268024891614914 -0.0798944830894470215
0.00955152604728937149 0.0192630812525749207 -0.0808734893798828125
0.0102917049080133438 0.00647485582157969475 -0.0835130065679550171
0.0110951047390699387 0.0207887236028909683 -0.080453336238861084
0.00964429229497909546 0.0216197893023490906 -0.0803722739219665527
0.00881773699074983597 0.00751576153561472893 -0.0833893418312072754
0.0121755339205265045 0.0222369451075792313 -0.0800793319940567017
0.0133643560111522675 0.00744745461270213127 -0.0831104442477226257
0.00800422113388776779 0.0134514346718788147 -0.0821945145726203918
0.0114171989262104034 0.010807061567902565 -0.0825300663709640503
0.00983700435608625412 0.011736319400370121 -0.0824367105960845947
0.0112989218905568123 0.0129733718931674957 -0.0820824727416038513
0.00834621861577033997 0.0151161449030041695 -0.0818226411938667297
0.0128557253628969193 0.0102732358500361443 -0.082549460232257843
0.0115525964647531509 0.0243416279554367065 -0.0796772390604019165
0.0134710967540740967 -0.00363218970596790314 -0.0835411325097084045
0.0173940155655145645 0.000212066981475800276 -0.0834512710571289062
0.017329854890704155 -0.000807516975328326225 -0.0834603756666183472
0.00666563864797353745 0.000958598917350172997 -0.0836261734366416931
0.0121484920382499695 -0.00165902520529925823 -0.0835488662123680115
0.00662840064615011215 0.00300059630535542965 -0.0836131572723388672
0.0104614868760108948 7.78972171247005463e-05 -0.083566419780254364
0.0121658546850085258 -0.000627711182460188866 -0.08354167640209198
0.0124668516218662262 0.00167309946846216917 -0.0835210755467414856
0.0116996811702847481 -0.0010194841306656599 -0.0835523530840873718
0.0113967079669237137 0.00579648278653621674 -0.0835120007395744324
0.00867533497512340546 -0.000593079137615859509 -0.0836018025875091553
0.0106945708394050598 0.003150218166410923 -0.0835418477654457092
0.0125430282205343246 -0.00149655190762132406 -0.0835409685969352722
0.0626579597592353821 -0.00808327831327915192 -0.081377275288105011
0.0651837140321731567 -0.00694906990975141525 -0.0813503339886665344
0.0686996579170227051 -0.00411210767924785614 -0.0814598426222801208
0.0649076700210571289 -0.00982828158885240555 -0.08103131502866745
0.0696790739893913269 -0.00275408336892724037 -0.0815566852688789368
0.0644535571336746216 -0.0104195093736052513 -0.0809909030795097351
0.0673352926969528198 -0.00490116048604249954 -0.0814537853002548218
0.0686290264129638672 -0.0105397952720522881 -0.0807131975889205933
0.069600813090801239 -0.00299155153334140778 -0.0815338864922523499
0.0555672869086265564 0.0145975062623620033 -0.0802521556615829468
0.0569333508610725403 0.0150806577876210213 -0.0801803842186927795
0.0542199276387691498 0.0105857579037547112 -0.0808489993214607239
0.0538213960826396942 0.00440615182742476463 -0.0817685127258300781
0.0568334832787513733 0.014117363840341568 -0.0803237184882164001
0.0529849566519260406 0.011305089108645916 -0.0807418525218963623
0.0617002435028553009 0.0143711529672145844 -0.0802223905920982361
0.0634813904762268066 0.00663879886269569397 -0.0812576338648796082
0.0631752535700798035 0.0107481013983488083 -0.0807033777236938477
0.0688727498054504395 0.0128996064886450768 -0.0803758352994918823
0.0584319829940795898 0.00429139379411935806 -0.0816075503826141357
0.0594007447361946106 0.00241481908597052097 -0.081855379045009613
0.0591375865042209625 0.00385668780654668808 -0.0816618949174880981
0.0588479749858379364 0.0127135440707206726 -0.0804649367928504944
0.0672907903790473938 0.0114263575524091721 -0.0805853307247161865
0.0586485378444194794 0.00123478390742093325 -0.0820198878645896912
0.0591135658323764801 0.00924849044531583786 -0.0809322521090507507
0.0591251850128173828 0.0112458392977714539 -0.0806618258357048035
0.0699692592024803162 0.00427588215097784996 -0.0812791734933853149
0.0698905140161514282 0.00428823009133338928 -0.0812808573246002197
0.0653634443879127502 0.000953371869400143623 -0.0818162858486175537
0.0625373423099517822 0.00394890783354640007 -0.0815999284386634827
0.0654081925749778748 0.00551020447164773941 -0.0813204124569892883
0.0669120773673057556 0.0026642263401299715 -0.0815713107585906982
0.0666888430714607239 0.000487082666950300336 -0.0818159729242324829
0.0694300532341003418 0.00787339545786380768 -0.0809097439050674438
0.0687355473637580872 0.0105733554810285568 -0.0806436166167259216
0.0655793100595474243 0.00673162983730435371 -0.0811813846230506897
0.05518341064453125 0.00778957270085811615 -0.0812597721815109253
0.0571320988237857819 0.00915663596242666245 -0.0809973478317260742
0.056240864098072052 0.00801997072994709015 -0.0811865925788879395
0.0574974343180656433 0.00119615718722343445 -0.0820603147149085999
0.0552635118365287781 0.00580332987010478973 -0.0815254375338554382
0.056886523962020874 0.00455370964482426643 -0.0816301256418228149
0.0562826432287693024 -0.00497851986438035965 -0.0819342657923698425
0.0582902207970619202 -0.00488215731456875801 -0.0818259865045547485
0.0563588850200176239 -0.00834626704454421997 -0.0816749110817909241
0.0604946538805961609 -0.00347350561060011387 -0.0818641930818557739
0.0609966591000556946 -0.00515653425827622414 -0.0817214474081993103
0.0586549639701843262 -0.00597306713461875916 -0.0817311108112335205
0.058635808527469635 -0.000975342467427253723 -0.0821100696921348572
0.0653589591383934021 -0.00103676109574735165 -0.0819001644849777222
0.0637978911399841309 -0.000509887642692774534 -0.0819877162575721741
0.0559926405549049377 -0.00013466767268255353 -0.0822577998042106628
0.0545219890773296356 -0.00333269336260855198 -0.0821273922920227051
0.0527487918734550476 -0.00324755324982106686 -0.082186967134475708
0.0278786737471818924 0.0321775898337364197 -0.0755337923765182495
0.0289621558040380478 0.0351475514471530914 -0.0739238038659095764
0.0257577747106552124 0.031889844685792923 -0.0757584348320960999
0.0347763225436210632 0.0301312729716300964 -0.076382763683795929
0.0254870019853115082 0.0323971398174762726 -0.0754989534616470337
0.0190634299069643021 0.0270733386278152466 -0.078537575900554657
0.0347971059381961823 0.0377693995833396912 -0.0723363757133483887
0.0312918834388256073 0.0324603244662284851 -0.0752677991986274719
0.0337842777371406555 0.0363971292972564697 -0.07309771329164505
0.0217229537665843964 0.0297881234437227249 -0.0770090594887733459
0.0335077159106731415 0.0345850139856338501 -0.0740669518709182739
0.0257735978811979294 0.0277211889624595642 -0.0779659003019332886
0.0229402761906385422 0.028550734743475914 -0.0776230096817016602
0.0411790758371353149 0.0326360166072845459 -0.0746113136410713196
0.0492878332734107971 0.0289340130984783173 -0.0759985223412513733
0.0367441922426223755 0.0372657999396324158 -0.072472788393497467
0.0366516932845115662 0.0341842584311962128 -0.0741115286946296692
0.0490299314260482788 0.0288339890539646149 -0.0760697424411773682
0.0358926653861999512 0.0393996872007846832 -0.0714027807116508484
0.0407853573560714722 0.0352275408804416656 -0.0732665136456489563
0.0427820570766925812 0.0313474573194980621 -0.0751804262399673462
0.0359564907848834991 0.0339991189539432526 -0.0742587819695472717
0.0414843857288360596 0.0322837233543395996 -0.0747763141989707947
0.0379976145923137665 0.0332102552056312561 -0.0745322257280349731
0.0383980721235275269 0.0308618564158678055 -0.0757477656006813049
0.0365713499486446381 0.0362786166369915009 -0.0730078965425491333
0.0295693632215261459 0.0239600781351327896 -0.0789683833718299866
0.0294810663908720016 0.0253739338368177414 -0.078512728214263916
0.0316150747239589691 0.0202612187713384628 -0.0800460800528526306
0.0337951816618442535 0.020126834511756897 -0.0799525231122970581
0.0324613824486732483 0.0239693429321050644 -0.0787831097841262817
0.0304008983075618744 0.0216779112815856934 -0.0796604529023170471
0.0246159452944993973 0.0265848208218812943 -0.0784243196249008179
0.0253487210720777512 0.0222813356667757034 -0.0797819867730140686
0.0329778604209423065 0.0282080825418233871 -0.0773678198456764221
0.0252091549336910248 0.025365099310874939 -0.0787848234176635742
0.0214198343455791473 0.024944087490439415 -0.0791609659790992737
0.0276992395520210266 0.0234909206628799438 -0.07923927903175354
0.0280403159558773041 0.0272956825792789459 -0.077976621687412262
0.0419413894414901733 0.0276421327143907547 -0.0771229341626167297
0.0488574877381324768 0.0228585507720708847 -0.0784890353679656982
0.035424698144197464 0.0289088785648345947 -0.0769924521446228027
0.0507236160337924957 0.0248725488781929016 -0.0776780247688293457
0.0481418222188949585 0.0227616578340530396 -0.0785589516162872314
0.0461942963302135468 0.0257485266774892807 -0.0775889232754707336
0.0469492636620998383 0.0268302448093891144 -0.0771655365824699402
0.0403215549886226654 0.0246449578553438187 -0.0782291367650032043
0.0355636477470397949 0.0260489024221897125 -0.0779263749718666077
0.039373885840177536 0.0180766135454177856 -0.0804027318954467773
0.0383882001042366028 0.0258581899106502533 -0.0778964385390281677
0.0438410826027393341 0.0207075085490942001 -0.0793987587094306946
0.0404846444725990295 0.0200829524546861649 -0.0797119960188865662
0.043613731861114502 0.0231801271438598633 -0.0785995796322822571
0.0357732176780700684 0.0183691028505563736 -0.0804247856140136719
0.0436734110116958618 0.0215318351984024048 -0.0791353210806846619
0.0484327152371406555 0.0190385580062866211 -0.079793393611907959
0.0512119568884372711 0.0195826441049575806 -0.0795252397656440735
0.0403657294809818268 0.0240515060722827911 -0.0784212797880172729
0.0466498434543609619 0.0209924411028623581 -0.0792141854763031006
0.0719517022371292114 -0.00822643190622329712 -0.0808841362595558167
0.0763510614633560181 -0.00806666538119316101 -0.0808738768100738525
0.0768048986792564392 -0.00681599508970975876 -0.081017032265663147
0.0746325626969337463 -0.00531697599217295647 -0.081206493079662323
0.0701573863625526428 -0.00345161138102412224 -0.0814539045095443726
0.0742059573531150818 -0.0094918692484498024 -0.080721437931060791
0.0744861364364624023 -0.00484726997092366219 -0.081262342631816864
0.0706684887409210205 -0.0118213817477226257 -0.0804724916815757751
0.079241529107093811 -0.00839339010417461395 -0.0808166861534118652
0.0810396373271942139 0.0127311525866389275 -0.0796439647674560547
0.0761033296585083008 0.00534967705607414246 -0.0808146893978118896
0.0798922032117843628 0.00166581419762223959 -0.0812481492757797241
0.0750611871480941772 0.00555354217067360878 -0.0808107852935791016
0.078676663339138031 0.00991616211831569672 -0.0801020264625549316
0.0859170183539390564 0.000595906574744731188 -0.0812552645802497864
0.0801722332835197449 0.00995794497430324554 -0.0800599977374076843
0.0835598930716514587 0.00254300306551158428 -0.0810347124934196472
0.0765396058559417725 0.00836981367319822311 -0.0803738832473754883
0.0719674229621887207 0.00147004006430506706 -0.0814671814441680908
0.0775945782661437988 0.00418673083186149597 -0.0809444040060043335
0.07945232093334198 0.00768296048045158386 -0.0804014801979064941
0.0784320533275604248 0.00136708770878612995 -0.081325925886631012
0.0717581659555435181 0.00106276525184512138 -0.0815302580595016479
0.0842393040657043457 0.00734204612672328949 -0.080334588885307312
0.0760155543684959412 0.00753965321928262711 -0.0805047899484634399
0.0856289565563201904 0.014462711289525032 -0.0791327133774757385
0.0857050120830535889 0.0111551005393266678 -0.0796565413475036621
0.0852772966027259827 0.00791613571345806122 -0.0802053213119506836
0.0825199931859970093 0.0163883678615093231 -0.0790463611483573914
0.0852226242423057556 0.0141193792223930359 -0.0792166292667388916
0.0852551162242889404 0.0164356864988803864 -0.0788436755537986755
0.0909354016184806824 0.00615968089550733566 -0.0802839770913124084
0.0953639671206474304 0.00874903704971075058 -0.0798130780458450317
0.0961604639887809753 0.0142006576061248779 -0.0789305940270423889
0.0945279300212860107 0.00694666756317019463 -0.080112159252166748
0.0986336022615432739 0.0109533779323101044 -0.0794185996055603027
0.0877729505300521851 0.00822116993367671967 -0.0799945071339607239
0.0924927368760108948 0.009976925328373909 -0.0796532854437828064
0.0886497646570205688 0.00330986315384507179 -0.080769173800945282
0.0886148363351821899 0.0167914535850286484 -0.0786124244332313538
0.0881201699376106262 0.0147564755752682686 -0.0789443626999855042
0.0923596620559692383 0.00801773741841316223 -0.079968474805355072
0.094656430184841156 0.00614990945905447006 -0.0802380144596099854
0.0936627760529518127 0.0082330070436000824 -0.0799173861742019653
0.0970895588397979736 0.0136331692337989807 -0.0790095329284667969
0.0936321094632148743 0.0146263465285301208 -0.0788947790861129761
0.0963138937950134277 0.0121187586337327957 -0.0792617574334144592
0.0940764099359512329 0.00601727468892931938 -0.0802666395902633667
0.0846937820315361023 -0.00691359769552946091 -0.080856621265411377
0.0874551758170127869 -0.0031258224043995142 -0.0810301452875137329
0.0851771906018257141 -0.000943488674238324165 -0.081185266375541687
0.0749223977327346802 -0.00326293148100376129 -0.0814155042171478271
0.0780182480812072754 -0.00226240884512662888 -0.0813671499490737915
0.0845162421464920044 -0.0013358433498069644 -0.0811830013990402222
0.0759841203689575195 -0.00426017725840210915 -0.0813045203685760498
0.0763802006840705872 -0.00138474488630890846 -0.0814918279647827148
0.0755579620599746704 -0.00262533081695437431 -0.0814360156655311584
0.0804568901658058167 -0.00125365296844393015 -0.0813445895910263062
0.139536738395690918 -0.0102763809263706207 -0.0779209136962890625
0.134764179587364197 -0.0054411725141108036 -0.0791879966855049133
0.136984080076217651 -0.0109565630555152893 -0.0777935460209846497
0.136048734188079834 -0.00569700868800282478 -0.0791046693921089172
0.137656018137931824 -0.00838867947459220886 -0.0784158706665039062
0.13772137463092804 -0.00808639079332351685 -0.078489348292350769
0.134719997644424438 -0.00513896811753511429 -0.0792631804943084717
0.133902370929718018 -0.000767789082601666451 -0.0794140323996543884
0.136495098471641541 0.00227716052904725075 -0.0792915225028991699
0.135522246360778809 0.000880994484759867191 -0.0793374925851821899
0.136237651109695435 -0.00294493697583675385 -0.0793036818504333496
0.139264896512031555 -0.00366249866783618927 -0.079160645604133606
0.134596407413482666 -0.00359462713822722435 -0.0793812349438667297
0.138694673776626587 0.000448000733740627766 -0.0791875869035720825
0.131224483251571655 0.000311829382553696632 -0.0795394927263259888
0.13383406400680542 0.00205599167384207249 -0.0794163718819618225
0.124286271631717682 0.00164492276962846518 -0.0798635110259056091
0.131759598851203918 0.00239959289319813251 -0.0795132815837860107
0.123305715620517731 0.00251638074405491352 -0.0799089148640632629
0.127363577485084534 0.00305435038171708584 -0.0797186717391014099
0.125437811017036438 0.00309834885410964489 -0.0798087865114212036
0.131463110446929932 -0.000191086204722523689 -0.0795286074280738831
0.123081102967262268 0.000266091898083686829 -0.079917512834072113
0.124310880899429321 0.000250774784944951534 -0.0798622369766235352
0.124262511730194092 0.00334783084690570831 -0.0798234790563583374
0.125422284007072449 0.00440815743058919907 -0.079564899206161499
0.134982109069824219 0.0097804265096783638 -0.078198358416557312
0.130889773368835449 0.00958913657814264297 -0.0783044919371604919
0.133692815899848938 0.00873681157827377319 -0.078455120325088501
0.124784462153911591 0.00735840760171413422 -0.0789046287536621094
0.125536128878593445 0.00431553460657596588 -0.0795841887593269348
0.127171382308006287 0.00750556029379367828 -0.0788346529006958008
0.126210436224937439 0.00920721329748630524 -0.0784629061818122864
0.122722722589969635 0.00300857145339250565 -0.0799241065979003906
0.127295956015586853 0.0138202104717493057 -0.0773986205458641052
0.128642916679382324 0.00823308154940605164 -0.0786468833684921265
0.132156819105148315 0.0124761117622256279 -0.0776294171810150146
0.128492042422294617 0.0152052231132984161 -0.0770657435059547424
0.122048541903495789 0.00340473302640020847 -0.0798741206526756287
0.113160543143749237 0.0122734429314732552 -0.0785756781697273254
0.115874156355857849 0.00962744373828172684 -0.0789586231112480164
0.119414687156677246 0.00930133834481239319 -0.0787754431366920471
0.112131878733634949 0.00951401051133871078 -0.0792523100972175598
0.119421236217021942 0.00599113944917917252 -0.079497992992401123
0.113423950970172882 0.0103258369490504265 -0.0789821445941925049
0.119889065623283386 0.00598108954727649689 -0.0794665664434432983
0.113447308540344238 0.0133706778287887573 -0.0783154070377349854
0.120549306273460388 0.0106886317953467369 -0.0783908963203430176
0.112675875425338745 0.00906448997557163239 -0.0793114006519317627
0.118443034589290619 0.0156576000154018402 -0.0774569213390350342
0.115729071199893951 0.015679970383644104 -0.0776470527052879333
0.116249546408653259 0.00769391795620322227 -0.0793539732694625854
0.118387073278427124 0.00758112408220767975 -0.0792250186204910278
0.123032093048095703 0.00607043923810124397 -0.0792401954531669617
0.123702920973300934 0.0131655102595686913 -0.0776661932468414307
0.124941840767860413 0.0149598605930805206 -0.0772294029593467712
0.125791803002357483 0.0136687774211168289 -0.077480614185333252
0.123103231191635132 0.0132187511771917343 -0.0776762813329696655
0.00221643806435167789 -0.0368244610726833344 -0.0751277655363082886
0.00277276011183857918 -0.0346169956028461456 -0.0760890170931816101
0.000664905179291963577 -0.03214312344789505 -0.0772721990942955017
0.000510331243276596069 -0.0349216088652610779 -0.0760411396622657776
0.00184346782043576241 -0.0348750129342079163 -0.0760101824998855591
0.00797236524522304535 -0.0354942753911018372 -0.0754967629909515381
0.00402797525748610497 -0.0329917408525943756 -0.0767639428377151489
0.00389398029074072838 -0.0399571433663368225 -0.0736679434776306152
0.00353908119723200798 -0.0306431148201227188 -0.0778285786509513855
0.00317630264908075333 -0.0319159999489784241 -0.0772759243845939636
0.00256513059139251709 -0.0347480028867721558 -0.0760387405753135681
0.00414907513186335564 -0.0339528508484363556 -0.0763313323259353638
0.0058951573446393013 -0.0457525737583637238 -0.0692758485674858093
0.00623000785708427429 -0.0459016263484954834 -0.0691148266196250916
0.00911055039614439011 -0.0411686263978481293 -0.0720999613404273987
0.00201340485364198685 -0.0424624606966972351 -0.0722774863243103027
0.00217155506834387779 -0.0439354665577411652 -0.0711823776364326477
0.000466780737042427063 -0.0462584458291530609 -0.0697630792856216431
0.00215339194983243942 -0.0468535870313644409 -0.0690651088953018188
0.00517932604998350143 -0.043187357485294342 -0.0712523013353347778
0.00667581567540764809 -0.0429966822266578674 -0.0711551830172538757
0.0043511134572327137 -0.04833211749792099 -0.0676448270678520203
0.000855354126542806625 -0.0500912666320800781 -0.0669171884655952454
0.00290767964906990528 -0.0480407439172267914 -0.0680838152766227722
0.00617871154099702835 -0.0219644717872142792 -0.0804688930511474609
0.00922022387385368347 -0.018765471875667572 -0.0809348970651626587
0.0141106527298688889 -0.0229297224432229996 -0.0797571316361427307
0.00930091831833124161 -0.026155935600399971 -0.0793996229767799377
0.00925349537283182144 -0.0239281635731458664 -0.0798638984560966492
0.0114612691104412079 -0.0164610538631677628 -0.0812673494219779968
0.014049014076590538 -0.0194176174700260162 -0.0804882347583770752
0.0127787776291370392 -0.0252941586077213287 -0.0793535709381103516
0.00906900875270366669 -0.0217124633491039276 -0.0803345292806625366
0.00616982020437717438 -0.0203418005257844925 -0.0808054134249687195
0.0105807483196258545 -0.0213130805641412735 -0.0803196504712104797
0.0126589424908161163 -0.0227524749934673309 -0.0798875167965888977
0.0154998926445841789 -0.0202282760292291641 -0.0802267566323280334
0.00205947551876306534 -0.0232501346617937088 -0.0804685726761817932
0.0151353264227509499 -0.0217534415423870087 -0.0799345299601554871
0.0069974903017282486 -0.018208235502243042 -0.0811937227845191956
0.00709419092163443565 -0.0240600723773241043 -0.0799759551882743835
0.0160681121051311493 -0.0248917173594236374 -0.0792246013879776001
0.00900870002806186676 -0.0185007303953170776 -0.0810033529996871948
0.014904228039085865 -0.0186834987252950668 -0.0805850178003311157
0.0116690695285797119 -0.00865138135850429535 -0.0828707963228225708
0.00970049947500228882 -0.0199342817068099976 -0.0806619152426719666
0.0134236598387360573 -0.0353820733726024628 -0.0753055289387702942
0.0169270001351833344 -0.0299803521484136581 -0.0774791613221168518
0.0159459169954061508 -0.0321962311863899231 -0.0765709802508354187
0.0147499358281493187 -0.00627200398594141006 -0.0831311345100402832
0.0163172222673892975 -0.0206497497856616974 -0.0800802409648895264
0.0144841829314827919 -0.00840528681874275208 -0.0827165618538856506
0.0129072209820151329 -0.00941615737974643707 -0.0826310664415359497
0.0150994490832090378 -0.0163313448429107666 -0.0810537040233612061
0.0131674222648143768 -0.00727483443915843964 -0.0830477029085159302
0.0139543982222676277 -0.0137430205941200256 -0.0816689208149909973
0.0173707492649555206 -0.0235587935894727707 -0.07940664142370224
0.0101887257769703865 -0.0323418863117694855 -0.076775379478931427
0.00421823281794786453 -0.0295531824231147766 -0.0782819837331771851
0.0094718271866440773 -0.0337108969688415527 -0.0762171968817710876
0.0109419915825128555 -0.02898397296667099 -0.0781944692134857178
0.00857450813055038452 -0.0302235521376132965 -0.0777745321393013
0.0144655080512166023 -0.0295038223266601562 -0.0777937173843383789
0.00772645976394414902 -0.0319502986967563629 -0.0770677030086517334
0.00674246251583099365 -0.0295273661613464355 -0.0781676322221755981
0.00937355309724807739 -0.031061047688126564 -0.0773715078830718994
0.0025801612064242363 -0.0269255135208368301 -0.0795032531023025513
0.0160669721662998199 -0.0289869625121355057 -0.0779382586479187012
0.0214784406125545502 -0.00809599179774522781 -0.0826029479503631592
0.0252690631896257401 -0.0162714235484600067 -0.0809876769781112671
0.0280318427830934525 -0.0170895233750343323 -0.0808583423495292664
0.0217307247221469879 -0.0204862654209136963 -0.0800804868340492249
0.0207031629979610443 -0.00801587384194135666 -0.0826087743043899536
0.0288046039640903473 -0.013743995688855648 -0.0815508365631103516
0.0224233642220497131 -0.0178793705999851227 -0.0806213170289993286
0.0259203407913446426 -0.0159212462604045868 -0.081067889928817749
0.0197646915912628174 -0.0210927370935678482 -0.0799302086234092712
0.0263555534183979034 -0.0141687709838151932 -0.0814310461282730103
0.0231377407908439636 -0.0140371024608612061 -0.0814142823219299316
0.0190742500126361847 -0.0191770400851964951 -0.0803113803267478943
0.0273259151726961136 -0.018559478223323822 -0.0805491060018539429
0.0254742242395877838 -0.0166850835084915161 -0.0809061229228973389
0.0193505939096212387 -0.01114700548350811 -0.0819521248340606689
0.0257629826664924622 -0.0194181390106678009 -0.0803528875112533569
0.0299390610307455063 -0.0114180473610758781 -0.0820403695106506348
0.0250546541064977646 -0.0149225741624832153 -0.0812597498297691345
0.0217560157179832458 -0.00871766824275255203 -0.0824799761176109314
0.0197762772440910339 -0.0205270107835531235 -0.0800456926226615906
0.0277679171413183212 -0.01670084148645401 -0.0809340029954910278
0.0251237004995346069 -0.00898728147149085999 -0.0824706554412841797
0.0341382510960102081 -0.0130981104448437691 -0.0817547887563705444
0.0250497832894325256 -0.0124510135501623154 -0.0817635282874107361
0.0688494518399238586 -0.0352656543254852295 -0.0709016621112823486
0.0697154700756072998 -0.0307609532028436661 -0.0735702663660049438
0.0661375448107719421 -0.0366226285696029663 -0.0703990012407302856
0.0664078518748283386 -0.0301124695688486099 -0.0743762478232383728
0.0685722529888153076 -0.0389980636537075043 -0.0686364471912384033
0.0687237828969955444 -0.0385689437389373779 -0.0688821747899055481
0.0634968429803848267 -0.032169245183467865 -0.073466956615447998
0.0667766928672790527 -0.0306705664843320847 -0.0739871114492416382
0.06767987459897995 -0.0295992977917194366 -0.0745360478758811951
0.0648403763771057129 -0.0341211967170238495 -0.0720993801951408386
0.0429541356861591339 -0.018497588112950325 -0.0796672403812408447
0.0518181845545768738 -0.00935724750161170959 -0.0815058127045631409
0.0377104915678501129 -0.0148177621886134148 -0.0810831934213638306
0.0434155762195587158 -0.0163545534014701843 -0.0802222937345504761
0.050928022712469101 -0.0249570924788713455 -0.0772760957479476929
0.0486653037369251251 -0.0181984417140483856 -0.0793117135763168335
0.0517814233899116516 -0.0153688713908195496 -0.0798523426055908203
0.0522516965866088867 -0.0146525567397475243 -0.0800136327743530273
0.0406585559248924255 -0.0143554620444774628 -0.0809844955801963806
0.0497668087482452393 -0.00980406440794467926 -0.0815400108695030212
0.0406815968453884125 -0.0136396614834666252 -0.0811799392104148865
0.0388031788170337677 -0.0158524159342050552 -0.0807143375277519226
0.0471967607736587524 -0.0211563333868980408 -0.0786093845963478088
0.0435102283954620361 -0.0137061206623911858 -0.0809447169303894043
0.0491223819553852081 -0.0111204134300351143 -0.0812267586588859558
0.0517511181533336639 -0.0205233469605445862 -0.0784345343708992004
0.03739117830991745 -0.012422952800989151 -0.0817674845457077026
0.0424765683710575104 -0.0132174268364906311 -0.0811586305499076843
0.046891920268535614 -0.0218297373503446579 -0.0784472227096557617
0.0401046536862850189 -0.0151412328705191612 -0.0808104798197746277
0.0508240126073360443 -0.011896088719367981 -0.0808825641870498657
0.0529049411416053772 -0.0204230062663555145 -0.0784126520156860352
0.0533565804362297058 -0.0213196109980344772 -0.0781743377447128296
0.0546948574483394623 -0.0160835608839988708 -0.0796427801251411438
0.0542361997067928314 -0.0133251585066318512 -0.0803938955068588257
0.0529469996690750122 -0.021683448925614357 -0.0780661925673484802
0.0538302138447761536 -0.0135700367391109467 -0.0803185999393463135
0.0525478087365627289 -0.0156319979578256607 -0.0797257497906684875
0.0266419071704149246 0.0106103066354990005 -0.082217000424861908
0.0300335586071014404 0.0115254279226064682 -0.0819368213415145874
0.0279168151319026947 0.00765581289306282997 -0.0825388506054878235
0.025786692276597023 0.00931105576455593109 -0.082426019012928009
0.0326017513871192932 0.0138444043695926666 -0.0815140828490257263
0.0279637183994054794 0.00358466478064656258 -0.0830638334155082703
0.0212137922644615173 0.0052760029211640358 -0.0831665545701980591
0.0207666922360658646 0.00636600330471992493 -0.0830467045307159424
0.0215851012617349625 0.00483734114095568657 -0.0832056552171707153
0.0295283421874046326 0.00782884657382965088 -0.0824396237730979919
0.0214604083448648453 0.00371775496751070023 -0.0833164826035499573
0.0215503014624118805 -0.00028928605024702847 -0.0833460912108421326
0.0216951780021190643 0.00143925868906080723 -0.0833284333348274231
0.0180642940104007721 0.000582692853640764952 -0.0834317207336425781
0.025547511875629425 0.00314949546009302139 -0.0832124575972557068
0.0245945379137992859 0.00210315128788352013 -0.0832461193203926086
0.021884966641664505 -0.00404193811118602753 -0.083167731761932373
0.0318937674164772034 -0.00718225166201591492 -0.082333885133266449
0.0258731488138437271 -0.000436200178228318691 -0.0831357985734939575
0.029675602912902832 -0.00976665783673524857 -0.0823158398270606995
0.0204819664359092712 -0.00458827801048755646 -0.0832236185669898987
0.0313467495143413544 -0.00546012585982680321 -0.0824753269553184509
0.0276044178754091263 0.00152113358490169048 -0.0831461846828460693
0.0212945789098739624 -0.00407531019300222397 -0.0832033976912498474
0.0259125065058469772 0.000882794265635311604 -0.0832148417830467224
0.028635561466217041 -0.0027330443263053894 -0.0828172266483306885
0.0267994236201047897 1.59270130097866058e-05 -0.0831045582890510559
0.0231283456087112427 -0.000714999856427311897 -0.0832939818501472473
0.0271739810705184937 -0.00515345111489295959 -0.0827609822154045105
0.0581549443304538727 -0.0303685031831264496 -0.0748105421662330627
0.0582665354013442993 -0.0349332466721534729 -0.0723954290151596069
0.0593741424381732941 -0.0333648361265659332 -0.0731474757194519043
0.0628696605563163757 -0.0299447737634181976 -0.0747203230857849121
0.0621727705001831055 -0.031095920130610466 -0.0741594955325126648
0.0583969652652740479 -0.0335761457681655884 -0.0731001570820808411
0.0604576803743839264 -0.0297298245131969452 -0.0749915763735771179
0.0535310953855514526 -0.0302530098706483841 -0.0752435624599456787
0.0532051138579845428 -0.031205328181385994 -0.0748020261526107788
0.05775446817278862 -0.028094826266169548 -0.0760149583220481873
0.0579371079802513123 -0.0112816337496042252 -0.0810225456953048706
0.0572222992777824402 -0.0254111867398023605 -0.0768444910645484924
0.0564788021147251129 -0.0222735051065683365 -0.077820897102355957
0.0570714473724365234 -0.0226594246923923492 -0.0776738002896308899
0.0553437285125255585 -0.0230555292218923569 -0.0776486694812774658
0.0591386742889881134 -0.0110272569581866264 -0.0810776278376579285
0.0655403733253479004 -0.0150383869186043739 -0.079884357750415802
0.0634727403521537781 -0.0118882535025477409 -0.0808232203125953674
0.064404509961605072 -0.017538243904709816 -0.0791376829147338867
0.0674798861145973206 -0.0164107121527194977 -0.0794759541749954224
0.06378946453332901 -0.0128275454044342041 -0.0805430933833122253
0.0599658526480197906 -0.0113274706527590752 -0.0809885114431381226
0.058351762592792511 -0.02008795365691185 -0.0783732607960700989
0.0665153488516807556 -0.0172834265977144241 -0.0792149603366851807
0.0614206120371818542 -0.0229838211089372635 -0.0775108635425567627
0.0647548511624336243 -0.015389944426715374 -0.0797789841890335083
0.0617006495594978333 -0.0146665647625923157 -0.0799930691719055176
0.0610907040536403656 -0.0146822361275553703 -0.079988040030002594
0.061968531459569931 -0.0238661672919988632 -0.0772394090890884399
0.068656623363494873 -0.0251750946044921875 -0.0764122530817985535
0.0697328895330429077 -0.0173255410045385361 -0.0790585651993751526
0.0688156560063362122 -0.0172177515923976898 -0.0791472718119621277
0.0609617866575717926 -0.0254186242818832397 -0.0767606347799301147
0.0687180981040000916 -0.0207244474440813065 -0.0779435262084007263
0.0674575790762901306 -0.0214368868619203568 -0.0777686759829521179
0.0640310421586036682 -0.0263623856008052826 -0.0762627348303794861
0.0668135359883308411 -0.0205592010170221329 -0.0781075209379196167
0.0673275068402290344 -0.0206500440835952759 -0.0780473202466964722
0.0323691777884960175 -0.00226309034042060375 -0.0826736986637115479
0.0347956828773021698 0.00128466275054961443 -0.0829187333583831787
0.0312050879001617432 -0.00236118724569678307 -0.0826839804649353027
0.0328903608024120331 -3.00050887744873762e-05 -0.0828435793519020081
0.0339585952460765839 -0.00355305476114153862 -0.0825461670756340027
0.0331771895289421082 0.00411873403936624527 -0.0827394574880599976
0.0340087264776229858 0.0117359096184372902 -0.08171805739402771
0.034066714346408844 0.00357894063927233219 -0.0827647671103477478
0.0344799980521202087 0.013265073299407959 -0.0814979076385498047
0.0337367653846740723 0.0128639601171016693 -0.081586398184299469
0.0352970883250236511 0.0130728129297494888 -0.0814839750528335571
0.0350707322359085083 0.00325875403359532356 -0.0827565938234329224
0.0354464165866374969 0.00530260335654020309 -0.0824773460626602173
0.0359377413988113403 0.0118151009082794189 -0.081618092954158783
0.0383220165967941284 0.00311799440532922745 -0.0826340168714523315
0.0396518148481845856 -0.000424552883487194777 -0.0826651602983474731
0.0352560430765151978 -1.57434842549264431e-05 -0.0828056186437606812
0.0399608500301837921 0.000128076950204558671 -0.0827016234397888184
0.0395883992314338684 -0.00077683932613581419 -0.0826386436820030212
0.0354070216417312622 -0.0112204691395163536 -0.0819088444113731384
0.0420245565474033356 -0.00536930747330188751 -0.082257494330406189
0.0419150069355964661 -0.000767602177802473307 -0.0826041176915168762
0.0425287745893001556 -0.00650381436571478844 -0.0821658223867416382
0.0493724457919597626 -0.00769412517547607422 -0.0819873437285423279
0.0419452115893363953 -0.00996792316436767578 -0.0819135755300521851
0.048442106693983078 -0.00561090279370546341 -0.0821557343006134033
0.0399637557566165924 -0.0069619910791516304 -0.0821648836135864258
0.0402986146509647369 -0.0101665686815977097 -0.081920132040977478
0.0420784354209899902 -0.00742487190291285515 -0.0821026042103767395
0.0421980060636997223 -0.00707962829619646072 -0.0821269452571868896
0.0451420396566390991 -0.00330072501674294472 -0.0823720395565032959
0.0470818541944026947 -0.00756049156188964844 -0.0820272192358970642
0.0366599969565868378 0.0136818103492259979 -0.0813345760107040405
0.0416483953595161438 0.00499375350773334503 -0.0822016894817352295
0.0477358810603618622 0.0155288316309452057 -0.0803715139627456665
0.0445741862058639526 0.0102485315874218941 -0.0812959149479866028
0.0410235859453678131 0.0079114716500043869 -0.0818430855870246887
0.0416289679706096649 0.0170125942677259445 -0.0805606096982955933
0.0477842129766941071 0.0149426590651273727 -0.0804485082626342773
0.0378912016749382019 0.0117693692445755005 -0.0815169066190719604
0.0409166105091571808 0.00304414983838796616 -0.0825150460004806519
0.0432054623961448669 0.0145924258977174759 -0.0807901620864868164
0.0432275980710983276 0.0159774385392665863 -0.0805994793772697449
0.042603909969329834 0.00445119757205247879 -0.0822145119309425354
0.0468876585364341736 0.013512887991964817 -0.0807014107704162598
0.0380413271486759186 0.011822977103292942 -0.0814999490976333618
0.0476368516683578491 0.0183572452515363693 -0.0799913704395294189
0.0382003448903560638 0.00853390432894229889 -0.0819391831755638123
0.0402991287410259247 0.0121569046750664711 -0.0813094452023506165
0.0469916574656963348 0.00690561858937144279 -0.0816454142332077026
0.0476958230137825012 0.00792661495506763458 -0.0814616605639457703
0.0488066598773002625 0.00182732020039111376 -0.0823190510272979736
0.0441047698259353638 0.0027716062031686306 -0.0823910459876060486
0.051800411194562912 0.0144959995523095131 -0.0802985876798629761
0.0499509163200855255 0.0119026433676481247 -0.0807680785655975342
0.0467269979417324066 0.00212225411087274551 -0.0823691561818122864
