ply
format ascii 1.0
element vertex 802
property float x
property float y
property float z
end_header
0.629999995231628418 0.671001791954040527 0.100736558437347412
0.629999995231628418 0.388755440711975098 0.12406613677740097
0.629999995231628418 0.63543391227722168 0.0972093865275382996
0.629999995231628418 1.03739821910858154 0.10998506098985672
0.629999995231628418 1.03824424743652344 0.0817468911409378052
0.629999995231628418 0.82387995719909668 0.12865881621837616
0.629999995231628418 0.920064032077789307 0.119509674608707428
0.629999995231628418 1.72260463237762451 0.0632684528827667236
0.629999995231628418 0.568953990936279297 0.144241780042648315
0.629999995231628418 1.42007160186767578 0.131822884082794189
0.629999995231628418 1.67070925235748291 0.0936520397663116455
0.629999995231628418 1.25472557544708252 0.0733959674835205078
0.629999995231628418 1.42405891418457031 0.0961965024471282959
0.629999995231628418 1.71905064582824707 0.00720247626304626465
0.629999995231628418 0.429807782173156738 0.135490387678146362
0.629999995231628418 1.30848753452301025 0.11937163770198822
0.629999995231628418 0.864588379859924316 0.140610337257385254
0.629999995231628418 1.36793899536132812 0.0888799875974655151
0.629999995231628418 1.32911372184753418 0.0920065194368362427
0.629999995231628418 1.7451324462890625 0.149630934000015259
0.629999995231628418 1.38511323928833008 0.0980622023344039917
0.629999995231628418 1.49068784713745117 0.132697790861129761
0.629999995231628418 1.54068267345428467 0.0504885613918304443
0.629999995231628418 1.26431155204772949 0.0793773382902145386
0.629999995231628418 0.789725124835968018 0.0863901451230049133
0.629999995231628418 0.383111715316772461 0.137350797653198242
0.629999995231628418 1.72273170948028564 0.0670137405395507812
0.629999995231628418 1.05477404594421387 0.119927600026130676
0.629999995231628418 1.17894935607910156 0.101596936583518982
0.629999995231628418 1.13173508644104004 0.0978172123432159424
0.629999995231628418 0.476714968681335449 0.116691321134567261
0.629999995231628418 0.40467989444732666 0.117774724960327148
0.629999995231628418 0.217222332954406738 0.145733624696731567
0.629999995231628418 1.33702993392944336 0.147791802883148193
0.629999995231628418 1.52450966835021973 0.0834087133407592773
0.629999995231628418 1.32389318943023682 0.0775047317147254944
0.629999995231628418 1.06862306594848633 0.0654620975255966187
0.629999995231628418 1.67776906490325928 0.026491902768611908
0.629999995231628418 1.52289628982543945 0.115352421998977661
0.629999995231628418 1.69201719760894775 0.138562843203544617
0.629999995231628418 1.07164382934570312 0.141180828213691711
0.629999995231628418 1.58431518077850342 0.119947835803031921
0.629999995231628418 1.54687607288360596 0.0767334625124931335
0.629999995231628418 0.719404458999633789 0.101686447858810425
0.629999995231628418 1.53753161430358887 0.126425758004188538
0.629999995231628418 1.11813664436340332 0.149971038103103638
0.629999995231628418 0.700343966484069824 0.109769068658351898
0.629999995231628418 0.182949185371398926 0.145245254039764404
0.629999995231628418 1.3616783618927002 0.0750536397099494934
0.629999995231628418 1.62767136096954346 0.148990258574485779
0.629999995231628418 1.24954962730407715 0.0683239921927452087
0.629999995231628418 0.301537871360778809 0.149819612503051758
0.629999995231628418 1.15390992164611816 0.0638079345226287842
0.629999995231628418 0.950710177421569824 0.0742378383874893188
0.629999995231628418 1.4578697681427002 0.118801534175872803
0.629999995231628418 1.64403891563415527 0.124789893627166748
0.629999995231628418 1.11559462547302246 0.142223566770553589
0.629999995231628418 1.38128137588500977 0.0668249502778053284
0.629999995231628418 1.70492887496948242 0.0252899304032325745
0.629999995231628418 1.16813111305236816 0.0835165828466415405
0.629999995231628418 1.3682180643081665 0.0874641686677932739
0.629999995231628418 0.871199607849121094 0.084333471953868866
0.629999995231628418 1.09426355361938477 0.110932290554046631
0.629999995231628418 1.47517645359039307 0.0442499741911888123
0.629999995231628418 1.641013503074646 0.0387888923287391663
0.629999995231628418 1.03036594390869141 0.0972256958484649658
0.629999995231628418 1.22185921669006348 0.106193140149116516
0.629999995231628418 1.04576551914215088 0.087878689169883728
0.629999995231628418 1.68992364406585693 0.109582357108592987
0.629999995231628418 1.23008620738983154 0.10645216703414917
0.629999995231628418 0.788539707660675049 0.105415135622024536
0.629999995231628418 0.487903118133544922 0.11444583535194397
0.629999995231628418 0.9070090651512146 0.0979563593864440918
0.629999995231628418 1.34388589859008789 0.0506144911050796509
0.629999995231628418 1.54615604877471924 0.14696444571018219
0.629999995231628418 1.35882985591888428 0.0624583214521408081
0.629999995231628418 1.57030808925628662 0.0762407630681991577
0.629999995231628418 1.40228211879730225 0.0597935318946838379
0.629999995231628418 1.72802352905273438 0.0777864903211593628
0.629999995231628418 1.48583507537841797 0.144219696521759033
0.629999995231628418 1.17023849487304688 0.103917039930820465
0.629999995231628418 0.9464377760887146 0.102424025535583496
0.629999995231628418 1.65890634059906006 0.0247530192136764526
0.629999995231628418 1.01853823661804199 0.0802152752876281738
0.629999995231628418 1.01395702362060547 0.0948685556650161743
0.629999995231628418 1.54628443717956543 0.0705633535981178284
0.629999995231628418 1.32321262359619141 0.134881168603897095
0.629999995231628418 1.74048852920532227 0.147480234503746033
0.629999995231628418 0.863596439361572266 0.141956210136413574
0.629999995231628418 1.451759934425354 0.134162455797195435
0.629999995231628418 0.712791681289672852 0.0902573615312576294
0.629999995231628418 1.47024857997894287 0.107347577810287476
0.629999995231628418 1.37340104579925537 0.0825380682945251465
0.629999995231628418 1.51943421363830566 0.0816035866737365723
0.629999995231628418 0.582904934883117676 0.12639385461807251
0.629999995231628418 1.7153247594833374 0.012269631028175354
0.629999995231628418 1.32434654235839844 0.0555761978030204773
0.629999995231628418 1.40120577812194824 0.0869776532053947449
0.629999995231628418 1.43039274215698242 0.146693840622901917
0.629999995231628418 1.72123253345489502 0.0631742700934410095
0.629999995231628418 1.2252655029296875 0.0493944659829139709
0.629999995231628418 1.24023866653442383 0.130112543702125549
0.629999995231628418 1.35394859313964844 0.0735724419355392456
0.629999995231628418 0.935700953006744385 0.076896175742149353
0.629999995231628418 1.05853271484375 0.149926438927650452
0.629999995231628418 1.61445283889770508 0.0333382412791252136
0.629999995231628418 1.66221237182617188 0.133994147181510925
0.629999995231628418 1.39260458946228027 0.0689847990870475769
0.629999995231628418 0.786259710788726807 0.127813965082168579
0.629999995231628418 1.22687911987304688 0.064418986439704895
0.629999995231628418 1.66659939289093018 0.138892859220504761
0.629999995231628418 1.2055213451385498 0.149281159043312073
0.629999995231628418 0.714292526245117188 0.104078993201255798
0.629999995231628418 1.10475587844848633 0.107364676892757416
0.629999995231628418 0.308587312698364258 0.127378970384597778
0.629999995231628418 1.45117831230163574 0.129459083080291748
0.629999995231628418 0.39107823371887207 0.13172893226146698
0.629999995231628418 1.64833962917327881 0.0594528168439865112
0.629999995231628418 1.5351567268371582 0.0841296687722206116
0.629999995231628418 1.33958220481872559 0.131950914859771729
0.629999995231628418 1.1049189567565918 0.0597109273076057434
0.629999995231628418 1.57200145721435547 0.0715987831354141235
0.629999995231628418 1.54062843322753906 0.0892544612288475037
0.629999995231628418 1.48673927783966064 0.0667313337326049805
0.629999995231628418 1.44701480865478516 0.147094503045082092
0.629999995231628418 1.59201741218566895 0.0743892937898635864
0.629999995231628418 1.44791269302368164 0.117995619773864746
0.629999995231628418 1.11981487274169922 0.0791250020265579224
0.629999995231628418 1.30996310710906982 0.125496581196784973
0.629999995231628418 1.75258827209472656 0.0531867742538452148
0.629999995231628418 1.54959988594055176 0.0604672431945800781
0.629999995231628418 0.785452187061309814 0.143433883786201477
0.629999995231628418 1.39859747886657715 0.130692988634109497
0.629999995231628418 0.23487699031829834 0.147025629878044128
0.629999995231628418 1.41074562072753906 0.0792143717408180237
0.629999995231628418 0.757616519927978516 0.144322410225868225
0.629999995231628418 0.989416122436523438 0.0727767348289489746
0.629999995231628418 0.768567979335784912 0.0959272682666778564
0.629999995231628418 1.60465133190155029 0.0288327708840370178
0.629999995231628418 1.41515350341796875 0.112236723303794861
0.629999995231628418 1.66820013523101807 0.118753939867019653
0.629999995231628418 1.18970859050750732 0.127947643399238586
0.629999995231628418 1.18443965911865234 0.0612441450357437134
0.629999995231628418 1.06609177589416504 0.0790290161967277527
0.629999995231628418 1.70786440372467041 0.0373400896787643433
0.629999995231628418 0.996509432792663574 0.149888396263122559
0.629999995231628418 1.73754012584686279 0.055576026439666748
0.629999995231628418 0.825187802314758301 0.142829224467277527
0.629999995231628418 0.895307779312133789 0.112090855836868286
0.629999995231628418 1.0667266845703125 0.125308513641357422
0.629999995231628418 1.50469934940338135 0.023544609546661377
0.629999995231628418 1.48642897605895996 0.146940052509307861
0.629999995231628418 1.68026304244995117 0.0269086211919784546
0.629999995231628418 0.614773392677307129 0.129316195845603943
0.629999995231628418 1.48734211921691895 0.0697759389877319336
0.629999995231628418 1.4514613151550293 0.0527530387043952942
0.629999995231628418 1.08390688896179199 0.0760893374681472778
0.629999995231628418 1.16063261032104492 0.0890443474054336548
0.629999995231628418 1.42176973819732666 0.0369205474853515625
0.629999995231628418 0.827178895473480225 0.140555709600448608
0.629999995231628418 0.468266129493713379 0.128583893179893494
0.629999995231628418 0.95391315221786499 0.126528829336166382
0.629999995231628418 1.69189655780792236 0.0363169163465499878
0.629999995231628418 1.63410186767578125 0.0749986916780471802
0.629999995231628418 1.7142326831817627 0.0360480919480323792
0.629999995231628418 1.38511085510253906 0.0826083868741989136
0.629999995231628418 1.06761002540588379 0.061305314302444458
0.629999995231628418 0.727530837059020996 0.125437706708908081
0.629999995231628418 0.672397851943969727 0.138219505548477173
0.629999995231628418 1.36055147647857666 0.147830963134765625
0.629999995231628418 1.7107846736907959 0.0737397372722625732
0.629999995231628418 1.58166098594665527 0.13390834629535675
0.629999995231628418 1.29239487648010254 0.133493557572364807
0.629999995231628418 0.867641925811767578 0.0875082314014434814
0.629999995231628418 0.924734175205230713 0.137034952640533447
0.629999995231628418 0.857000410556793213 0.138827592134475708
0.629999995231628418 1.3320612907409668 0.135964766144752502
0.629999995231628418 1.73994052410125732 0.0903189480304718018
0.629999995231628418 1.26353263854980469 0.114753246307373047
0.629999995231628418 1.60801410675048828 0.0428865626454353333
0.629999995231628418 0.799495875835418701 0.146333858370780945
0.629999995231628418 0.705222129821777344 0.0941352695226669312
0.629999995231628418 1.18867993354797363 0.114355184137821198
0.629999995231628418 1.71867215633392334 0.0525736510753631592
0.629999995231628418 1.56725895404815674 0.0805720686912536621
0.629999995231628418 0.514528155326843262 0.121163465082645416
0.629999995231628418 1.40642595291137695 0.105156615376472473
0.629999995231628418 0.807378292083740234 0.131909489631652832
0.629999995231628418 1.37596917152404785 0.0838681086897850037
0.629999995231628418 1.21972823143005371 0.0737399756908416748
0.629999995231628418 0.994892895221710205 0.147219285368919373
0.629999995231628418 0.507782697677612305 0.130347400903701782
0.629999995231628418 1.58287954330444336 0.0448367372155189514
0.629999995231628418 1.67546701431274414 0.0195460319519042969
0.629999995231628418 0.991276085376739502 0.123260967433452606
0.629999995231628418 1.69012892246246338 0.0601971223950386047
0.629999995231628418 1.69301724433898926 0.138374149799346924
0.629999995231628418 1.52074003219604492 0.108310356736183167
0.629999995231628418 0.816403090953826904 0.0974936038255691528
0.629999995231628418 0.988497734069824219 0.120819471776485443
0.629999995231628418 1.2798769474029541 0.105848193168640137
0.629999995231628418 0.701194882392883301 0.102772414684295654
0.629999995231628418 1.64520871639251709 0.047925896942615509
0.629999995231628418 0.190655827522277832 0.134709864854812622
0.629999995231628418 1.69289219379425049 0.00704760849475860596
0.629999995231628418 1.29313981533050537 0.0774880126118659973
0.629999995231628418 1.53769612312316895 0.107851237058639526
0.629999995231628418 1.3315737247467041 0.145912095904350281
0.629999995231628418 0.259896397590637207 0.141658157110214233
0.629999995231628418 1.66645598411560059 0.133003905415534973
0.629999995231628418 0.567565679550170898 0.110373914241790771
0.629999995231628418 1.74941682815551758 0.0874485224485397339
0.629999995231628418 0.833769261837005615 0.0868286043405532837
0.629999995231628418 1.74026405811309814 0.00209723412990570068
0.629999995231628418 1.04334616661071777 0.0932632759213447571
0.629999995231628418 0.226137876510620117 0.145721808075904846
0.629999995231628418 1.45342457294464111 0.112976238131523132
0.629999995231628418 0.334977507591247559 0.143355906009674072
0.629999995231628418 1.44965600967407227 0.102680906653404236
0.629999995231628418 0.1536865234375 0.144982188940048218
0.629999995231628418 0.186864495277404785 0.13756011426448822
0.629999995231628418 0.445479273796081543 0.131253942847251892
0.629999995231628418 1.53341042995452881 0.0817200168967247009
0.629999995231628418 1.37330889701843262 0.0562766268849372864
0.629999995231628418 1.15723705291748047 0.131616890430450439
0.629999995231628418 0.787278831005096436 0.0862395390868186951
0.629999995231628418 1.42957639694213867 0.110842734575271606
0.629999995231628418 1.28620612621307373 0.0805980116128921509
0.629999995231628418 1.05416905879974365 0.129823446273803711
0.629999995231628418 1.16925382614135742 0.0893916040658950806
0.629999995231628418 0.680011987686157227 0.133928537368774414
0.629999995231628418 0.439719080924987793 0.132176473736763
0.629999995231628418 0.978262066841125488 0.100861504673957825
0.629999995231628418 1.75469386577606201 0.0184544175863265991
0.629999995231628418 1.67811954021453857 0.108375079929828644
0.629999995231628418 0.987513959407806396 0.0724374726414680481
0.629999995231628418 1.01372361183166504 0.0717244148254394531
0.629999995231628418 1.22887337207794189 0.10560300201177597
0.629999995231628418 1.42141830921173096 0.121924199163913727
0.629999995231628418 1.46813547611236572 0.149731650948524475
0.629999995231628418 1.54297530651092529 0.0817581042647361755
0.629999995231628418 0.745538234710693359 0.115937821567058563
0.629999995231628418 1.76089262962341309 0.000280007719993591309
0.629999995231628418 1.66971063613891602 0.0413382053375244141
0.629999995231628418 1.65680980682373047 0.0663346201181411743
0.629999995231628418 1.58569812774658203 0.0608119145035743713
0.629999995231628418 1.31841707229614258 0.142960309982299805
0.629999995231628418 1.75699460506439209 0.0828995928168296814
0.629999995231628418 1.74523138999938965 0.0079685598611831665
0.629999995231628418 1.51637494564056396 0.05432930588722229
0.629999995231628418 0.562565088272094727 0.11053071916103363
0.629999995231628418 1.43066918849945068 0.0486653298139572144
0.629999995231628418 0.899624824523925781 0.0858938172459602356
0.629999995231628418 1.65732240676879883 0.0440764501690864563
0.629999995231628418 1.67212235927581787 0.00933405756950378418
0.629999995231628418 1.00393795967102051 0.141935661435127258
0.629999995231628418 1.1176760196685791 0.0876594036817550659
0.629999995231628418 0.958657681941986084 0.0760405808687210083
0.629999995231628418 1.67579734325408936 0.0253082290291786194
0.629999995231628418 0.834987819194793701 0.12510325014591217
0.629999995231628418 0.921361207962036133 0.131978854537010193
0.629999995231628418 1.69952702522277832 0.0265101790428161621
0.629999995231628418 0.561756730079650879 0.136138305068016052
0.629999995231628418 1.20832979679107666 0.0760360956192016602
0.629999995231628418 1.09349608421325684 0.149522379040718079
0.629999995231628418 1.47813916206359863 0.0676137208938598633
0.629999995231628418 0.47745978832244873 0.146461695432662964
0.629999995231628418 0.698653221130371094 0.119928769767284393
0.629999995231628418 1.69903790950775146 0.0522444695234298706
0.629999995231628418 1.45596742630004883 0.0909612774848937988
0.629999995231628418 1.4876866340637207 0.0478261411190032959
0.629999995231628418 1.45134902000427246 0.0724469944834709167
0.629999995231628418 1.11860561370849609 0.13962981104850769
0.629999995231628418 1.42284226417541504 0.130485296249389648
0.629999995231628418 1.26828849315643311 0.103019855916500092
0.629999995231628418 1.02788817882537842 0.0686014667153358459
0.629999995231628418 1.21526885032653809 0.0758814066648483276
0.629999995231628418 1.39275121688842773 0.101739645004272461
0.629999995231628418 1.55115997791290283 0.110246345400810242
0.629999995231628418 1.65686488151550293 0.113656580448150635
0.629999995231628418 1.71118021011352539 0.0853110477328300476
0.629999995231628418 1.08063602447509766 0.135157495737075806
0.629999995231628418 0.825374007225036621 0.138592347502708435
0.629999995231628418 1.40938973426818848 0.116082236170768738
0.629999995231628418 0.532864570617675781 0.130325555801391602
0.629999995231628418 1.17175626754760742 0.0787677764892578125
0.629999995231628418 1.21361565589904785 0.0930346399545669556
0.629999995231628418 1.55846035480499268 0.103261984884738922
0.629999995231628418 1.24286746978759766 0.0580008029937744141
0.629999995231628418 1.47930514812469482 0.148543506860733032
0.629999995231628418 1.62003397941589355 0.0706214606761932373
0.629999995231628418 1.65064370632171631 0.100443340837955475
0.629999995231628418 1.75817370414733887 0.129029333591461182
0.629999995231628418 0.935148656368255615 0.0769703537225723267
0.629999995231628418 1.60329663753509521 0.129525363445281982
0.629999995231628418 0.827424228191375732 0.0816653519868850708
0.629999995231628418 1.21949911117553711 0.0537854880094528198
0.629999995231628418 0.897949159145355225 0.0935803204774856567
0.629999995231628418 1.16612422466278076 0.0839218199253082275
0.629999995231628418 1.75333857536315918 0.0614734068512916565
0.629999995231628418 0.666938543319702148 0.108594596385955811
0.629999995231628418 0.964687526226043701 0.103376530110836029
0.629999995231628418 1.63102293014526367 0.119649536907672882
0.629999995231628418 0.779145598411560059 0.146933674812316895
0.629999995231628418 1.23776710033416748 0.0710012242197990417
0.629999995231628418 1.1119384765625 0.119121469557285309
0.629999995231628418 1.69718015193939209 0.0918812304735183716
0.629999995231628418 0.888501584529876709 0.144781544804573059
0.629999995231628418 1.6873396635055542 0.127441704273223877
0.629999995231628418 1.02810072898864746 0.132063671946525574
0.629999995231628418 1.27851021289825439 0.0554990693926811218
0.629999995231628418 0.612135410308837891 0.120539560914039612
0.629999995231628418 1.18991804122924805 0.0826103389263153076
0.629999995231628418 1.60233092308044434 0.125991776585578918
0.629999995231628418 1.36260485649108887 0.107856564223766327
0.629999995231628418 0.967139482498168945 0.0717743411660194397
0.629999995231628418 0.974857091903686523 0.099687725305557251
0.629999995231628418 1.61282861232757568 0.0524375811219215393
0.629999995231628418 0.928371131420135498 0.118508651852607727
0.629999995231628418 1.31635642051696777 0.13191637396812439
0.629999995231628418 1.55781173706054688 0.0990079939365386963
0.629999995231628418 1.53359127044677734 0.0317758843302726746
0.629999995231628418 1.63958263397216797 0.147965431213378906
0.629999995231628418 1.18741774559020996 0.0654081404209136963
0.629999995231628418 1.65448415279388428 0.0988684371113777161
0.629999995231628418 1.3553389310836792 0.0720006301999092102
0.629999995231628418 1.17945384979248047 0.0934171527624130249
0.629999995231628418 1.4314420223236084 0.132764339447021484
0.629999995231628418 1.65769338607788086 0.0564967989921569824
0.629999995231628418 1.30186975002288818 0.117684245109558105
0.629999995231628418 0.946993768215179443 0.143727853894233704
0.629999995231628418 1.53602850437164307 0.0551600679755210876
0.629999995231628418 1.59325051307678223 0.117121584713459015
0.629999995231628418 0.465053319931030273 0.126770064234733582
0.629999995231628418 1.61166596412658691 0.0760917514562606812
0.629999995231628418 0.9661293625831604 0.145656362175941467
0.629999995231628418 1.02074968814849854 0.142749801278114319
0.629999995231628418 1.06542468070983887 0.138787627220153809
0.629999995231628418 1.7215343713760376 0.130998164415359497
0.629999995231628418 1.68554449081420898 0.0799895524978637695
0.629999995231628418 0.813331842422485352 0.1190805584192276
0.629999995231628418 1.23987388610839844 0.122138872742652893
0.629999995231628418 0.735036253929138184 0.0905064493417739868
0.629999995231628418 1.45221209526062012 0.0600256174802780151
0.629999995231628418 1.36846697330474854 0.0767125189304351807
0.629999995231628418 1.63446509838104248 0.12049538642168045
0.629999995231628418 1.34572064876556396 0.0713987499475479126
0.629999995231628418 1.69169712066650391 0.082066066563129425
0.629999995231628418 1.72694623470306396 0.0610331073403358459
0.629999995231628418 1.71708297729492188 0.062542259693145752
0.629999995231628418 1.74593687057495117 0.111143849790096283
0.629999995231628418 1.30092382431030273 0.0703878477215766907
0.629999995231628418 1.16529345512390137 0.142500057816505432
0.629999995231628418 1.04016613960266113 0.0943815335631370544
0.629999995231628418 1.03024673461914062 0.107513077557086945
0.629999995231628418 0.310838103294372559 0.13326379656791687
0.629999995231628418 1.59217238426208496 0.116383999586105347
0.408502727746963501 1.76411759853363037 0.0500127337872982025
0.451464205980300903 1.76411759853363037 0.0125866904854774475
0.340531677007675171 1.76411759853363037 0.0475938916206359863
0.265943348407745361 1.76411759853363037 0.0559556037187576294
0.406238943338394165 1.76411759853363037 0.0724195167422294617
0.47031402587890625 1.76411759853363037 0.0863966643810272217
0.296291589736938477 1.76411759853363037 0.0451618209481239319
0.609996140003204346 1.76411759853363037 0.00595670938491821289
0.424581825733184814 1.76411759853363037 0.0862497836351394653
0.478022396564483643 1.76411759853363037 0.0160846300423145294
0.47420191764831543 1.76411759853363037 0.08924836665391922
0.537574410438537598 1.76411759853363037 0.0135597549378871918
0.52349090576171875 1.76411759853363037 0.033286556601524353
0.308960765600204468 1.76411759853363037 0.0574721246957778931
0.549979865550994873 1.76411759853363037 0.0829448103904724121
0.287095218896865845 1.76411759853363037 0.0491302013397216797
0.23444974422454834 1.76411759853363037 0.0285230055451393127
0.583318650722503662 1.76411759853363037 0.0172742996364831924
0.408196568489074707 1.76411759853363037 0.0520801655948162079
0.553401291370391846 1.76411759853363037 0.0488007925450801849
0.0302313566207885742 1.76411759853363037 0.00160232186317443848
0.103194952011108398 1.76411759853363037 0.0230529308319091797
0.62701570987701416 1.76411759853363037 0.052990008145570755
0.440108597278594971 1.76411759853363037 0.0550443492829799652
0.464777171611785889 1.76411759853363037 0.0225086212158203125
0.627511441707611084 1.76411759853363037 0.140263453125953674
0.359684884548187256 1.76411759853363037 0.0269685462117195129
0.373838335275650024 1.76411759853363037 0.0210863314568996429
0.421616673469543457 1.76411759853363037 0.0305517204105854034
0.624127507209777832 1.76411759853363037 0.0876713693141937256
0.349353373050689697 1.76411759853363037 0.0216573849320411682
0.335103034973144531 1.76411759853363037 0.00253355503082275391
0.465596556663513184 1.76411759853363037 0.0560815595090389252
0.471614956855773926 1.76411759853363037 0.0692743211984634399
0.583392560482025146 1.76411759853363037 0.136423379182815552
0.460761874914169312 1.76411759853363037 0.095015406608581543
0.618738055229187012 1.76411759853363037 0.0137059260159730911
0.298156440258026123 1.76411759853363037 0.00156516581773757935
0.282857418060302734 1.76411759853363037 0.0593281537294387817
0.378706634044647217 1.76411759853363037 0.0147652402520179749
0.5674019455909729 1.76411759853363037 0.102890186011791229
0.369501948356628418 1.76411759853363037 0.0764820501208305359
0.440060019493103027 1.76411759853363037 0.00736736506223678589
0.3971366286277771 1.76411759853363037 0.0467880964279174805
0.620858669281005859 1.76411759853363037 0.0623968280851840973
0.550534904003143311 1.76411759853363037 0.0556799918413162231
0.413546472787857056 1.76411759853363037 0.029728177934885025
0.60202258825302124 1.76411759853363037 0.0414590425789356232
0.372575908899307251 1.76411759853363037 0.0790733993053436279
0.243721216917037964 1.76411759853363037 0.0215288028120994568
0.580772876739501953 1.76411759853363037 0.117088988423347473
0.197831451892852783 1.76411759853363037 0.0294949784874916077
0.528748869895935059 1.76411759853363037 0.0305143874138593674
0.235496044158935547 1.76411759853363037 0.0408683568239212036
0.573117673397064209 1.76411759853363037 0.00241306517273187637
0.402236521244049072 1.76411759853363037 0.00903165712952613831
0.526398658752441406 1.76411759853363037 0.0886969864368438721
0.393216848373413086 1.76411759853363037 0.0776976943016052246
0.308761894702911377 1.76411759853363037 0.0124646797776222229
0.25374305248260498 1.76411759853363037 0.00539872050285339355
0.428929448127746582 1.76411759853363037 0.0412885285913944244
0.388569891452789307 1.76411759853363037 0.02533707395195961
0.390828341245651245 1.76411759853363037 0.0435836054384708405
0.180565953254699707 1.76411759853363037 0.00381291657686233521
0.614481627941131592 1.76411759853363037 0.0152819482609629631
0.162218183279037476 1.76411759853363037 0.0346902087330818176
0.3592701256275177 1.76411759853363037 0.0534445643424987793
0.61725306510925293 1.76411759853363037 0.0683659389615058899
0.0246473550796508789 1.76411759853363037 0.00552651286125183105
0.288425028324127197 1.76411759853363037 0.0048999488353729248
0.310763001441955566 1.76411759853363037 0.0454190000891685486
0.456753253936767578 1.76411759853363037 0.0644608438014984131
0.41020733118057251 1.76411759853363037 0.0273361168801784515
0.429989010095596313 1.76411759853363037 0.0403659939765930176
0.567925214767456055 1.76411759853363037 0.0397046096622943878
0.408792078495025635 1.76411759853363037 0.0576084665954113007
0.410043954849243164 1.76411759853363037 0.0403638593852519989
0.32487642765045166 1.76411759853363037 0.0125875547528266907
0.594089508056640625 1.76411759853363037 0.00322300475090742111
0.231867402791976929 1.76411759853363037 0.0303122401237487793
0.0704643130302429199 1.76411759853363037 0.0105615854263305664
0.270159989595413208 1.76411759853363037 0.0377063155174255371
0.621965110301971436 1.76411759853363037 0.112389847636222839
0.567371189594268799 1.76411759853363037 0.0322114713490009308
0.443471729755401611 1.76411759853363037 0.074755445122718811
0.455014824867248535 1.76411759853363037 0.0113413780927658081
0.360161453485488892 1.76411759853363037 0.020580686628818512
0.325919389724731445 1.76411759853363037 0.0543618649244308472
0.573958158493041992 1.76411759853363037 0.132727161049842834
0.6184653639793396 1.76411759853363037 0.0375227779150009155
0.414083421230316162 1.76411759853363037 0.0510490164160728455
0.173531383275985718 1.76411759853363037 0.0133538618683815002
0.424226313829421997 1.76411759853363037 0.0797013342380523682
0.388185769319534302 1.76411759853363037 0.0483227372169494629
0.484909683465957642 1.76411759853363037 0.0926080644130706787
0.451003313064575195 1.76411759853363037 0.0542776733636856079
0.512260079383850098 1.76411759853363037 0.0621663033962249756
0.215255081653594971 1.76411759853363037 0.0368987098336219788
0.463413596153259277 1.76411759853363037 0.109151721000671387
0.626013517379760742 1.76411759853363037 0.0424550846219062805
0.562266290187835693 1.76411759853363037 0.0868533849716186523
0.446345746517181396 1.76411759853363037 0.021536562591791153
0.197616666555404663 1.76411759853363037 0.0111314132809638977
0.226765453815460205 1.76411759853363037 0.0346044450998306274
0.551037907600402832 1.76411759853363037 0.00080542638897895813
0.581042826175689697 1.76411759853363037 0.0273294057697057724
0.46821218729019165 1.76411759853363037 0.080401003360748291
0.552757024765014648 1.76411759853363037 0.103076010942459106
0.394991040229797363 1.76411759853363037 0.0364631712436676025
0.572222530841827393 1.76411759853363037 0.0812813714146614075
0.625696778297424316 1.76411759853363037 0.0886728242039680481
0.259558826684951782 1.76411759853363037 0.0308474302291870117
0.583907902240753174 1.76411759853363037 0.0673495903611183167
0.401950269937515259 1.76411759853363037 0.00544371828436851501
0.514889061450958252 1.76411759853363037 0.0917687341570854187
0.360485821962356567 1.76411759853363037 0.0457238554954528809
0.492827862501144409 1.76411759853363037 0.0614298172295093536
0.548571646213531494 1.76411759853363037 0.127756595611572266
0.598007559776306152 1.76411759853363037 0.133516296744346619
0.39024055004119873 1.76411759853363037 0.0292098633944988251
0.54086768627166748 1.76411759853363037 0.0139514859765768051
0.421091794967651367 1.76411759853363037 0.0177364759147167206
0.577433347702026367 1.76411759853363037 0.133744224905967712
0.464508295059204102 1.76411759853363037 0.0961338505148887634
0.470911026000976562 1.76411759853363037 0.0132166594266891479
0.213648855686187744 1.76411759853363037 0.0230572596192359924
0.202968060970306396 1.76411759853363037 0.042546786367893219
0.35657772421836853 1.76411759853363037 0.0557368174195289612
0.355486005544662476 1.76411759853363037 0.0120601877570152283
0.372859954833984375 1.76411759853363037 0.0687522590160369873
0.540523767471313477 1.76411759853363037 0.0657877922058105469
0.208322823047637939 1.76411759853363037 0.0291512235999107361
0.479375690221786499 1.76411759853363037 0.0922099277377128601
0.559580683708190918 1.76411759853363037 0.0530050620436668396
0.403433293104171753 1.76411759853363037 0.081954270601272583
0.478231251239776611 1.76411759853363037 0.0510640144348144531
0.57159954309463501 1.76411759853363037 0.113420963287353516
0.506410479545593262 1.76411759853363037 0.000995671376585960388
0.239805907011032104 1.76411759853363037 0.0364251062273979187
0.629506409168243408 1.76411759853363037 0.0418904051184654236
0.387998819351196289 1.76411759853363037 0.0526547804474830627
0.305880725383758545 1.76411759853363037 0.0363320484757423401
0.570812106132507324 1.76411759853363037 0.131476908922195435
0.484147429466247559 1.76411759853363037 0.0367195382714271545
0.332988768815994263 1.76411759853363037 0.0625430196523666382
0.606420397758483887 1.76411759853363037 0.0761561989784240723
0.383105933666229248 1.76411759853363037 0.0640076100826263428
0.465743511915206909 1.76411759853363037 0.0681102946400642395
0.427078187465667725 1.76411759853363037 0.0932624638080596924
0.374138683080673218 1.76411759853363037 0.0112427361309528351
0.46097642183303833 1.76411759853363037 0.0718616768717765808
0.35332605242729187 1.76411759853363037 0.0783243328332901001
0.27682650089263916 1.76411759853363037 0.0228936374187469482
0.245473533868789673 1.76411759853363037 0.0468991249799728394
0.471043050289154053 1.76411759853363037 0.0968149006366729736
0.592190980911254883 1.76411759853363037 0.034213971346616745
0.532500863075256348 1.76411759853363037 0.0850417092442512512
0.60961836576461792 1.76411759853363037 0.121306836605072021
0.550936400890350342 1.76411759853363037 0.0341757312417030334
0.433424293994903564 1.76411759853363037 0.0164443850517272949
0.532378911972045898 1.76411759853363037 0.0993776172399520874
0.395541548728942871 1.76411759853363037 0.111579403281211853
0.338914066553115845 1.76411759853363037 0.094859197735786438
0.0831273272633552551 1.76411759853363037 0.0661310255527496338
0.0589120760560035706 1.76411759853363037 0.120123974978923798
0.360899537801742554 1.76411759853363037 0.108422860503196716
0.560743153095245361 1.76411759853363037 0.148253098130226135
0.077822171151638031 1.76411759853363037 0.0871248021721839905
0.489256352186203003 1.76411759853363037 0.142160341143608093
0.434320658445358276 1.76411759853363037 0.109039187431335449
0.040895070880651474 1.76411759853363037 0.0563830286264419556
0.449774563312530518 1.76411759853363037 0.119577877223491669
0.321769744157791138 1.76411759853363037 0.0858483538031578064
0.145516082644462585 1.76411759853363037 0.0436033755540847778
0.172537505626678467 1.76411759853363037 0.0967678651213645935
0.147590085864067078 1.76411759853363037 0.119208112359046936
0.503667354583740234 1.76411759853363037 0.132474541664123535
0.242527440190315247 1.76411759853363037 0.148861557245254517
0.406817376613616943 1.76411759853363037 0.0987863913178443909
0.426992028951644897 1.76411759853363037 0.116877526044845581
0.275884300470352173 1.76411759853363037 0.141167908906936646
0.1719769686460495 1.76411759853363037 0.0543958917260169983
0.525619387626647949 1.76411759853363037 0.135060802102088928
0.171455949544906616 1.76411759853363037 0.0581885427236557007
0.106859348714351654 1.76411759853363037 0.148489311337471008
0.24435657262802124 1.76411759853363037 0.11656121164560318
0.0833071917295455933 1.76411759853363037 0.13609631359577179
0.164983004331588745 1.76411759853363037 0.123505420982837677
0.13838687539100647 1.76411759853363037 0.142467781901359558
0.120143897831439972 1.76411759853363037 0.109501585364341736
0.138691350817680359 1.76411759853363037 0.0427355766296386719
0.0392931848764419556 1.76411759853363037 0.0515137836337089539
0.576058924198150635 1.76411759853363037 0.13873860239982605
0.221678450703620911 1.76411759853363037 0.0644096136093139648
0.261928677558898926 1.76411759853363037 0.124630749225616455
0.296809613704681396 1.76411759853363037 0.0934896320104598999
0.395086199045181274 1.76411759853363037 0.0988790392875671387
0.299038141965866089 1.76411759853363037 0.11129479855298996
0.0277221519500017166 1.76411759853363037 0.0362492948770523071
0.221833333373069763 1.76411759853363037 0.140044838190078735
0.315151751041412354 1.76411759853363037 0.143767401576042175
0.173354789614677429 1.76411759853363037 0.0946672111749649048
0.364760428667068481 1.76411759853363037 0.10563996434211731
0.0517324730753898621 1.76411759853363037 0.105497226119041443
0.466844558715820312 1.76411759853363037 0.137625157833099365
0.311218619346618652 1.76411759853363037 0.0892969518899917603
0.0209694001823663712 1.76411759853363037 0.013772621750831604
0.246845364570617676 1.76411759853363037 0.0605495646595954895
0.127916857600212097 1.76411759853363037 0.0804868713021278381
0.0073734065517783165 1.76411759853363037 0.0520023107528686523
0.352525919675827026 1.76411759853363037 0.135018661618232727
0.301522523164749146 1.76411759853363037 0.136487230658531189
0.092749863862991333 1.76411759853363037 0.12645094096660614
0.0289998035877943039 1.76411759853363037 0.0721614137291908264
0.0223133508116006851 1.76411759853363037 0.0983635783195495605
0.00548872258514165878 1.76411759853363037 0.129173815250396729
0.280616790056228638 1.76411759853363037 0.0829536989331245422
0.144080430269241333 1.76411759853363037 0.0796933174133300781
0.226864740252494812 1.76411759853363037 0.0546915605664253235
0.0805453360080718994 1.76411759853363037 0.113469570875167847
0.0987981483340263367 1.76411759853363037 0.110055349767208099
0.591684877872467041 1.76411759853363037 0.143364503979682922
0.238458797335624695 1.76411759853363037 0.145415827631950378
0.386315435171127319 1.76411759853363037 0.115709453821182251
0.184673309326171875 1.76411759853363037 0.149081826210021973
0.295118510723114014 1.76411759853363037 0.146593213081359863
0.144993290305137634 1.76411759853363037 0.0773742124438285828
0.224865540862083435 1.76411759853363037 0.0796089842915534973
0.231457710266113281 1.76411759853363037 0.0680521726608276367
0.318886995315551758 1.76411759853363037 0.076761201024055481
0.556946337223052979 1.76411759853363037 0.137443944811820984
0.0487801395356655121 1.76411759853363037 0.0978332236409187317
0.289273947477340698 1.76411759853363037 0.137198075652122498
0.0795292183756828308 1.76411759853363037 0.0787302702665328979
0.129092663526535034 1.76411759853363037 0.0402652546763420105
0.041528657078742981 1.76411759853363037 0.106404513120651245
0.0674419030547142029 1.76411759853363037 0.0924965888261795044
0.0545107424259185791 1.76411759853363037 0.0180694460868835449
0.529160857200622559 1.76411759853363037 0.142299667000770569
0.10223669558763504 1.76411759853363037 0.138908222317695618
0.145450964570045471 1.76411759853363037 0.142436087131500244
0.102865241467952728 1.76411759853363037 0.0606867969036102295
0.44888770580291748 1.76411759853363037 0.117456242442131042
0.181282073259353638 1.76411759853363037 0.145554050803184509
0.425117909908294678 1.76411759853363037 0.101637154817581177
0.270959138870239258 1.76411759853363037 0.112375184893608093
0.141629531979560852 1.76411759853363037 0.0801951661705970764
0.51033174991607666 1.76411759853363037 0.148533076047897339
0.30053555965423584 1.76411759853363037 0.141594275832176208
0.48388063907623291 1.76411759853363037 0.129968568682670593
0.225420817732810974 1.76411759853363037 0.122728362679481506
0.517143130302429199 1.76411759853363037 0.128439277410507202
0.424044758081436157 1.76411759853363037 0.133223831653594971
0.0588045567274093628 1.76411759853363037 0.0952091217041015625
0.0755099654197692871 1.76411759853363037 0.0545081272721290588
0.0305185895413160324 1.76411759853363037 0.111014083027839661
0.01503006462007761 1.76411759853363037 0.0277702510356903076
0.0335080064833164215 1.76411759853363037 0.0879717916250228882
0.136254221200942993 1.76411759853363037 0.0535708442330360413
0.0256602391600608826 1.76411759853363037 0.00728352367877960205
0.335600107908248901 1.76411759853363037 0.125682845711708069
0.141229033470153809 1.76411759853363037 0.0984161943197250366
0.0840384438633918762 1.76411759853363037 0.0560964196920394897
0.0930428281426429749 1.76411759853363037 0.0835256874561309814
0.240244969725608826 1.76411759853363037 0.122879385948181152
0.100478515028953552 1.76411759853363037 0.101603180170059204
0.0834513753652572632 1.76411759853363037 0.0509247332811355591
0.266522914171218872 1.76411759853363037 0.101194068789482117
0.340262502431869507 1.76411759853363037 0.104543544352054596
0.046855628490447998 1.76411759853363037 0.080550268292427063
0.120388418436050415 1.76411759853363037 0.0469484254717826843
0.315459609031677246 1.76411759853363037 0.0809159651398658752
0.143019035458564758 1.76411759853363037 0.0748587250709533691
0.0526828691363334656 1.76411759853363037 0.135994613170623779
0.000800766225438565016 1.76411759853363037 0.0502495318651199341
0.539572477340698242 1.76411759853363037 0.134711652994155884
0.0910671278834342957 1.76411759853363037 0.144770726561546326
0.0632274523377418518 1.76411759853363037 0.140627264976501465
0.0850161239504814148 1.76411759853363037 0.0223232656717300415
0.215213015675544739 1.76411759853363037 0.138821870088577271
0.397516608238220215 1.76411759853363037 0.103954918682575226
0.0244715344160795212 1.76411759853363037 0.119973242282867432
0.415568143129348755 1.76411759853363037 0.107819333672523499
0.171231642365455627 1.76411759853363037 0.134074658155441284
0.013948218896985054 1.76411759853363037 0.0813129916787147522
0.279811233282089233 1.76411759853363037 0.0884389877319335938
0.452962368726730347 1.76411759853363037 0.114732213318347931
0.437133073806762695 1.76411759853363037 0.148632168769836426
0.0649742186069488525 1.76411759853363037 0.0378937944769859314
0.390098243951797485 1.76411759853363037 0.132901310920715332
0.141697436571121216 1.76411759853363037 0.101434178650379181
0.439648151397705078 1.76411759853363037 0.133844122290611267
0.325073599815368652 1.76411759853363037 0.144413456320762634
0.202202916145324707 1.76411759853363037 0.113145127892494202
0.358648419380187988 1.76411759853363037 0.143232434988021851
0.179193481802940369 1.76411759853363037 0.065491214394569397
0.0125546893104910851 1.76411759853363037 0.0680284425616264343
0.168003454804420471 1.76411759853363037 0.124544680118560791
0.191515281796455383 1.76411759853363037 0.113670498132705688
0.194286629557609558 1.76411759853363037 0.0512363240122795105
0.0263390541076660156 1.76411759853363037 0.070637531578540802
0.0511170774698257446 1.76411759853363037 0.140352755784988403
0.522821664810180664 1.76411759853363037 0.127588376402854919
0.0622076243162155151 1.76411759853363037 0.1367989182472229
0.0561403818428516388 1.76411759853363037 0.0165665745735168457
0.270150572061538696 1.76411759853363037 0.078328356146812439
0.109940633177757263 1.76411759853363037 0.0474892333149909973
0.218281805515289307 1.76411759853363037 0.0630968362092971802
0.0309821814298629761 1.76411759853363037 0.0988277792930603027
0.107833407819271088 1.76411759853363037 0.0319105014204978943
0.156362369656562805 1.76411759853363037 0.0669523030519485474
0.182153612375259399 1.76411759853363037 0.129834592342376709
0.0596252456307411194 1.76411759853363037 0.0923412367701530457
0.10869927704334259 1.76411759853363037 0.0369068905711174011
0.498924404382705688 1.76411759853363037 0.119585104286670685
0.196687713265419006 1.76411759853363037 0.0764249488711357117
0.113574594259262085 1.76411759853363037 0.123436056077480316
0.119376465678215027 1.76411759853363037 0.0522443205118179321
0.112643055617809296 1.76411759853363037 0.0888165831565856934
0.18894544243812561 1.76411759853363037 0.0962936878204345703
0.150749191641807556 1.76411759853363037 0.0605473741888999939
0.271346449851989746 0.848795056343078613 0
0.215453267097473145 0.412625044584274292 0
0.166040822863578796 0.136140704154968262 0
0.325872987508773804 0.307087242603302002 0
0.0468744449317455292 1.47053229808807373 0
0.157908305525779724 0.128722086548805237 0
0.330672800540924072 0.365732014179229736 0
0.127895250916481018 0.914511024951934814 0
0.176939874887466431 0.998160600662231445 0
0.28733980655670166 0.109753258526325226 0
0.26066058874130249 1.02068030834197998 0
0.126072853803634644 0.920069217681884766 0
0.203153356909751892 0.866871535778045654 0
0.107599414885044098 0.478183865547180176 0
0.0422412343323230743 0.054410204291343689 0
0.244889602065086365 0.703580915927886963 0
0.106376580893993378 0.454047292470932007 0
0.037285391241312027 1.1142876148223877 0
0.378216415643692017 0.657165706157684326 0
0.0470627062022686005 0.604622602462768555 0
0.0032383378129452467 0.505088686943054199 0
0.349050581455230713 0.655633926391601562 0
0.0511049889028072357 0.648865044116973877 0
0.308984816074371338 0.77852553129196167 0
0.0602019354701042175 0.671080350875854492 0
0.253579556941986084 0.327782124280929565 0
0.294850915670394897 0.536691844463348389 0
0.0765541493892669678 1.0466008186340332 0
0.03044864721596241 0.862905919551849365 0
0.110243208706378937 0.267533987760543823 0
0.032684721052646637 1.12605369091033936 0
0.290952503681182861 0.0564915463328361511 0
0.261807471513748169 0.230143323540687561 0
0.375885516405105591 0.418854951858520508 0
0.429057329893112183 0.332980096340179443 0
0.100916706025600433 0.87301945686340332 0
0.396191775798797607 0.388806909322738647 0
0.439251154661178589 0.269113123416900635 0
0.344172745943069458 0.0390906073153018951 0
0.117182984948158264 0.873520195484161377 0
0.123709820210933685 0.614181697368621826 0
0.338695615530014038 0.0129220262169837952 0
0.179191082715988159 1.10040473937988281 0
0.306930840015411377 0.205765768885612488 0
0.258978396654129028 0.34408918023109436 0
0.0291062891483306885 1.61105895042419434 0
0.27555924654006958 0.844680607318878174 0
0.296435564756393433 0.475312650203704834 0
0.434959083795547485 0.431502610445022583 0
0.229044929146766663 0.0208679158240556717 0
0.263879269361495972 0.679676055908203125 0
0.015652146190404892 0.661830365657806396 0
0.135350719094276428 0.513553202152252197 0
0.0115263033658266068 1.16446316242218018 0
0.0722928792238235474 0.0632947683334350586 0
0.35490494966506958 0.637088477611541748 0
0.28644716739654541 0.173544272780418396 0
0.194416090846061707 0.250353187322616577 0
0.182597577571868896 0.936990439891815186 0
0.0434442684054374695 0.0450883470475673676 0
0.158497869968414307 0.315761744976043701 0
0.339464962482452393 0.0269782375544309616 0
0.376181095838546753 0.0812800973653793335 0
0.356254905462265015 0.00131968583445996046 0
0.32727283239364624 0.792345404624938965 0
0.089391171932220459 1.03061807155609131 0
0.0448012165725231171 1.15588462352752686 0
0.325175434350967407 0.287566393613815308 0
0.180920004844665527 0.260933727025985718 0
0.048011239618062973 1.09481799602508545 0
0.096021018922328949 0.314550817012786865 0
0.0232645031064748764 0.872975289821624756 0
0.372496932744979858 0.229284152388572693 0
0.355521082878112793 0.640784859657287598 0
0.37111625075340271 0.35459098219871521 0
0.101596064865589142 1.44701731204986572 0
0.235063046216964722 0.727704048156738281 0
0.0340576618909835815 1.50065386295318604 0
0.0629606395959854126 1.10683894157409668 0
0.153921231627464294 1.24110126495361328 0
0.0829567983746528625 0.858858168125152588 0
0.0513111017644405365 1.35359561443328857 0
0.57968604564666748 0.0343129262328147888 0
0.150736019015312195 0.996053457260131836 0
0.404256492853164673 0.178078442811965942 0
0.0207170005887746811 0.604390263557434082 0
0.138089463114738464 0.571849226951599121 0
0.38959503173828125 0.363532662391662598 0
0.225690901279449463 0.694778025150299072 0
0.195458590984344482 0.488736778497695923 0
0.297869175672531128 0.0785230472683906555 0
0.129457861185073853 1.22156286239624023 0
0.618070662021636963 0.0129781179130077362 0
0.288899213075637817 0.539662182331085205 0
0.191167965531349182 1.11252939701080322 0
0.0867326334118843079 1.02113449573516846 0
0.0983979701995849609 1.04740798473358154 0
0.273019075393676758 0.491996526718139648 0
0.207358241081237793 0.383392870426177979 0
0.0910375416278839111 1.434600830078125 0
0.124029390513896942 1.0520625114440918 0
0.534868299961090088 0.24038560688495636 0
0.295703083276748657 0.029953761026263237 0
0.0521496608853340149 0.901203155517578125 0
0.555279791355133057 0.173181354999542236 0
0.334586083889007568 0.327821284532546997 0
0.197682246565818787 0.545695602893829346 0
0.420696884393692017 0.541908860206604004 0
0.0079222898930311203 0.163426056504249573 0
0.0496567860245704651 1.25913286209106445 0
0.185006722807884216 0.804105103015899658 0
0.018690282478928566 1.52162432670593262 0
0.332595258951187134 0.23771291971206665 0
0.206007257103919983 0.754222095012664795 0
0.0371575318276882172 1.39602923393249512 0
0.333284258842468262 0.00586929451674222946 0
0.480961322784423828 0.0319291055202484131 0
0.102377861738204956 1.39373981952667236 0
0.160684153437614441 0.895279586315155029 0
0.41049647331237793 0.00453032506629824638 0
0.134467154741287231 1.17370212078094482 0
0.106447853147983551 0.974912941455841064 0
0.114234752953052521 0.605665326118469238 0
0.426044315099716187 0.071183130145072937 0
