ply
format ascii 1.0
element vertex 735
property float x
property float y
property float z
end_header
-0.0407236963510513306 0.0957636013627052307 0.0230000000447034836
-0.0423543825745582581 0.0971354544162750244 0.0230000000447034836
-0.0439728610217571259 0.0938832536339759827 0.0230000000447034836
-0.044179476797580719 0.0962817147374153137 0.0230000000447034836
-0.0405140034854412079 0.0918144658207893372 0.0199999995529651642
-0.044463030993938446 0.0969380214810371399 0.0199999995529651642
-0.0414619371294975281 0.0977037325501441956 0.0199999995529651642
-0.0383260138332843781 0.0985040590167045593 0.0199999995529651642
-0.0383928753435611725 0.0905664712190628052 0.0216355063021183014
-0.0369625426828861237 0.0917336046695709229 0.020496690645813942
-0.0370827727019786835 0.0915978997945785522 0.0221234746277332306
-0.0373662933707237244 0.0987221300601959229 0.0211586449295282364
-0.0425633639097213745 0.0996018350124359131 0.0208013318479061127
-0.0445132032036781311 0.0981808900833129883 0.0217914581298828125
-0.0478542670607566833 0.0889926254749298096 0
-0.0488472655415534973 0.0799070671200752258 0
-0.0515899024903774261 0.0833179056644439697 0
-0.0445912927389144897 0.0919324979186058044 0
-0.0455526523292064667 0.0886594206094741821 0
-0.0436465553939342499 0.0953185707330703735 0
-0.0418005548417568207 0.0880807489156723022 0
-0.0438958220183849335 0.0848170146346092224 0
-0.041558489203453064 0.10224953293800354 0
-0.0384211018681526184 0.0941096320748329163 0
-0.0394509583711624146 0.0801253169775009155 0
-0.0393843576312065125 0.0851169079542160034 0
-0.0405192375183105469 0.0973240435123443604 0
-0.0400132946670055389 0.107716463506221771 0
-0.0373243167996406555 0.10560327023267746 0
-0.0388886965811252594 0.10445132851600647 0
-0.0363378077745437622 0.0898386910557746887 0
-0.0380981862545013428 0.102078966796398163 0
-0.0354170873761177063 0.0962317138910293579 0
-0.0547570362687110901 0.103312127292156219 0
-0.0544290505349636078 0.100424297153949738 0
-0.0557375252246856689 0.0933658033609390259 0
-0.0539584420621395111 0.0909416228532791138 0
-0.0510522983968257904 0.102661266922950745 0
-0.0477244891226291656 0.0973572880029678345 0
-0.0495666936039924622 0.10694420337677002 0
-0.0482512116432189941 0.109304383397102356 0
-0.0499833971261978149 0.0969580709934234619 0
-0.0479591377079486847 0.10098721832036972 0
-0.0388687215745449066 0.0847452133893966675 -0.0199999995529651642
-0.0383229814469814301 0.110599040985107422 -0.0199999995529651642
-0.0350420176982879639 0.111051544547080994 -0.0199999995529651642
-0.0401901453733444214 0.0882460996508598328 -0.0199999995529651642
-0.0368453189730644226 0.107018120586872101 -0.0199999995529651642
-0.0303968321532011032 0.109008908271789551 -0.0199999995529651642
-0.039851795881986618 0.0861575305461883545 -0.0199999995529651642
-0.0326983705163002014 0.102664798498153687 -0.0199999995529651642
-0.0356716178357601166 0.0996231213212013245 -0.0199999995529651642
-0.0295762382447719574 0.103796668350696564 -0.0199999995529651642
-0.035172581672668457 0.0925959721207618713 -0.0199999995529651642
-0.0294603947550058365 0.103201597929000854 -0.0199999995529651642
-0.0366473756730556488 0.0843330845236778259 -0.0199999995529651642
-0.0350340157747268677 0.0890634655952453613 -0.0199999995529651642
-0.029667852446436882 0.107870079576969147 -0.0199999995529651642
-0.0312560833990573883 0.102468393743038177 -0.0199999995529651642
-0.032976977527141571 0.0816160291433334351 -0.0199999995529651642
-0.0291092805564403534 0.0967284590005874634 -0.0199999995529651642
-0.0297081749886274338 0.0861978083848953247 -0.0199999995529651642
-0.0465660877525806427 0.107792586088180542 -0.0199999995529651642
-0.051022551953792572 0.108251139521598816 -0.0199999995529651642
-0.0508043691515922546 0.103381521999835968 -0.0199999995529651642
-0.0528381243348121643 0.100873462855815887 -0.0199999995529651642
-0.0420261919498443604 0.0970681384205818176 -0.0199999995529651642
-0.0408899001777172089 0.0816584378480911255 -0.0199999995529651642
-0.0421576537191867828 0.0854789838194847107 -0.0199999995529651642
-0.0559028275310993195 0.0865769386291503906 -0.0199999995529651642
-0.057720482349395752 0.0911815688014030457 -0.0199999995529651642
-0.0518846176564693451 0.0833901241421699524 -0.0199999995529651642
-0.0548375025391578674 0.0918627902865409851 -0.0199999995529651642
-0.0536686182022094727 0.0956694111227989197 -0.0199999995529651642
-0.0435245297849178314 0.107525594532489777 -0.0199999995529651642
-0.0517349131405353546 0.0945625081658363342 -0.0199999995529651642
-0.0473678410053253174 0.101628363132476807 -0.0199999995529651642
-0.0491960234940052032 0.097086779773235321 -0.0199999995529651642
-0.0424001291394233704 0.0991220846772193909 -0.0199999995529651642
-0.0467961989343166351 0.0952345877885818481 -0.0199999995529651642
-0.0439531095325946808 0.0897132977843284607 -0.0199999995529651642
-0.0435791648924350739 0.100168906152248383 -0.0199999995529651642
-0.0443102568387985229 0.0872170701622962952 -0.0199999995529651642
-0.0416491813957691193 0.108712956309318542 -0.0199999995529651642
-0.0352273806929588318 0.112599998712539673 -0.000566732138395309448
-0.0353831015527248383 0.112599998712539673 -0.012926880270242691
-0.0363844260573387146 0.112599998712539673 -0.0153647763654589653
-0.0349585860967636108 0.112599998712539673 -0.0168629102408885956
-0.0327776335179805756 0.112599998712539673 -0.0185421928763389587
-0.0385242737829685211 0.112599998712539673 -0.0144605450332164764
-0.0401935689151287079 0.112599998712539673 -0.0172749534249305725
-0.0401292629539966583 0.112599998712539673 -0.0151263345032930374
-0.0414314121007919312 0.112511187791824341 -0.0111908381804823875
-0.0420818217098712921 0.112432211637496948 -0.0111434496939182281
-0.0446138381958007812 0.112124770879745483 -0.018911091610789299
-0.0434204936027526855 0.112269669771194458 -0.0101480316370725632
-0.0470362380146980286 0.111282944679260254 -0.0116652166470885277
-0.045488312840461731 0.111869990825653076 -0.0182130280882120132
-0.0453878752887248993 0.111908078193664551 -0.0139604359865188599
-0.0452778227627277374 0.111949823796749115 -0.00619648303836584091
-0.0511338599026203156 0.109027698636054993 -0.00831229053437709808
-0.0515508837997913361 0.108739845454692841 -0.0185192376375198364
-0.0500538237392902374 0.109773188829421997 -0.00678945239633321762
-0.0494654141366481781 0.110179349780082703 -0.0116262957453727722
-0.0542276240885257721 0.106078043580055237 -0.0185294989496469498
-0.0548934787511825562 0.105326458811759949 -0.00643550418317317963
-0.0524322986602783203 0.108104541897773743 -0.0172331817448139191
-0.0531214624643325806 0.10732664167881012 -0.00455712992697954178
-0.0568532422184944153 0.101818449795246124 -0.0190287977457046509
-0.0565085038542747498 0.102475292980670929 -0.0072621065191924572
-0.0563256703317165375 0.102823659777641296 -0.00202111736871302128
-0.0558265671133995056 0.103774614632129669 -0.00963168125599622726
-0.0579122975468635559 0.098173774778842926 -0.00838241353631019592
-0.0576442666351795197 0.0992612317204475403 -0.0156445447355508804
-0.0571791902184486389 0.101148128509521484 -0.00619852403178811073
-0.0581716746091842651 0.0967049375176429749 -0.0184255540370941162
-0.0581716746091842651 0.0943096652626991272 -0.0115935709327459335
-0.0581716746091842651 0.094530940055847168 -0.00737621961161494255
-0.0581716746091842651 0.0966235548257827759 -0.0146977929398417473
-0.0579459108412265778 0.0919625908136367798 -0.018551485612988472
-0.0572910644114017487 0.0893057733774185181 -0.0115672983229160309
-0.0574925579130649567 0.0901232585310935974 -0.00312311761081218719
-0.0580030009150505066 0.0921942219138145447 -0.0137332659214735031
-0.0564031489193439484 0.0873239636421203613 -0.015074385330080986
-0.0561386831104755402 0.086820065975189209 -0.0037649436853826046
-0.0562081895768642426 0.086952507495880127 -0.00675142509862780571
-0.0525150969624519348 0.0819889083504676819 -0.0191699843853712082
-0.0541327893733978271 0.0838149040937423706 -0.0188561528921127319
-0.0533795207738876343 0.0829646438360214233 -0.00675242487341165543
-0.0532469116151332855 0.0828149542212486267 -0.00172058597672730684
-0.0493935421109199524 0.0797710493206977844 -0.0166419297456741333
-0.0492577105760574341 0.079677291214466095 -0.00755266286432743073
-0.0523575656116008759 0.0818169638514518738 -0.0188528671860694885
-0.0518123582005500793 0.0814406350255012512 -0.00627415208145976067
-0.0474042743444442749 0.078856639564037323 -0.0125810960307717323
-0.0454650893807411194 0.0781212002038955688 -0.0114233270287513733
-0.0480406209826469421 0.0790979713201522827 -0.00522438343614339828
-0.046314433217048645 0.0784433111548423767 -0.00382348895072937012
-0.041213400661945343 0.0774623379111289978 -0.0102265886962413788
-0.0425230227410793304 0.0776213556528091431 -0.0148177109658718109
-0.0411987155675888062 0.0774605497717857361 -0.000585781934205442667
-0.0434363298118114471 0.0777322500944137573 -0.0129915270954370499
-0.0386496670544147491 0.0773999989032745361 -0.00120722455903887749
-0.0390606895089149475 0.0773999989032745361 -0.0101929549127817154
-0.0357658378779888153 0.0773999989032745361 -0.00883318018168210983
-0.0406295172870159149 0.0773999989032745361 -0.00383062101900577545
-0.0366756319999694824 0.0773999989032745361 -0.0161771699786186218
-0.0326215140521526337 0.0773999989032745361 -0.0179209448397159576
-0.0349553041160106659 0.101757168769836426 -0.00242134928703308105
-0.0347935333847999573 0.101963095366954803 -0.00402211956679821014
-0.034722495824098587 0.108911179006099701 -0.0047250804491341114
-0.0347094908356666565 0.1072998046875 -0.00485376454889774323
-0.0345302000641822815 0.0867311730980873108 -0.00662788888439536095
-0.0349645204842090607 0.103775762021541595 -0.00233015278354287148
-0.0349656380712985992 0.0965524241328239441 -0.0023191163782030344
-0.0345391407608985901 0.0778135955333709717 -0.00653945235535502434
-0.0349198505282402039 0.0885833427309989929 -0.0027721780352294445
-0.0348139703273773193 0.0918870046734809875 -0.00381989846937358379
-0.0349951498210430145 0.087366051971912384 -0.00202707177959382534
-0.0341497361660003662 0.107026994228363037 -0.00812875479459762573
-0.0336676575243473053 0.101797983050346375 -0.00967540405690670013
-0.0328206904232501984 0.0984172597527503967 -0.0123927351087331772
-0.0334540568292140961 0.101030714809894562 -0.0103606972843408585
-0.0336692444980144501 0.109481886029243469 -0.00967031717300415039
-0.0328662283718585968 0.0904262065887451172 -0.0122466366738080978
-0.0337907038629055023 0.0915307700634002686 -0.00928063970059156418
-0.0335508808493614197 0.0899948328733444214 -0.0100500667467713356
-0.0335787869989871979 0.0882268249988555908 -0.00996053218841552734
-0.0326463356614112854 0.0775200426578521729 -0.012952115386724472
-0.0337861292064189911 0.0975837036967277527 -0.00929531082510948181
-0.0291461385786533356 0.10175139456987381 -0.0196733847260475159
-0.032191060483455658 0.111134149134159088 -0.0141467954963445663
-0.0294624455273151398 0.0948087647557258606 -0.0190992802381515503
-0.0290443543344736099 0.0945525839924812317 -0.0198581255972385406
-0.0306159798055887222 0.0980042964220046997 -0.0170055963099002838
-0.030906088650226593 0.0997269377112388611 -0.0164790432900190353
-0.0311149526387453079 0.0927014797925949097 -0.0160999484360218048
-0.0319168232381343842 0.0779823288321495056 -0.0146445427089929581
-0.0305423270910978317 0.0788384154438972473 -0.0171392764896154404
-0.0309550054371356964 0.0895695611834526062 -0.0163902584463357925
-0.0317473821341991425 0.101251408457756042 -0.0149520821869373322
-0.0307763051241636276 0.0897649079561233521 -0.0167145989835262299
-0.046604890376329422 0.0955306738615036011 0.0199999995529651642
-0.0490627177059650421 0.0836787372827529907 0.0199999995529651642
-0.0490441359579563141 0.0901394635438919067 0.0199999995529651642
-0.0474550463259220123 0.084669157862663269 0.0199999995529651642
-0.0448314175009727478 0.0879827290773391724 0.0199999995529651642
-0.0425701551139354706 0.101353287696838379 0.0199999995529651642
-0.0423406213521957397 0.0922682061791419983 0.0199999995529651642
-0.0419864282011985779 0.0829377025365829468 0.0199999995529651642
-0.0421215146780014038 0.0996112078428268433 0.0199999995529651642
-0.041123904287815094 0.107490666210651398 0.0199999995529651642
-0.0317316651344299316 0.0855500027537345886 0.0199999995529651642
-0.0394067429006099701 0.0934715792536735535 0.0199999995529651642
-0.0342080779373645782 0.0901895537972450256 0.0199999995529651642
-0.0379390530288219452 0.101189315319061279 0.0199999995529651642
-0.0380988828837871552 0.0920608863234519958 0.0199999995529651642
-0.0357387028634548187 0.0898132473230361938 0.0199999995529651642
-0.0337206423282623291 0.0779007375240325928 0.0199999995529651642
-0.0387118607759475708 0.0916216671466827393 0.0199999995529651642
-0.0392520949244499207 0.0830074548721313477 0.0199999995529651642
-0.0357343219220638275 0.111272133886814117 0.0199999995529651642
-0.0307204928249120712 0.102758608758449554 0.0199999995529651642
-0.0345393866300582886 0.107598565518856049 0.0199999995529651642
-0.0333433523774147034 0.106437817215919495 0.0199999995529651642
-0.0345740616321563721 0.10487741231918335 0.0199999995529651642
-0.0352656804025173187 0.0975786373019218445 0.0199999995529651642
-0.0335103645920753479 0.105641208589076996 0.0199999995529651642
-0.0338565893471240997 0.102578207850456238 0.0199999995529651642
-0.0342692434787750244 0.110318973660469055 0.0199999995529651642
-0.0551313608884811401 0.101709038019180298 0.0199999995529651642
-0.0572100579738616943 0.0897070467472076416 0.0199999995529651642
-0.0538988225162029266 0.0995546802878379822 0.0199999995529651642
-0.0546797849237918854 0.0867965519428253174 0.0199999995529651642
-0.0531117767095565796 0.0909299924969673157 0.0199999995529651642
-0.0478141196072101593 0.103262133896350861 0.0199999995529651642
-0.0463692881166934967 0.101854495704174042 0.0199999995529651642
-0.0484982505440711975 0.107455894351005554 0.0199999995529651642
-0.0501895956695079803 0.0990610718727111816 0.0199999995529651642
-0.0519033707678318024 0.107834421098232269 0.0199999995529651642
-0.0476581007242202759 0.104537688195705414 0.0199999995529651642
-0.0468500703573226929 0.108001165091991425 0.0199999995529651642
-0.0363168530166149139 0.108535729348659515 0
-0.0362529978156089783 0.110448539257049561 0
-0.0396206006407737732 0.0914276018738746643 0
-0.0387504436075687408 0.101247936487197876 0
-0.0353267155587673187 0.094278678297996521 0
-0.0396036617457866669 0.0800404399633407593 0
-0.0381566472351551056 0.0787109360098838806 0
-0.0401077121496200562 0.0803416445851325989 0
-0.0568285882472991943 0.100389257073402405 0
-0.0557910799980163574 0.101028874516487122 0
-0.0535128414630889893 0.104507513344287872 0
-0.0461489409208297729 0.108569197356700897 0
-0.0524447783827781677 0.100361406803131104 0
-0.0541749484837055206 0.0996831879019737244 0
-0.0416816920042037964 0.0891080200672149658 0
-0.0418315380811691284 0.0802283957600593567 0
-0.0408185459673404694 0.105580940842628479 0
-0.0563206635415554047 0.0883142426609992981 0
-0.0415805578231811523 0.110394388437271118 0
-0.0556433461606502533 0.0886541083455085754 0
-0.054038703441619873 0.0925039798021316528 0
-0.0560864880681037903 0.0903717651963233948 0
-0.0511523298919200897 0.0953289717435836792 0
-0.051631830632686615 0.097544446587562561 0
-0.0458866506814956665 0.100292220711708069 0
-0.0490414164960384369 0.0839575305581092834 0
-0.04657026007771492 0.092930227518081665 0
-0.0427696146070957184 0.106087043881416321 0
-0.0483248978853225708 0.0857837051153182983 0
-0.0431655682623386383 0.105918824672698975 0
-0.0432492382824420929 0.0950314253568649292 0
-0.0362436212599277496 0.112599998712539673 0.0176154300570487976
-0.0307055208832025528 0.112599998712539673 0.0183068141341209412
-0.0345284305512905121 0.112599998712539673 0.0110046947374939919
-0.034803386777639389 0.112599998712539673 0.0152699053287506104
-0.0394931398332118988 0.112599998712539673 0.00110901729203760624
-0.039928041398525238 0.112599998712539673 0.00240029627457261086
-0.0359949059784412384 0.112599998712539673 0.0069987960159778595
-0.0371524691581726074 0.112599998712539673 0.00608690455555915833
-0.0408931635320186615 0.112576544284820557 0.00499529670923948288
-0.0435888096690177917 0.112249232828617096 0.0169852189719676971
-0.0441790148615837097 0.112177573144435883 0.0077859777957201004
-0.0436760410666465759 0.112238645553588867 0.000546187162399291992
-0.0486618727445602417 0.110666424036026001 0.00819632317870855331
-0.0472271405160427094 0.111210539937019348 0.00460128160193562508
-0.0451298244297504425 0.112005949020385742 0.0119201922789216042
-0.0458430647850036621 0.111735448241233826 0.00822578649967908859
-0.0506534725427627563 0.109359286725521088 0.0076402006670832634
-0.0495654158294200897 0.110110320150852203 0.00330605567432940006
-0.0515034496784210205 0.108772583305835724 0.019775019958615303
-0.0490298457443714142 0.110479995608329773 0.011387992650270462
-0.0540099181234836578 0.106323786079883575 0.00820332765579223633
-0.054661918431520462 0.105587832629680634 0.00349069200456142426
-0.0536367520689964294 0.106745004653930664 0.0120907695963978767
-0.0531712546944618225 0.107270441949367523 0.0103028435260057449
-0.0566496141254901886 0.102206431329250336 0.00325203686952590942
-0.0558858849108219147 0.103661589324474335 0.0105461981147527695
-0.0564717426896095276 0.10254533588886261 0.013522416353225708
-0.0581292510032653809 0.0972935706377029419 0.00340159796178340912
-0.0580611154437065125 0.0975699946284294128 0.0002135448157787323
-0.0577615462243556976 0.098785400390625 0.0172480903565883636
-0.057279590517282486 0.100740782916545868 0.008853166364133358
-0.0581716746091842651 0.0936444103717803955 0.00624414533376693726
-0.0581716746091842651 0.0958626717329025269 0.00560978055000305176
-0.0581716746091842651 0.0968917310237884521 0.016284402459859848
-0.0581716746091842651 0.0941191017627716064 0.0168323032557964325
-0.0574422292411327362 0.0899190753698348999 0.00869547203183174133
-0.0574490651488304138 0.0899467989802360535 0.00851481128484010696
-0.057631421834230423 0.0906866565346717834 0.0149485077708959579
-0.0577889755368232727 0.0913258865475654602 0.0199948623776435852
-0.0554871782660484314 0.0855787321925163269 0.0141257252544164658
-0.0560732260346412659 0.086695350706577301 0.00997527502477169037
-0.0566187463700771332 0.0877347514033317566 0.0190031286329030991
-0.0558849051594734192 0.0863365307450294495 0.0184573177248239517
-0.0526338405907154083 0.0821229442954063416 0.0104004787281155586
-0.0531178712844848633 0.0826693028211593628 0.0116135794669389725
-0.054314829409122467 0.0840203836560249329 0.010856974869966507
-0.0540884807705879211 0.0837648883461952209 0.0122007057070732117
-0.0500033870339393616 0.0801919996738433838 0.00140607170760631561
-0.0497396104037761688 0.0800099223852157593 0.00123736727982759476
-0.0519958920776844025 0.0815673172473907471 0.00564544089138507843
-0.0522562786936759949 0.0817470476031303406 0.00645286217331886292
-0.0450057648122310638 0.0779469981789588928 0.00926342606544494629
-0.0486652962863445282 0.0793348774313926697 0.0104057407006621361
-0.0417584851384162903 0.0775285214185714722 0.0112226204946637154
-0.0415024012327194214 0.077497430145740509 0.014018508605659008
-0.0444025062024593353 0.077849559485912323 0.0110560636967420578
-0.0434313975274562836 0.0777316465973854065 0.00812216289341449738
-0.0373507849872112274 0.0773999989032745361 0.0183618105947971344
-0.0380387790501117706 0.0773999989032745361 0.0191412195563316345
-0.0361087620258331299 0.0773999989032745361 0.016576400026679039
-0.0386789590120315552 0.0773999989032745361 0.0162089765071868896
-0.0377736985683441162 0.0773999989032745361 0.00454060640186071396
-0.04008488729596138 0.0773999989032745361 0.0135236075147986412
-0.037233453243970871 0.0773999989032745361 0.000759206304792314768
-0.0298727750778198242 0.110921911895275116 0.0183545239269733429
-0.0320720672607421875 0.11256447434425354 0.0143627701327204704
-0.0309471245855093002 0.102384492754936218 0.0164045616984367371
-0.0319004878401756287 0.0892376825213432312 0.0146741904318332672
-0.0303184166550636292 0.11206585168838501 0.0175456758588552475
-0.0313497334718704224 0.0852824300527572632 0.0156738162040710449
-0.0299437250941991806 0.0857588797807693481 0.0182257480919361115
-0.0295936018228530884 0.102775320410728455 0.0188612267374992371
-0.0317754670977592468 0.0817134156823158264 0.0149011062458157539
-0.0296722762286663055 0.0804582908749580383 0.0187184344977140427
-0.0290086213499307632 0.105733148753643036 0.0199229791760444641
-0.0329887941479682922 0.106582224369049072 0.0118534080684185028
-0.0332988128066062927 0.108194679021835327 0.0108587713912129402
-0.0344435721635818481 0.102870769798755646 0.00718603422865271568
-0.0344784408807754517 0.103664383292198181 0.0070741637609899044
-0.0343117266893386841 0.0951024815440177917 0.00760903628543019295
-0.034423384815454483 0.0834631994366645813 0.00725080305710434914
-0.0338174104690551758 0.082210056483745575 0.00919494498521089554
-0.0332707613706588745 0.0838395357131958008 0.0109487650915980339
-0.0332967154681682587 0.0955061912536621094 0.0108655011281371117
-0.0331465341150760651 0.0986143127083778381 0.0113473311066627502
-0.0330853015184402466 0.0939880609512329102 0.0115437861531972885
-0.0326622575521469116 0.096567302942276001 0.0129010444507002831
-0.035168815404176712 0.0941579565405845642 0.000308598013361915946
-0.0348643921315670013 0.0954087004065513611 0.00332094496116042137
-0.0350331366062164307 0.0939198136329650879 0.00165117729920893908
-0.0348549559712409973 0.0998196154832839966 0.00341433659195899963
-0.0349255725741386414 0.109512366354465485 0.00271555548533797264
-0.0350252576172351837 0.0892943590879440308 0.0017291409894824028
-0.0346296355128288269 0.100865185260772705 0.0056439707987010479
-0.0346412211656570435 0.0778863579034805298 0.00552931707352399826
-0.0345517955720424652 0.0990157127380371094 0.00641422439366579056
-0.0345585383474826813 0.0808061063289642334 0.00634749513119459152
-0.0346924252808094025 0.0965246185660362244 0.00502263102680444717
-0.0347454138100147247 0.0871556401252746582 0.00449828058481216431
0.0282069910317659378 0.116999998688697815 0.0164635069668292999
0.0339501760900020599 0.116999998688697815 -0.00521234236657619476
0.0307231824845075607 0.116999998688697815 -0.000253451988101005554
0.0323153175413608551 0.116999998688697815 -0.00419818377122282982
0.0318096205592155457 0.116999998688697815 -0.0112447645515203476
0.0302682723850011826 0.116999998688697815 0.00477265380322933197
0.0277723018079996109 0.116999998688697815 -0.00436357222497463226
0.0289777405560016632 0.116999998688697815 -0.00914015714079141617
0.0302249733358621597 0.116999998688697815 -0.0109059102833271027
0.0274593941867351532 0.116999998688697815 0.00238627102226018906
0.0268864128738641739 0.116999998688697815 -0.0210306346416473389
0.026743866503238678 0.116999998688697815 -0.00195244699716567993
0.0241396427154541016 0.116999998688697815 -0.0140703544020652771
0.0258853137493133545 0.116999998688697815 0.00403646007180213928
0.023617057129740715 0.116999998688697815 -0.000518849119544029236
0.0237556789070367813 0.116999998688697815 -0.00855055265128612518
0.025219503790140152 0.116999998688697815 -0.0229148566722869873
0.0249641928821802139 0.116999998688697815 -0.0055096624419093132
0.0230648070573806763 0.116999998688697815 0.00357591221109032631
0.0179088860750198364 0.116999998688697815 -0.023814324289560318
0.0150944897904992104 0.116999998688697815 -0.0276178643107414246
0.0207653716206550598 0.116999998688697815 -0.00316390581429004669
0.0159935876727104187 0.116999998688697815 -0.0264564882963895798
0.0168894901871681213 0.116999998688697815 -0.0189469903707504272
0.0199773982167243958 0.116999998688697815 -0.0287812929600477219
0.0198316276073455811 0.116999998688697815 -0.00680632144212722778
0.0167702659964561462 0.116999998688697815 -0.00658209621906280518
0.0154321193695068359 0.116999998688697815 -0.0146449906751513481
0.0155449081212282181 0.116999998688697815 -0.0161502379924058914
0.0187030211091041565 0.116999998688697815 0.00278937816619873047
0.0145680410787463188 0.116999998688697815 -0.0191274210810661316
0.0125441979616880417 0.116999998688697815 -0.0313089266419410706
0.0150719489902257919 0.116999998688697815 -0.0161488763988018036
0.0237058140337467194 0.116999998688697815 0.0131631847470998764
0.00717869587242603302 0.116999998688697815 -0.0298675335943698883
0.0138930846005678177 0.116999998688697815 -0.0176521260291337967
0.00404822267591953278 0.116999998688697815 -0.0206232797354459763
0.00321170035749673843 0.116999998688697815 -0.0310895461589097977
0.00766556616872549057 0.116999998688697815 -0.0244670398533344269
0.00234161131083965302 0.116999998688697815 -0.0271411258727312088
0.00529119651764631271 0.116999998688697815 -0.0287275370210409164
0.0189895648509263992 0.116999998688697815 0.0044225696474313736
0.0125911133363842964 0.116999998688697815 -0.00798090919852256775
0.0133442133665084839 0.116999998688697815 -0.00534939393401145935
0.015715673565864563 0.116999998688697815 0.000920395366847515106
0.00754265300929546356 0.116999998688697815 -0.015907973051071167
0.00420396309345960617 0.116999998688697815 -0.0272764675319194794
-0.00380894728004932404 0.116999998688697815 -0.0243650656193494797
0.00416428083553910255 0.116999998688697815 -0.0181337073445320129
0.0047275233082473278 0.116999998688697815 -0.0149755645543336868
0.0139512708410620689 0.116999998688697815 0.00316061172634363174
0.00951681844890117645 0.116999998688697815 -0.00175259821116924286
-0.00607817061245441437 0.116999998688697815 -0.0253544896841049194
0.0161648653447628021 0.116999998688697815 0.00828242022544145584
0.00999803747981786728 0.116999998688697815 -0.00212309695780277252
-0.00238092802464962006 0.116999998688697815 -0.0196787770837545395
-0.00100070890039205551 0.116999998688697815 -0.0248786341398954391
0.00382803753018379211 0.116999998688697815 -0.0142607446759939194
0.00309017766267061234 0.116999998688697815 -0.0202813763171434402
0.00833333376795053482 0.116999998688697815 -0.000821495428681373596
-0.00386336259543895721 0.116999998688697815 -0.01358003169298172
-0.00979175325483083725 0.116999998688697815 -0.0240866038948297501
0.0157472845166921616 0.116999998688697815 0.00972571596503257751
0.0163857843726873398 0.116999998688697815 0.0101026427000761032
-0.0157813727855682373 0.116999998688697815 -0.0272144097834825516
-0.0025134943425655365 0.116999998688697815 -0.0105500109493732452
-0.00318727386184036732 0.116999998688697815 -0.0184691529721021652
0.0052355276420712471 0.116999998688697815 -0.00457349978387355804
-0.00590566080063581467 0.116999998688697815 -0.0200548171997070312
0.000866079702973365784 0.116999998688697815 -0.0105633903294801712
0.00494815781712532043 0.116999998688697815 -0.0017739664763212204
0.00442192796617746353 0.116999998688697815 -0.00615940522402524948
-0.00466410815715789795 0.116999998688697815 -0.00471732206642627716
-0.00613910704851150513 0.116999998688697815 -0.00967451278120279312
-0.0116100534796714783 0.116999998688697815 -0.014139171689748764
-0.00847619585692882538 0.116999998688697815 -0.0104945143684744835
-0.00614357646554708481 0.116999998688697815 -0.0104909557849168777
0.00421642232686281204 0.116999998688697815 0.000704519450664520264
-0.00893402565270662308 0.116999998688697815 -0.0157322380691766739
-0.0225536245852708817 0.116999998688697815 -0.0247991085052490234
0.000238100998103618622 0.116999998688697815 -0.00363073404878377914
0.0150492917746305466 0.116999998688697815 0.0116852261126041412
-0.00326647236943244934 0.116999998688697815 -0.00442014448344707489
0.00474287848919630051 0.116999998688697815 0.00100057246163487434
-0.0179445426911115646 0.116999998688697815 -0.0202327445149421692
-0.0166678838431835175 0.116999998688697815 -0.00795520283281803131
-0.0269491635262966156 0.116999998688697815 -0.0152290016412734985
0.00165120884776115417 0.116999998688697815 0.00609460845589637756
-0.00963913649320602417 0.116999998688697815 -0.00176101364195346832
-0.0237306598573923111 0.116999998688697815 -0.0127589479088783264
0.00445691170170903206 0.116999998688697815 0.00515081686899065971
-0.0150802861899137497 0.116999998688697815 -0.00856258440762758255
-0.0200562514364719391 0.116999998688697815 -0.010587349534034729
-0.00439144857227802277 0.116999998688697815 -0.000648295506834983826
0.000629959744401276112 0.116999998688697815 0.000802798429504036903
0.0231986381113529205 0.116999998688697815 0.0210906248539686203
0.00974616222083568573 0.116999998688697815 0.00969709549099206924
0.0094002922996878624 0.116999998688697815 0.0102808307856321335
0.00414903834462165833 0.116999998688697815 0.00384765816852450371
-0.0246172249317169189 0.116999998688697815 -0.0042419135570526123
-0.0226478949189186096 0.116999998688697815 -0.00453074183315038681
0.000731063075363636017 0.116999998688697815 0.00802744738757610321
-0.00487321056425571442 0.116999998688697815 0.0052926037460565567
-0.0142096970230340958 0.116999998688697815 0.000973518937826156616
-0.000640876591205596924 0.116999998688697815 0.00893129594624042511
-0.0241443943232297897 0.116999998688697815 -0.00989402085542678833
-0.0194061156362295151 0.116999998688697815 -0.00743116065859794617
-0.0234069507569074631 0.116999998688697815 -0.006221747025847435
-0.0159754194319248199 0.116999998688697815 -0.00173623953014612198
-0.0256398748606443405 0.116999998688697815 -0.0122047653421759605
-0.0145750585943460464 0.116999998688697815 -0.00389755796641111374
-0.0215483326464891434 0.116999998688697815 -0.00851746462285518646
-0.0346301645040512085 0.116999998688697815 -0.00145128741860389709
-0.0319537259638309479 0.116999998688697815 -0.00648173876106739044
-0.0261463113129138947 0.116999998688697815 -0.00237581506371498108
-0.0150109119713306427 0.116999998688697815 0.00393028371036052704
-0.00332294497638940811 0.116999998688697815 0.0102447457611560822
-0.0231394153088331223 0.116999998688697815 0.00148444622755050659
0.0210028085857629776 0.116999998688697815 0.0210164021700620651
-0.0130805512890219688 0.116999998688697815 0.00630826689302921295
-0.0301018320024013519 0.116999998688697815 -0.00383509648963809013
-0.00368276238441467285 0.116999998688697815 0.0116366669535636902
-0.0233543366193771362 0.116999998688697815 0.00418124906718730927
-0.00916173867881298065 0.116999998688697815 0.00831933785229921341
0.0108204185962677002 0.116999998688697815 0.0185095183551311493
0.0106931496411561966 0.116999998688697815 0.0178367104381322861
-0.0244272779673337936 0.116999998688697815 0.00834926217794418335
-0.0264566615223884583 0.116999998688697815 0.00390369538217782974
-0.016277708113193512 0.116999998688697815 0.0116926655173301697
-0.0272942222654819489 0.116999998688697815 0.00647540297359228134
0.0168402232229709625 0.116999998688697815 0.020723363384604454
-0.00369559880346059799 0.116999998688697815 0.0139918187633156776
-0.0244746841490268707 0.116999998688697815 0.0103007657453417778
-0.0176965855062007904 0.116999998688697815 0.01025351881980896
0.0128856683149933815 0.116999998688697815 0.0194939859211444855
-0.00380980875343084335 0.116999998688697815 0.0169150792062282562
-0.022155124694108963 0.116999998688697815 0.0172007866203784943
-0.0231412574648857117 0.116999998688697815 0.0151264360174536705
-0.0108918957412242889 0.116999998688697815 0.0179220009595155716
-0.0235077552497386932 0.116999998688697815 0.015382036566734314
-0.00592707050964236259 0.116999998688697815 0.0154602508991956711
-0.0126719735562801361 0.116999998688697815 0.0172886829823255539
-0.0145160667598247528 0.116999998688697815 0.0180357880890369415
-0.028718210756778717 0.116999998688697815 0.0152544453740119934
-0.0304370895028114319 0.116999998688697815 0.0132113415747880936
0.0140910902991890907 0.116999998688697815 0.0222254768013954163
-0.0126238223165273666 0.116999998688697815 0.0231546889990568161
-0.00140389148145914078 0.116999998688697815 0.0209598038345575333
-0.015290306881070137 0.116999998688697815 0.0225275661796331406
-0.00862996000796556473 0.116999998688697815 0.0191600620746612549
0.00418419018387794495 0.116999998688697815 0.0224179942160844803
-0.018701532855629921 0.116999998688697815 0.021066468209028244
-0.0139594180509448051 0.116999998688697815 0.0202502608299255371
-0.0124467853456735611 0.116999998688697815 0.0253216605633497238
-0.0117274224758148193 0.116999998688697815 0.0254413876682519913
-0.00949813798069953918 0.116999998688697815 0.0235547441989183426
0.000737037509679794312 0.116999998688697815 0.0259517915546894073
-0.0168597530573606491 0.116999998688697815 0.0241602994501590729
-0.00733877904713153839 0.116999998688697815 0.027013242244720459
0.0086400546133518219 0.116999998688697815 0.0257390066981315613
-0.0110649242997169495 0.116999998688697815 0.0289449337869882584
-0.0130178229883313179 0.116999998688697815 0.0300533995032310486
0.00782384909689426422 0.116999998688697815 0.0262030549347400665
-0.0121125746518373489 0.116999998688697815 0.0305101796984672546
-0.00238743238151073456 0.116999998688697815 0.0332224592566490173
0.00198344048112630844 0.116999998688697815 0.0313455760478973389
-0.00793213210999965668 0.116999998688697815 0.0321280322968959808
0.00208436232060194016 0.116999998688697815 0.0329027846455574036
0.00192571431398391724 0.116999998688697815 0.0345796011388301849
0.0192806124687194824 0.116999998688697815 0.0264636911451816559
0.0192364752292633057 0.116999998688697815 0.0271323751658201218
0.0299772564321756363 0.116999998688697815 0.0164696015417575836
0.0342767424881458282 0.116999998688697815 0.00485906470566987991
0.0322542116045951843 0.116999998688697815 0.00921905320137739182
0.027791166678071022 0.072999998927116394 -0.0183381754904985428
0.0330978892743587494 0.072999998927116394 0.00382842123508453369
0.0334792397916316986 0.072999998927116394 -0.00227611139416694641
0.0338612720370292664 0.072999998927116394 0.00782576762139797211
0.0318659543991088867 0.072999998927116394 0.0142888352274894714
0.0292319152504205704 0.072999998927116394 -0.00747221149504184723
0.0274424310773611069 0.072999998927116394 0.00274056103080511093
0.0278341043740510941 0.072999998927116394 0.0105620510876178741
0.0283158756792545319 0.072999998927116394 -0.00633777119219303131
0.0268536247313022614 0.072999998927116394 -0.00451916363090276718
0.0269508976489305496 0.072999998927116394 0.000560835003852844238
0.0257303901016712189 0.072999998927116394 0.0115805184468626976
0.0236578360199928284 0.072999998927116394 0.0063971690833568573
0.0251534618437290192 0.072999998927116394 0.00890641286969184875
0.025407029315829277 0.072999998927116394 0.0117547661066055298
0.0241558942943811417 0.072999998927116394 -0.0033520236611366272
0.0225759334862232208 0.072999998927116394 0.0237660929560661316
0.0227976180613040924 0.072999998927116394 0.0114861913025379181
0.0198903903365135193 0.072999998927116394 0.00694683659821748734
0.0175814740359783173 0.072999998927116394 0.0248244162648916245
0.0191720183938741684 0.072999998927116394 0.0147024653851985931
0.0231569353491067886 0.072999998927116394 0.00145142280962318182
0.0236566644161939621 0.072999998927116394 -0.00369054614566266537
0.0198730938136577606 0.072999998927116394 0.0141949448734521866
0.0146560706198215485 0.072999998927116394 0.0314504057168960571
0.0207911171019077301 0.072999998927116394 0.0217551309615373611
0.0165550671517848969 0.072999998927116394 0.0115975718945264816
0.0128055596724152565 0.072999998927116394 0.0269187465310096741
0.0121116098016500473 0.072999998927116394 0.023968646302819252
0.0171368606388568878 0.072999998927116394 0.00942105986177921295
0.0131112607195973396 0.072999998927116394 0.0134431850165128708
0.0167923811823129654 0.072999998927116394 0.0126924067735671997
0.0148381255567073822 0.072999998927116394 0.0202752314507961273
0.0158256776630878448 0.072999998927116394 0.00932552572339773178
0.0120541173964738846 0.072999998927116394 0.0248596835881471634
0.00756116583943367004 0.072999998927116394 0.0126393642276525497
0.0062897559255361557 0.072999998927116394 0.0270608365535736084
0.0111656375229358673 0.072999998927116394 0.00926216412335634232
-0.00209411978721618652 0.072999998927116394 0.0314837172627449036
0.00683269742876291275 0.072999998927116394 0.0240891892462968826
0.0136931603774428368 0.072999998927116394 0.00551350228488445282
0.0125888418406248093 0.072999998927116394 0.0121280280873179436
0.00763830170035362244 0.072999998927116394 0.025821225717663765
0.0185274891555309296 0.072999998927116394 -0.00703372340649366379
0.00583444396033883095 0.072999998927116394 0.030412282794713974
0.0142385149374604225 0.072999998927116394 0.00609054043889045715
0.00887136347591876984 0.072999998927116394 0.00969141814857721329
0.00434532575309276581 0.072999998927116394 0.00985144078731536865
0.00780183961614966393 0.072999998927116394 0.0103489086031913757
0.00565949082374572754 0.072999998927116394 0.00690423697233200073
-0.00930505804717540741 0.072999998927116394 0.0320255309343338013
0.0103184077888727188 0.072999998927116394 0.00110673718154430389
0.0132089080289006233 0.072999998927116394 -0.00310505460947751999
0.014012516476213932 0.072999998927116394 -0.00010768260108307004
-0.00152190029621124268 0.072999998927116394 0.0239932052791118622
0.00479432661086320877 0.072999998927116394 0.0177171211689710617
-0.00100766343530267477 0.072999998927116394 0.0286936964839696884
0.00126754678785800934 0.072999998927116394 0.0149202719330787659
0.0083498246967792511 0.072999998927116394 0.00228465907275676727
-0.0166746005415916443 0.072999998927116394 0.0296725407242774963
-0.00807560514658689499 0.072999998927116394 0.0250192936509847641
-0.00780867971479892731 0.072999998927116394 0.0182328615337610245
-0.00558356661349534988 0.072999998927116394 0.0187625810503959656
0.00617909617722034454 0.072999998927116394 0.0016651637852191925
-0.00192048563621938229 0.072999998927116394 0.0167685262858867645
-0.00700807757675647736 0.072999998927116394 0.0189906507730484009
-0.00889340601861476898 0.072999998927116394 0.016571730375289917
0.00824663136154413223 0.072999998927116394 0.00178544549271464348
-0.0174326803535223007 0.072999998927116394 0.0261644478887319565
0.0168852563947439194 0.072999998927116394 -0.011629112996160984
-0.00997776724398136139 0.072999998927116394 0.0267233438789844513
-0.0144885824993252754 0.072999998927116394 0.0217391885817050934
-0.0227816104888916016 0.072999998927116394 0.0248937811702489853
-0.0167616847902536392 0.072999998927116394 0.0191319361329078674
-0.0102415028959512711 0.072999998927116394 0.0119588393718004227
-0.0207247622311115265 0.072999998927116394 0.0267927367240190506
-0.0234723463654518127 0.072999998927116394 0.025545511394739151
-0.0159739907830953598 0.072999998927116394 0.0189697910100221634
-0.0127288196235895157 0.072999998927116394 0.0205544456839561462
-0.00937778130173683167 0.072999998927116394 0.0159936882555484772
-0.0132862236350774765 0.072999998927116394 0.0135004064068198204
0.0100920479744672775 0.072999998927116394 -0.00883525796234607697
-0.00371858570724725723 0.072999998927116394 0.00946068484336137772
-0.0183026622980833054 0.072999998927116394 0.0205401908606290817
-0.011158469133079052 0.072999998927116394 0.00840853340923786163
-0.00607977434992790222 0.072999998927116394 0.000918345525860786438
-0.0152679458260536194 0.072999998927116394 0.00869879219681024551
-0.00443957187235355377 0.072999998927116394 -0.000325973145663738251
-0.0282300990074872971 0.072999998927116394 0.0179664697498083115
-0.00987398624420166016 0.072999998927116394 0.00547349173575639725
-0.0219461265951395035 0.072999998927116394 0.0100939683616161346
-0.0163744799792766571 0.072999998927116394 0.00708387419581413269
0.00472170393913984299 0.072999998927116394 -0.004668431356549263
0.00487538054585456848 0.072999998927116394 -0.00838313158601522446
-0.0186799708753824234 0.072999998927116394 0.0145056117326021194
-0.00748427584767341614 0.072999998927116394 0.00544814113527536392
0.0103731956332921982 0.072999998927116394 -0.0119845457375049591
-0.0250995699316263199 0.072999998927116394 0.0123658888041973114
-0.0241389479488134384 0.072999998927116394 0.0103018693625926971
3.3073127269744873e-05 0.072999998927116394 -0.00832905620336532593
0.000584805384278297424 0.072999998927116394 -0.00844307802617549896
-0.00558733101934194565 0.072999998927116394 -0.00260109174996614456
-0.00667693000286817551 0.072999998927116394 -0.00221041310578584671
-0.0313028469681739807 0.072999998927116394 0.0136788617819547653
-0.0146443899720907211 0.072999998927116394 0.00421976204961538315
-0.0262335799634456635 0.072999998927116394 0.00673289410769939423
-0.0239699836820363998 0.072999998927116394 0.0108130350708961487
-0.0147336814552545547 0.072999998927116394 0.00111550185829401016
-0.00168188614770770073 0.072999998927116394 -0.00527465390041470528
-0.0327927619218826294 0.072999998927116394 0.00813772715628147125
0.00737797003239393234 0.072999998927116394 -0.0103312758728861809
0.000228311866521835327 0.072999998927116394 -0.0126515971496701241
-0.0106727629899978638 0.072999998927116394 -0.0060331062413752079
-0.0243371743708848953 0.072999998927116394 -0.00396211259067058563
0.00219051539897918701 0.072999998927116394 -0.0139066027477383614
-0.0317045636475086212 0.072999998927116394 0.00226084794849157333
-0.0283859856426715851 0.072999998927116394 -0.000127949751913547516
-0.00114609114825725555 0.072999998927116394 -0.0113184517249464989
-0.00222972128540277481 0.072999998927116394 -0.0108963111415505409
-0.0323991738259792328 0.072999998927116394 0.00541301211342215538
-0.0317892655730247498 0.072999998927116394 0.00126908160746097565
-0.0187586192041635513 0.072999998927116394 -0.00623339042067527771
0.0233500674366950989 0.072999998927116394 -0.0221756920218467712
-0.0157983265817165375 0.072999998927116394 -0.0109580932185053825
-0.0127623174339532852 0.072999998927116394 -0.0135318189859390259
0.0106540713459253311 0.072999998927116394 -0.0194600373506546021
-0.0203182511031627655 0.072999998927116394 -0.00893243961036205292
0.00795210432261228561 0.072999998927116394 -0.0172607265412807465
-0.0102580254897475243 0.072999998927116394 -0.0123379640281200409
0.0103742638602852821 0.072999998927116394 -0.0173690617084503174
0.0105437496677041054 0.072999998927116394 -0.018327668309211731
-0.0148789547383785248 0.072999998927116394 -0.0118240024894475937
-0.0217079054564237595 0.072999998927116394 -0.00570151209831237793
-0.0139862475916743279 0.072999998927116394 -0.0092586856335401535
-0.0182274132966995239 0.072999998927116394 -0.0167694557458162308
-0.00211597606539726257 0.072999998927116394 -0.0169069655239582062
-0.0246293209493160248 0.072999998927116394 -0.0113222617655992508
-0.0165908336639404297 0.072999998927116394 -0.0145322177559137344
-0.0280796047300100327 0.072999998927116394 -0.0108141675591468811
-0.0312477126717567444 0.072999998927116394 -0.0148256216198205948
-0.0202326029539108276 0.072999998927116394 -0.0164315477013587952
-0.0249677207320928574 0.072999998927116394 -0.0132449176162481308
0.00358886830508708954 0.072999998927116394 -0.018988417461514473
0.0234286468476057053 0.072999998927116394 -0.0227332580834627151
0.00623945239931344986 0.072999998927116394 -0.0215583834797143936
-0.0108493994921445847 0.072999998927116394 -0.0188714899122714996
-0.0215507913380861282 0.072999998927116394 -0.0224958788603544235
-0.0146994292736053467 0.072999998927116394 -0.021238008514046669
-0.0146143529564142227 0.072999998927116394 -0.018590342253446579
-0.0206680614501237869 0.072999998927116394 -0.0201004017144441605
-0.0232636928558349609 0.072999998927116394 -0.0218333825469017029
-0.0119095444679260254 0.072999998927116394 -0.02284214086830616
-0.0221518427133560181 0.072999998927116394 -0.026281651109457016
-0.0193392876535654068 0.072999998927116394 -0.025243537500500679
-0.0230920352041721344 0.072999998927116394 -0.023352229967713356
0.0123822148889303207 0.072999998927116394 -0.0233928840607404709
0.0152507945895195007 0.072999998927116394 -0.0238704551011323929
0.0112900761887431145 0.072999998927116394 -0.0236618407070636749
-0.0201411917805671692 0.072999998927116394 -0.0277303755283355713
0.00894067995250225067 0.072999998927116394 -0.0262371916323900223
0.0114595834165811539 0.072999998927116394 -0.0262691378593444824
-0.00937133654952049255 0.072999998927116394 -0.0307596698403358459
-0.0164569374173879623 0.072999998927116394 -0.028570929542183876
-0.00575588271021842957 0.072999998927116394 -0.0303300842642784119
0.0072804940864443779 0.072999998927116394 -0.0298378374427556992
-0.00459931604564189911 0.072999998927116394 -0.0320312678813934326
-0.00650868192315101624 0.072999998927116394 -0.0328293666243553162
-0.00739825982600450516 0.072999998927116394 -0.0334449261426925659
0.00980116333812475204 0.072999998927116394 -0.0309336241334676743
0.0138060124590992928 0.072999998927116394 -0.0297528747469186783
0.0222091339528560638 0.072999998927116394 -0.025640411302447319
0.0107210148125886917 0.072999998927116394 -0.0332161635160446167
0.0286352690309286118 0.072999998927116394 -0.018692750483751297
0.0325068831443786621 0.072999998927116394 -0.00936536770313978195
0.0344257093966007233 0.106641858816146851 -0.0063768378458917141
0.0350896976888179779 0.0884603932499885559 -0.00090840458869934082
0.0345233455300331116 0.116226717829704285 -0.00557273905724287033
0.0350930765271186829 0.112429939210414886 -0.000880584819242358208
0.034880954772233963 0.092011965811252594 -0.00262755854055285454
0.0349051393568515778 0.0876713991165161133 -0.00242836726829409599
0.0349749252200126648 0.109667971730232239 -0.00185365730430930853
0.0351618081331253052 0.0768267363309860229 -0.000314518343657255173
0.0346581675112247467 0.0814988687634468079 -0.00446237251162528992
0.0344523042440414429 0.0963029637932777405 -0.0061578117311000824
0.0344614051282405853 0.0774237290024757385 -0.00608285889029502869
0.0344232954084873199 0.0970196574926376343 -0.00639672158285975456
0.0343384891748428345 0.09584006667137146 -0.00709515856578946114
0.0347135365009307861 0.0844576209783554077 -0.00400637183338403702
0.0349161215126514435 0.0774453431367874146 -0.00233795540407299995
0.0344843976199626923 0.0915207117795944214 -0.00589349912479519844
0.0347282364964485168 0.07451668381690979 -0.00388531340286135674
0.0323297418653964996 0.0805803090333938599 -0.0132951270788908005
0.0320502370595932007 0.0891509801149368286 -0.0140321236103773117
0.0322463884949684143 0.073269084095954895 -0.0135149145498871803
0.0318892635405063629 0.0868425965309143066 -0.0144565803930163383
0.0316753387451171875 0.0806289762258529663 -0.015020652674138546
0.0316129215061664581 0.0975870490074157715 -0.0151852322742342949
0.0314830169081687927 0.0964009761810302734 -0.0155277680605649948
0.0327170901000499725 0.0865762680768966675 -0.0122737744823098183
0.0312613844871520996 0.0968631953001022339 -0.0161121655255556107
0.0340794064104557037 0.112108610570430756 -0.00868164561688899994
0.0332650803029537201 0.0943415984511375427 -0.0108288386836647987
0.0329050570726394653 0.0995215103030204773 -0.0117781506851315498
0.0333393588662147522 0.107584752142429352 -0.010632980614900589
0.0324293412268161774 0.11662919819355011 -0.0130325108766555786
0.033995211124420166 0.112471990287303925 -0.00890364591032266617
0.0340880192816257477 0.10795922577381134 -0.00865893810987472534
0.0315845832228660583 0.111811846494674683 -0.0152599522843956947
0.0278466176241636276 0.0849980860948562622 -0.0211701858788728714
