ply
format ascii 1.0
element vertex 723
property float x
property float y
property float z
end_header
4.99600361081320443e-16 0.709997951984405518 0.292891025543212891
4.99600361081320443e-16 0.353720158338546753 0.410113126039505005
4.99600361081320443e-16 0.105811432003974915 0.222669124603271484
4.99600361081320443e-16 0.377565354108810425 0.217863813042640686
4.99600361081320443e-16 1.06583213806152344 0.322774678468704224
4.99600361081320443e-16 0.885982155799865723 0.372711032629013062
4.99600361081320443e-16 0.27580830454826355 0.116245180368423462
4.99600361081320443e-16 0.906374931335449219 0.386377274990081787
4.99600361081320443e-16 0.0954379364848136902 0.317943334579467773
4.99600361081320443e-16 0.649633824825286865 0.444306671619415283
4.99600361081320443e-16 0.300689637660980225 0.318386316299438477
4.99600361081320443e-16 0.833480954170227051 0.32208329439163208
4.99600361081320443e-16 0.440454244613647461 0.141136318445205688
4.99600361081320443e-16 0.0677859410643577576 0.168034076690673828
4.99600361081320443e-16 0.797333776950836182 0.430602729320526123
4.99600361081320443e-16 0.130647674202919006 0.238711729645729065
4.99600361081320443e-16 0.691039621829986572 0.421265661716461182
4.99600361081320443e-16 0.293609738349914551 0.174236506223678589
4.99600361081320443e-16 0.833819806575775146 0.439789265394210815
4.99600361081320443e-16 0.18229067325592041 0.373509824275970459
4.99600361081320443e-16 0.219436988234519958 0.358795434236526489
4.99600361081320443e-16 1.24042272567749023 0.39021146297454834
4.99600361081320443e-16 0.2772807776927948 0.254619300365447998
4.99600361081320443e-16 0.40296626091003418 0.408971309661865234
4.99600361081320443e-16 0.38248029351234436 0.322725296020507812
4.99600361081320443e-16 0.728914201259613037 0.423531979322433472
4.99600361081320443e-16 1.28851735591888428 0.367318511009216309
4.99600361081320443e-16 0.482710689306259155 0.334634840488433838
4.99600361081320443e-16 0.146071061491966248 0.411024868488311768
4.99600361081320443e-16 1.43882846832275391 0.442619860172271729
4.99600361081320443e-16 0.037774890661239624 0.369820237159729004
4.99600361081320443e-16 1.02541685104370117 0.290952503681182861
4.99600361081320443e-16 0.587378323078155518 0.187930136919021606
4.99600361081320443e-16 0.366571635007858276 0.386801481246948242
4.99600361081320443e-16 0.262511342763900757 0.393853724002838135
4.99600361081320443e-16 1.11709284782409668 0.433879852294921875
4.99600361081320443e-16 1.18861019611358643 0.445536524057388306
4.99600361081320443e-16 0.589504003524780273 0.341081380844116211
4.99600361081320443e-16 1.26931047439575195 0.412432402372360229
4.99600361081320443e-16 0.12940707802772522 0.163099169731140137
4.99600361081320443e-16 0.10738285630941391 0.307591855525970459
4.99600361081320443e-16 0.0970152094960212708 0.250702559947967529
4.99600361081320443e-16 0.0738174617290496826 0.0433137416839599609
4.99600361081320443e-16 1.13198697566986084 0.361147522926330566
4.99600361081320443e-16 0.153007552027702332 0.409205645322799683
4.99600361081320443e-16 0.0417437031865119934 0.44459003210067749
4.99600361081320443e-16 0.74134296178817749 0.358005136251449585
4.99600361081320443e-16 0.49622797966003418 0.186580508947372437
4.99600361081320443e-16 0.660217344760894775 0.322891145944595337
4.99600361081320443e-16 0.436429351568222046 0.201308548450469971
4.99600361081320443e-16 0.0358442924916744232 0.370657920837402344
4.99600361081320443e-16 0.669838130474090576 0.265102028846740723
4.99600361081320443e-16 0.275598824024200439 0.195581316947937012
4.99600361081320443e-16 0.722313463687896729 0.353012710809707642
4.99600361081320443e-16 0.162094652652740479 0.291782349348068237
4.99600361081320443e-16 0.992988228797912598 0.379419624805450439
4.99600361081320443e-16 0.119388319551944733 0.384862899780273438
4.99600361081320443e-16 0.477149158716201782 0.339688509702682495
4.99600361081320443e-16 0.881449341773986816 0.323576867580413818
4.99600361081320443e-16 0.0974190458655357361 0.342787593603134155
4.99600361081320443e-16 0.0742221027612686157 0.420426666736602783
4.99600361081320443e-16 0.519142568111419678 0.15529140830039978
4.99600361081320443e-16 0.486657470464706421 0.187986552715301514
4.99600361081320443e-16 1.05896925926208496 0.42407989501953125
4.99600361081320443e-16 0.106833495199680328 0.0738975107669830322
4.99600361081320443e-16 0.861755967140197754 0.314647793769836426
4.99600361081320443e-16 0.223235353827476501 0.332917749881744385
4.99600361081320443e-16 0.942219197750091553 0.286020487546920776
4.99600361081320443e-16 0.53993833065032959 0.389774590730667114
4.99600361081320443e-16 0.200520187616348267 0.340164303779602051
4.99600361081320443e-16 1.06092345714569092 0.302908122539520264
4.99600361081320443e-16 0.406886667013168335 0.366904199123382568
4.99600361081320443e-16 0.112474873661994934 0.0722915232181549072
4.99600361081320443e-16 0.944828033447265625 0.27118295431137085
4.99600361081320443e-16 0.995140969753265381 0.29230201244354248
4.99600361081320443e-16 0.20606665313243866 0.079825282096862793
4.99600361081320443e-16 0.23171679675579071 0.123063266277313232
4.99600361081320443e-16 0.324765443801879883 0.31393846869468689
4.99600361081320443e-16 0.600284218788146973 0.385824203491210938
4.99600361081320443e-16 0.484846502542495728 0.31719622015953064
4.99600361081320443e-16 1.08789384365081787 0.356139987707138062
4.99600361081320443e-16 0.118137478828430176 0.40307772159576416
4.99600361081320443e-16 0.157258972525596619 0.158154845237731934
4.99600361081320443e-16 0.0752879008650779724 0.202648371458053589
4.99600361081320443e-16 0.330566227436065674 0.260243475437164307
4.99600361081320443e-16 0.700638294219970703 0.428791701793670654
4.99600361081320443e-16 0.545625865459442139 0.326076865196228027
4.99600361081320443e-16 0.798753798007965088 0.397985696792602539
4.99600361081320443e-16 0.432618290185928345 0.427330285310745239
4.99600361081320443e-16 0.15887141227722168 0.162341177463531494
4.99600361081320443e-16 0.647747159004211426 0.318749427795410156
4.99600361081320443e-16 0.800769507884979248 0.447401493787765503
4.99600361081320443e-16 0.55768197774887085 0.188155859708786011
4.99600361081320443e-16 0.367954015731811523 0.275195598602294922
4.99600361081320443e-16 0.525207579135894775 0.210292473435401917
4.99600361081320443e-16 0.662115156650543213 0.374167919158935547
4.99600361081320443e-16 1.22690379619598389 0.436777353286743164
4.99600361081320443e-16 0.339199185371398926 0.140227526426315308
4.99600361081320443e-16 0.296464234590530396 0.119344174861907959
4.99600361081320443e-16 0.561568558216094971 0.232944771647453308
4.99600361081320443e-16 0.878961741924285889 0.3378104567527771
4.99600361081320443e-16 0.294889241456985474 0.398183524608612061
4.99600361081320443e-16 0.594807207584381104 0.381831824779510498
4.99600361081320443e-16 1.23656356334686279 0.432062983512878418
4.99600361081320443e-16 0.575445115566253662 0.44969448447227478
4.99600361081320443e-16 0.951538503170013428 0.341914623975753784
4.99600361081320443e-16 0.254820674657821655 0.224678188562393188
4.99600361081320443e-16 0.23185865581035614 0.221723511815071106
4.99600361081320443e-16 0.122415177524089813 0.174866288900375366
4.99600361081320443e-16 0.810258209705352783 0.293301165103912354
4.99600361081320443e-16 1.35333096981048584 0.410597085952758789
4.99600361081320443e-16 1.4637225866317749 0.413975507020950317
4.99600361081320443e-16 0.0468499138951301575 0.434064418077468872
4.99600361081320443e-16 0.300112485885620117 0.13804095983505249
4.99600361081320443e-16 0.0866092145442962646 0.325983047485351562
4.99600361081320443e-16 0.016291378065943718 0.193414062261581421
4.99600361081320443e-16 0.513749897480010986 0.3302115797996521
4.99600361081320443e-16 0.558343172073364258 0.302703320980072021
4.99600361081320443e-16 0.71914142370223999 0.286695301532745361
4.99600361081320443e-16 0.162768661975860596 0.0821362137794494629
4.99600361081320443e-16 0.91427987813949585 0.345290780067443848
4.99600361081320443e-16 1.0762171745300293 0.317241251468658447
4.99600361081320443e-16 0.718942701816558838 0.333531022071838379
4.99600361081320443e-16 0.451192587614059448 0.29677245020866394
4.99600361081320443e-16 0.435165703296661377 0.340310722589492798
4.99600361081320443e-16 0.0251244846731424332 0.22619977593421936
4.99600361081320443e-16 0.867785096168518066 0.25479087233543396
4.99600361081320443e-16 0.334745407104492188 0.244393721222877502
4.99600361081320443e-16 0.0546642839908599854 0.354803383350372314
4.99600361081320443e-16 0.553491890430450439 0.413262784481048584
4.99600361081320443e-16 0.533367693424224854 0.178176969289779663
4.99600361081320443e-16 0.17960783839225769 0.446938574314117432
4.99600361081320443e-16 0.0614959076046943665 0.260239541530609131
4.99600361081320443e-16 0.481149047613143921 0.176155686378479004
4.99600361081320443e-16 0.716679632663726807 0.261159807443618774
4.99600361081320443e-16 0.596693694591522217 0.201860904693603516
4.99600361081320443e-16 1.03359806537628174 0.417994111776351929
4.99600361081320443e-16 0.0175113212317228317 0.134961575269699097
4.99600361081320443e-16 0.376944065093994141 0.252237796783447266
4.99600361081320443e-16 0.0920904204249382019 0.359109044075012207
4.99600361081320443e-16 0.483109861612319946 0.398808002471923828
4.99600361081320443e-16 0.0788909420371055603 0.404836565256118774
4.99600361081320443e-16 1.07841861248016357 0.37120327353477478
4.99600361081320443e-16 0.319868952035903931 0.256988644599914551
4.99600361081320443e-16 1.14342427253723145 0.438279300928115845
4.99600361081320443e-16 0.40125623345375061 0.292540073394775391
4.99600361081320443e-16 0.24973335862159729 0.398211389780044556
4.99600361081320443e-16 0.731778323650360107 0.388583242893218994
4.99600361081320443e-16 0.828805923461914062 0.285935401916503906
4.99600361081320443e-16 0.461181730031967163 0.32221686840057373
4.99600361081320443e-16 0.0995829477906227112 0.160370916128158569
4.99600361081320443e-16 1.08574450016021729 0.348728477954864502
4.99600361081320443e-16 0.429234176874160767 0.402785062789916992
4.99600361081320443e-16 0.0154393790289759636 0.432698071002960205
4.99600361081320443e-16 0.814250588417053223 0.377831041812896729
4.99600361081320443e-16 0.11575239896774292 0.0704554319381713867
4.99600361081320443e-16 0.095447055995464325 0.435938626527786255
4.99600361081320443e-16 0.911210060119628906 0.266835391521453857
4.99600361081320443e-16 0.167120784521102905 0.307849764823913574
4.99600361081320443e-16 0.0374501980841159821 0.248822629451751709
4.99600361081320443e-16 0.337854892015457153 0.353866219520568848
4.99600361081320443e-16 0.284280568361282349 0.305711686611175537
4.99600361081320443e-16 0.528404533863067627 0.355282485485076904
4.99600361081320443e-16 0.962584435939788818 0.274327754974365234
4.99600361081320443e-16 0.205182835459709167 0.182028084993362427
4.99600361081320443e-16 0.269733130931854248 0.220805123448371887
4.99600361081320443e-16 0.802402138710021973 0.347479701042175293
4.99600361081320443e-16 0.0194977354258298874 0.132135003805160522
4.99600361081320443e-16 0.523890495300292969 0.164111167192459106
4.99600361081320443e-16 1.1441882848739624 0.357774317264556885
4.99600361081320443e-16 0.570599198341369629 0.21641819179058075
4.99600361081320443e-16 0.767218291759490967 0.32435685396194458
4.99600361081320443e-16 0.713320374488830566 0.362137109041213989
4.99600361081320443e-16 0.830815732479095459 0.378299206495285034
4.99600361081320443e-16 0.413679212331771851 0.131043434143066406
4.99600361081320443e-16 0.334609836339950562 0.0952145755290985107
4.99600361081320443e-16 0.896101474761962891 0.266230165958404541
4.99600361081320443e-16 0.0537635795772075653 0.269031614065170288
4.99600361081320443e-16 0.103448212146759033 0.289556384086608887
4.99600361081320443e-16 0.694185853004455566 0.211272180080413818
4.99600361081320443e-16 0.490004688501358032 0.24593786895275116
4.99600361081320443e-16 0.871880650520324707 0.278531849384307861
4.99600361081320443e-16 0.00702281622216105461 0.0889567732810974121
4.99600361081320443e-16 0.43391728401184082 0.353556543588638306
4.99600361081320443e-16 0.95679396390914917 0.373460263013839722
4.99600361081320443e-16 0.968700706958770752 0.335692465305328369
4.99600361081320443e-16 0.359359383583068848 0.364908546209335327
4.99600361081320443e-16 0.0908656418323516846 0.235302403569221497
4.99600361081320443e-16 0.0249842442572116852 0.377661079168319702
4.99600361081320443e-16 0.272931069135665894 0.40185844898223877
4.99600361081320443e-16 0.760747313499450684 0.263562858104705811
4.99600361081320443e-16 1.25399863719940186 0.419263511896133423
4.99600361081320443e-16 0.0802472159266471863 0.333423316478729248
4.99600361081320443e-16 1.13583648204803467 0.386530637741088867
4.99600361081320443e-16 0.263771146535873413 0.233291909098625183
4.99600361081320443e-16 0.834909617900848389 0.266493737697601318
4.99600361081320443e-16 0.996666133403778076 0.389268875122070312
4.99600361081320443e-16 0.920632302761077881 0.372117310762405396
4.99600361081320443e-16 0.567542970180511475 0.202746614813804626
4.99600361081320443e-16 1.10029339790344238 0.445206612348556519
4.99600361081320443e-16 1.34337425231933594 0.381646007299423218
4.99600361081320443e-16 0.823769688606262207 0.298192620277404785
4.99600361081320443e-16 0.154932543635368347 0.285222649574279785
4.99600361081320443e-16 0.3014659583568573 0.392175257205963135
4.99600361081320443e-16 0.611837387084960938 0.329700827598571777
4.99600361081320443e-16 0.742660045623779297 0.341128289699554443
4.99600361081320443e-16 0.785587787628173828 0.330170571804046631
4.99600361081320443e-16 0.558649599552154541 0.356786817312240601
4.99600361081320443e-16 0.238196238875389099 0.135877430438995361
4.99600361081320443e-16 1.42399263381958008 0.423082590103149414
4.99600361081320443e-16 0.155865401029586792 0.189343571662902832
4.99600361081320443e-16 0.179939284920692444 0.369518041610717773
4.99600361081320443e-16 0.254481464624404907 0.308465898036956787
4.99600361081320443e-16 0.428907930850982666 0.255195379257202148
4.99600361081320443e-16 1.20209264755249023 0.439895391464233398
4.99600361081320443e-16 1.52834737300872803 0.446897596120834351
4.99600361081320443e-16 0.393890827894210815 0.403220444917678833
4.99600361081320443e-16 0.819675266742706299 0.331326574087142944
4.99600361081320443e-16 0.199774608016014099 0.290713191032409668
4.99600361081320443e-16 0.207699134945869446 0.383835852146148682
4.99600361081320443e-16 0.71617281436920166 0.349522233009338379
4.99600361081320443e-16 1.09043633937835693 0.376280605792999268
4.99600361081320443e-16 0.0126830562949180603 0.291054010391235352
4.99600361081320443e-16 0.681531071662902832 0.426913589239120483
4.99600361081320443e-16 0.122321762144565582 0.319640636444091797
4.99600361081320443e-16 1.25741517543792725 0.385562360286712646
4.99600361081320443e-16 0.369014471769332886 0.228554382920265198
4.99600361081320443e-16 0.0383409224450588226 0.15782618522644043
4.99600361081320443e-16 0.814916312694549561 0.305703908205032349
4.99600361081320443e-16 0.186228260397911072 0.330445289611816406
4.99600361081320443e-16 1.4138563871383667 0.428955346345901489
4.99600361081320443e-16 0.024395480751991272 0.436791151762008667
4.99600361081320443e-16 0.351707547903060913 0.108214914798736572
4.99600361081320443e-16 0.405440241098403931 0.319642364978790283
4.99600361081320443e-16 0.88898080587387085 0.44404292106628418
4.99600361081320443e-16 0.893350780010223389 0.315288960933685303
4.99600361081320443e-16 0.0186098571866750717 0.222399353981018066
4.99600361081320443e-16 0.0798073187470436096 0.223121747374534607
4.99600361081320443e-16 0.262833774089813232 0.323186933994293213
4.99600361081320443e-16 0.53373265266418457 0.208289772272109985
4.99600361081320443e-16 0.039048265665769577 0.330888450145721436
4.99600361081320443e-16 1.32504761219024658 0.390924155712127686
4.99600361081320443e-16 0.369899839162826538 0.288882613182067871
4.99600361081320443e-16 0.438692152500152588 0.226099610328674316
4.99600361081320443e-16 0.0396744459867477417 0.341327548027038574
4.99600361081320443e-16 0.468553453683853149 0.16914328932762146
4.99600361081320443e-16 0.516035318374633789 0.414637148380279541
4.99600361081320443e-16 1.30629479885101318 0.370800703763961792
4.99600361081320443e-16 0.357912033796310425 0.186918467283248901
4.99600361081320443e-16 0.00262865843251347542 0.161816000938415527
4.99600361081320443e-16 0.818966686725616455 0.383749186992645264
4.99600361081320443e-16 0.518822848796844482 0.191901803016662598
4.99600361081320443e-16 0.986218094825744629 0.343101352453231812
4.99600361081320443e-16 0.162130787968635559 0.440887421369552612
4.99600361081320443e-16 1.16995918750762939 0.368481367826461792
4.99600361081320443e-16 0.263203591108322144 0.259893178939819336
4.99600361081320443e-16 0.316203802824020386 0.157186150550842285
4.99600361081320443e-16 0.345755547285079956 0.437521904706954956
4.99600361081320443e-16 0.161289840936660767 0.0895946621894836426
4.99600361081320443e-16 0.771565139293670654 0.384998410940170288
4.99600361081320443e-16 0.253953367471694946 0.105143517255783081
4.99600361081320443e-16 0.201694324612617493 0.0646015703678131104
4.99600361081320443e-16 0.88012164831161499 0.354001849889755249
4.99600361081320443e-16 0.0461104176938533783 0.168584257364273071
4.99600361081320443e-16 0.22042711079120636 0.254216313362121582
4.99600361081320443e-16 0.248860791325569153 0.151392996311187744
4.99600361081320443e-16 0.00798416789621114731 0.0339298546314239502
4.99600361081320443e-16 1.00788426399230957 0.433452874422073364
4.99600361081320443e-16 0.567987143993377686 0.385636508464813232
4.99600361081320443e-16 0.0772526413202285767 0.220357492566108704
4.99600361081320443e-16 0.193419560790061951 0.132272839546203613
4.99600361081320443e-16 0.808067977428436279 0.387189507484436035
4.99600361081320443e-16 0.672799646854400635 0.312549948692321777
4.99600361081320443e-16 0.150311022996902466 0.124556660652160645
4.99600361081320443e-16 0.679517090320587158 0.443328887224197388
4.99600361081320443e-16 0.654882133007049561 0.206866249442100525
4.99600361081320443e-16 0.169686838984489441 0.0635058581829071045
4.99600361081320443e-16 0.00993582140654325485 0.27430415153503418
4.99600361081320443e-16 1.07775497436523438 0.314686685800552368
4.99600361081320443e-16 0.0427550934255123138 0.263052880764007568
4.99600361081320443e-16 0.615426242351531982 0.395558416843414307
4.99600361081320443e-16 0.373394548892974854 0.359261691570281982
4.99600361081320443e-16 1.12141025066375732 0.416508793830871582
4.99600361081320443e-16 0.219959363341331482 0.221388876438140869
4.99600361081320443e-16 0.0410291627049446106 0.152544915676116943
4.99600361081320443e-16 0.78955155611038208 0.389366328716278076
4.99600361081320443e-16 0.287046045064926147 0.217313826084136963
4.99600361081320443e-16 0.260604947805404663 0.322553813457489014
4.99600361081320443e-16 1.09524178504943848 0.323371678590774536
4.99600361081320443e-16 0.303961843252182007 0.260677516460418701
4.99600361081320443e-16 0.562659561634063721 0.220318123698234558
4.99600361081320443e-16 0.114973597228527069 0.426899224519729614
4.99600361081320443e-16 0.25194898247718811 0.356778591871261597
4.99600361081320443e-16 0.510329961776733398 0.298658400774002075
4.99600361081320443e-16 0.0320392027497291565 0.392445594072341919
4.99600361081320443e-16 0.0778172910213470459 0.391626834869384766
4.99600361081320443e-16 0.180624336004257202 0.252375364303588867
4.99600361081320443e-16 0.950127720832824707 0.303981870412826538
4.99600361081320443e-16 0.224324390292167664 0.40162205696105957
4.99600361081320443e-16 1.32253801822662354 0.420680403709411621
4.99600361081320443e-16 0.840518474578857422 0.408953934907913208
4.99600361081320443e-16 0.765685975551605225 0.400372147560119629
4.99600361081320443e-16 0.859810829162597656 0.391609489917755127
4.99600361081320443e-16 0.697220981121063232 0.448701918125152588
4.99600361081320443e-16 0.325589388608932495 0.235520094633102417
4.99600361081320443e-16 0.899194240570068359 0.426783710718154907
4.99600361081320443e-16 0.322770267724990845 0.296188950538635254
4.99600361081320443e-16 0.818885624408721924 0.260321229696273804
4.99600361081320443e-16 0.471832424402236938 0.14577639102935791
4.99600361081320443e-16 0.453247636556625366 0.373262017965316772
4.99600361081320443e-16 0.346617519855499268 0.100533038377761841
4.99600361081320443e-16 0.71932828426361084 0.283940494060516357
4.99600361081320443e-16 0.859493374824523926 0.392705351114273071
4.99600361081320443e-16 0.607000529766082764 0.171815276145935059
4.99600361081320443e-16 0.218085199594497681 0.333685517311096191
4.99600361081320443e-16 0.0904101282358169556 0.116443932056427002
4.99600361081320443e-16 0.851807713508605957 0.430815637111663818
4.99600361081320443e-16 0.54833674430847168 0.330739468336105347
4.99600361081320443e-16 0.810609519481658936 0.357568085193634033
4.99600361081320443e-16 1.1470949649810791 0.449306666851043701
4.99600361081320443e-16 0.498381912708282471 0.208885893225669861
4.99600361081320443e-16 0.730279803276062012 0.410669237375259399
4.99600361081320443e-16 0.469355195760726929 0.206318408250808716
4.99600361081320443e-16 0.886365234851837158 0.302403509616851807
4.99600361081320443e-16 1.14306724071502686 0.410025596618652344
4.99600361081320443e-16 0.993663132190704346 0.294309943914413452
0.128385379910469055 9.99200722162640886e-15 0.165263563394546509
0.0497946739196777344 9.99200722162640886e-15 0.0361134782433509827
0.0492206849157810211 9.99200722162640886e-15 0.243222370743751526
0.21235319972038269 9.99200722162640886e-15 0.0455785691738128662
0.0656549111008644104 9.99200722162640886e-15 0.115910612046718597
0.0755057111382484436 9.99200722162640886e-15 0.189683824777603149
0.086505696177482605 9.99200722162640886e-15 0.0211645439267158508
0.0231025107204914093 9.99200722162640886e-15 0.176760807633399963
0.326311260461807251 9.99200722162640886e-15 0.0141535401344299316
0.0758442878723144531 9.99200722162640886e-15 0.351019948720932007
0.347888976335525513 9.99200722162640886e-15 0.00445154309272766113
0.153028905391693115 9.99200722162640886e-15 0.131395891308784485
0.0377769209444522858 9.99200722162640886e-15 0.282044172286987305
0.297307997941970825 9.99200722162640886e-15 0.0222101807594299316
0.114415369927883148 9.99200722162640886e-15 0.089613690972328186
0.203622996807098389 9.99200722162640886e-15 0.0052524954080581665
0.208706483244895935 9.99200722162640886e-15 0.0422315001487731934
0.289141923189163208 9.99200722162640886e-15 0.039253920316696167
0.0834022089838981628 9.99200722162640886e-15 0.00259137153625488281
0.075095348060131073 9.99200722162640886e-15 0.0991452634334564209
0.167676329612731934 9.99200722162640886e-15 0.0987890064716339111
0.0530557073652744293 9.99200722162640886e-15 0.081181742250919342
0.044994652271270752 9.99200722162640886e-15 0.00236979871988296509
0.285493254661560059 9.99200722162640886e-15 0.0790973305702209473
0.0750083774328231812 9.99200722162640886e-15 0.0890803262591362
0.157531231641769409 9.99200722162640886e-15 0.113605901598930359
0.278076797723770142 9.99200722162640886e-15 0.0830615460872650146
0.03932223841547966 9.99200722162640886e-15 0.139356359839439392
0.171978428959846497 9.99200722162640886e-15 0.0491559207439422607
0.21002572774887085 9.99200722162640886e-15 0.188607245683670044
0.306068480014801025 9.99200722162640886e-15 0.0590579807758331299
0.342877030372619629 9.99200722162640886e-15 0.00811180472373962402
0.108095794916152954 9.99200722162640886e-15 0.0556395649909973145
0.136394008994102478 9.99200722162640886e-15 0.133489668369293213
0.120794296264648438 9.99200722162640886e-15 0.234003946185112
0.160293787717819214 9.99200722162640886e-15 0.13183826208114624
0.126927599310874939 9.99200722162640886e-15 0.0170475542545318604
0.203569710254669189 9.99200722162640886e-15 0.104682952165603638
0.0867914855480194092 9.99200722162640886e-15 0.329032480716705322
0.144514575600624084 9.99200722162640886e-15 0.127405464649200439
0.130997255444526672 9.99200722162640886e-15 0.0516186505556106567
0.141814947128295898 9.99200722162640886e-15 0.10099734365940094
0.107495009899139404 9.99200722162640886e-15 0.315084755420684814
0.156396999955177307 9.99200722162640886e-15 0.15538865327835083
0.109296269714832306 9.99200722162640886e-15 0.220702454447746277
0.00563701195642352104 9.99200722162640886e-15 0.244881406426429749
0.104162909090518951 9.99200722162640886e-15 0.173490077257156372
0.00223914720118045807 9.99200722162640886e-15 0.3193015456199646
0.042334437370300293 9.99200722162640886e-15 0.130967333912849426
0.0106129171326756477 9.99200722162640886e-15 0.243731245398521423
0.177188947796821594 9.99200722162640886e-15 0.190303519368171692
0.07521076500415802 9.99200722162640886e-15 0.160130321979522705
0.274721890687942505 9.99200722162640886e-15 0.0768225193023681641
0.121924459934234619 9.99200722162640886e-15 0.0054044872522354126
0.102260634303092957 9.99200722162640886e-15 0.128327175974845886
0.16232597827911377 9.99200722162640886e-15 0.0137236714363098145
0.317113280296325684 9.99200722162640886e-15 0.0280992984771728516
0.0223486237227916718 9.99200722162640886e-15 0.301053375005722046
0.197608411312103271 9.99200722162640886e-15 0.0728647112846374512
0.0268013924360275269 9.99200722162640886e-15 0.300632059574127197
0.0744985193014144897 9.99200722162640886e-15 0.222634881734848022
0.182295307517051697 9.99200722162640886e-15 0.135732650756835938
0.0965368375182151794 9.99200722162640886e-15 0.0480401590466499329
0.056506812572479248 9.99200722162640886e-15 0.1706581711769104
0.0503380559384822845 9.99200722162640886e-15 0.33623194694519043
0.158313408493995667 9.99200722162640886e-15 0.136889487504959106
0.179465964436531067 9.99200722162640886e-15 0.183028131723403931
0.010195540264248848 9.99200722162640886e-15 0.395691066980361938
0.208985432982444763 9.99200722162640886e-15 0.0291333794593811035
0.152357250452041626 9.99200722162640886e-15 0.264392673969268799
0.0881932377815246582 9.99200722162640886e-15 0.0773696675896644592
0.116148166358470917 9.99200722162640886e-15 0.14499056339263916
0.069452136754989624 9.99200722162640886e-15 0.319231152534484863
0.0931152626872062683 9.99200722162640886e-15 0.0981509461998939514
0.0578239858150482178 9.99200722162640886e-15 0.332563698291778564
0.173560589551925659 9.99200722162640886e-15 0.19550710916519165
0.0133927902206778526 9.99200722162640886e-15 0.282339483499526978
0.023177366703748703 9.99200722162640886e-15 0.0679703503847122192
0.141179293394088745 9.99200722162640886e-15 0.241332113742828369
0.20095294713973999 9.99200722162640886e-15 0.195465624332427979
0.146348699927330017 9.99200722162640886e-15 0.0408656150102615356
0.111900240182876587 9.99200722162640886e-15 0.297241926193237305
0.190603286027908325 9.99200722162640886e-15 0.216396674513816833
0.0612216778099536896 9.99200722162640886e-15 0.124135285615921021
0.0123085062950849533 9.99200722162640886e-15 0.11416953057050705
0.187282443046569824 9.99200722162640886e-15 0.0674076825380325317
0.0637076720595359802 9.99200722162640886e-15 0.00235354900360107422
0.0553268156945705414 9.99200722162640886e-15 0.262579828500747681
0.109074562788009644 9.99200722162640886e-15 0.138328716158866882
0.0513825304806232452 9.99200722162640886e-15 0.357924878597259521
0.0282958336174488068 9.99200722162640886e-15 0.197019487619400024
0.183165237307548523 9.99200722162640886e-15 0.0826843231916427612
0.145617514848709106 9.99200722162640886e-15 0.237041682004928589
0.0924642011523246765 9.99200722162640886e-15 0.119227342307567596
0.0782544761896133423 9.99200722162640886e-15 0.299935251474380493
0.263716280460357666 9.99200722162640886e-15 0.054634392261505127
0.0438556745648384094 9.99200722162640886e-15 0.0110350064933300018
0.111143447458744049 9.99200722162640886e-15 0.293814301490783691
0.156618878245353699 9.99200722162640886e-15 0.0790545493364334106
0.322623997926712036 9.99200722162640886e-15 0.0292466878890991211
0.134495332837104797 9.99200722162640886e-15 0.221510931849479675
0.309728652238845825 9.99200722162640886e-15 0.0551536679267883301
0.0772782564163208008 9.99200722162640886e-15 0.150094836950302124
0.0906517058610916138 9.99200722162640886e-15 0.181453138589859009
0.111632212996482849 9.99200722162640886e-15 0.271885037422180176
0.0508399009704589844 9.99200722162640886e-15 0.176344826817512512
0.0283165760338306427 9.99200722162640886e-15 0.130963429808616638
0.32589152455329895 9.99200722162640886e-15 0.00527212023735046387
0.0444350652396678925 9.99200722162640886e-15 0.200271591544151306
0.147644698619842529 9.99200722162640886e-15 0.252009093761444092
0.067893393337726593 9.99200722162640886e-15 0.00664709508419036865
0.030291341245174408 9.99200722162640886e-15 0.148595377802848816
0.241258576512336731 9.99200722162640886e-15 0.127148419618606567
0.105279147624969482 9.99200722162640886e-15 0.228043660521507263
0.105018481612205505 9.99200722162640886e-15 0.242015719413757324
0.149553701281547546 9.99200722162640886e-15 0.158378735184669495
0.0441423915326595306 9.99200722162640886e-15 0.299699068069458008
0.25732007622718811 9.99200722162640886e-15 0.11898466944694519
0.0499470159411430359 9.99200722162640886e-15 0.0668798759579658508
0.0663909912109375 9.99200722162640886e-15 0.12165427953004837
0.19684116542339325 9.99200722162640886e-15 0.0283926576375961304
0.0557254105806350708 9.99200722162640886e-15 0.156945854425430298
0.0161245130002498627 9.99200722162640886e-15 0.0597699433565139771
0.164828822016716003 9.99200722162640886e-15 0.202713191509246826
0.32542005181312561 9.99200722162640886e-15 0.042358696460723877
0.0820206031203269958 9.99200722162640886e-15 0.056087203323841095
0.112936213612556458 9.99200722162640886e-15 0.219742029905319214
0.0403651483356952667 9.99200722162640886e-15 0.285645991563796997
0.196042627096176147 9.99200722162640886e-15 0.155031934380531311
0.251297175884246826 9.99200722162640886e-15 0.0480846166610717773
0.0293215252459049225 9.99200722162640886e-15 0.196806550025939941
0.0544890724122524261 9.99200722162640886e-15 0.154221624135971069
0.250459253787994385 9.99200722162640886e-15 0.0838045477867126465
0.139915555715560913 9.99200722162640886e-15 0.172730997204780579
0.0393242016434669495 9.99200722162640886e-15 0.332208514213562012
0.0134293008595705032 9.99200722162640886e-15 0.211832150816917419
0.146983444690704346 9.99200722162640886e-15 0.00782401859760284424
0.0558323860168457031 9.99200722162640886e-15 0.361258178949356079
0.155276566743850708 9.99200722162640886e-15 0.0323664546012878418
0.129040762782096863 9.99200722162640886e-15 0.165059715509414673
0.206442713737487793 9.99200722162640886e-15 0.095186576247215271
0.246515169739723206 9.99200722162640886e-15 0.0395512878894805908
0.00745746027678251266 9.99200722162640886e-15 0.181016787886619568
0.0178661439567804337 9.99200722162640886e-15 0.320764720439910889
0.195827499032020569 9.99200722162640886e-15 0.17464861273765564
0.0706510245800018311 9.99200722162640886e-15 0.341764330863952637
0.093101009726524353 9.99200722162640886e-15 0.153345793485641479
0.0968664363026618958 9.99200722162640886e-15 0.0609033331274986267
0.190879255533218384 9.99200722162640886e-15 0.120534345507621765
0.215203404426574707 9.99200722162640886e-15 0.0380880534648895264
0.21932770311832428 9.99200722162640886e-15 0.0594101846218109131
0.0441286489367485046 9.99200722162640886e-15 0.273143202066421509
0.119964897632598877 9.99200722162640886e-15 0.119807213544845581
0.225496470928192139 9.99200722162640886e-15 0.109854608774185181
0.277312606573104858 9.99200722162640886e-15 0.0777118504047393799
0.12832719087600708 9.99200722162640886e-15 0.106328248977661133
0.0220560971647500992 9.99200722162640886e-15 0.218875914812088013
0.0223565865308046341 9.99200722162640886e-15 0.200724303722381592
0.212233453989028931 9.99200722162640886e-15 0.0883794724941253662
0.15856759250164032 9.99200722162640886e-15 0.0382814705371856689
0.132479444146156311 9.99200722162640886e-15 0.215598627924919128
0.0615138635039329529 9.99200722162640886e-15 0.246294528245925903
0.124383896589279175 9.99200722162640886e-15 0.284672319889068604
0.278140991926193237 9.99200722162640886e-15 0.0340301394462585449
0.120599232614040375 9.99200722162640886e-15 0.154930487275123596
0.207019448280334473 9.99200722162640886e-15 0.162309229373931885
0.116518929600715637 9.99200722162640886e-15 0.231864824891090393
0.0808102041482925415 9.99200722162640886e-15 0.0304822176694869995
0.317920148372650146 9.99200722162640886e-15 0.00880455970764160156
0.242339566349983215 9.99200722162640886e-15 0.0517396032810211182
0.14807426929473877 9.99200722162640886e-15 0.0668203979730606079
0.301246732473373413 9.99200722162640886e-15 0.0293716192245483398
0.183751150965690613 9.99200722162640886e-15 0.102685645222663879
0.243154555559158325 9.99200722162640886e-15 0.0844627916812896729
0.111961685121059418 9.99200722162640886e-15 0.207405224442481995
0.209931924939155579 9.99200722162640886e-15 0.0356963276863098145
0.0316706933081150055 9.99200722162640886e-15 0.0119546018540859222
0.103837341070175171 9.99200722162640886e-15 0.146199807524681091
0.204120784997940063 9.99200722162640886e-15 0.0233540385961532593
0.0794734060764312744 9.99200722162640886e-15 0.0263795927166938782
0.200818195939064026 9.99200722162640886e-15 0.187142819166183472
0.0618419423699378967 9.99200722162640886e-15 0.178741186857223511
0.0728193148970603943 9.99200722162640886e-15 0.0372000411152839661
0.130846127867698669 9.99200722162640886e-15 0.241499081254005432
0.0360183119773864746 9.99200722162640886e-15 0.149786651134490967
0.0982426181435585022 9.99200722162640886e-15 0.117508210241794586
0.238916203379631042 9.99200722162640886e-15 0.117887377738952637
0.0396465174853801727 9.99200722162640886e-15 0.40067058801651001
0.221748471260070801 9.99200722162640886e-15 0.0711608529090881348
0.0639545619487762451 9.99200722162640886e-15 0.115375369787216187
0.237683221697807312 9.99200722162640886e-15 0.151647299528121948
0.18486940860748291 9.99200722162640886e-15 0.179529473185539246
0.209425359964370728 9.99200722162640886e-15 0.185836762189865112
0.131307318806648254 9.99200722162640886e-15 0.208586543798446655
0.0139377275481820107 9.99200722162640886e-15 0.302131980657577515
0.0669174268841743469 9.99200722162640886e-15 0.209875807166099548
0.184254869818687439 9.99200722162640886e-15 0.0142016857862472534
0.147856533527374268 9.99200722162640886e-15 0.0419927388429641724
0.151455119252204895 9.99200722162640886e-15 0.00779865682125091553
0.0237142015248537064 9.99200722162640886e-15 0.284122973680496216
0.0162592455744743347 9.99200722162640886e-15 0.0530979782342910767
0.00472813611850142479 9.99200722162640886e-15 0.336098462343215942
0.223224088549613953 9.99200722162640886e-15 0.124662399291992188
0.055576864629983902 9.99200722162640886e-15 0.374421477317810059
0.0549889355897903442 9.99200722162640886e-15 0.040906757116317749
0.141034841537475586 9.99200722162640886e-15 0.228680282831192017
0.0513709001243114471 9.99200722162640886e-15 0.0597532764077186584
0.248256713151931763 9.99200722162640886e-15 0.0195195376873016357
0.0632665827870368958 9.99200722162640886e-15 0.052945256233215332
0.365191817283630371 9.99200722162640886e-15 0.00227779150009155273
0.0320937633514404297 9.99200722162640886e-15 0.0962011069059371948
0.23388516902923584 9.99200722162640886e-15 0.0347264409065246582
0.024741368368268013 9.99200722162640886e-15 0.0906592011451721191
0.274730473756790161 9.99200722162640886e-15 0.0802531540393829346
0.0712888166308403015 9.99200722162640886e-15 0.225570812821388245
0.0164040941745042801 9.99200722162640886e-15 0.270184993743896484
0.00301703903824090958 9.99200722162640886e-15 0.267826497554779053
0.00155503908172249794 9.99200722162640886e-15 0.256429016590118408
0.164406538009643555 9.99200722162640886e-15 0.170296058058738708
0.00598128978163003922 9.99200722162640886e-15 0.025456627830862999
0.00158444035332649946 9.99200722162640886e-15 0.0548863261938095093
0.267936497926712036 9.99200722162640886e-15 0.101546347141265869
0.205764994025230408 9.99200722162640886e-15 0.0689047425985336304
0.260122507810592651 9.99200722162640886e-15 0.0705125629901885986
0.044444940984249115 9.99200722162640886e-15 0.368899673223495483
0.138227954506874084 9.99200722162640886e-15 0.272011637687683105
0.285670220851898193 9.99200722162640886e-15 0.0762205123901367188
0.108639523386955261 9.99200722162640886e-15 0.0510778576135635376
0.205059930682182312 9.99200722162640886e-15 0.137981221079826355
0.149462237954139709 9.99200722162640886e-15 0.0486933290958404541
0.0576443485915660858 9.99200722162640886e-15 0.0159813910722732544
0.205983489751815796 9.99200722162640886e-15 0.0366478711366653442
0.189305320382118225 9.99200722162640886e-15 0.168469414114952087
0.292643487453460693 9.99200722162640886e-15 0.0430479645729064941
0.214295998215675354 9.99200722162640886e-15 0.0497345924377441406
0.123800523579120636 9.99200722162640886e-15 0.0110724121332168579
0.0522201545536518097 9.99200722162640886e-15 0.177939474582672119
0.122534118592739105 9.99200722162640886e-15 0.261019885540008545
0.181848809123039246 9.99200722162640886e-15 0.0771627873182296753
0.147528186440467834 9.99200722162640886e-15 0.235989317297935486
0.145166128873825073 9.99200722162640886e-15 0.166964292526245117
0.0428808815777301788 9.99200722162640886e-15 0.385895967483520508
0.0570975057780742645 9.99200722162640886e-15 0.285018444061279297
0.201551079750061035 9.99200722162640886e-15 0.0427194386720657349
0.120461732149124146 9.99200722162640886e-15 0.172846898436546326
0.188833117485046387 9.99200722162640886e-15 0.0174091309309005737
0.113235495984554291 9.99200722162640886e-15 0.269676685333251953
0.0821490958333015442 9.99200722162640886e-15 0.160969436168670654
0.118433870375156403 9.99200722162640886e-15 0.0367746353149414062
0.216614603996276855 9.99200722162640886e-15 0.0601145327091217041
0.128194540739059448 9.99200722162640886e-15 0.104265674948692322
0.163149058818817139 9.99200722162640886e-15 0.203780472278594971
0.228856921195983887 9.99200722162640886e-15 0.0466193854808807373
0.0403663031756877899 9.99200722162640886e-15 0.0142351128160953522
0.0959018692374229431 9.99200722162640886e-15 0.0806805416941642761
0.239656642079353333 9.99200722162640886e-15 0.105511009693145752
0.0572057142853736877 9.99200722162640886e-15 0.293869554996490479
0.00540237128734588623 9.99200722162640886e-15 0.068507857620716095
0.0267812646925449371 9.99200722162640886e-15 0.361697614192962646
0.307153463363647461 9.99200722162640886e-15 0.0111323297023773193
0.0622111745178699493 9.99200722162640886e-15 0.34461677074432373
0.182518228888511658 9.99200722162640886e-15 0.0171011686325073242
0.00897424202412366867 9.99200722162640886e-15 0.388980180025100708
0.0982028096914291382 9.99200722162640886e-15 0.196442753076553345
0.0211897213011980057 9.99200722162640886e-15 0.053999677300453186
0.123058363795280457 9.99200722162640886e-15 0.157131120562553406
0.147506415843963623 9.99200722162640886e-15 0.0337550938129425049
0.216438218951225281 9.99200722162640886e-15 0.107359349727630615
0.0183881968259811401 9.99200722162640886e-15 0.414081186056137085
0.219835847616195679 9.99200722162640886e-15 0.00598505139350891113
0.192154258489608765 9.99200722162640886e-15 0.0361411571502685547
0.22696627676486969 9.99200722162640886e-15 0.00851646065711975098
0.118586823344230652 9.99200722162640886e-15 0.116333305835723877
0.0240785572677850723 9.99200722162640886e-15 0.0403606817126274109
0.287703782320022583 9.99200722162640886e-15 0.0925822854042053223
0.10662967711687088 9.99200722162640886e-15 0.236583620309829712
0.0290031768381595612 9.99200722162640886e-15 0.342688143253326416
0.0657604038715362549 9.99200722162640886e-15 0.364171624183654785
0.0643971711397171021 9.99200722162640886e-15 0.128438666462898254
0.037722419947385788 9.99200722162640886e-15 0.256568402051925659
0.286416709423065186 9.99200722162640886e-15 0.0646133124828338623
0.00421913433820009232 9.99200722162640886e-15 0.297416210174560547
0.299247145652770996 9.99200722162640886e-15 0.145895689725875854
0.307506650686264038 9.99200722162640886e-15 0.0939965248107910156
0.1342364102602005 9.99200722162640886e-15 0.435358732938766479
0.215608835220336914 9.99200722162640886e-15 0.215809598565101624
0.191065996885299683 9.99200722162640886e-15 0.390817016363143921
0.246157258749008179 9.99200722162640886e-15 0.247188925743103027
0.151747897267341614 9.99200722162640886e-15 0.39577019214630127
0.343297898769378662 9.99200722162640886e-15 0.168148517608642578
0.227443933486938477 9.99200722162640886e-15 0.428053498268127441
0.310628294944763184 9.99200722162640886e-15 0.158769994974136353
0.175044864416122437 9.99200722162640886e-15 0.396358370780944824
0.229094922542572021 9.99200722162640886e-15 0.339487552642822266
0.156672805547714233 9.99200722162640886e-15 0.354890823364257812
0.340438216924667358 9.99200722162640886e-15 0.2296181321144104
0.281458199024200439 9.99200722162640886e-15 0.379041910171508789
0.239916399121284485 9.99200722162640886e-15 0.353147387504577637
0.198784470558166504 9.99200722162640886e-15 0.376059651374816895
0.346161961555480957 9.99200722162640886e-15 0.406868129968643188
0.0945394933223724365 9.99200722162640886e-15 0.387412190437316895
0.340768486261367798 9.99200722162640886e-15 0.416771739721298218
0.175362452864646912 9.99200722162640886e-15 0.296618878841400146
0.29310646653175354 9.99200722162640886e-15 0.236850947141647339
0.351235747337341309 9.99200722162640886e-15 0.132646858692169189
0.251651406288146973 9.99200722162640886e-15 0.231712192296981812
0.264792263507843018 9.99200722162640886e-15 0.440705269575119019
0.301710277795791626 9.99200722162640886e-15 0.200756117701530457
0.177314162254333496 9.99200722162640886e-15 0.364398539066314697
0.0669349431991577148 9.99200722162640886e-15 0.435123920440673828
0.305332869291305542 9.99200722162640886e-15 0.237601727247238159
0.306390702724456787 9.99200722162640886e-15 0.296238481998443604
0.259686559438705444 9.99200722162640886e-15 0.275167018175125122
0.365592032670974731 9.99200722162640886e-15 0.0759264826774597168
0.218008831143379211 9.99200722162640886e-15 0.378181934356689453
0.284340113401412964 9.99200722162640886e-15 0.349106252193450928
0.318880826234817505 9.99200722162640886e-15 0.293607532978057861
0.315689742565155029 9.99200722162640886e-15 0.337175548076629639
0.148101583123207092 9.99200722162640886e-15 0.41462436318397522
0.349672436714172363 9.99200722162640886e-15 0.322344750165939331
0.292354851961135864 9.99200722162640886e-15 0.368393838405609131
0.235975697636604309 9.99200722162640886e-15 0.424618691205978394
0.282427042722702026 9.99200722162640886e-15 0.25238567590713501
0.307582646608352661 9.99200722162640886e-15 0.378533840179443359
0.35432770848274231 9.99200722162640886e-15 0.23172973096370697
0.363717913627624512 9.99200722162640886e-15 0.384614765644073486
0.148406922817230225 9.99200722162640886e-15 0.285825550556182861
0.363559573888778687 9.99200722162640886e-15 0.310720831155776978
0.348226726055145264 9.99200722162640886e-15 0.0427243411540985107
0.349480032920837402 9.99200722162640886e-15 0.113072901964187622
0.333520591259002686 9.99200722162640886e-15 0.0668048262596130371
0.108062475919723511 9.99200722162640886e-15 0.385474115610122681
0.180929481983184814 9.99200722162640886e-15 0.404264688491821289
0.34042668342590332 9.99200722162640886e-15 0.417848169803619385
0.284679204225540161 9.99200722162640886e-15 0.282202601432800293
0.330780118703842163 9.99200722162640886e-15 0.434672951698303223
0.301566064357757568 9.99200722162640886e-15 0.251052558422088623
0.193768694996833801 9.99200722162640886e-15 0.233409807085990906
0.158486530184745789 9.99200722162640886e-15 0.25976252555847168
0.237143367528915405 9.99200722162640886e-15 0.386277168989181519
0.319171011447906494 9.99200722162640886e-15 0.368313193321228027
0.370648652315139771 9.99200722162640886e-15 0.0636929869651794434
0.265183806419372559 9.99200722162640886e-15 0.163929164409637451
0.283726751804351807 9.99200722162640886e-15 0.249458178877830505
0.24009665846824646 9.99200722162640886e-15 0.384554028511047363
0.129681840538978577 9.99200722162640886e-15 0.383966177701950073
0.106870830059051514 9.99200722162640886e-15 0.384197443723678589
0.0703278779983520508 9.99200722162640886e-15 0.421786338090896606
0.323022574186325073 9.99200722162640886e-15 0.308396100997924805
0.133957535028457642 9.99200722162640886e-15 0.357759982347488403
0.174426719546318054 9.99200722162640886e-15 0.393017411231994629
0.152622237801551819 9.99200722162640886e-15 0.311572432518005371
0.299181222915649414 9.99200722162640886e-15 0.393161565065383911
0.294050812721252441 9.99200722162640886e-15 0.428293734788894653
0.321952790021896362 9.99200722162640886e-15 0.287156641483306885
0.301225781440734863 9.99200722162640886e-15 0.0989883840084075928
0.356198370456695557 9.99200722162640886e-15 0.0528031587600708008
0.36424747109413147 9.99200722162640886e-15 0.0422462821006774902
0.304284512996673584 9.99200722162640886e-15 0.3666115403175354
0.133330762386322021 9.99200722162640886e-15 0.38466230034828186
0.201369777321815491 9.99200722162640886e-15 0.21299995481967926
0.298521816730499268 9.99200722162640886e-15 0.375878870487213135
0.366386860609054565 9.99200722162640886e-15 0.187900185585021973
0.35149577260017395 9.99200722162640886e-15 0.0582952499389648438
0.332340002059936523 9.99200722162640886e-15 0.132774800062179565
0.263268768787384033 9.99200722162640886e-15 0.305242300033569336
0.293913990259170532 9.99200722162640886e-15 0.307965904474258423
0.181538641452789307 9.99200722162640886e-15 0.237730711698532104
0.178595378994941711 9.99200722162640886e-15 0.383060693740844727
0.0989445149898529053 9.99200722162640886e-15 0.41761896014213562
0.27489173412322998 9.99200722162640886e-15 0.353812605142593384
0.117707133293151855 9.99200722162640886e-15 0.433163642883300781
0.0681076943874359131 9.99200722162640886e-15 0.375430166721343994
0.369996726512908936 9.99200722162640886e-15 0.222516566514968872
0.270615756511688232 9.99200722162640886e-15 0.392835915088653564
0.295014947652816772 9.99200722162640886e-15 0.264393657445907593
0.299465775489807129 9.99200722162640886e-15 0.125955283641815186
0.137997597455978394 9.99200722162640886e-15 0.396505147218704224
0.0699083209037780762 9.99200722162640886e-15 0.399886757135391235
0.281158894300460815 9.99200722162640886e-15 0.345543742179870605
0.295399725437164307 9.99200722162640886e-15 0.202874988317489624
0.197238892316818237 9.99200722162640886e-15 0.274347841739654541
0.0772790610790252686 9.99200722162640886e-15 0.390649378299713135
0.0201186537742614746 9.99200722162640886e-15 0.433473736047744751
0.31455501914024353 9.99200722162640886e-15 0.430192172527313232
0.132959410548210144 9.99200722162640886e-15 0.307229578495025635
0.346709609031677246 9.99200722162640886e-15 0.437173187732696533
0.322602808475494385 9.99200722162640886e-15 0.0754034519195556641
0.349524468183517456 9.99200722162640886e-15 0.29542231559753418
0.0847777128219604492 9.99200722162640886e-15 0.415211617946624756
0.351825952529907227 9.99200722162640886e-15 0.177396774291992188
0.22870945930480957 9.99200722162640886e-15 0.408932596445083618
0.186771944165229797 9.99200722162640886e-15 0.248719096183776855
0.360398799180984497 9.99200722162640886e-15 0.303116917610168457
0.0560305118560791016 9.99200722162640886e-15 0.398692131042480469
0.196154475212097168 9.99200722162640886e-15 0.388341277837753296
0.263393908739089966 9.99200722162640886e-15 0.310182332992553711
