ply
format ascii 1.0
element vertex 738
property float x
property float y
property float z
end_header
0.0957802385091781616 -0.240702271461486816 0.23496602475643158
0.0971436351537704468 -0.112235814332962036 0.234270960092544556
0.0889705494046211243 -0.117625385522842407 0.237701326608657837
0.0970785468816757202 -0.213674962520599365 0.234395906329154968
0.0971491485834121704 -0.213830143213272095 0.234366461634635925
0.0920828431844711304 -0.350642621517181396 0.236621379852294922
0.0849069729447364807 -0.0893363431096076965 0.239377081394195557
0.0908603444695472717 -0.31341630220413208 0.237097859382629395
0.0993956625461578369 -0.228245913982391357 0.233438864350318909
0.10091988742351532 -0.126652747392654419 0.232702285051345825
0.085047699511051178 -0.103116810321807861 0.239331364631652832
0.105710484087467194 -0.177876949310302734 0.230743944644927979
0.0953224897384643555 -0.256843775510787964 0.235173389315605164
0.0941890180110931396 -0.143547236919403076 0.23553931713104248
0.0993798226118087769 -0.141038328409194946 0.233361542224884033
0.0960478112101554871 -0.129004701972007751 0.234746336936950684
0.139430075883865356 -0.302115887403488159 0.212130129337310791
0.138503849506378174 -0.333685547113418579 0.212628021836280823
0.119618959724903107 -0.375086963176727295 0.22396300733089447
0.123213082551956177 -0.351058512926101685 0.221837475895881653
0.13953283429145813 -0.299458175897598267 0.212073221802711487
0.134601175785064697 -0.238199576735496521 0.215174868702888489
0.134836405515670776 -0.278361320495605469 0.214953765273094177
0.134050577878952026 -0.356064170598983765 0.215276151895523071
0.132712274789810181 -0.207029342651367188 0.216377988457679749
0.125451743602752686 -0.321443557739257812 0.220542356371879578
0.136546298861503601 -0.359362274408340454 0.21376095712184906
0.14025580883026123 -0.287793993949890137 0.211659088730812073
0.128036826848983765 -0.349633723497390747 0.218924224376678467
0.133017465472221375 -0.183337494730949402 0.216240048408508301
0.134172171354293823 -0.354790806770324707 0.215205147862434387
0.12357494980096817 -0.327862739562988281 0.221664294600486755
0.138407588005065918 -0.310385465621948242 0.212731987237930298
0.129491120576858521 -0.375153034925460815 0.217994928359985352
0.128496408462524414 -0.312816411256790161 0.218718722462654114
0.127786889672279358 -0.145213112235069275 0.21914006769657135
0.124198637902736664 -0.188692480325698853 0.221202895045280457
0.116498291492462158 -0.249131843447685242 0.225584313273429871
0.12747819721698761 -0.152687117457389832 0.219322681427001953
0.116859115660190582 -0.335590481758117676 0.225502297282218933
0.126865237951278687 -0.210120052099227905 0.219744116067886353
0.128540158271789551 -0.194952681660652161 0.218788295984268188
0.125232398509979248 -0.269654989242553711 0.220737695693969727
0.125193327665328979 -0.188853412866592407 0.220647931098937988
0.121125884354114532 -0.22750440239906311 0.222971543669700623
0.121756531298160553 -0.129423856735229492 0.222484111785888672
0.114298619329929352 -0.137310206890106201 0.226657658815383911
0.123402394354343414 -0.132766321301460266 0.221570104360580444
0.118740610778331757 -0.364305555820465088 0.224491789937019348
0.117311522364616394 -0.21314162015914917 0.225080713629722595
0.120760291814804077 -0.28570711612701416 0.223255977034568787
0.131702646613121033 -0.159261539578437805 0.216973885893821716
0.118097253143787384 -0.219654321670532227 0.224651142954826355
0.113750763237476349 -0.206986084580421448 0.227059662342071533
0.126622900366783142 -0.224941998720169067 0.219899848103523254
0.157678231596946716 -0.294238686561584473 0.198771804571151733
0.152565836906433105 -0.332620471715927124 0.202678114175796509
0.166394039988517761 -0.357720673084259033 0.191779658198356628
0.158580556511878967 -0.37267419695854187 0.197862535715103149
0.156843006610870361 -0.306194722652435303 0.199395328760147095
0.164144396781921387 -0.290889859199523926 0.193714544177055359
0.153353378176689148 -0.311878561973571777 0.202114596962928772
0.158708199858665466 -0.304972201585769653 0.197937190532684326
0.154799282550811768 -0.267845988273620605 0.201095417141914368
0.1490296870470047 -0.361184388399124146 0.205374822020530701
0.156061708927154541 -0.318509519100189209 0.199975669384002686
0.154848933219909668 -0.316710174083709717 0.20093044638633728
0.154671117663383484 -0.328051209449768066 0.201040491461753845
0.148726984858512878 -0.362618774175643921 0.205608278512954712
0.165928483009338379 -0.33180806040763855 0.192211240530014038
0.14730091392993927 -0.374406754970550537 0.206695124506950378
0.16685110330581665 -0.376279532909393311 0.191373676061630249
0.156660199165344238 -0.360016584396362305 0.199399709701538086
0.148946836590766907 -0.286699056625366211 0.205535829067230225
0.151086986064910889 -0.230196073651313782 0.203902259469032288
0.140547275543212891 -0.187558740377426147 0.211350336670875549
0.147590026259422302 -0.174045920372009277 0.206295311450958252
0.148491263389587402 -0.165678560733795166 0.205636113882064819
0.140656724572181702 -0.257528781890869141 0.21140231192111969
0.142095744609832764 -0.150869935750961304 0.210176214575767517
0.14240168035030365 -0.199928507208824158 0.210048943758010864
0.143220588564872742 -0.267337709665298462 0.209589466452598572
0.14763176441192627 -0.179019972681999207 0.206274762749671936
0.14473782479763031 -0.365181982517242432 0.208687826991081238
0.142652615904808044 -0.160796374082565308 0.209796950221061707
0.141861021518707275 -0.178835615515708923 0.210395842790603638
0.145212471485137939 -0.216416895389556885 0.208072155714035034
0.139239341020584106 -0.150247275829315186 0.212215065956115723
0.148217558860778809 -0.210040032863616943 0.205914095044136047
0.143166318535804749 -0.162700697779655457 0.209433615207672119
0.147575274109840393 -0.261254757642745972 0.206468060612678528
0.180509328842163086 -0.319485515356063843 0.178245514631271362
0.186258658766746521 -0.345495700836181641 0.172411799430847168
0.182673826813697815 -0.248766690492630005 0.17631039023399353
0.187568515539169312 -0.358272582292556763 0.171060517430305481
0.174020111560821533 -0.326356559991836548 0.184712424874305725
0.18440951406955719 -0.380087703466415405 0.174148738384246826
0.182065203785896301 -0.238461613655090332 0.176952436566352844
0.186852514743804932 -0.372741103172302246 0.171729579567909241
0.182774618268013 -0.275038421154022217 0.176124393939971924
0.173313453793525696 -0.305880963802337646 0.185485512018203735
0.171327322721481323 -0.378415137529373169 0.187236368656158447
0.175965428352355957 -0.245651260018348694 0.183028891682624817
0.175890073180198669 -0.346361428499221802 0.182777583599090576
0.182635799050331116 -0.259385466575622559 0.176313966512680054
0.183344125747680664 -0.352482378482818604 0.175303682684898376
0.179292097687721252 -0.268448352813720703 0.179628282785415649
0.169859424233436584 -0.338863760232925415 0.188746437430381775
0.166623592376708984 -0.221833527088165283 0.191364884376525879
0.170396596193313599 -0.181827783584594727 0.187894657254219055
0.161153450608253479 -0.211391642689704895 0.196234285831451416
0.172628089785575867 -0.28535047173500061 0.186142846941947937
0.16567230224609375 -0.241276532411575317 0.192261934280395508
0.161672919988632202 -0.200075417757034302 0.195742771029472351
0.169360294938087463 -0.293396562337875366 0.189085528254508972
0.173615053296089172 -0.239119231700897217 0.185150548815727234
0.166682496666908264 -0.28318709135055542 0.191457211971282959
0.163005456328392029 -0.209629282355308533 0.194573149085044861
0.17235901951789856 -0.232399970293045044 0.186258435249328613
0.165860593318939209 -0.300583988428115845 0.192233666777610779
0.173769831657409668 -0.203411594033241272 0.184927672147750854
0.168008148670196533 -0.186839774250984192 0.190043419599533081
0.166093006730079651 -0.321770787239074707 0.192075803875923157
0.19580589234828949 -0.259587228298187256 0.161639511585235596
0.1964082270860672 -0.277258038520812988 0.16080358624458313
0.201293691992759705 -0.294836312532424927 0.154500976204872131
0.192214712500572205 -0.36528971791267395 0.165821865200996399
0.192721858620643616 -0.378740102052688599 0.165123462677001953
0.196172803640365601 -0.37694200873374939 0.160725459456443787
0.200077787041664124 -0.299833327531814575 0.156033992767333984
0.195100322365760803 -0.288157910108566284 0.162431582808494568
0.205987736582756042 -0.371808946132659912 0.148217141628265381
0.195466905832290649 -0.322266817092895508 0.16183413565158844
0.191753610968589783 -0.358564108610153198 0.166435956954956055
0.202220842242240906 -0.312554240226745605 0.153250277042388916
0.198707595467567444 -0.278481990098953247 0.157864004373550415
0.202249377965927124 -0.358303427696228027 0.153040081262588501
0.197680011391639709 -0.272488981485366821 0.159198388457298279
0.190226912498474121 -0.307313293218612671 0.168113380670547485
0.193562746047973633 -0.26081317663192749 0.164279773831367493
0.193675920367240906 -0.215511545538902283 0.164029017090797424
0.19135652482509613 -0.281782954931259155 0.166788190603256226
0.191778481006622314 -0.291807204484939575 0.166347190737724304
0.180403247475624084 -0.197137311100959778 0.178720772266387939
0.185822129249572754 -0.210895508527755737 0.172739788889884949
0.188468605279922485 -0.283874869346618652 0.170001685619354248
0.185592427849769592 -0.212167635560035706 0.172998443245887756
0.190137475728988647 -0.271197587251663208 0.168113023042678833
0.184156745672225952 -0.215142965316772461 0.174601316452026367
0.187890872359275818 -0.290592968463897705 0.170661941170692444
0.18687024712562561 -0.273847997188568115 0.171749398112297058
0.199896723031997681 -0.213340684771537781 0.156439438462257385
0.20660024881362915 -0.22183072566986084 0.147214710712432861
0.202469885349273682 -0.242380052804946899 0.1529693603515625
0.206214219331741333 -0.254539698362350464 0.147837132215499878
0.208792924880981445 -0.35328441858291626 0.14455084502696991
0.21081426739692688 -0.276503205299377441 0.141551300883293152
0.210193455219268799 -0.249810308218002319 0.142334431409835815
0.200662299990653992 -0.223647519946098328 0.155411615967750549
0.200666293501853943 -0.228590548038482666 0.155419647693634033
0.207595154643058777 -0.353910684585571289 0.146204978227615356
0.210548251867294312 -0.232311397790908813 0.141796886920928955
0.202652007341384888 -0.229576215147972107 0.152682915329933167
0.21195182204246521 -0.316937714815139771 0.139716014266014099
0.223038747906684875 -0.360931485891342163 0.121206313371658325
0.21372927725315094 -0.353973746299743652 0.13663288950920105
0.215196132659912109 -0.359045088291168213 0.134186848998069763
0.21387694776058197 -0.262750625610351562 0.136740431189537048
0.215858250856399536 -0.316406786441802979 0.133256018161773682
0.215875506401062012 -0.35251203179359436 0.133088231086730957
0.211502999067306519 -0.331018149852752686 0.14040413498878479
0.215054839849472046 -0.292298465967178345 0.134678006172180176
0.21624186635017395 -0.342305034399032593 0.132521554827690125
0.219778746366500854 -0.311223238706588745 0.126790717244148254
0.221072554588317871 -0.36663353443145752 0.124436788260936737
0.223181843757629395 -0.373024970293045044 0.120922945439815521
0.213160857558250427 -0.320222645998001099 0.137703344225883484
0.224887162446975708 -0.359755754470825195 0.118038453161716461
0.213903859257698059 -0.216958671808242798 0.136829495429992676
0.225247472524642944 -0.307861089706420898 0.117330722510814667
0.219630837440490723 -0.302299380302429199 0.12704893946647644
0.221536040306091309 -0.248202785849571228 0.123662099242210388
0.222678512334823608 -0.338540345430374146 0.121829278767108917
0.220190897583961487 -0.297854363918304443 0.126071825623512268
0.223365262150764465 -0.269107669591903687 0.120527908205986023
0.214186176657676697 -0.225178718566894531 0.136353850364685059
0.223572194576263428 -0.256969094276428223 0.120149910449981689
0.234887048602104187 -0.320416569709777832 0.0959918349981307983
0.230087995529174805 -0.378382563591003418 0.106531873345375061
0.22920835018157959 -0.366366326808929443 0.108511880040168762
0.23526531457901001 -0.34565696120262146 0.0950978100299835205
0.23154112696647644 -0.351860970258712769 0.103359445929527283
0.235502064228057861 -0.377892583608627319 0.094503358006477356
0.229306444525718689 -0.360303968191146851 0.108306795358657837
0.23575146496295929 -0.286215603351593018 0.0941437855362892151
0.229570344090461731 -0.371737629175186157 0.107696153223514557
0.229128286242485046 -0.376960515975952148 0.108667284250259399
0.233164802193641663 -0.312990248203277588 0.0998342707753181458
0.231735572218894958 -0.232279792428016663 0.103204794228076935
0.227103978395462036 -0.337399542331695557 0.113255135715007782
0.229594618082046509 -0.305302828550338745 0.107789836823940277
0.226489514112472534 -0.351693630218505859 0.114587612450122833
0.226993218064308167 -0.23132738471031189 0.113765329122543335
0.232682228088378906 -0.266654431819915771 0.101011790335178375
0.230446130037307739 -0.279726237058639526 0.105957664549350739
0.231263279914855957 -0.30159488320350647 0.10408405214548111
0.230247318744659424 -0.266448855400085449 0.106433279812335968
0.229038819670677185 -0.230152428150177002 0.10921400785446167
0.226008698344230652 -0.318286657333374023 0.115741096436977386
0.240906119346618652 -0.352577060461044312 0.079362913966178894
0.244138374924659729 -0.355071604251861572 0.068969041109085083
0.242357611656188965 -0.298212349414825439 0.0751665458083152771
0.243467211723327637 -0.26746252179145813 0.071866840124130249
0.241690874099731445 -0.354793250560760498 0.0768256634473800659
0.245146512985229492 -0.291263073682785034 0.0662756860256195068
0.243813246488571167 -0.35166284441947937 0.0700413286685943604
0.243983030319213867 -0.269942820072174072 0.0701904818415641785
0.245205968618392944 -0.335381388664245605 0.0657102465629577637
0.244721725583076477 -0.312479496002197266 0.06745871901512146
0.244488343596458435 -0.274074912071228027 0.0685337409377098083
0.238536164164543152 -0.30752912163734436 0.0867765173316001892
0.238510504364967346 -0.273736655712127686 0.0867789536714553833
0.24139520525932312 -0.297329485416412354 0.078160896897315979
0.238101497292518616 -0.312311679124832153 0.0880935266613960266
0.239007622003555298 -0.339273005723953247 0.0854296833276748657
0.240422829985618591 -0.308285892009735107 0.08110770583152771
0.23836246132850647 -0.357371300458908081 0.0874088257551193237
0.237088814377784729 -0.246938899159431458 0.0909926742315292358
0.241334497928619385 -0.275272160768508911 0.0782945901155471802
0.247204601764678955 -0.362626612186431885 0.0579474642872810364
0.250497758388519287 -0.302221119403839111 0.0411387495696544647
0.248868465423583984 -0.322320491075515747 0.0496431440114974976
0.249993234872817993 -0.303320467472076416 0.0438707582652568817
0.248589187860488892 -0.316641300916671753 0.0512762181460857391
0.251644164323806763 -0.369612336158752441 0.0335871651768684387
0.24938473105430603 -0.295748144388198853 0.0473368838429450989
0.250362604856491089 -0.345357120037078857 0.0410469435155391693
0.251677423715591431 -0.350451558828353882 0.0337742641568183899
0.249140992760658264 -0.345786064863204956 0.047704692929983139
0.246978223323822021 -0.253567129373550415 0.058074023574590683
0.249759703874588013 -0.254916638135910034 0.0457972846925258636
0.24679844081401825 -0.269868075847625732 0.0590126030147075653
0.24779355525970459 -0.279861509799957275 0.0547045618295669556
0.248104497790336609 -0.30849224328994751 0.0535842552781105042
0.245728209614753723 -0.28233569860458374 0.0638513192534446716
0.245747238397598267 -0.249539867043495178 0.0634769648313522339
0.24693046510219574 -0.345512121915817261 0.0590988732874393463
0.246480599045753479 -0.345477163791656494 0.0610860735177993774
0.251832813024520874 -0.332549214363098145 0.0323607772588729858
0.251612842082977295 -0.321383863687515259 0.0338837318122386932
0.252784609794616699 -0.263786882162094116 0.0241815336048603058
0.251985132694244385 -0.366423845291137695 0.0316618345677852631
0.250761628150939941 -0.260782361030578613 0.0395400747656822205
0.251769006252288818 -0.292145311832427979 0.0322977378964424133
0.252278119325637817 -0.288383513689041138 0.0283712279051542282
0.253214508295059204 -0.301959991455078125 0.016774522140622139
0.252644240856170654 -0.375755727291107178 0.0226711127907037735
0.253098756074905396 -0.340976476669311523 0.016821540892124176
0.253215312957763672 -0.310178458690643311 0.0163678601384162903
0.253374844789505005 -0.326661229133605957 0.0129418130964040756
0.252887904644012451 -0.316315650939941406 0.0214868634939193726
0.253399640321731567 -0.305291324853897095 0.0135543989017605782
0.252908676862716675 -0.29700237512588501 0.0220673717558383942
0.25239485502243042 -0.348955392837524414 0.0280766300857067108
0.253724932670593262 -0.374759852886199951 0.00485322484746575356
0.253440648317337036 -0.348457962274551392 0.0108111705631017685
0.253285467624664307 -0.267900437116622925 0.0163293890655040741
0.253056764602661133 -0.255575180053710938 0.0215531010180711746
0.253987878561019897 -0.335998415946960449 0.000285105750663205981
0.253889530897140503 -0.359472751617431641 0.00253267213702201843
0.253870695829391479 -0.261476486921310425 0.0029602020513266325
0.253731429576873779 -0.258354544639587402 0.0061412355862557888
0.253428936004638672 -0.27947002649307251 0.0130522763356566429
0.252843886613845825 -0.31332021951675415 -0.0218099802732467651
0.253049939870834351 -0.367288768291473389 -0.0162582248449325562
0.253164559602737427 -0.360512614250183105 -0.0146326059475541115
0.253420978784561157 -0.339048683643341064 -0.011246824637055397
0.252743542194366455 -0.373671025037765503 -0.0210698544979095459
0.253454148769378662 -0.337595582008361816 -0.010756191797554493
0.253529727458953857 -0.371536552906036377 -0.0081577422097325325
0.253080755472183228 -0.335986524820327759 -0.0169934500008821487
0.252770304679870605 -0.272470742464065552 -0.0246501266956329346
0.253286510705947876 -0.305459737777709961 -0.014804961159825325
0.253307580947875977 -0.289264321327209473 -0.0145059609785676003
0.253268927335739136 -0.293172597885131836 -0.0153158195316791534
0.253529012203216553 -0.309128105640411377 -0.00986941438168287277
0.253840357065200806 -0.353518187999725342 -0.00335083156824111938
0.253718435764312744 -0.293785989284515381 -0.00590312760323286057
0.253613710403442383 -0.259029120206832886 -0.00809436943382024765
0.253757566213607788 -0.28897508978843689 -0.00508325826376676559
0.253924250602722168 -0.330286979675292969 -0.0015939958393573761
0.248817861080169678 -0.333964705467224121 -0.0496893413364887238
0.250040531158447266 -0.357995152473449707 -0.042558521032333374
0.247272059321403503 -0.380800873041152954 -0.0572298355400562286
0.25158575177192688 -0.355003446340560913 -0.0341835282742977142
0.249624267220497131 -0.277904927730560303 -0.0463594868779182434
0.249692648649215698 -0.276774227619171143 -0.0460079573094844818
0.248654156923294067 -0.371175646781921387 -0.0498718135058879852
0.248134776949882507 -0.341454625129699707 -0.0532736405730247498
0.248358681797981262 -0.373800486326217651 -0.0514340624213218689
0.251575618982315063 -0.354937434196472168 -0.0342400558292865753
0.250560343265533447 -0.307341337203979492 -0.0406892783939838409
0.252164959907531738 -0.333863198757171631 -0.0299277603626251221
0.251845061779022217 -0.342457950115203857 -0.032261386513710022
0.252393960952758789 -0.328062295913696289 -0.028261503204703331
0.251258283853530884 -0.319174706935882568 -0.0360665842890739441
0.251164287328720093 -0.30675467848777771 -0.0365701578557491302
0.252303957939147949 -0.33789139986038208 -0.0290083661675453186
0.252214491367340088 -0.313774287700653076 -0.029338054358959198
0.251339823007583618 -0.289942771196365356 -0.0351426079869270325
0.247153207659721375 -0.340355604887008667 -0.0581821687519550323
0.245638951659202576 -0.279017597436904907 -0.063646070659160614
0.247371718287467957 -0.306841939687728882 -0.0569318383932113647
0.2471914142370224 -0.303230792284011841 -0.0576227381825447083
0.245646819472312927 -0.292993158102035522 -0.0637665688991546631
0.246252283453941345 -0.355273574590682983 -0.0619934536516666412
0.244344547390937805 -0.26949775218963623 -0.0687844827771186829
0.246602326631546021 -0.357594668865203857 -0.0606011524796485901
0.246938019990921021 -0.3235035240650177 -0.0588699877262115479
0.244231328368186951 -0.321661859750747681 -0.06910666823387146
0.240292921662330627 -0.34040793776512146 -0.0815382003784179688
0.242155224084854126 -0.306664258241653442 -0.0759349539875984192
0.240319833159446716 -0.339961528778076172 -0.0814567655324935913
0.243988245725631714 -0.319344192743301392 -0.0699123665690422058
0.244766592979431152 -0.315169245004653931 -0.0674607530236244202
0.245880067348480225 -0.359471261501312256 -0.063397623598575592
0.243172004818916321 -0.319514423608779907 -0.0725299268960952759
0.240849882364273071 -0.337888479232788086 -0.0797786712646484375
0.241147458553314209 -0.354442983865737915 -0.0786406546831130981
0.244982317090034485 -0.363064348697662354 -0.0662388578057289124
0.237697005271911621 -0.350053548812866211 -0.0892991051077842712
0.239371627569198608 -0.242864504456520081 -0.0839416533708572388
0.234029725193977356 -0.241069957613945007 -0.0986844301223754883
0.236160144209861755 -0.26407429575920105 -0.0929569676518440247
0.238103419542312622 -0.246007725596427917 -0.0874660760164260864
0.239032939076423645 -0.258942842483520508 -0.0849869400262832642
0.240569382905960083 -0.282093048095703125 -0.0809011757373809814
0.237829551100730896 -0.283473998308181763 -0.08847837895154953
0.23646901547908783 -0.310374557971954346 -0.0924199819564819336
0.236261710524559021 -0.268970102071762085 -0.0927098691463470459
0.228591799736022949 -0.369888722896575928 -0.1099252849817276
0.233723968267440796 -0.267052739858627319 -0.0992123782634735107
0.234221190214157104 -0.363091707229614258 -0.0974629521369934082
0.232978254556655884 -0.377139270305633545 -0.100130319595336914
0.234761491417884827 -0.347538471221923828 -0.0963668525218963623
0.230507895350456238 -0.318349450826644897 -0.106013879179954529
0.234303250908851624 -0.309014618396759033 -0.0976436063647270203
0.227663725614547729 -0.349696129560470581 -0.112122952938079834
0.233616217970848083 -0.29311823844909668 -0.0992768257856369019
0.228029742836952209 -0.356149941682815552 -0.111266374588012695
0.232492938637733459 -0.314678370952606201 -0.101627930998802185
0.227315202355384827 -0.37126496434211731 -0.112752579152584076
0.228222325444221497 -0.32281029224395752 -0.111026957631111145
0.224014401435852051 -0.238303691148757935 -0.11931387335062027
0.227152049541473389 -0.233167201280593872 -0.112871401011943817
0.225163295865058899 -0.363039225339889526 -0.117444097995758057
0.224619820713996887 -0.361222714185714722 -0.118549562990665436
0.228875428438186646 -0.254100710153579712 -0.109424591064453125
0.225893869996070862 -0.330038011074066162 -0.115821130573749542
0.231512919068336487 -0.265768885612487793 -0.104070872068405151
0.226062685251235962 -0.240204736590385437 -0.115128457546234131
0.226159229874610901 -0.286970824003219604 -0.115111544728279114
0.222320646047592163 -0.241060048341751099 -0.122791558504104614
0.218393996357917786 -0.340253472328186035 -0.128964841365814209
0.218853965401649475 -0.298653274774551392 -0.128359764814376831
0.219281792640686035 -0.280530303716659546 -0.127719908952713013
0.217308506369590759 -0.357774585485458374 -0.130694866180419922
0.213421806693077087 -0.353087335824966431 -0.137141808867454529
0.216722816228866577 -0.298986375331878662 -0.131883874535560608
0.2144508957862854 -0.352814167737960815 -0.135440513491630554
0.215061575174331665 -0.366471171379089355 -0.134379163384437561
0.21900390088558197 -0.336092114448547363 -0.127971559762954712
0.221843317151069641 -0.246142059564590454 -0.123611420392990112
0.22001926600933075 -0.271651566028594971 -0.126533254981040955
0.216037914156913757 -0.303180724382400513 -0.133001148700714111
0.209339827299118042 -0.224835246801376343 -0.143524840474128723
0.220845341682434082 -0.230871856212615967 -0.125302106142044067
0.216033399105072021 -0.291289389133453369 -0.133038580417633057
0.210426688194274902 -0.270829558372497559 -0.141886577010154724
0.217587277293205261 -0.253987640142440796 -0.130507752299308777
0.214279696345329285 -0.299743384122848511 -0.135833278298377991
0.217139109969139099 -0.23018568754196167 -0.131174445152282715
0.208319887518882751 -0.215985745191574097 -0.145125031471252441
0.219495490193367004 -0.236496150493621826 -0.127451613545417786
0.214355200529098511 -0.224242642521858215 -0.135575458407402039
0.20903092622756958 -0.256233036518096924 -0.144071832299232483
0.207139521837234497 -0.210517421364784241 -0.146985650062561035
0.214499697089195251 -0.268137753009796143 -0.135426789522171021
0.192724987864494324 -0.3637847900390625 -0.165141105651855469
0.205640062689781189 -0.258385062217712402 -0.148841291666030884
0.20607447624206543 -0.378083735704421997 -0.148076653480529785
0.200931116938591003 -0.310297697782516479 -0.154760673642158508
0.19905407726764679 -0.311329543590545654 -0.15715472400188446
0.207542896270751953 -0.263624906539916992 -0.146403312683105469
0.194941028952598572 -0.360115736722946167 -0.162318974733352661
0.20415930449962616 -0.366846919059753418 -0.150540918111801147
0.201144978404045105 -0.279771864414215088 -0.154541313648223877
0.201104000210762024 -0.337724775075912476 -0.154491841793060303
0.206447884440422058 -0.337517917156219482 -0.147671252489089966
0.205904603004455566 -0.249040096998214722 -0.14852006733417511
0.205820813775062561 -0.254329115152359009 -0.148617729544639587
0.190678417682647705 -0.341166496276855469 -0.167716637253761292
0.192871645092964172 -0.288205325603485107 -0.164942115545272827
0.194009184837341309 -0.290090680122375488 -0.16351732611656189
0.192807808518409729 -0.263496458530426025 -0.165010109543800354
0.199357450008392334 -0.273637592792510986 -0.156806245446205139
0.194836482405662537 -0.247614294290542603 -0.162459820508956909
0.19006665050983429 -0.251398772001266479 -0.168439790606498718
0.192582517862319946 -0.258130431175231934 -0.16528986394405365
0.19749017059803009 -0.254176884889602661 -0.159137099981307983
0.198327004909515381 -0.23778185248374939 -0.158080309629440308
0.194438308477401733 -0.211864963173866272 -0.162941515445709229
0.191530302166938782 -0.356342464685440063 -0.16665630042552948
0.195747733116149902 -0.316158413887023926 -0.161351025104522705
0.194344297051429749 -0.244245767593383789 -0.163075059652328491
0.183592885732650757 -0.328609704971313477 -0.174987092614173889
0.182193160057067871 -0.360792964696884155 -0.176371663808822632
0.189123600721359253 -0.342691540718078613 -0.169449746608734131
0.177524402737617493 -0.376172035932540894 -0.1810331791639328
0.182639136910438538 -0.310415446758270264 -0.175949394702911377
0.187608525156974792 -0.365912497043609619 -0.170953869819641113
0.187501803040504456 -0.217299044132232666 -0.171130567789077759
0.180875301361083984 -0.311911582946777344 -0.177712529897689819
0.188220232725143433 -0.20231156051158905 -0.170419201254844666
0.171250417828559875 -0.378846943378448486 -0.18730589747428894
0.186751186847686768 -0.379903107881546021 -0.171804636716842651
0.186712637543678284 -0.376479178667068481 -0.171844795346260071
0.185082748532295227 -0.338722348213195801 -0.173492461442947388
0.185472846031188965 -0.227910295128822327 -0.173154532909393311
0.179840952157974243 -0.369926005601882935 -0.178719550371170044
0.17655499279499054 -0.191485017538070679 -0.182070344686508179
0.170607417821884155 -0.28695070743560791 -0.187979802489280701
0.170129373669624329 -0.206927031278610229 -0.188481509685516357
0.180218398571014404 -0.228659361600875854 -0.178401201963424683
0.18006470799446106 -0.226387381553649902 -0.17855536937713623
0.180922210216522217 -0.181575566530227661 -0.177712783217430115
0.178964301943778992 -0.200944706797599792 -0.179661825299263
0.177584588527679443 -0.242107957601547241 -0.181026920676231384
0.184432104229927063 -0.188063755631446838 -0.174206256866455078
0.17836424708366394 -0.287981331348419189 -0.180234476923942566
0.169945761561393738 -0.269116133451461792 -0.188645914196968079
0.175416693091392517 -0.208266705274581909 -0.183201804757118225
0.168980717658996582 -0.21745648980140686 -0.189625203609466553
0.170574411749839783 -0.216205328702926636 -0.188034325838088989
0.170544996857643127 -0.301098406314849854 -0.188037827610969543
0.177602469921112061 -0.224842667579650879 -0.181014314293861389
0.145583078265190125 -0.32642015814781189 -0.20805804431438446
0.146644905209541321 -0.357707679271697998 -0.207206591963768005
0.145151525735855103 -0.316604197025299072 -0.208402276039123535
0.163563951849937439 -0.341770946979522705 -0.193961352109909058
0.154804646968841553 -0.323117643594741821 -0.200835481286048889
0.149266257882118225 -0.209619775414466858 -0.205245435237884521
0.153552651405334473 -0.24603213369846344 -0.201864510774612427
0.149047121405601501 -0.328883171081542969 -0.205342605710029602
0.152375489473342896 -0.330574989318847656 -0.202733919024467468
0.148642763495445251 -0.315450847148895264 -0.205667778849601746
0.161755934357643127 -0.332352578639984131 -0.195383712649345398
0.152770817279815674 -0.249634489417076111 -0.202474787831306458
0.158489406108856201 -0.307688504457473755 -0.197958305478096008
0.153233066201210022 -0.262951493263244629 -0.202104315161705017
0.149866029620170593 -0.299141138792037964 -0.204719617962837219
0.153858870267868042 -0.36752280592918396 -0.20154869556427002
0.154961347579956055 -0.276828169822692871 -0.200741633772850037
0.15203411877155304 -0.221845060586929321 -0.203069314360618591
0.146338403224945068 -0.332533419132232666 -0.207462474703788757
0.15653286874294281 -0.220385938882827759 -0.199513480067253113
0.16192905604839325 -0.216097369790077209 -0.195234194397926331
0.158439084887504578 -0.260788619518280029 -0.198013097047805786
0.161203622817993164 -0.223765432834625244 -0.19581139087677002
0.154266834259033203 -0.155270501971244812 -0.201292499899864197
0.16833534836769104 -0.286373019218444824 -0.190174132585525513
0.155633881688117981 -0.173839345574378967 -0.20021367073059082
0.154097765684127808 -0.220986366271972656 -0.201444193720817566
0.166433379054069519 -0.242290511727333069 -0.19167017936706543
0.164568886160850525 -0.24822022020816803 -0.193149954080581665
0.153481855988502502 -0.196058392524719238 -0.201925784349441528
0.167999535799026489 -0.171901941299438477 -0.1904095858335495
0.164447546005249023 -0.22759583592414856 -0.193240612745285034
0.16547451913356781 -0.241565898060798645 -0.192430168390274048
0.16811177134513855 -0.365688145160675049 -0.190372735261917114
0.158806189894676208 -0.273816585540771484 -0.197725549340248108
0.166179493069648743 -0.270605802536010742 -0.19187907874584198
0.129171714186668396 -0.266561329364776611 -0.21825641393661499
0.12195093184709549 -0.228801429271697998 -0.222647905349731445
0.127650082111358643 -0.337649047374725342 -0.219126656651496887
0.1266593337059021 -0.292240828275680542 -0.21975727379322052
0.131706759333610535 -0.271104395389556885 -0.21672077476978302
0.133349612355232239 -0.372127443552017212 -0.215657085180282593
0.121301867067813873 -0.312684953212738037 -0.222981706261634827
0.126785546541213989 -0.338297426700592041 -0.219648838043212891
0.131894871592521667 -0.331650793552398682 -0.216564759612083435
0.138913199305534363 -0.363516241312026978 -0.212299808859825134
0.133095264434814453 -0.372369229793548584 -0.215810686349868774
0.122777096927165985 -0.165630877017974854 -0.222192570567131042
0.127175077795982361 -0.318460166454315186 -0.219427213072776794
0.127006545662879944 -0.217349246144294739 -0.219599679112434387
0.12203989177942276 -0.146022841334342957 -0.22265191376209259
0.132932677865028381 -0.367167532444000244 -0.215912610292434692
0.125499948859214783 -0.197829097509384155 -0.220524057745933533
0.11936507374048233 -0.332551300525665283 -0.22413867712020874
0.12586405873298645 -0.24354475736618042 -0.220272049307823181
0.137992411851882935 -0.364079684019088745 -0.212856054306030273
0.119753479957580566 -0.364976823329925537 -0.223881244659423828
0.139705941081047058 -0.141614139080047607 -0.211736202239990234
0.128338813781738281 -0.190941065549850464 -0.218792662024497986
0.129819363355636597 -0.142306298017501831 -0.217849701642990112
0.135176673531532288 -0.28103262186050415 -0.214615613222122192
0.134952366352081299 -0.144400835037231445 -0.214677020907402039
0.14436987042427063 -0.2422332763671875 -0.208909302949905396
0.142235636711120605 -0.182393506169319153 -0.210195109248161316
0.141117125749588013 -0.160990446805953979 -0.210874587297439575
0.137578397989273071 -0.272008895874023438 -0.213125482201576233
0.145002052187919617 -0.146420717239379883 -0.20846422016620636
0.128274917602539062 -0.147499442100524902 -0.218807592988014221
0.139200180768966675 -0.166159912943840027 -0.212062805891036987
0.136117130517959595 -0.168837189674377441 -0.213970646262168884
0.124618895351886749 -0.155041307210922241 -0.221072480082511902
0.127416640520095825 -0.150541782379150391 -0.219340011477470398
0.142142742872238159 -0.242600038647651672 -0.210286602377891541
0.129732817411422729 -0.156265899538993835 -0.217911109328269958
0.139915704727172852 -0.275763988494873047 -0.211682379245758057
0.130462184548377991 -0.180374398827552795 -0.217473745346069336
0.102965794503688812 -0.182863086462020874 -0.231781557202339172
0.102732300758361816 -0.166139304637908936 -0.23187999427318573
0.117615588009357452 -0.138044223189353943 -0.224959179759025574
0.105577901005744934 -0.218074560165405273 -0.23059062659740448
0.105682894587516785 -0.218715935945510864 -0.230542317032814026
0.115339189767837524 -0.207355573773384094 -0.226056143641471863
0.10761849582195282 -0.244807988405227661 -0.229659825563430786
0.109764665365219116 -0.248359143733978271 -0.228666335344314575
0.117996931076049805 -0.33777812123298645 -0.224900305271148682
0.112811341881752014 -0.319125145673751831 -0.227294832468032837
0.113771229982376099 -0.270754069089889526 -0.226820960640907288
0.116453662514686584 -0.121085613965988159 -0.225488156080245972
0.103566929697990417 -0.175125941634178162 -0.23149813711643219
0.118743740022182465 -0.252140909433364868 -0.224503278732299805
0.117744706571102142 -0.296823084354400635 -0.224993109703063965
0.103966936469078064 -0.118168078362941742 -0.231278896331787109
0.114908576011657715 -0.184882506728172302 -0.226242616772651672
0.115066990256309509 -0.24171195924282074 -0.226202726364135742
0.0991495847702026367 -0.104958944022655487 -0.23350583016872406
0.117815025150775909 -0.371397227048873901 -0.225004568696022034
0.114074908196926117 -0.2225465327501297 -0.226651608943939209
0.0957975015044212341 -0.267572939395904541 -0.234986737370491028
0.0969647392630577087 -0.16101682186126709 -0.234527483582496643
0.097890317440032959 -0.25145190954208374 -0.234054833650588989
0.102552652359008789 -0.281245261430740356 -0.231938019394874573
0.098033219575881958 -0.231926262378692627 -0.234002619981765747
0.093128502368927002 -0.154577702283859253 -0.236258015036582947
0.0940429270267486572 -0.310916334390640259 -0.235749542713165283
0.112625017762184143 -0.365977466106414795 -0.22735227644443512
0.109610632061958313 -0.368988573551177979 -0.228707075119018555
0.102395638823509216 -0.215059727430343628 -0.232049718499183655
0.0960330367088317871 -0.148923963308334351 -0.234954297542572021
0.093605726957321167 -0.112589403986930847 -0.236069276928901672
0.0957343652844429016 -0.190591603517532349 -0.235062897205352783
0.0931458845734596252 -0.354057401418685913 -0.236126512289047241
0.0922424048185348511 -0.277221351861953735 -0.236580789089202881
0.101242192089557648 -0.291337817907333374 -0.232521563768386841
0.0995268002152442932 -0.251321554183959961 -0.233318403363227844
0.0947237610816955566 -0.286565929651260376 -0.235458210110664368
0.101417273283004761 -0.257099300622940063 -0.232463985681533813
0.0938286557793617249 -0.257802665233612061 -0.235878899693489075
0.0921163409948348999 -0.177484512329101562 -0.236699357628822327
0.103928089141845703 -0.370775580406188965 -0.231263473629951477
0.0950604826211929321 -0.204437196254730225 -0.235357597470283508
0.100305207073688507 -0.237668260931968689 -0.232976526021957397
0.0857696458697319031 -0.289167553186416626 -0.238834857940673828
0.0846505686640739441 -0.193080112338066101 -0.239142388105392456
0.0873935222625732422 -0.328018993139266968 -0.23833097517490387
0.0883117169141769409 -0.251988589763641357 -0.237989917397499084
0.0758552849292755127 -0.110035829246044159 -0.241944506764411926
0.0803679823875427246 -0.226702511310577393 -0.240549206733703613
0.0787354335188865662 -0.17213033139705658 -0.241046905517578125
0.0736661553382873535 -0.136493712663650513 -0.242668941617012024
0.0900442004203796387 -0.134479597210884094 -0.237361282110214233
0.0805162414908409119 -0.250317275524139404 -0.240514710545539856
0.0701879709959030151 -0.136387825012207031 -0.243795812129974365
0.0833044946193695068 -0.178522899746894836 -0.239570185542106628
0.0834620147943496704 -0.280724048614501953 -0.239577695727348328
0.0851819366216659546 -0.111884422600269318 -0.238923713564872742
0.0899565666913986206 -0.356466829776763916 -0.237516835331916809
0.0850140601396560669 -0.220854014158248901 -0.239040523767471313
0.0779913961887359619 -0.117385588586330414 -0.241256609559059143
0.0865655466914176941 -0.143159806728363037 -0.23849332332611084
0.0819562971591949463 -0.210713759064674377 -0.240025445818901062
0.0874669179320335388 -0.192504018545150757 -0.238229557871818542
0.0676816254854202271 -0.084872022271156311 -0.244578376412391663
0.0826685875654220581 -0.230712592601776123 -0.239806115627288818
0.07720164954662323 -0.204998046159744263 -0.241562679409980774
0.0518518835306167603 -0.269507408142089844 -0.248195543885231018
0.0625311210751533508 -0.104081526398658752 -0.24614793062210083
0.0483970940113067627 -0.323857307434082031 -0.248858407139778137
0.0527735501527786255 -0.166016906499862671 -0.247969985008239746
0.0475827530026435852 -0.249453097581863403 -0.248966917395591736
0.0429324209690093994 -0.365915954113006592 -0.249882861971855164
0.0472650937736034393 -0.340666353702545166 -0.249075055122375488
0.0569346584379673004 -0.332622438669204712 -0.247298628091812134
0.043825201690196991 -0.297309547662734985 -0.249681711196899414
0.0525571443140506744 -0.177023261785507202 -0.248015657067298889
0.0440459996461868286 -0.328222572803497314 -0.249658167362213135
0.0476505421102046967 -0.257887750864028931 -0.24895910918712616
0.0597871392965316772 -0.308015257120132446 -0.24676242470741272
0.0628713741898536682 -0.0709273964166641235 -0.246067434549331665
0.0568496435880661011 -0.208952322602272034 -0.247246518731117249
0.0563799366354942322 -0.212569594383239746 -0.247334569692611694
0.0604009181261062622 -0.172949463129043579 -0.246576011180877686
0.0530084744095802307 -0.206032902002334595 -0.247948840260505676
0.0397893637418746948 -0.295119255781173706 -0.250420093536376953
0.0594826601445674896 -0.264377713203430176 -0.246794342994689941
0.0491620339453220367 -0.2527657151222229 -0.248679310083389282
0.0611024238169193268 -0.299082577228546143 -0.246516495943069458
0.0508206635713577271 -0.283762425184249878 -0.248392313718795776
0.0448982790112495422 -0.297568380832672119 -0.249485194683074951
0.0607987754046916962 -0.0938522219657897949 -0.246459797024726868
0.0544956512749195099 -0.161915391683578491 -0.247652143239974976
0.0759793967008590698 -0.317897677421569824 -0.241914659738540649
0.0746749192476272583 -0.206663548946380615 -0.242373526096343994
0.0658207014203071594 -0.0977845415472984314 -0.245183870196342468
0.0773554146289825439 -0.34138450026512146 -0.241474822163581848
0.0779787003993988037 -0.347329556941986084 -0.241277799010276794
0.0703128427267074585 -0.210659042000770569 -0.243730917572975159
0.0708143413066864014 -0.268044710159301758 -0.243547633290290833
0.079387567937374115 -0.324897646903991699 -0.240849331021308899
0.0706369727849960327 -0.272998422384262085 -0.243600562214851379
0.0708429515361785889 -0.327235609292984009 -0.243510842323303223
0.0782796815037727356 -0.342478513717651367 -0.241186290979385376
0.0625447109341621399 -0.355639815330505371 -0.246083319187164307
0.0888332054018974304 -0.369838058948516846 -0.237884804606437683
0.0686636045575141907 -0.260399878025054932 -0.244221433997154236
0.0627792179584503174 -0.14398561418056488 -0.246109887957572937
0.0685708895325660706 -0.191063866019248962 -0.244282960891723633
0.0717395246028900146 -0.265687853097915649 -0.243260443210601807
0.067359626293182373 -0.368510454893112183 -0.24457685649394989
0.0738187804818153381 -0.230468839406967163 -0.242629095911979675
0.0634896159172058105 -0.280177026987075806 -0.24582439661026001
0.0647001489996910095 -0.101424664258956909 -0.245531335473060608
0.0806275606155395508 -0.318407744169235229 -0.240465998649597168
0.0844805985689163208 -0.349957257509231567 -0.239250481128692627
0.0794005021452903748 -0.283109009265899658 -0.240864977240562439
0.0832294002175331116 -0.350040286779403687 -0.239640340209007263
0.0394345372915267944 -0.245042175054550171 -0.250503242015838623
0.0417081974446773529 -0.24850955605506897 -0.250065326690673828
0.0322541259229183197 -0.232764154672622681 -0.251886665821075439
0.0600096136331558228 -0.0693962201476097107 -0.246614530682563782
0.0366502813994884491 -0.302100628614425659 -0.251017510890960693
0.0551673248410224915 -0.142193228006362915 -0.247518464922904968
0.0424008108675479889 -0.167808458209037781 -0.249961182475090027
0.0558478832244873047 -0.115602627396583557 -0.247397273778915405
0.0338550321757793427 -0.106439024209976196 -0.251624464988708496
0.0339444167912006378 -0.0970657020807266235 -0.251610636711120605
0.0424604937434196472 -0.0472236350178718567 -0.249992907047271729
0.0489603467285633087 -0.0614052414894104004 -0.248739495873451233
0.0346791408956050873 -0.25795215368270874 -0.251411914825439453
0.0364921949803829193 -0.0445525571703910828 -0.251140117645263672
0.0535882227122783661 -0.0899645686149597168 -0.247840434312820435
0.0361917354166507721 -0.071813434362411499 -0.251188039779663086
0.0389447063207626343 -0.19010460376739502 -0.250616967678070068
0.0423637516796588898 -0.224193185567855835 -0.249948114156723022
0.0361071527004241943 -0.180864959955215454 -0.251165270805358887
0.0371956750750541687 -0.177571654319763184 -0.250957399606704712
0.0407916232943534851 -0.0796308070421218872 -0.250301837921142578
0.041415046900510788 -0.115106910467147827 -0.25016939640045166
0.0359868742525577545 -0.220533877611160278 -0.25117415189743042
0.0343009345233440399 -0.160484433174133301 -0.251519441604614258
0.0411701872944831848 -0.190165251493453979 -0.250189542770385742
0.0472294539213180542 -0.181294530630111694 -0.249028995633125305
0.0322918258607387543 -0.143756985664367676 -0.251911312341690063
0.0434371493756771088 -0.194500207901000977 -0.249752596020698547
0.0196450687944889069 -0.24934762716293335 -0.25297895073890686
0.0194007139652967453 -0.313780426979064941 -0.252911895513534546
0.020531507208943367 -0.260259330272674561 -0.252911478281021118
0.0109296143054962158 -0.263969540596008301 -0.253487557172775269
0.00582016445696353912 -0.372172892093658447 -0.253659188747406006
0.0106651419773697853 -0.204573139548301697 -0.253579050302505493
0.0151229994371533394 -0.0704074651002883911 -0.253479838371276855
0.0034340936690568924 -0.342344045639038086 -0.253841429948806763
0.0147868692874908447 -0.351292550563812256 -0.253143310546875
0.0115784388035535812 -0.269664287567138672 -0.253441095352172852
0.00677918177098035812 -0.292709708213806152 -0.253702133893966675
0.0177891850471496582 -0.297127336263656616 -0.253030538558959961
0.00854924973100423813 -0.302252233028411865 -0.253582924604415894
0.015332554467022419 -0.140311956405639648 -0.253378361463546753
0.0257221739739179611 -0.320927977561950684 -0.252520442008972168
0.00974999833852052689 -0.378854244947433472 -0.253412991762161255
0.0147121865302324295 -0.339825987815856934 -0.253162413835525513
0.0134681230410933495 -0.357272446155548096 -0.253215491771697998
0.0156271476298570633 -0.0516525954008102417 -0.253473162651062012
0.0268258340656757355 -0.310617655515670776 -0.252466768026351929
0.0117734195664525032 -0.264727741479873657 -0.253435581922531128
0.0121863866224884987 -0.172306835651397705 -0.253528028726577759
0.0111962016671895981 -0.146829158067703247 -0.253620266914367676
0.00951488688588142395 -0.312576234340667725 -0.253511399030685425
0.0234796460717916489 -0.319005638360977173 -0.252658545970916748
0.0153554007411003113 -0.0382612273097038269 -0.253506600856781006
0.0244047306478023529 -0.30017387866973877 -0.252626508474349976
0.0109256654977798462 -0.163911581039428711 -0.253614932298660278
0.020748017355799675 -0.32373422384262085 -0.252817779779434204
0.0133340805768966675 -0.0982470884919166565 -0.253552675247192383
0.0267248060554265976 -0.100554414093494415 -0.252481698989868164
0.0263067148625850677 -0.136191368103027344 -0.252527445554733276
0.0250619519501924515 -0.200019940733909607 -0.252657294273376465
0.0296645238995552063 -0.29378122091293335 -0.252226889133453369
0.0208870582282543182 -0.111233986914157867 -0.253047168254852295
0.0238248109817504883 -0.163232743740081787 -0.252771258354187012
0.0302297882735729218 -0.088139653205871582 -0.252141296863555908
0.0280278138816356659 -0.223572045564651489 -0.252374410629272461
0.0266877561807632446 -0.163251906633377075 -0.252494722604751587
0.0261463932693004608 -0.0803863555192947388 -0.252534538507461548
0.0299919135868549347 -0.0304446220397949219 -0.252155572175979614
0.0284983962774276733 -0.139401882886886597 -0.252316266298294067
0.0292716994881629944 -0.283870458602905273 -0.252263337373733521
0.0299637261778116226 -0.0770697295665740967 -0.252165317535400391
0.0271542929112911224 -0.205282434821128845 -0.252456009387969971
0.0044010714627802372 -0.220562338829040527 -0.253859251737594604
0.0102299749851226807 -0.0328204818069934845 -0.253672778606414795
0.0116084059700369835 -0.0260179657489061356 -0.253628700971603394
0.00904722046107053757 -0.0239243190735578537 -0.253710627555847168
0.00014652431127615273 -0.0249676909297704697 -0.253995329141616821
0.00415154313668608665 -0.0600160881876945496 -0.253867208957672119
0.00496732071042060852 -0.196347534656524658 -0.253841131925582886
0.00100442848633974791 -0.102990858256816864 -0.253967881202697754
0.0108240395784378052 -0.117694348096847534 -0.253653794527053833
0.0039197998121380806 -0.0729421377182006836 -0.253874629735946655
0.00288024311885237694 -0.0629955381155014038 -0.253907889127731323
0.00211274926550686359 -0.19871947169303894 -0.253932446241378784
0.0045848749577999115 -0.0863726288080215454 -0.253853350877761841
0.00781942810863256454 -0.0812839269638061523 -0.25374990701675415
0.010494377464056015 -0.0380179435014724731 -0.253664344549179077
0.00344579550437629223 -0.101732596755027771 -0.253889799118041992
-0.0224489755928516388 -0.326962769031524658 -0.252659320831298828
-0.0124854855239391327 -0.318416029214859009 -0.253264725208282471
-0.00579771632328629494 -0.339222759008407593 -0.253662616014480591
-0.0207271631807088852 -0.190740525722503662 -0.252806931734085083
-0.00459487922489643097 -0.380003929138183594 -0.25372236967086792
-0.0292648691684007645 -0.300614506006240845 -0.252255439758300781
-0.0188543479889631271 -0.358256697654724121 -0.252866744995117188
-0.00230024335905909538 -0.358690172433853149 -0.253867954015731812
