ply
format ascii 1.0
element vertex 893
property float x
property float y
property float z
end_header
1.25524234771728516 0.714801967144012451 0.139571696519851685
1.12909364700317383 0.894961118698120117 0.23384559154510498
0.70838320255279541 1.49579787254333496 0.247589126229286194
0.122826099395751953 2.33206009864807129 0.312171727418899536
1.57874369621276855 0.252794235944747925 0.0507840514183044434
1.30942428112030029 0.63742220401763916 0.26625359058380127
1.53005170822143555 0.322333604097366333 0.294821977615356445
1.75087428092956543 0.00696617318317294121 0.0381317734718322754
1.39213764667510986 0.519295275211334229 0.220904633402824402
1.69941675662994385 0.0804552584886550903 0.0119232833385467529
1.34267950057983398 0.589928805828094482 0.293022632598876953
0.510744690895080566 1.77805483341217041 0.294935613870620728
1.38476371765136719 0.529826343059539795 0.0945430994033813477
1.04291915893554688 1.01803100109100342 0.142578929662704468
1.45005238056182861 0.436584383249282837 0.0617379546165466309
1.1384742259979248 0.881564319133758545 0.284570306539535522
1.40864372253417969 0.495722085237503052 0.181984186172485352
1.6102898120880127 0.207741603255271912 0.0603946447372436523
1.16310131549835205 0.846393108367919922 0.189184308052062988
0.842400014400482178 1.30440199375152588 0.201691702008247375
0.989312648773193359 1.0945889949798584 0.229187130928039551
1.45243632793426514 0.4331798255443573 0.282439589500427246
1.39767575263977051 0.51138615608215332 0.135743498802185059
1.11791801452636719 0.910921573638916016 0.218819573521614075
1.48741769790649414 0.383221298456192017 0.0989203453063964844
0.768942773342132568 1.40930986404418945 0.281618654727935791
1.13958954811096191 0.879971444606781006 0.159466207027435303
1.70708096027374268 0.0695095285773277283 0.145618900656700134
1.03618192672729492 1.02765274047851562 0.239844560623168945
1.21317481994628906 0.774880528450012207 0.297600328922271729
1.49082720279693604 0.37835201621055603 0.13664969801902771
0.557219386100769043 1.71168220043182373 0.276059985160827637
1.52961266040802002 0.322960555553436279 0.109940141439437866
0.622014880180358887 1.61914467811584473 0.23401215672492981
0.888212502002716064 1.23897504806518555 0.277777433395385742
1.7005622386932373 0.0788192972540855408 0.307173162698745728
1.58038234710693359 0.2504538893699646 0.258007079362869263
1.51140999794006348 0.348956763744354248 0.258030831813812256
1.745247483253479 0.0150021817535161972 0.0178037583827972412
1.72772741317749023 0.0400234423577785492 0.199683815240859985
1.14869189262390137 0.866971850395202637 0.289365023374557495
1.33258998394012451 0.604338109493255615 0.16197928786277771
0.523171663284301758 1.76030731201171875 0.276488542556762695
1.39686393737792969 0.512545347213745117 0.140510499477386475
1.27039659023284912 0.693159520626068115 0.182752221822738647
1.0810999870300293 0.963503003120422363 0.223410069942474365
1.26710307598114014 0.697863161563873291 0.159321025013923645
0.421897292137145996 1.90494215488433838 0.256640225648880005
0.188900947570800781 2.23769545555114746 0.308821022510528564
1.7338721752166748 0.031247798353433609 0.0570188462734222412
0.882361233234405518 1.24733150005340576 0.174567520618438721
0.776111364364624023 1.39907205104827881 0.23031894862651825
0.908730268478393555 1.20967257022857666 0.219050794839859009
0.776275217533111572 1.39883804321289062 0.306233733892440796
1.56619572639465332 0.270714551210403442 0.133836299180984497
1.6518254280090332 0.148422658443450928 0.30742529034614563
0.890367507934570312 1.23589730262756348 0.250596463680267334
0.634545087814331055 1.6012495756149292 0.277839392423629761
1.53870820999145508 0.30997079610824585 0.100438013672828674
1.17560601234436035 0.828534603118896484 0.142362326383590698
1.59851908683776855 0.224551960825920105 0.205946356058120728
1.53518247604370117 0.315006166696548462 0.242880314588546753
0.823048949241638184 1.33203816413879395 0.244881093502044678
0.675388813018798828 1.54291868209838867 0.213249936699867249
1.45898616313934326 0.423825711011886597 0.306739717721939087
0.575073003768920898 1.68618452548980713 0.227404862642288208
1.25638687610626221 0.713167488574981689 0.12370695173740387
1.71031630039215088 0.0648891106247901917 0.174565598368644714
1.42338681221008301 0.474666714668273926 0.0777212083339691162
1.65741813182830811 0.140435442328453064 0.104915201663970947
1.30522680282592773 0.643416881561279297 0.119513362646102905
1.56948256492614746 0.266020536422729492 0.162233754992485046
1.40409326553344727 0.502220809459686279 0.261142432689666748
1.61607921123504639 0.199473515152931213 0.148157313466072083
1.35033917427062988 0.578989744186401367 0.278810560703277588
0.198319554328918457 2.22424411773681641 0.313344389200210571
0.676532506942749023 1.54128539562225342 0.19910074770450592
1.27329099178314209 0.689025819301605225 0.258041948080062866
1.28951406478881836 0.665856838226318359 0.177960366010665894
1.37797939777374268 0.539515316486358643 0.0916685312986373901
0.848783671855926514 1.29528510570526123 0.198325172066688538
1.13041591644287109 0.893072664737701416 0.248545721173286438
0.985213756561279297 1.10044276714324951 0.276579439640045166
0.343292951583862305 2.01720070838928223 0.27887311577796936
1.44969713687896729 0.437091797590255737 0.103823259472846985
1.29548323154449463 0.657332003116607666 0.108205050230026245
1.36983764171600342 0.551142990589141846 0.137888848781585693
1.68100714683532715 0.106746755540370941 0.136742919683456421
1.66173326969146729 0.13427281379699707 0.0436496436595916748
1.35813844203948975 0.567851126194000244 0.165183886885643005
0.913155198097229004 1.2033531665802002 0.195144593715667725
1.62091994285583496 0.192560300230979919 0.261064529418945312
0.681293606758117676 1.53448581695556641 0.212816506624221802
1.66014456748962402 0.136541649699211121 0.126672282814979553
0.420969605445861816 1.90626692771911621 0.250381767749786377
1.63494670391082764 0.172527968883514404 0.292544126510620117
1.42416274547576904 0.473558604717254639 0.211030736565589905
1.31541204452514648 0.628870844841003418 0.118630871176719666
1.32679200172424316 0.612618446350097656 0.156217440962791443
1.42991125583648682 0.465348899364471436 0.091212347149848938
1.26790904998779297 0.696712195873260498 0.289839237928390503
1.69142985343933105 0.0918616428971290588 0.0836200863122940063
0.912705540657043457 1.2039952278137207 0.252448678016662598
0.993752539157867432 1.08824825286865234 0.29476243257522583
1.48893630504608154 0.38105243444442749 0.117069393396377563
1.3624110221862793 0.56174921989440918 0.124752148985862732
1.56110119819641113 0.27799031138420105 0.0847628265619277954
0.670390486717224121 1.550057053565979 0.286534994840621948
1.5236746072769165 0.331440985202789307 0.128813430666923523
1.22793698310852051 0.753798186779022217 0.186459094285964966
1.53110420703887939 0.320830464363098145 0.0820627212524414062
0.66407167911529541 1.55908119678497314 0.255128562450408936
0.627817869186401367 1.61085712909698486 0.205972075462341309
1.24851548671722412 0.724408984184265137 0.168384581804275513
1.50473260879516602 0.358492910861968994 0.314028173685073853
0.244463443756103516 2.15834403038024902 0.29010385274887085
0.66613006591796875 1.55614161491394043 0.199515089392662048
1.02625918388366699 1.04182398319244385 0.289884895086288452
0.877726912498474121 1.25394999980926514 0.244875624775886536
1.48315119743347168 0.389314353466033936 0.208113610744476318
0.955230116844177246 1.14326393604278564 0.231795907020568848
1.25393295288085938 0.716672122478485107 0.265802979469299316
1.18819355964660645 0.810557663440704346 0.122122988104820251
1.61493909358978271 0.201101765036582947 0.273539274930953979
1.74423182010650635 0.0164526272565126419 0.0185901224613189697
1.11027467250823975 0.921837329864501953 0.12636391818523407
1.18485093116760254 0.815331518650054932 0.271751165390014648
1.51225459575653076 0.347750425338745117 0.217871829867362976
0.436477541923522949 1.88411939144134521 0.26813700795173645
1.35078275203704834 0.57835620641708374 0.262400388717651367
0.66756892204284668 1.55408668518066406 0.213624626398086548
0.922787666320800781 1.18959653377532959 0.262417644262313843
1.27219986915588379 0.690584063529968262 0.308178901672363281
1.38550925254821777 0.528761506080627441 0.248973190784454346
1.17163491249084473 0.834205746650695801 0.265028655529022217
0.168668389320373535 2.26659059524536133 0.300989329814910889
1.2326357364654541 0.747087597846984863 0.198868870735168457
1.1330108642578125 0.889366686344146729 0.256043910980224609
0.914957344532012939 1.20077943801879883 0.271526187658309937
1.19900870323181152 0.795111894607543945 0.203728318214416504
1.20465385913848877 0.78704988956451416 0.114005967974662781
1.43679511547088623 0.455517709255218506 0.271022647619247437
0.66687476634979248 1.55507802963256836 0.311915576457977295
0.970995187759399414 1.12074911594390869 0.181902617216110229
1.02555227279663086 1.04283332824707031 0.27091294527053833
1.48798990249633789 0.382404118776321411 0.115719616413116455
0.688902139663696289 1.52361977100372314 0.233302891254425049
0.604905009269714355 1.64358007907867432 0.304098457098007202
1.2880103588104248 0.668004453182220459 0.241815656423568726
0.956207215785980225 1.1418684720993042 0.249347001314163208
0.463791847229003906 1.84511053562164307 0.264026939868927002
1.40664494037628174 0.498576641082763672 0.260921001434326172
0.639970302581787109 1.59350156784057617 0.300197392702102661
1.56088066101074219 0.278305292129516602 0.0518486499786376953
0.696359992027282715 1.51296877861022949 0.23163934051990509
1.73341727256774902 0.0318974591791629791 0.197310805320739746
1.57520508766174316 0.257847815752029419 0.315991878509521484
1.2520756721496582 0.719324409961700439 0.143832698464393616
1.73836827278137207 0.0248266663402318954 0.0965381264686584473
1.48271191120147705 0.389941811561584473 0.182207852602005005
1.36987769603729248 0.551085770130157471 0.222649216651916504
1.36839973926544189 0.553196549415588379 0.280622601509094238
0.437721610069274902 1.88234269618988037 0.27786669135093689
1.57679069042205811 0.255583316087722778 0.151587888598442078
0.973260939121246338 1.11751329898834229 0.246638968586921692
1.56037402153015137 0.279028773307800293 0.191336005926132202
1.17974793910980225 0.822619140148162842 0.129485607147216797
0.940268576145172119 1.16463112831115723 0.306651532649993896
1.38782203197479248 0.525458574295043945 0.297929763793945312
1.63623440265655518 0.17068888247013092 0.285987824201583862
0.922519683837890625 1.1899791955947876 0.199766829609870911
1.2940070629119873 0.659440219402313232 0.242552399635314941
0.730191588401794434 1.46465218067169189 0.202596515417098999
0.986255288124084473 1.09895539283752441 0.208563730120658875
1.23576104640960693 0.742624223232269287 0.197368532419204712
0.504932761192321777 1.78635513782501221 0.299650192260742188
1.32469403743743896 0.615614771842956543 0.207455992698669434
0.847260594367980957 1.29746031761169434 0.252040117979049683
0.88537907600402832 1.24302160739898682 0.225740894675254822
0.135843157768249512 2.31346988677978516 0.302831143140792847
1.47256720066070557 0.404429912567138672 0.319208592176437378
1.962044358253479 0.144447356462478638 0.127583533525466919
1.87703204154968262 0.0849211364984512329 0.117653660476207733
2.02618980407714844 0.189362511038780212 0.0249396264553070068
1.99223613739013672 0.165587872266769409 0.147551268339157104
2.2481536865234375 0.344783306121826172 0.00252079963684082031
2.02123689651489258 0.185894504189491272 0.102751180529594421
1.94776201248168945 0.134446784853935242 0.126025587320327759
1.89968264102935791 0.100781269371509552 0.138580262660980225
1.97108662128448486 0.150778830051422119 0.0316795110702514648
1.83109986782073975 0.0527590885758399963 0.0516908019781112671
1.89168655872344971 0.0951823145151138306 0.0354650020599365234
2.08762979507446289 0.232383236289024353 0.0182228982448577881
1.81802582740783691 0.0436045080423355103 0.0112945176661014557
1.91238689422607422 0.109676852822303772 0.0681898817420005798
1.75958001613616943 0.00268030888400971889 0.126146510243415833
1.86098432540893555 0.0736843571066856384 0.152012735605239868
1.79601371288299561 0.0281915068626403809 0.0923640653491020203
1.8458179235458374 0.0630647838115692139 0.129139542579650879
1.7807542085647583 0.0175066851079463959 0.172510191798210144
2.07491159439086914 0.223477885127067566 0.0203238427639007568
1.91012287139892578 0.108091570436954498 0.128243505954742432
1.75902843475341797 0.00229413947090506554 0.236023619771003723
2.07217907905578613 0.221564531326293945 0.109817028045654297
1.86287713050842285 0.0750097259879112244 0.0437513664364814758
1.75934016704559326 0.00251243705861270428 0.248360976576805115
1.89068078994750977 0.0944781303405761719 0.047579839825630188
1.75939691066741943 0.00255216890946030617 0.248775795102119446
1.86305356025695801 0.0751333162188529968 0.0439804568886756897
1.78953146934509277 0.0236525535583496094 0.0802817344665527344
2.0518336296081543 0.207318440079689026 0.0152690410614013672
1.84146749973297119 0.060018591582775116 0.0829894170165061951
2.12079524993896484 0.255606025457382202 0.0367956459522247314
1.8985137939453125 0.0999628454446792603 0.13171851634979248
1.85337340831756592 0.0683552026748657227 0.224196687340736389
1.92090988159179688 0.115644767880439758 0.0596822351217269897
1.90279185771942139 0.102958329021930695 0.145809590816497803
1.92699205875396729 0.119903519749641418 0.0829152986407279968
2.08695650100708008 0.231911882758140564 0.0971213281154632568
1.90020120143890381 0.10114433616399765 0.0212493240833282471
2.16039180755615234 0.283331841230392456 0.0178855359554290771
1.77107620239257812 0.0107300998643040657 0.100815005600452423
1.98056626319885254 0.157416597008705139 0.0164088457822799683
2.0672457218170166 0.218110144138336182 0.0445997565984725952
1.88047111034393311 0.0873291715979576111 0.079142451286315918
2.14521384239196777 0.272704064846038818 0.0129376053810119629
1.84208476543426514 0.0604507662355899811 0.0661222338676452637
1.88823175430297852 0.0927632227540016174 0.181784659624099731
1.93298923969268799 0.124102801084518433 0.0123260244727134705
2.11991286277770996 0.25498807430267334 0.0255875140428543091
1.99971437454223633 0.170824244618415833 0.0210891813039779663
1.85912680625915527 0.0723837390542030334 0.189286783337593079
1.97113323211669922 0.150811508297920227 0.128619477152824402
1.8558121919631958 0.0700628608465194702 0.174881353974342346
1.9074859619140625 0.106245197355747223 0.192579567432403564
1.8593285083770752 0.0725249871611595154 0.213704094290733337
1.79139232635498047 0.0249555725604295731 0.153044119477272034
1.89284908771514893 0.095996372401714325 0.0450402796268463135
2.10338139533996582 0.243412598967552185 0.0634994655847549438
1.95641756057739258 0.140507474541664124 0.150820270180702209
1.88177108764648438 0.0882394611835479736 0.0265837311744689941
1.75658714771270752 0.000584684137720614672 0.00480039184913039207
2.0826103687286377 0.228868633508682251 0.0344255119562149048
2.01869869232177734 0.184117093682289124 0.0206232219934463501
2.25841975212097168 0.351971685886383057 7.15553760528564453e-05
1.83419942855834961 0.0549294538795948029 0.0332232676446437836
1.88167977333068848 0.0881754681468009949 0.0232900157570838928
2.08486819267272949 0.230449587106704712 0.0438773185014724731
2.01198196411132812 0.179414093494415283 0.0600849390029907227
2.20675230026245117 0.315793693065643311 0.0207812190055847168
1.90863549709320068 0.107050135731697083 0.0537840798497200012
2.13510870933532715 0.265628278255462646 0.0797110497951507568
1.79032456874847412 0.0242079086601734161 0.297241538763046265
1.80205416679382324 0.0324210859835147858 0.262590199708938599
1.89823031425476074 0.0997643694281578064 0.140708506107330322
1.78648042678833008 0.0215162429958581924 0.0808390602469444275
1.94124734401702881 0.129885181784629822 0.0731468424201011658
1.85406124591827393 0.0688368231058120728 0.111942559480667114
1.80677163600921631 0.0357243046164512634 0.226151973009109497
1.76429200172424316 0.00597975030541419983 0.121562421321868896
1.85709488391876221 0.0709609463810920715 0.1221809983253479
1.88793087005615234 0.0925525575876235962 0.213869988918304443
1.88318848609924316 0.0892319455742835999 0.117506086826324463
1.89992630481719971 0.100951850414276123 0.224440425634384155
1.8520350456237793 0.0674180388450622559 0.0475510247051715851
1.84653353691101074 0.0635658875107765198 0.00815347954630851746
1.83630096912384033 0.0564009658992290497 0.13143649697303772
1.83499956130981445 0.0554896630346775055 0.0311700701713562012
1.78746998310089111 0.0222090929746627808 0.0465409606695175171
1.84968936443328857 0.065775550901889801 0.0493311062455177307
2.05227160453796387 0.20762518048286438 0.120006218552589417
2.03496766090393066 0.195508882403373718 0.102799862623214722
1.76458156108856201 0.00618242938071489334 0.0131783001124858856
1.87563145160675049 0.0839403942227363586 0.110896304249763489
2.23295116424560547 0.334138453006744385 0.0128467381000518799
1.79993700981140137 0.030938589945435524 0.234155386686325073
1.86221015453338623 0.0745427608489990234 0.134487152099609375
1.81727802753448486 0.0430809222161769867 0.102670632302761078
1.79510247707366943 0.027553461492061615 0.19190843403339386
1.91012239456176758 0.108091257512569427 0.0614969581365585327
1.82922732830047607 0.0514478832483291626 0.231153234839439392
1.81614470481872559 0.0422873906791210175 0.0823806226253509521
1.75695550441741943 0.000842625857330858707 0.31436493992805481
1.83701634407043457 0.0569018088281154633 0.0775000602006912231
1.93887817859649658 0.128226235508918762 0.0571960806846618652
2.13056588172912598 0.262447476387023926 0.0679676234722137451
1.98563933372497559 0.160968810319900513 0.176185190677642822
1.98661816120147705 0.161654189229011536 0.0390633344650268555
2.10323953628540039 0.243313238024711609 0.0522976666688919067
1.79478669166564941 0.0273323375731706619 0.0147110521793365479
1.91034495830535889 0.108247056603431702 0.182542651891708374
2.1736910343170166 0.292643964290618896 0.000347852706909179688
1.79891777038574219 0.030224895104765892 0.084989301860332489
1.97916603088378906 0.156436160206794739 0.0233572572469711304
1.77959978580474854 0.0166983772069215775 0.201051235198974609
2.01594185829162598 0.182186782360076904 0.00816507637500762939
1.95028531551361084 0.136213600635528564 0.16846659779548645
1.8531956672668457 0.068230755627155304 0.07199067622423172
2.11503911018371582 0.25157541036605835 0.0073566734790802002
1.7816845178604126 0.0181581079959869385 0.111391380429267883
1.80379641056060791 0.0336409658193588257 0.117383673787117004
1.76204776763916016 0.00440830318257212639 0.295725226402282715
2.10467076301574707 0.244315460324287415 0.095270305871963501
1.80845737457275391 0.0369046106934547424 0.0730933696031570435
1.81701314449310303 0.0428954772651195526 0.0198981016874313354
1.96102619171142578 0.143734455108642578 0.0122356265783309937
1.98550760746002197 0.160876542329788208 0.0714024007320404053
1.7828822135925293 0.0189967527985572815 0.103789836168289185
1.79530882835388184 0.0276979357004165649 0.0306667536497116089
1.80150926113128662 0.0320394895970821381 0.174922734498977661
1.8428037166595459 0.0609541907906532288 0.168990716338157654
1.93074619770050049 0.12253221869468689 0.00691881775856018066
2.15916061401367188 0.282469660043716431 0.0294045805931091309
1.88081705570220947 0.0875714197754859924 0.154685854911804199
1.97891640663146973 0.15626130998134613 0.0119626373052597046
1.81934285163879395 0.0445266924798488617 0.174489215016365051
1.87427401542663574 0.0829899758100509644 0.0388736501336097717
1.95884060859680176 0.142204105854034424 0.179490774869918823
1.9904334545135498 0.164325624704360962 0.153410255908966064
1.7996138334274292 0.0307123530656099319 0.251280695199966431
1.95607340335845947 0.140266463160514832 0.0343316644430160522
2.04659223556518555 0.203648477792739868 0.12372879683971405
2.1584169864654541 0.281948894262313843 0.0559880882501602173
1.76565122604370117 0.00693148467689752579 0.0639531463384628296
2.24047422409057617 0.339406043291091919 0.0141139328479766846
1.84677135944366455 0.0637324154376983643 0.193571150302886963
1.84607577323913574 0.0632452964782714844 0.136359691619873047
1.84652459621429443 0.0635595843195915222 0.0282760709524154663
1.98405790328979492 0.159861430525779724 0.144712463021278381
1.85394477844238281 0.068755224347114563 0.0514046475291252136
1.94368624687194824 0.131592914462089539 0.0922868698835372925
1.97840499877929688 0.155903264880180359 0.13214951753616333
2.01509952545166016 0.181597068905830383 0.116983756422996521
2.08123135566711426 0.227903038263320923 0.0970449000597000122
2.16596078872680664 0.287231266498565674 0.0259146988391876221
1.78874802589416504 0.0231040362268686295 0.250864148139953613
2.09922575950622559 0.240502774715423584 0.071744576096534729
1.8304133415222168 0.0522783435881137848 0.0987547636032104492
1.78583931922912598 0.0210673082619905472 0.286103278398513794
2.14526939392089844 0.272742986679077148 0.0542838126420974731
1.93936657905578613 0.128568202257156372 0.0410992652177810669
1.91435933113098145 0.111057989299297333 0.159950882196426392
2.03641366958618164 0.196521371603012085 0.0327253341674804688
2.24909830093383789 0.345444738864898682 0.0295945405960083008
2.21463990211486816 0.321316719055175781 0.138973250985145569
1.97644972801208496 0.154534131288528442 0.29378354549407959
2.12544155120849609 0.258859246969223022 0.191950216889381409
2.15584778785705566 0.280149996280670166 0.160911798477172852
2.25448083877563477 0.349213540554046631 0.120786726474761963
2.25380969047546387 0.348743706941604614 0.0522516369819641113
2.17052078247070312 0.290424168109893799 0.112757548689842224
1.79486966133117676 0.0273903906345367432 0.295867234468460083
2.2238471508026123 0.327763676643371582 0.222792148590087891
2.06269669532775879 0.214924871921539307 0.256566673517227173
2.15930366516113281 0.282569915056228638 0.163806512951850891
2.03944253921508789 0.198642179369926453 0.222550421953201294
2.13878631591796875 0.268203496932983398 0.270501166582107544
2.08949947357177734 0.233692467212677002 0.308348566293716431
2.08081841468811035 0.227613866329193115 0.167163997888565063
2.16549372673034668 0.286904215812683105 0.312724947929382324
1.85487055778503418 0.0694034397602081299 0.272783815860748291
1.9326324462890625 0.123852923512458801 0.212743163108825684
2.24324202537536621 0.34134402871131897 0.239569798111915588
2.20076799392700195 0.311603426933288574 0.311912328004837036
2.14521956443786621 0.27270805835723877 0.233464375138282776
2.27077364921569824 0.360622018575668335 0.0305480360984802246
2.25902128219604492 0.352392882108688354 0.132185116410255432
1.8979949951171875 0.0995995104312896729 0.24811217188835144
2.18314766883850098 0.299265593290328979 0.261077344417572021
2.17563533782958984 0.294005423784255981 0.183689162135124207
1.97847855091094971 0.155954733490943909 0.224417299032211304
2.03382730484008789 0.194710388779640198 0.27225106954574585
1.81476783752441406 0.0413232743740081787 0.291301846504211426
2.18434023857116699 0.300100624561309814 0.0621378719806671143
2.18917679786682129 0.303487300872802734 0.289881318807601929
2.21020317077636719 0.318210035562515259 0.313886374235153198
2.05608654022216797 0.210296496748924255 0.202857077121734619
2.20323896408081055 0.313333690166473389 0.0603458881378173828
2.1931917667388916 0.306298524141311646 0.311253607273101807
2.15541458129882812 0.279846608638763428 0.277088344097137451
2.02190971374511719 0.186365514993667603 0.204923003911972046
2.10610461235046387 0.245319515466690063 0.200778082013130188
2.27056789398193359 0.360477864742279053 0.214900031685829163
1.87889647483825684 0.0862266719341278076 0.282373219728469849
2.21786785125732422 0.323576837778091431 0.269287705421447754
2.15113258361816406 0.276848375797271729 0.171552106738090515
2.05022311210632324 0.206190809607505798 0.254944086074829102
2.05470180511474609 0.209326758980751038 0.232870191335678101
1.94711089134216309 0.133990854024887085 0.308334529399871826
2.27060317993164062 0.360502570867538452 0.231230348348617554
2.22969222068786621 0.331856340169906616 0.313601493835449219
2.05648708343505859 0.210576951503753662 0.296526730060577393
2.2172400951385498 0.323137283325195312 0.0993413776159286499
2.13063287734985352 0.262494415044784546 0.246760070323944092
1.95710337162017822 0.140987694263458252 0.198751568794250488
2.21981573104858398 0.324940770864486694 0.185046836733818054
2.11843061447143555 0.253950238227844238 0.0999523550271987915
1.9792482852935791 0.156493693590164185 0.190913945436477661
2.27150440216064453 0.361133545637130737 0.301922917366027832
2.04033780097961426 0.199269041419029236 0.153261482715606689
2.06493282318115234 0.216490596532821655 0.137663796544075012
2.25372481346130371 0.348684161901473999 0.268642604351043701
2.04835391044616699 0.204881906509399414 0.208563506603240967
2.22363543510437012 0.327615350484848022 0.17346508800983429
2.07415366172790527 0.222947150468826294 0.132447108626365662
2.13036513328552246 0.262306779623031616 0.313301652669906616
2.17484116554260254 0.293449342250823975 0.198250219225883484
2.12069272994995117 0.255534142255783081 0.291536211967468262
1.79412055015563965 0.0268659293651580811 0.297573119401931763
2.09186959266662598 0.23535194993019104 0.13538457453250885
2.22467803955078125 0.328345537185668945 0.290880203247070312
2.23376917839050293 0.33471110463142395 0.214264318346977234
2.21135258674621582 0.319014817476272583 0.25302356481552124
2.23694467544555664 0.336934596300125122 0.222761303186416626
2.03322362899780273 0.194287568330764771 0.261333286762237549
2.14430713653564453 0.272069066762924194 0.0807178318500518799
1.99176430702209473 0.165257483720779419 0.211834251880645752
2.08422231674194336 0.229997262358665466 0.14686894416809082
2.10489630699157715 0.244473457336425781 0.153778493404388428
2.12805461883544922 0.260689049959182739 0.22560495138168335
1.92838084697723389 0.120875939726829529 0.316954702138900757
2.1259007453918457 0.259180903434753418 0.127553731203079224
2.21415996551513672 0.320980638265609741 0.255798220634460449
2.03631305694580078 0.196450889110565186 0.252290248870849609
2.25329470634460449 0.348383009433746338 0.0966076403856277466
2.16581916809082031 0.287132084369659424 0.305147826671600342
2.26421356201171875 0.356028527021408081 0.302150845527648926
2.26445603370666504 0.356198251247406006 0.25006517767906189
2.14105057716369629 0.269788861274719238 0.238826602697372437
2.08640122413635254 0.231523051857948303 0.231777578592300415
2.11343622207641602 0.250453054904937744 0.278573215007781982
2.06879425048828125 0.219194456934928894 0.189706623554229736
2.03386425971984863 0.194736286997795105 0.195482045412063599
1.89785218238830566 0.0994995832443237305 0.28130301833152771
2.17368745803833008 0.292641550302505493 0.184545442461967468
2.00080323219299316 0.171586647629737854 0.170062810182571411
2.03993773460388184 0.198988914489746094 0.171041786670684814
2.18507122993469238 0.300612390041351318 0.316782742738723755
2.0724329948425293 0.221742331981658936 0.309174627065658569
1.89345288276672363 0.0964190959930419922 0.261594116687774658
2.2501227855682373 0.346162080764770508 0.0662187635898590088
2.16293168067932129 0.285110265016555786 0.156387805938720703
2.15754032135009766 0.281335145235061646 0.0780765116214752197
1.81734967231750488 0.0431310534477233887 0.304516732692718506
2.09743714332580566 0.239250391721725464 0.116776064038276672
2.03467655181884766 0.195305004715919495 0.19882752001285553
2.05144262313842773 0.207044750452041626 0.248132973909378052
1.82646632194519043 0.0495146214962005615 0.303191691637039185
1.96632766723632812 0.147446602582931519 0.207917720079421997
2.22050285339355469 0.325421988964080811 0.0635182857513427734
1.98122608661651611 0.157878607511520386 0.205175921320915222
2.09127402305603027 0.234934970736503601 0.16678503155708313
2.18924784660339355 0.303537040948867798 0.187451630830764771
2.16188979148864746 0.284380644559860229 0.16351163387298584
2.0059962272644043 0.175222799181938171 0.205261141061782837
2.02016496658325195 0.185143962502479553 0.301891505718231201
2.20275092124938965 0.312991857528686523 0.0579014122486114502
2.13889241218566895 0.26827770471572876 0.268979519605636597
1.88907909393310547 0.0933566093444824219 0.299791306257247925
1.9349052906036377 0.125444382429122925 0.212270990014076233
1.84676253795623779 0.0637261867523193359 0.272872030735015869
2.01162123680114746 0.179161429405212402 0.317687928676605225
2.24708890914916992 0.344037741422653198 0.0165169835090637207
2.23969697952270508 0.338861763477325439 0.304549574851989746
2.11546468734741211 0.25187346339225769 0.13449859619140625
2.15742874145507812 0.281257063150405884 0.156187891960144043
2.21185851097106934 0.319369077682495117 0.0535845160484313965
1.91096436977386475 0.108680814504623413 0.24097093939781189
1.9627840518951416 0.144965305924415588 0.313067048788070679
2.14470434188842773 0.272347301244735718 0.269910722970962524
2.26065230369567871 0.353534907102584839 0.172575026750564575
2.09759378433227539 0.239360183477401733 0.117963612079620361
2.24493265151977539 0.342527955770492554 0.0392473936080932617
2.1011347770690918 0.241839468479156494 0.149607256054878235
2.16814970970153809 0.288763940334320068 0.316048711538314819
1.84527945518493652 0.0626877546310424805 0.310464322566986084
2.15177488327026367 0.277298122644424438 0.219920948147773743
2.2070767879486084 0.31602102518081665 0.227120190858840942
2.1775975227355957 0.295379310846328735 0.241384357213973999
2.21169114112854004 0.319251924753189087 0.179364025592803955
1.98625993728637695 0.16140332818031311 0.301074892282485962
1.92593467235565186 0.119163140654563904 0.292328506708145142
2.12789463996887207 0.260577023029327393 0.202333942055702209
2.06482911109924316 0.216417968273162842 0.152889609336853027
2.24869537353515625 0.345162570476531982 0.0833653956651687622
1.88800406455993652 0.092603832483291626 0.284987479448318481
2.20968222618103027 0.31784522533416748 0.132515698671340942
2.04022455215454102 0.199189797043800354 0.236514449119567871
2.25580501556396484 0.350140750408172607 0.154164403676986694
2.00556397438049316 0.174920141696929932 0.196945175528526306
2.18257284164428711 0.298862993717193604 0.298608511686325073
2.00014901161193848 0.171128600835800171 0.314105808734893799
2.16689252853393555 0.287883639335632324 0.152507737278938293
2.22532105445861816 0.328795671463012695 0.0760605484247207642
2.23033690452575684 0.332307904958724976 0.12835240364074707
2.0950469970703125 0.237576872110366821 0.206416457891464233
2.25458979606628418 0.349289834499359131 0.189056545495986938
2.15081024169921875 0.276622682809829712 0.127809882164001465
2.13844537734985352 0.267964690923690796 0.204344213008880615
2.20393514633178711 0.313821077346801758 0.241966456174850464
1.85459029674530029 0.0692072212696075439 0.278720885515213013
2.21376228332519531 0.320702254772186279 0.139543220400810242
2.2152707576751709 0.321758419275283813 0.0561168789863586426
2.09452724456787109 0.237212985754013062 0.217485994100570679
2.24317836761474609 0.341299444437026978 0.193510428071022034
1.32113361358642578 1.43328726291656494 0
0.410126715898513794 2.19541025161743164 0
1.20498394966125488 1.61894547939300537 0
1.6134185791015625 1.21310830116271973 0
0.97553706169128418 1.6833183765411377 0
0.485561400651931763 2.08126354217529297 0
0.841935098171234131 2.30550217628479004 0
1.39582335948944092 1.20116329193115234 0
1.39367306232452393 1.49270749092102051 0
0.201620221138000488 2.51143479347229004 0
0.566155731678009033 2.24009537696838379 0
0.801312923431396484 1.93508529663085938 0
0.496195733547210693 2.67283391952514648 0
1.49578356742858887 1.29872512817382812 0
0.488568782806396484 2.76828765869140625 0
0.693671584129333496 2.17702960968017578 0
0.0853433907032012939 2.49362850189208984 0
1.72471404075622559 0.91062462329864502 0
1.05032432079315186 1.5854487419128418 0
0.467614114284515381 2.1707911491394043 0
0.738051295280456543 2.51227736473083496 0
0.636830687522888184 2.50150465965270996 0
0.825416803359985352 2.02997589111328125 0
1.17242681980133057 1.72836410999298096 0
1.15576815605163574 1.95173811912536621 0
0.3501320481300354 2.38006186485290527 0
0.593834757804870605 2.42399835586547852 0
1.55986261367797852 1.22539031505584717 0
0.450993359088897705 2.50776481628417969 0
0.113725185394287109 2.45731401443481445 0
0.276646554470062256 2.47551703453063965 0
0.579545378684997559 2.23415732383728027 0
0.899395346641540527 1.74840414524078369 0
1.10395097732543945 1.53289997577667236 0
0.934951305389404297 1.93627595901489258 0
1.39480912685394287 1.20189285278320312 0
1.64709901809692383 1.01484465599060059 0
0.455686569213867188 2.58945012092590332 0
0.962394773960113525 1.94930636882781982 0
1.35995364189147949 1.38675105571746826 0
1.14222228527069092 1.50682234764099121 0
0.37035071849822998 2.69398403167724609 0
0.803832054138183594 2.32867002487182617 0
0.597781121730804443 2.56417107582092285 0
1.09313011169433594 1.47828054428100586 0
0.93606036901473999 1.87798917293548584 0
1.23845231533050537 1.69942367076873779 0
0.407531023025512695 2.42350077629089355 0
0.713941812515258789 2.13658761978149414 0
2.07864546775817871 0.625964164733886719 0
1.89200043678283691 0.848465621471405029 0
0.668997406959533691 2.30344152450561523 0
0.757095456123352051 2.40687131881713867 0
1.8113105297088623 0.803162038326263428 0
0.627965450286865234 1.94853377342224121 0
0.490128248929977417 2.24154090881347656 0
0.853281259536743164 1.7461388111114502 0
0.356842786073684692 2.35807204246520996 0
1.6287161111831665 1.11410629749298096 0
1.03894698619842529 1.90693831443786621 0
1.16057479381561279 1.91901910305023193 0
0.787510514259338379 2.26227688789367676 0
0.993525028228759766 2.07247757911682129 0
2.16807699203491211 0.466952413320541382 0
0.753380417823791504 2.48544120788574219 0
0.410755664110183716 2.51280784606933594 0
0.850649118423461914 1.89274215698242188 0
2.11266064643859863 0.547390401363372803 0
0.886264801025390625 1.94642388820648193 0
1.50830793380737305 1.31887269020080566 0
1.62410461902618408 1.05853033065795898 0
0.901044607162475586 1.84055137634277344 0
0.268075466156005859 2.53331375122070312 0
0.903766632080078125 2.06897497177124023 0
0.874384105205535889 1.86363518238067627 0
1.17096543312072754 1.91459107398986816 0
1.10791099071502686 1.90671789646148682 0
0.413247942924499512 2.33727145195007324 0
0.446670562028884888 2.46046233177185059 0
1.96895134449005127 0.727638721466064453 0
1.55253136157989502 1.04187989234924316 0
1.19683527946472168 1.49199938774108887 0
0.994544506072998047 1.66102302074432373 0
0.649691522121429443 2.13213062286376953 0
1.12312114238739014 1.9742814302444458 0
0.273684322834014893 2.58081793785095215 0
1.04452729225158691 1.82376015186309814 0
0.771984338760375977 2.23779034614562988 0
0.109990090131759644 2.56745004653930664 0
0.728838622570037842 2.02706098556518555 0
0.743477106094360352 2.06472444534301758 0
0.494432538747787476 2.77861928939819336 0
0.694241881370544434 2.61270475387573242 0
0.68615269660949707 2.44027876853942871 0
1.61350119113922119 1.19142186641693115 0
0.968051135540008545 2.0806887149810791 0
1.70413851737976074 1.15092968940734863 0
1.01687037944793701 1.92800533771514893 0
1.44559669494628906 1.16896629333496094 0
1.01248550415039062 1.91323184967041016 0
1.06835305690765381 1.90895450115203857 0
0.386647850275039673 2.44695711135864258 0
1.04212498664855957 2.02592945098876953 0
1.61509788036346436 1.09829068183898926 0
0.789233267307281494 2.38039016723632812 0
1.98447465896606445 0.713520526885986328 0
0.950367748737335205 1.89796972274780273 0
1.23257124423980713 1.83259129524230957 0
0.474225074052810669 2.37246441841125488 0
1.71813082695007324 0.958851993083953857 0
0.924449443817138672 2.23610424995422363 0
1.15370273590087891 1.49087989330291748 0
0.619757175445556641 2.62572336196899414 0
0.953758537769317627 1.90337610244750977 0
0.671134591102600098 2.11753702163696289 0
0.740848660469055176 2.0053558349609375 0
1.97514641284942627 0.732379555702209473 0
0.649273455142974854 2.64718461036682129 0
0.925431311130523682 1.82208621501922607 0
0.98209679126739502 1.98054099082946777 0
0.761215865612030029 1.86229920387268066 0
0.519022822380065918 2.68307614326477051 0
1.09004950523376465 1.50383508205413818 0
0.40717548131942749 2.54427862167358398 0
1.63619363307952881 1.01362216472625732 0
0.375696867704391479 2.23564243316650391 0
0.240944325923919678 2.35717678070068359 0
0.528116583824157715 2.40913581848144531 0
0.519039750099182129 2.037384033203125 0
2.0160675048828125 0.704049110412597656 0
1.38592958450317383 1.61768496036529541 0
1.61536812782287598 1.00098228454589844 0
1.0299079418182373 1.75261509418487549 0
0.7262381911277771 2.20952510833740234 0
1.18968987464904785 1.80558216571807861 0
0.598922252655029297 2.20000743865966797 0
1.02539896965026855 1.59257721900939941 0
0.586208343505859375 2.72732377052307129 0
0.840856194496154785 2.05246376991271973 0
0.294676691293716431 2.36974668502807617 0
1.04419946670532227 2.07569646835327148 0
0.68292701244354248 2.39070415496826172 0
0.787861347198486328 1.99587500095367432 0
1.38707184791564941 1.57472729682922363 0
0.27568352222442627 2.56001567840576172 0
0.476478397846221924 2.68887543678283691 0
2.10441708564758301 0.567871034145355225 0
2.08861827850341797 0.542880356311798096 0
1.96591496467590332 0.703982055187225342 0
1.60586392879486084 1.16570007801055908 0
1.28686785697937012 1.33949363231658936 0
0.875569939613342285 2.30172324180603027 0
1.0328289270401001 1.73747479915618896 0
0.476117849349975586 2.2243506908416748 0
0.803986072540283203 2.03002119064331055 0
0.627754569053649902 2.04126977920532227 0
0.0422521829605102539 2.51959633827209473 0
0.635869801044464111 1.97141623497009277 0
0.984528541564941406 1.70231091976165771 0
1.14988267421722412 1.92041265964508057 0
0.523385703563690186 2.79772186279296875 0
1.1664893627166748 1.46034204959869385 0
1.47500407695770264 1.33460962772369385 0
0.652831435203552246 2.13861632347106934 0
0.683288693428039551 2.06540107727050781 0
1.09663128852844238 1.8401641845703125 0
1.02335906028747559 1.72819709777832031 0
0.38238215446472168 2.62928652763366699 0
0.436803460121154785 2.26934957504272461 0
1.36113655567169189 1.34448909759521484 0
0.163705140352249146 2.37331652641296387 0
1.31788182258605957 1.72112751007080078 0
0.351281046867370605 2.34108757972717285 0
0.931656599044799805 1.85527920722961426 0
0.625592887401580811 2.2210536003112793 0
1.18619513511657715 1.4605104923248291 0
0.415729224681854248 2.2344977855682373 0
0.398535609245300293 2.53207159042358398 0
1.32124125957489014 1.64851808547973633 0
0.639760792255401611 1.97525513172149658 0
1.14964699745178223 1.93022668361663818 0
1.1194911003112793 1.83231616020202637 0
0.172881603240966797 2.62777543067932129 0
0.534840226173400879 2.22571206092834473 0
0.720905303955078125 2.00013828277587891 0
1.16228127479553223 1.79652023315429688 0
0.183072745800018311 2.45795989036560059 0
1.63904488086700439 1.24443149566650391 0
0.77079463005065918 2.34003734588623047 0
1.00940775871276855 1.89464545249938965 0
0.362849891185760498 2.46877336502075195 0
1.26811230182647705 1.48857545852661133 0
1.29124307632446289 1.55907666683197021 0
0.68781125545501709 2.19023776054382324 0
0.729214370250701904 2.33901071548461914 0
0.835829019546508789 1.7478325366973877 0
0.71425175666809082 1.94460642337799072 0
1.98161816596984863 0.676506102085113525 0
1.07345163822174072 1.94862210750579834 0
0.646028757095336914 2.24218392372131348 0
0.129698991775512695 2.53810286521911621 0
1.04463255405426025 2.10472965240478516 0
0.808713853359222412 2.15404367446899414 0
0.539665460586547852 2.82880949974060059 0
1.16852128505706787 1.51960957050323486 0
0.398565381765365601 2.76333928108215332 0
0.866255760192871094 1.81959915161132812 0
0.651323199272155762 2.48646354675292969 0
1.46631443500518799 1.27596902847290039 0
0.430653512477874756 2.61523008346557617 0
0.564114749431610107 2.57764482498168945 0
1.8816220760345459 0.773243486881256104 0
0.676555037498474121 2.50734949111938477 0
0.348828494548797607 2.30148792266845703 0
0.99060136079788208 1.82811486721038818 0
0.695451021194458008 2.30388879776000977 0
1.62694239616394043 1.23281371593475342 0
1.18662071228027344 1.756622314453125 0
0.822654366493225098 2.0150153636932373 0
1.6174619197845459 1.03033018112182617 0
1.23036611080169678 1.73853206634521484 0
0.830957114696502686 1.75546443462371826 0
1.79105687141418457 0.886234283447265625 0
0.851600825786590576 1.87162315845489502 0
1.0608980655670166 1.65260958671569824 0
1.67447042465209961 1.06073713302612305 0
1.12341666221618652 1.72247219085693359 0
1.32750272750854492 1.57853996753692627 0
0.580988764762878418 2.31588649749755859 0
1.40555727481842041 1.3134537935256958 0
2.13596749305725098 0.510741531848907471 0
0.0475440919399261475 2.48552560806274414 0
0.893205940723419189 1.74048340320587158 0
0.732853055000305176 2.1613006591796875 0
1.66217684745788574 1.10135102272033691 0
0.312490850687026978 2.61790919303894043 0
0.886669158935546875 2.06201863288879395 0
0.69563823938369751 2.5240485668182373 0
0.610124945640563965 1.95636534690856934 0
1.05543386936187744 1.70712316036224365 0
1.03004515171051025 2.05220437049865723 0
0.5853310227394104 2.2606198787689209 0
0.123663723468780518 2.57758021354675293 0
0.546703755855560303 2.16293525695800781 0
0.673988759517669678 2.01365208625793457 0
1.58824443817138672 1.21177804470062256 0
0.427198141813278198 2.36275267601013184 0
0.181985437870025635 2.5967411994934082 0
0.318448364734649658 2.56731009483337402 0
1.61402392387390137 1.03509092330932617 0
1.11394762992858887 1.7130967378616333 0
0.765670061111450195 1.83746838569641113 0
0.359245479106903076 2.70211172103881836 0
1.05340993404388428 1.76382327079772949 0
1.8509674072265625 0.770247459411621094 0
0.905719935894012451 1.93833720684051514 0
0.625600874423980713 2.46098804473876953 0
1.33785104751586914 1.63591861724853516 0
0.462617397308349609 2.42047929763793945 0
0.578111588954925537 2.7055201530456543 0
1.31034767627716064 1.31332921981811523 0
1.56718182563781738 1.28321146965026855 0
0.171182841062545776 2.38417625427246094 0
1.76892101764678955 1.07092761993408203 0
0.602879047393798828 2.01195669174194336 0
1.06770157814025879 1.9053189754486084 0
0.844524979591369629 1.91282176971435547 0
0.298292249441146851 2.35953903198242188 0
0.490354418754577637 2.53893804550170898 0
0.21561160683631897 2.41042470932006836 0
1.21529436111450195 1.61816740036010742 0
0.424795806407928467 2.33965158462524414 0
1.26036179065704346 1.65441513061523438 0
0.916644811630249023 1.71361088752746582 0
0.26592099666595459 2.49996280670166016 0
0.608452260494232178 2.4340822696685791 0
0.543364644050598145 2.69340896606445312 0
0.269669950008392334 2.60956907272338867 0
1.04284226894378662 1.68394923210144043 0
0.661608636379241943 2.60272669792175293 0
0.564021944999694824 2.2399299144744873 0
0.746242403984069824 1.93795669078826904 0
1.42446291446685791 1.35820901393890381 0
0.110968858003616333 2.43341588973999023 0
0.935227334499359131 1.75506782531738281 0
0.306585192680358887 2.2360990047454834 0
1.85222840309143066 0.870528757572174072 0
0.328655481338500977 2.58321070671081543 0
1.32231009006500244 1.39233911037445068 0
0.509981453418731689 2.45029711723327637 0
1.2193678617477417 1.80420553684234619 0
0.72659832239151001 1.85484123229980469 0
1.91702330112457275 0.74459993839263916 0
1.54563140869140625 1.3716510534286499 0
0.438634932041168213 2.15231132507324219 0
0.876853048801422119 1.70224094390869141 0
1.8128896951675415 1.00381577014923096 0
1.16568660736083984 1.63365781307220459 0
1.03876447677612305 1.86978530883789062 0
1.39240849018096924 1.46317636966705322 0
1.05589056015014648 2.04672455787658691 0
0.656037330627441406 2.53892302513122559 0
0.0686623156070709229 2.46044802665710449 0
1.53243410587310791 1.0692141056060791 0
1.49920392036437988 1.3056718111038208 0
0.571762740612030029 2.24169659614562988 0
1.61666285991668701 1.07634210586547852 0
0.909840166568756104 1.79167604446411133 0
1.17061817646026611 1.805777907371521 0
0.340837776660919189 2.47078227996826172 0
0.821142792701721191 2.16512417793273926 0
0.801532149314880371 1.8049391508102417 0
0.681958675384521484 2.04435253143310547 0
1.1676257848739624 1.59712207317352295 0
0.321007311344146729 2.21686530113220215 0
0.601748049259185791 2.56990647315979004 0
0.924066305160522461 2.04598665237426758 0
0.416176855564117432 2.54296684265136719 0
2.11917972564697266 0.560818612575531006 0
1.75486350059509277 0.87823110818862915 0
1.64323639869689941 1.01174676418304443 0
1.10438883304595947 1.87009274959564209 0
1.76886498928070068 0.886972308158874512 0
0.42786329984664917 2.2563169002532959 0
1.18014156818389893 1.4045412540435791 0
0.415864646434783936 2.16581606864929199 0
0.848201155662536621 1.76723182201385498 0
1.36753296852111816 1.59254360198974609 0
0.26919257640838623 2.59353280067443848 0
1.55891954898834229 1.37322235107421875 0
1.78631651401519775 1.03915965557098389 0
1.36388349533081055 1.45597052574157715 0
0.497510582208633423 2.45492124557495117 0
0.215274959802627563 2.4419703483581543 0
0.287189304828643799 2.46035552024841309 0
1.72887003421783447 0.99877774715423584 0
0.932809233665466309 1.92115402221679688 0
0.7862967848777771 2.29551863670349121 0
1.13744950294494629 1.50784945487976074 0
0.688852071762084961 2.6153867244720459 0
0.943992316722869873 1.92935442924499512 0
1.29214012622833252 1.72274124622344971 0
1.05631530284881592 1.86896538734436035 0
1.93477213382720947 0.691585898399353027 0
1.66562736034393311 1.15112698078155518 0
0.513559341430664062 2.23937249183654785 0
1.37583792209625244 1.35114109516143799 0
1.15108931064605713 1.48320317268371582 0
2.16371488571166992 0.463809758424758911 0
0.579600632190704346 1.96394896507263184 0
1.81657731533050537 0.99553447961807251 0
1.1803736686706543 1.73719394207000732 0
1.80333304405212402 0.97119605541229248 0
1.06757187843322754 1.92111396789550781 0
1.05894911289215088 1.81544780731201172 0
0.446553021669387817 2.25009918212890625 0
0.155036598443984985 2.53289484977722168 0
0.589933037757873535 2.285888671875 0
0.727488279342651367 2.29669976234436035 0
0.258042275905609131 2.61729645729064941 0
0.93684077262878418 1.96309304237365723 0
1.34583556652069092 1.34231555461883545 0
0.307535767555236816 2.28885626792907715 0
1.16583943367004395 1.8781285285949707 0
0.742640435695648193 1.96027159690856934 0
0.670517265796661377 2.1194145679473877 0
0.480883002281188965 2.39807558059692383 0
1.67175161838531494 1.03229475021362305 0
1.38318371772766113 1.20132601261138916 0
0.347105354070663452 2.52750921249389648 0
0.604746341705322266 2.42031955718994141 0
0.644157171249389648 2.02254128456115723 0
0.961457431316375732 1.98488986492156982 0
0.519439220428466797 2.0753943920135498 0
1.76948237419128418 1.06379878520965576 0
1.06186771392822266 1.66845870018005371 0
0.774453938007354736 2.1018984317779541 0
1.25160896778106689 1.81069099903106689 0
0.168158113956451416 2.60731911659240723 0
0.562640547752380371 2.33077430725097656 0
1.20216155052185059 1.84651470184326172 0
1.38272249698638916 1.6003105640411377 0
1.51709949970245361 1.29636108875274658 0
0.713847875595092773 2.37081599235534668 0
0.267576158046722412 2.65485715866088867 0
1.1635664701461792 1.87466311454772949 0
0.760030627250671387 2.15649700164794922 0
1.22509312629699707 1.65975236892700195 0
