ply
format ascii 1.0
element vertex 699
property float x
property float y
property float z
end_header
0.00617028353735804558 0.0066095045767724514 -0.0108654536306858063
0.00596863636747002602 0.00588312325999140739 -0.0106815751641988754
0.00555636640638113022 0.00786274485290050507 -0.012142072431743145
0.00690419413149356842 0.0062175234779715538 -0.00992564857006072998
0.00578152388334274292 0.00511158909648656845 -0.0104592666029930115
0.00687643233686685562 0.00533789116889238358 -0.0094870980829000473
0.00806029979139566422 0.00733636878430843353 -0.00936552137136459351
0.00521534914150834084 0.00501865800470113754 -0.0109747406095266342
0.0056916065514087677 0.00770369358360767365 -0.0119228744879364967
0.00481217727065086365 0.00447544688358902931 -0.011088961735367775
0.00868646241724491119 0.00845081638544797897 -0.00933165661990642548
0.00562729313969612122 0.00534585630521178246 -0.010737275704741478
0.00949682481586933136 0.0074679017998278141 -0.00800237711519002914
0.00524262385442852974 0.00501714367419481277 -0.0109467329457402229
0.00939435232430696487 0.00841512624174356461 -0.00860665366053581238
0.00593206845223903656 0.00912459380924701691 -0.0124361589550971985
0.00773445703089237213 0.0077594192698597908 -0.00991476792842149734
0.00735813705250620842 0.00636139186099171638 -0.00954911764711141586
0.00796836242079734802 0.00782199110835790634 -0.00971462391316890717
0.00679339142516255379 0.0060329739935696125 -0.00993834901601076126
0.00799112766981124878 0.00482805119827389717 -0.00785592012107372284
0.00507188215851783752 0.00261392584070563316 -0.0097408834844827652
0.00594907533377408981 0.00353680690750479698 -0.00938028842210769653
0.00608454272150993347 0.00324686150997877121 -0.00897903367877006531
0.00849046465009450912 0.00462422892451286316 -0.00706800865009427071
0.00633991369977593422 0.00347065436653792858 -0.0088381962850689888
0.00840834341943264008 0.00596783822402358055 -0.00824442505836486816
0.00997964758425951004 0.00748786143958568573 -0.00749212410300970078
0.0134374219924211502 0.0159233901649713516 -0.00595754105597734451
0.0120848305523395538 0.0156586263328790665 -0.0083612566813826561
0.012113671749830246 0.0159996133297681808 -0.00845019519329071045
0.0130655430257320404 0.0139045668765902519 -0.00580485677346587181
0.0112691242247819901 0.0126747908070683479 -0.00863019097596406937
0.0142856994643807411 0.0155453905463218689 -0.00422260910272598267
0.0136486794799566269 0.0159856230020523071 -0.00559084117412567139
0.0140375690534710884 0.0156784802675247192 -0.00473951082676649094
0.01306912861764431 0.0140687804669141769 -0.00586684048175811768
0.0119501566514372826 0.0148085597902536392 -0.00825623050332069397
0.0118184369057416916 0.0138864275068044662 -0.00811558309942483902
0.0121328234672546387 0.012917960062623024 -0.00712627684697508812
0.0124198552221059799 0.0134621355682611465 -0.0068201972171664238
0.0131896454840898514 0.0141367390751838684 -0.00567121990025043488
0.0118976039811968803 0.0149690387770533562 -0.00842101313173770905
0.0113475993275642395 0.0151351997628808022 -0.00951290968805551529
0.00873855315148830414 0.0125663839280605316 -0.0112607041373848915
0.00934327859431505203 0.0130578819662332535 -0.0108763463795185089
0.0103762727230787277 0.0118923373520374298 -0.00944623257964849472
0.00855437666177749634 0.010573171079158783 -0.0106665538623929024
0.00980097521096467972 0.0138397431001067162 -0.0107435593381524086
0.00935692340135574341 0.0134137524291872978 -0.0110006872564554214
0.00976512301713228226 0.0145361581817269325 -0.0110462578013539314
0.0108836572617292404 0.0161283761262893677 -0.0105988672003149986
0.00881301891058683395 0.0107664419338107109 -0.010495627298951149
0.00859106611460447311 0.011360732838511467 -0.0109355635941028595
0.00828485284000635147 0.0124831991270184517 -0.0116592403501272202
0.00913443602621555328 0.012766069732606411 -0.0109619898721575737
0.0094842156395316124 0.011725706048309803 -0.0102286394685506821
0.0100189456716179848 0.0149426795542240143 -0.0109621752053499222
0.00938649382442235947 0.0116835478693246841 -0.0103051261976361275
0.00904239621013402939 0.0130193475633859634 -0.0111470604315400124
0.00973954610526561737 0.0103241670876741409 -0.00936981011182069778
0.00813750363886356354 0.0104630859568715096 -0.0110120102763175964
0.0098575325682759285 0.00923789013177156448 -0.00862894859164953232
0.00966809503734111786 0.00890524126589298248 -0.0086220279335975647
0.00824269372969865799 0.0100044533610343933 -0.0106452163308858871
0.0104019045829772949 0.0107224564999341965 -0.0089533952996134758
0.00759122055023908615 0.00995719060301780701 -0.0112532442435622215
0.00907639320939779282 0.00883512850850820541 -0.00915861036628484726
0.0105603542178869247 0.00593595206737518311 -0.00416168896481394768
0.00851164199411869049 0.00313274981454014778 -0.00513529404997825623
0.0103707769885659218 0.00576758710667490959 -0.00445344205945730209
0.00952695868909358978 0.00452029425650835037 -0.00464904773980379105
0.0093508400022983551 0.0047711450606584549 -0.00582231767475605011
0.00977494008839130402 0.00482327723875641823 -0.00445072958245873451
0.00883850082755088806 0.00323233893141150475 -0.00420980947092175484
0.00987388379871845245 0.00542743504047393799 -0.00544220954179763794
0.00746733788400888443 0.000388144282624125481 -0.00160665367729961872
0.00695501454174518585 -0.000489617697894573212 -0.00131068797782063484
0.00845113117247819901 0.00234287790954113007 -0.00336664239875972271
0.00949708186089992523 0.00374972866848111153 -0.00226588011719286442
0.0073260660283267498 0.000244064955040812492 -0.00195867801085114479
0.010400865226984024 0.00542845297604799271 -0.0033646593801677227
0.00737370271235704422 0.000560736283659934998 -0.0030266942922025919
0.00842999480664730072 0.00213278946466743946 -0.00258474983274936676
0.00888834241777658463 0.00276267272420227528 -0.00216163182631134987
0.00766267534345388412 0.000606170040555298328 -0.00120315514504909515
0.0086255781352519989 0.00232236040756106377 -0.00205357884988188744
0.00948487501591444016 0.00387780903838574886 -0.00291835772804915905
0.00881134439259767532 0.00297096138820052147 -0.00362312258221209049
0.0103389695286750793 0.00463344063609838486 -0.000279126106761395931
0.0092680417001247406 0.00303391460329294205 -0.000701994402334094048
0.0100795608013868332 0.00471593160182237625 -0.00246179243549704552
0.00815248861908912659 0.0012857215479016304 -0.000779439928010106087
0.00911764707416296005 0.00265773897990584373 -9.05406195670366287e-05
0.00999222230166196823 0.0041539464145898819 -0.000586037640459835529
0.0106602059677243233 0.00558329233899712563 -0.00223302864469587803
0.0115398913621902466 0.0072391219437122345 -0.00339931179769337177
0.00806301645934581757 0.00113854976370930672 -0.000754839973524212837
0.0101400120183825493 0.00446348777040839195 -0.000920778256841003895
0.00875549204647541046 0.00218832166865468025 -0.000550016295164823532
0.0112396096810698509 0.00649112369865179062 -0.00219211122021079063
0.00920762587338685989 0.003049453254789114 -0.00119407288730144501
0.0122675905004143715 0.0081724533811211586 -0.000517414417117834091
0.0126656061038374901 0.00959773175418376923 -0.00134219985920935869
0.0131963556632399559 0.0107201468199491501 -0.000293614808470010757
0.0142212109640240669 0.0138043379411101341 -0.000800137815531343222
0.0142491227015852928 0.0138601316139101982 -0.000736067653633654118
0.012214982882142067 0.008858460932970047 -0.0028224606066942215
0.0136295976117253304 0.0119627742096781731 -0.000338866724632680416
0.0122740501537919044 0.00833367276936769485 -0.000912037910893559456
0.0126594025641679764 0.00980547908693552017 -0.0019642349798232317
0.0120511539280414581 0.00838645733892917633 -0.00279953307472169399
0.0132770892232656479 0.0108842961490154266 -0.000115942675620317459
0.0140529060736298561 0.0133197447285056114 -0.000777427747379988432
0.0144784348085522652 0.0144092179834842682 -0.000460110371932387352
0.0138756781816482544 0.0130232777446508408 -0.00134382094256579876
0.0133107742294669151 0.0117666423320770264 -0.00228873826563358307
0.0122127886861562729 0.00910604558885097504 -0.00352314882911741734
0.0143157513812184334 0.0145793817937374115 -0.00220115715637803078
0.0127001870423555374 0.0102271270006895065 -0.0028096416499465704
0.0124887097626924515 0.00976018887013196945 -0.00317303184419870377
0.0146367428824305534 0.0150797860696911812 -0.00107439584098756313
0.0135429147630929947 0.0128482421860098839 -0.00346087012439966202
0.0124931521713733673 0.0098311789333820343 -0.0033343068789690733
0.014543505385518074 0.0157552193850278854 -0.00366775272414088249
0.0142586026340723038 0.0145577304065227509 -0.00258795381523668766
0.014370073564350605 0.0151791591197252274 -0.00343256862834095955
0.0137386620044708252 0.0130765251815319061 -0.00256150634959340096
0.0104935411363840103 0.00752927083522081375 -0.00654425891116261482
0.0101290270686149597 0.00674939528107643127 -0.00651184050366282463
0.010852104052901268 0.00687942700460553169 -0.00494590774178504944
0.0108214505016803741 0.00702897505834698677 -0.00519068818539381027
0.0129153653979301453 0.0118185300379991531 -0.00436951871961355209
0.012156355194747448 0.0108213340863585472 -0.00538419373333454132
0.0119654294103384018 0.0104894917458295822 -0.00556802749633789062
0.0118531007319688797 0.01203926932066679 -0.00721440184861421585
0.0112264137715101242 0.0104628978297114372 -0.00738839618861675262
0.0118474261835217476 0.0108061674982309341 -0.00614158809185028076
0.0129141509532928467 0.0128918178379535675 -0.00531864352524280548
0.0130610940977931023 0.0136989578604698181 -0.00566351553425192833
0.0131242666393518448 0.0134872216731309891 -0.00531925726681947708
0.0114400191232562065 0.00823296047747135162 -0.00488978764042258263
0.0123188002035021782 0.0107327327132225037 -0.00490080006420612335
0.0129558024927973747 0.0120445601642131805 -0.00446787616237998009
0.0123462546616792679 0.0125714009627699852 -0.00645307637751102448
0.0118407532572746277 0.0115677518770098686 -0.00682956911623477936
0.0141454320400953293 0.0151371154934167862 -0.00422586873173713684
0.0115195373073220253 0.0098778456449508667 -0.00614134781062602997
0.0115864211693406105 0.008657100610435009 -0.0048983963206410408
0.0105230929329991341 0.00798821821808815002 -0.00696988403797149658
0.0112064192071557045 0.00831329915672540665 -0.00554499402642250061
0.010348181240260601 0.00797028187662363052 -0.00739204604178667068
0.0111567806452512741 0.00928158126771450043 -0.00652122730389237404
-0.0143020981922745705 0.0250551812350749969 0.00395017489790916443
-0.0137564707547426224 0.0250530838966369629 0.00434408430010080338
-0.0139838568866252899 0.0250539593398571014 0.00381749286316335201
-0.0146663254126906395 0.0250565819442272186 0.00313447462394833565
-0.0138333272188901901 0.0250533781945705414 0.00512144807726144791
-0.0141171850264072418 0.0250544697046279907 0.00153387687169015408
-0.0139773441478610039 0.0250539332628250122 0.00272478978149592876
-0.014425632543861866 0.0250556580722332001 -0.00565935438498854637
-0.0133928051218390465 0.0250516850501298904 0.00135368481278419495
-0.0147046269848942757 0.0250567290931940079 -0.00510350754484534264
-0.0137766003608703613 0.0250531621277332306 -0.00235270103439688683
-0.013886365108191967 0.0250535830855369568 -0.000309190712869167328
-0.013666241429746151 0.0250527374446392059 -0.000129375141113996506
-0.0130150970071554184 0.0250502340495586395 0.00504109775647521019
-0.0141203533858060837 0.0250544827431440353 -0.00400495482608675957
-0.014445573091506958 0.0250557344406843185 -0.00193020887672901154
-0.0132529065012931824 0.0250511486083269119 -0.000587543472647666931
-0.0135477399453520775 0.0250522829592227936 -0.00217343540862202644
-0.0142842745408415794 0.0250551141798496246 -0.00615154672414064407
-0.0125268632546067238 0.0250483565032482147 0.0048952074721455574
-0.0121752908453345299 0.025047004222869873 -0.002590167336165905
-0.0120969777926802635 0.0250467024743556976 -0.0035008573904633522
-0.0131857562810182571 0.0250508897006511688 -0.00031179375946521759
-0.0127289649099111557 0.025049133226275444 -0.00808489043265581131
-0.0138479238376021385 0.0250534359365701675 -0.0064039439894258976
-0.0120919039472937584 0.0250466838479042053 0.00534872524440288544
-0.0130769731476902962 0.0250504724681377411 -0.00880943518131971359
-0.0129572544246912003 0.0250500105321407318 -0.00222639692947268486
-0.0119097204878926277 0.0250459816306829453 0.00434047356247901917
-0.011906282976269722 0.0250459685921669006 0.00169860292226076126
-0.0137199303135275841 0.0250529441982507706 -0.0070842416025698185
-0.0127141457051038742 0.0250490754842758179 -0.00338011886924505234
-0.013612682931125164 0.0250525325536727905 -0.00460757780820131302
-0.0130938179790973663 0.0250505357980728149 -0.000119411386549472809
-0.0128615749999880791 0.0250496435910463333 -0.00405363785102963448
-0.0122769922018051147 0.0250473953783512115 0.00114457681775093079
-0.0126470364630222321 0.025048818439245224 -0.00272245751693844795
-0.0105919260531663895 0.025040915235877037 -0.00474525243043899536
-0.0114865619689226151 0.0250443555414676666 0.00429037399590015411
-0.0109752370044589043 0.025042390450835228 -0.001820344477891922
-0.00916946772485971451 0.025035446509718895 -0.0129148578271269798
-0.01182516198605299 0.0250456575304269791 0.00529802870005369186
-0.011596381664276123 0.0250447764992713928 0.00385467242449522018
-0.0110920630395412445 0.0250428374856710434 0.000167699530720710754
-0.0101611493155360222 0.0250392593443393707 -0.00643702875822782516
-0.0107563789933919907 0.0250415485352277756 -0.00773528637364506721
-0.0113682830706238747 0.0250439010560512543 0.00238095503300428391
-0.0116509692743420601 0.0250449869781732559 -0.00269785057753324509
-0.0100787756964564323 0.0250389426946640015 -0.00569867668673396111
-0.011589590460062027 0.0250447522848844528 -0.00540661485865712166
-0.0118709197267889977 0.025045834481716156 -0.00630389945581555367
-0.00955804809927940369 0.025036938488483429 -0.00989569630473852158
-0.011659618467092514 0.0250450205057859421 0.00293758045881986618
-0.0108667425811290741 0.025041971355676651 -0.0107517186552286148
-0.0115400925278663635 0.025044560432434082 0.00540243741124868393
-0.0112495310604572296 0.0250434447079896927 -0.00287673808634281158
-0.0114481979981064796 0.0250442083925008774 -0.00727986358106136322
-0.0110708475112915039 0.0250427573919296265 -0.00614629080519080162
-0.0117229968309402466 0.0250452645123004913 -0.00893506966531276703
-0.0102190487086772919 0.0250394828617572784 0.00257330760359764099
-0.0109597574919462204 0.0250423308461904526 0.00593069475144147873
-0.00899709109216928482 0.0250347834080457687 -0.00557263288646936417
-0.00853061303496360779 0.0250329896807670593 -0.0125837363302707672
-0.00886695273220539093 0.0250342823565006256 -0.00862145423889160156
-0.0101649798452854156 0.0250392723828554153 -0.00317372474819421768
-0.0103117991238832474 0.0250398367643356323 5.69652765989303589e-05
-0.00874154176563024521 0.0250337999314069748 -0.00455832108855247498
-0.00974431727081537247 0.0250376574695110321 -0.000279947184026241302
-0.00853966083377599716 0.0250330232083797455 -0.00966674834489822388
-0.00922465231269598007 0.0250356569886207581 -0.00108529068529605865
-0.0107999173924326897 0.0250417161732912064 0.00356462318450212479
-0.0090460432693362236 0.0250349715352058411 -0.00662802858278155327
-0.00687827495858073235 0.0250266361981630325 -0.0128199011087417603
-0.00717099523171782494 0.025027761235833168 -0.0131622524932026863
-0.00888366438448429108 0.0250343456864356995 -0.00899528712034225464
-0.00724032800644636154 0.0250280257314443588 -0.00861506909132003784
-0.00951506756246089935 0.0250367745757102966 -0.0057474430650472641
-0.0088711269199848175 0.0250342991203069687 -0.00789708085358142853
-0.00897429604083299637 0.0250346940010786057 -0.00867148861289024353
-0.0100407581776380539 0.0250387974083423615 -0.00153601262718439102
-0.00810370221734046936 0.0250313468277454376 -0.00573488697409629822
-0.00914337299764156342 0.0250353459268808365 -0.0108007434755563736
-0.0106783146038651466 0.0250412467867136002 0.00296249240636825562
-0.00801511108875274658 0.0250310078263282776 -0.0120539944618940353
-0.0097647588700056076 0.0250377357006072998 -0.00418898463249206543
-0.00841866433620452881 0.025032559409737587 -0.00537424441426992416
-0.011073768138885498 0.0250427685678005219 0.00564207043498754501
-0.0108311250805854797 0.0250418353825807571 0.00708586908876895905
-0.0050400635227560997 0.025019567459821701 -0.014902961440384388
-0.00703236740082502365 0.0250272266566753387 -0.00830397568643093109
-0.00415694667026400566 0.0250161699950695038 -0.0108756627887487411
-0.00412620231509208679 0.0250160526484251022 -0.0114328451454639435
-0.00668521597981452942 0.0250258930027484894 -0.00466051977127790451
-0.00805057957768440247 0.0250311419367790222 -0.00366569403558969498
-0.00661181425675749779 0.0250256098806858063 -0.0101783042773604393
-0.0043296334333717823 0.0250168349593877792 -0.0139409974217414856
-0.00672935135662555695 0.0250260625034570694 -0.00731072481721639633
-0.01102480199187994 0.0250425785779953003 0.00835463032126426697
-0.00435047922655940056 0.0250169150531291962 -0.0148597368970513344
-0.00509787257760763168 0.0250197872519493103 -0.0130251683294773102
-0.0101305479183793068 0.0250391419976949692 0.00417854264378547668
-0.00825491547584533691 0.0250319279730319977 -0.00176339410245418549
-0.00578638818114995956 0.0250224359333515167 -0.00827228650450706482
-0.00777098676189780235 0.025030067190527916 -0.00226197205483913422
-0.00542829651385545731 0.025021059438586235 -0.0102029880508780479
-0.00501686520874500275 0.0250194761902093887 -0.00877857767045497894
-0.0031865360215306282 0.0250124372541904449 -0.0142490295693278313
-0.00561723858118057251 0.0250217858701944351 -0.00633204635232686996
-0.00470397528260946274 0.0250182729214429855 -0.0107979569584131241
-0.0107491482049226761 0.0250415187329053879 0.00615408271551132202
-0.00662619480863213539 0.0250256657600402832 -0.0076681012287735939
-0.0063331974670290947 0.0250245388597249985 -0.00621800962835550308
-0.006278269924223423 0.0250243265181779861 -0.00763089582324028015
-0.00406422512605786324 0.0250158142298460007 -0.0110577605664730072
-0.00608100835233926773 0.0250235684216022491 -0.0066397273913025856
-0.00774701079353690147 0.0250299759209156036 -0.00343639031052589417
-0.00918690487742424011 0.025035511702299118 0.00103558413684368134
-0.0069966302253305912 0.0250270888209342957 -0.00467231497168540955
-0.00512112490832805634 0.0250198766589164734 -0.0137604027986526489
-0.00645223353058099747 0.0250249970704317093 -0.00850075669586658478
-0.00104193156585097313 0.0250041913241147995 -0.0133713399991393089
-0.00181247456930577755 0.025007154792547226 -0.0116617195308208466
-0.00938161369413137436 0.0250362604856491089 0.0057165045291185379
-0.00893231295049190521 0.0250345338135957718 0.00312385335564613342
-0.0106519032269716263 0.0250411443412303925 0.00780930742621421814
-0.00102029938716441393 0.0250041093677282333 -0.0135726453736424446
-0.00893570203334093094 0.0250345449894666672 0.00316056795418262482
-0.00227564340457320213 0.0250089354813098907 -0.00776529870927333832
-0.000936606083996593952 0.0250037852674722672 -0.0128763224929571152
-0.00697905756533145905 0.0250270217657089233 -0.00108128227293491364
-0.000932663213461637497 0.0250037703663110733 -0.0128375813364982605
-0.00487992400303483009 0.0250189509242773056 -0.00334312114864587784
-0.00517123192548751831 0.0250200703740119934 -0.00346879195421934128
-0.00702683674171566963 0.0250272061675786972 -0.00153980031609535217
-0.00588393863290548325 0.0250228121876716614 -0.00246986746788024902
-0.00627319188788533211 0.0250243060290813446 -0.000271770171821117401
-0.00274672289378941059 0.0250107459723949432 -0.0117180636152625084
-0.00633586104959249496 0.0250245481729507446 -0.000249592587351799011
-0.00616945512592792511 0.0250239074230194092 -0.00292624067515134811
-0.00631557870656251907 0.0250244699418544769 -0.00164262484759092331
-0.0020780172199010849 0.0250081755220890045 -0.0124618550762534142
-0.00402726046741008759 0.0250156708061695099 -0.00447850301861763
-0.00144968251697719097 0.025005759671330452 -0.0120765017345547676
-0.00304995523765683174 0.025011913850903511 -0.0084791090339422226
-0.00336119486019015312 0.0250131096690893173 -0.00767471827566623688
-0.00811792630702257156 0.0250314027070999146 0.00201262533664703369
-0.00813313666731119156 0.0250314604490995407 0.00100771524012088776
-0.00212978688068687916 0.0250083748251199722 -0.0107768625020980835
-0.00584811624139547348 0.0250226724892854691 -0.00117391254752874374
-0.00500164972618222237 0.0250194184482097626 -0.00334375817328691483
-0.00164867728017270565 0.0250065233558416367 -0.0131447073072195053
-0.00386948185041546822 0.0250150635838508606 -0.00551214534789323807
-0.0003931394312530756 0.0250016972422599792 -0.0117979459464550018
-0.000131651817355304956 0.0250006895512342453 -0.0156088871881365776
-0.00794132892042398453 0.0250307228416204453 0.00256086140871047974
-0.0087674558162689209 0.025033898651599884 0.0035891607403755188
0.000874348101206123829 0.0249968226999044418 -0.0157443713396787643
-0.000421464501414448023 0.0250018052756786346 -0.0151553275063633919
-0.00208302866667509079 0.0250081941485404968 -0.0051386980339884758
-0.00201007653959095478 0.0250079147517681122 -0.00807970203459262848
0.000492839375510811806 0.0249982904642820358 -0.0112547371536493301
0.00348426075652241707 0.0249867849051952362 -0.0123834423720836639
-0.00557968486100435257 0.0250216424465179443 -0.000470697879791259766
0.00242630345746874809 0.0249908547848463058 -0.0152357490733265877
-0.00557252019643783569 0.0250216126441955566 -0.000992408953607082367
-0.0032517286017537117 0.0250126887112855911 -0.00430682487785816193
-0.00412817252799868584 0.0250160582363605499 -0.00368737708777189255
-0.000441372860223054886 0.0250018816441297531 -0.00670670345425605774
-0.00402529491111636162 0.025015663355588913 -0.00258033443242311478
-0.00328689580783247948 0.0250128228217363358 -0.00336362235248088837
-8.7164808064699173e-06 0.0250002183020114899 -0.0104997716844081879
-0.00235152523964643478 0.02500922791659832 -0.0042090248316526413
-0.00184173672460019588 0.0250072665512561798 -0.00712700467556715012
-0.000480204354971647263 0.0250020306557416916 -0.0091376742348074913
-0.0014741038903594017 0.0250058528035879135 -0.00589552987366914749
0.00320829497650265694 0.0249878466129302979 -0.0130149666219949722
-0.000748064601793885231 0.0250030625611543655 -0.0102131357416510582
-0.00775147648528218269 0.0250299908220767975 0.00443962868303060532
-0.00727488147094845772 0.0250281598418951035 0.0019015120342373848
-0.0104414466768503189 0.0250403359532356262 0.00807401910424232483
0.000103504396975040436 0.0249997861683368683 -0.00970424432307481766
0.0027157999575138092 0.0249897409230470657 -0.0152250649407505989
0.00071240495890378952 0.024997444823384285 -0.0102032069116830826
-0.00323910452425479889 0.0250126402825117111 -0.00232015829533338547
-0.00578276440501213074 0.0250224228948354721 0.00146322697401046753
0.000178135465830564499 0.0249994993209838867 -0.00878399889916181564
-0.00757081713527441025 0.0250292979180812836 0.00339983217418193817
-0.000539933564141392708 0.0250022616237401962 -0.00953913945704698563
-0.00312800286337733269 0.0250122137367725372 -0.00438664760440587997
-0.000885138288140296936 0.0250035878270864487 -0.00726757198572158813
0.00131900911219418049 0.0249951127916574478 -0.0107134189456701279
0.00293066469021141529 0.0249889157712459564 -0.0124609638005495071
-0.00728801172226667404 0.0250282101333141327 0.00246747955679893494
-0.000794668681919574738 0.0250032395124435425 -0.00564952660351991653
0.000600661151111125946 0.0249978750944137573 -0.0110076684504747391
-0.00428682519122958183 0.0250166691839694977 -0.00331616494804620743
0.000178467947989702225 0.0249994993209838867 -0.00816028006374835968
-0.00385654717683792114 0.0250150151550769806 -0.0017685573548078537
-0.00424139667302370071 0.02501649409532547 -0.00201403908431529999
0.003542677266523242 0.0249865613877773285 -0.0111141074448823929
0.00586874457076191902 0.0249776151031255722 -0.0143160680308938026
0.00700863823294639587 0.0249732322990894318 -0.0110474172979593277
0.00061763077974319458 0.024997808039188385 -0.00506540760397911072
0.00327417952939867973 0.0249875932931900024 -0.00656879879534244537
-0.000287536531686782837 0.0250012911856174469 -0.00361652486026287079
-0.00481998734176158905 0.025018719956278801 0.00199140235781669617
-0.00210566772148013115 0.0250082816928625107 -0.00324557814747095108
0.000626431778073310852 0.0249977763742208481 -0.00363014545291662216
0.00242655305191874504 0.0249908529222011566 -0.00940533541142940521
0.000350802205502986908 0.0249988362193107605 -0.00635303463786840439
0.000369740650057792664 0.0249987617135047913 -0.00454205740243196487
0.00201841862872242928 0.0249924231320619583 -0.00771488528698682785
0.00408433424308896065 0.0249844770878553391 -0.00857178494334220886
0.00469016237184405327 0.0249821469187736511 -0.0127247832715511322
-0.00239351857453584671 0.0250093899667263031 -0.000289184041321277618
0.00417423713952302933 0.0249841324985027313 -0.0114293014630675316
0.00487360637634992599 0.0249814428389072418 -0.0122995320707559586
0.00237536104395985603 0.0249910484999418259 -0.0056855594739317894
0.00494453683495521545 0.0249811708927154541 -0.0135738532990217209
0.00665515800938010216 0.0249745920300483704 -0.0115191712975502014
0.00167064089328050613 0.0249937605112791061 -0.00816433131694793701
0.00663785682991147041 0.0249746590852737427 -0.012555939145386219
2.70768068730831146e-05 0.0250000786036252975 -0.00535704847425222397
-0.00778746418654918671 0.0250301305204629898 0.00551766529679298401
0.00749697070568799973 0.024971354752779007 -0.0135780451819300652
0.00223673507571220398 0.0249915830790996552 -0.00823338702321052551
-0.00132959522306919098 0.0250052977353334427 -0.00260833743959665298
-0.00267393328249454498 0.0250104665756225586 -0.000201612710952758789
-0.00409984216094017029 0.0250159502029418945 0.00110551528632640839
0.00515932356938719749 0.0249803438782691956 -0.00899604521691799164
-0.00324445310980081558 0.0250126607716083527 0.000477471388876438141
-0.00380739569664001465 0.0250148270279169083 -0.000416120514273643494
0.00612090155482292175 0.0249766465276479721 -0.0132674500346183777
0.0071974853053689003 0.0249725077301263809 -0.0139597281813621521
0.00628512771800160408 0.024976016953587532 -0.0139733059331774712
0.00210475735366344452 0.0249920915812253952 -0.00728599866852164268
0.00702268444001674652 0.0249731782823801041 -0.0109049668535590172
0.00559857161715626717 0.0249786544591188431 -0.010674256831407547
0.00499911652877926826 0.024980960413813591 -0.00871703773736953735
0.0057294042780995369 0.0249781515449285507 -0.0104644512757658958
0.00270832469686865807 0.0249897688627243042 -0.00588049646466970444
-0.000369135290384292603 0.0250016022473573685 -0.00400220416486263275
0.00380922853946685791 0.0249855369329452515 -0.00522691616788506508
-0.00221210997551679611 0.0250086914747953415 0.0011058291420340538
-0.00333320628851652145 0.0250130016356706619 0.00164440274238586426
-0.00246242154389619827 0.0250096544623374939 0.00134426355361938477
-0.00125883705914020538 0.025005025789141655 0.000398060306906700134
0.00444380845874547958 0.0249830950051546097 -0.00772451236844062805
0.00129996240139007568 0.0249951854348182678 -0.00338937994092702866
0.00556368986144661903 0.0249787904322147369 -0.00701621267944574356
0.00479982746765017509 0.0249817278236150742 -0.00708681484684348106
0.00471063842996954918 0.0249820705503225327 -0.00521992705762386322
0.000194854103028774261 0.0249994341284036636 -0.00146118458360433578
0.00663953041657805443 0.024974653497338295 -0.0058772992342710495
-0.00963229779154062271 0.0250372253358364105 0.0081066107377409935
-0.0018152724951505661 0.0250071659684181213 -0.000421411357820034027
0.00733251497149467468 0.0249719880521297455 -0.0108121447265148163
0.00944487564265727997 0.0249638650566339493 -0.00920392107218503952
0.00219294056296348572 0.0249917525798082352 -0.0022668568417429924
-0.00756041146814823151 0.0250292569398880005 0.00677003338932991028
0.00910582300275564194 0.0249651689082384109 -0.0104013793170452118
0.00624492671340703964 0.0249761715531349182 -0.00744698196649551392
-0.0057601630687713623 0.0250223353505134583 0.00434360839426517487
0.00673761777579784393 0.0249742753803730011 -0.00918661989271640778
0.0047309226356446743 0.024981992319226265 -0.00716604292392730713
0.00720254983752965927 0.0249724872410297394 -0.00816980283707380295
0.00294657889753580093 0.0249888543039560318 -0.00299712084233760834
0.0050295521505177021 0.0249808449298143387 -0.00794519856572151184
0.000889522023499011993 0.0249967630952596664 -0.00331657472997903824
-0.00485947448760271072 0.0250188726931810379 0.00413734558969736099
-0.00238764751702547073 0.0250093657523393631 0.000731299631297588348
0.00251502636820077896 0.0249905139207839966 -0.00420257262885570526
-0.00533504597842693329 0.0250206999480724335 0.00465962477028369904
0.00729227112606167793 0.0249721426516771317 -0.00956218317151069641
0.00916306767612695694 0.0249649491161108017 -0.0112693412229418755
0.00497678760439157486 0.0249810460954904556 -0.00613995315507054329
0.00150175299495458603 0.0249944087117910385 -0.00399976689368486404
0.00889462698251008987 0.0249659810215234756 -0.0126800313591957092
0.00567137449979782104 0.0249783750623464584 -0.00744666950777173042
-0.000899256207048892975 0.0250036418437957764 0.000492998398840427399
0.00954204332083463669 0.0249634906649589539 -0.012368897907435894
0.0071600005030632019 0.0249726511538028717 -0.0107236159965395927
0.00521464459598064423 0.0249801315367221832 -0.00650540227070450783
0.00931299850344657898 0.0249643735587596893 -0.00865610130131244659
0.00867097452282905579 0.0249668415635824203 -0.0081856120377779007
-0.00447021797299385071 0.0250173751264810562 0.00252831447869539261
0.00122478511184453964 0.0249954741448163986 -0.00340609904378652573
-0.00869471393525600433 0.0250336192548274994 0.00784589070826768875
-0.00688016414642333984 0.0250266417860984802 0.0063325176015496254
0.00815267767757177353 0.0249688345938920975 -0.0061255493201315403
0.00820947997272014618 0.0249686166644096375 -0.00583713129162788391
0.00959016941487789154 0.02496330626308918 -0.00518496241420507431
0.00761798163875937462 0.0249708890914916992 -0.00572801334783434868
0.00959023833274841309 0.02496330626308918 -0.00438411720097064972
0.0120320692658424377 0.0249539148062467575 -0.00660964054986834526
0.0040432242676615715 0.0249846372753381729 -0.00258476007729768753
-0.00366932805627584457 0.0250142943114042282 0.00396054331213235855
-0.00209230091422796249 0.0250082295387983322 0.00203551817685365677
0.00637473957613110542 0.0249756705015897751 -0.00451730657368898392
0.000829646363854408264 0.0249969940632581711 0.00121621508151292801
0.00276707857847213745 0.0249895434826612473 -0.00183525867760181427
0.00457066390663385391 0.0249826088547706604 -0.00280443252995610237
0.00762113183736801147 0.0249708779156208038 -0.00551708880811929703
0.0131157608702778816 0.0249497480690479279 -0.00785847567021846771
0.00626155361533164978 0.0249761063605546951 -0.0044249948114156723
0.003011276014149189 0.0249886047095060349 -0.00027004024013876915
0.011930110864341259 0.0249543096870183945 -0.0103560248389840126
0.00709782121703028679 0.0249728914350271225 -0.00365280453115701675
0.00717178033664822578 0.0249726064503192902 -0.00479271216318011284
0.00904040690511465073 0.0249654203653335571 -0.00623901654034852982
0.00462954211980104446 0.0249823816120624542 -0.00173408724367618561
0.000889923423528671265 0.0249967630952596664 0.000159774906933307648
0.00641644559800624847 0.0249755103141069412 -0.00484748091548681259
0.00899157579988241196 0.0249656084924936295 -0.00705668330192565918
0.0053379889577627182 0.0249796565622091293 -0.00408378336578607559
-0.00949661154299974442 0.0250367037951946259 0.00883138924837112427
0.00622945884242653847 0.0249762292951345444 -0.00308975670486688614
0.0109535939991474152 0.0249580647796392441 -0.0082483440637588501
-0.00395704340189695358 0.0250154007226228714 0.00473215663805603981
-0.000553237274289131165 0.0250023119151592255 0.00131701771169900894
0.0044762883335351944 0.0249829720705747604 -0.00182054424658417702
0.00585148949176073074 0.0249776821583509445 -0.00256155245006084442
0.00411227438598871231 0.0249843709170818329 -0.00208555767312645912
0.00913220271468162537 0.0249650683254003525 -0.00393896456807851791
-0.000213200226426124573 0.0250010043382644653 0.00134897325187921524
0.0100869350135326385 0.0249613970518112183 -0.00607753545045852661
2.18069180846214294e-05 0.0250001009553670883 0.0017793336883187294
0.0125652439892292023 0.0249518640339374542 -0.00681387586519122124
0.0100952433422207832 0.0249613635241985321 -0.00512174516916275024
-0.00368428416550159454 0.0250143520534038544 0.00454901996999979019
-0.000297976657748222351 0.0250013303011655807 0.00196614954620599747
0.0113654937595129013 0.0249564796686172485 -0.00791447795927524567
0.0137108238413929939 0.0249474607408046722 -0.00318099465221166611
0.00411857012659311295 0.0249843467026948929 0.000262680929154157639
0.0146164773032069206 0.0249439794570207596 -0.00456761382520198822
0.0110687520354986191 0.0249576196074485779 -0.00274006370455026627
-0.00828499253839254379 0.02503204345703125 0.00841050781309604645
0.0031025102362036705 0.0249882545322179794 0.00111380405724048615
0.00555045995861291885 0.0249788407236337662 -0.000482392497360706329
0.0121688097715377808 0.0249533914029598236 -0.00335952965542674065
0.00356915779411792755 0.02498646080493927 4.35621477663516998e-05
0.00801395997405052185 0.0249693673104047775 0.000107427826151251793
0.0136782815679907799 0.0249475855380296707 -0.00513361720368266106
0.00907286442816257477 0.0249652955681085587 -0.00324869831092655659
0.014223187230527401 0.0249454900622367859 -0.00521077867597341537
0.00767115270718932152 0.024970686063170433 -0.000196437351405620575
0.0127620846033096313 0.0249511096626520157 -0.00357938790693879128
0.00692475121468305588 0.0249735563993453979 -0.000322176609188318253
-0.00314570125192403793 0.0250122826546430588 0.00508888764306902885
0.0124248480424284935 0.0249524060636758804 -0.00399320386350154877
-0.00286718178540468216 0.0250112097710371017 0.00467367004603147507
0.0137077746912837029 0.0249474719166755676 -0.00530276121571660042
0.0150265246629714966 0.024942401796579361 -0.00421290518715977669
-0.00979469995945692062 0.0250378493219614029 0.00922556035220623016
-0.000312816351652145386 0.0250013880431652069 0.00432370370253920555
0.0121862124651670456 0.0249533224850893021 -0.00503486394882202148
-0.00687260366976261139 0.0250266138464212418 0.00786766409873962402
0.00599282141774892807 0.0249771401286125183 0.000397936441004276276
-0.0029950244352221489 0.0250117015093564987 0.00520110689103603363
0.00020296778529882431 0.0249994043260812759 0.00379637023434042931
0.00703501701354980469 0.0249731317162513733 -0.00121298991143703461
0.0106025757268071175 0.0249594133347272873 -0.00417670467868447304
-0.00455245375633239746 0.0250176899135112762 0.00675281090661883354
0.0147613389417529106 0.0249434206634759903 -0.00351513712666928768
0.00899865850806236267 0.024965580552816391 -0.00178257725201547146
0.00477702915668487549 0.024981815367937088 0.000555595848709344864
0.000317261554300785065 0.0249989647418260574 0.00390151888132095337
0.00477386731654405594 0.0249818284064531326 0.000988780520856380463
-0.00547763146460056305 0.0250212494283914566 0.00681802351027727127
0.0073515772819519043 0.0249719135463237762 -0.000288572162389755249
0.0108283031731843948 0.0249585453420877457 -0.00327999051660299301
0.00807583704590797424 0.024969128891825676 -0.0026712238322943449
0.0145854223519563675 0.0249440968036651611 -0.00651284772902727127
0.00329161621630191803 0.0249875262379646301 0.000825993716716766357
0.00382984615862369537 0.0249854568392038345 -0.000119213014841079712
0.00830624066293239594 0.0249682441353797913 -0.00269067799672484398
0.0088693276047706604 0.0249660778790712357 0.00198482302948832512
-0.00234216265380382538 0.0250091906636953354 0.00671544019132852554
0.00440465193241834641 0.0249832477420568466 0.00261077960021793842
0.00867256708443164825 0.0249668341130018234 0.000380861805751919746
0.00684867240488529205 0.0249738488346338272 0.00105692376382648945
0.00907084718346595764 0.0249653048813343048 0.00193124241195619106
-0.00946279615163803101 0.0250365715473890305 0.00944922678172588348
0.00386678613722324371 0.024985315278172493 0.0042830323800444603
-0.00740378908812999725 0.0250286553055047989 0.00889042485505342484
0.00497446116060018539 0.0249810554087162018 0.00344897713512182236
0.0149818379431962967 0.0249425731599330902 -0.0034532458521425724
-0.000166174024343490601 0.0250008236616849899 0.00458123441785573959
-0.000700877979397773743 0.0250028800219297409 0.00590893672779202461
0.0151285044848918915 0.0249420087784528732 -0.0015983775956556201
0.00324770156294107437 0.0249876957386732101 0.00484431115910410881
0.000219596549868583679 0.0249993409961462021 0.00526678841561079025
0.0119904987514019012 0.0249540749937295914 0.000379055505618453026
0.0113207884132862091 0.0249566510319709778 0.000917655706871300936
0.00923615042120218277 0.0249646678566932678 0.000456309178844094276
0.0124028259888291359 0.0249524917453527451 -0.000905198743566870689
0.0145358722656965256 0.0249442886561155319 -0.000888017355464398861
0.0154971089214086533 0.0249405931681394577 -0.00112697342410683632
0.00474546197801828384 0.024981936439871788 0.00371129275299608707
0.00676183309406042099 0.0249741841107606888 0.00157192815095186234
0.0155132049694657326 0.0249405298382043839 -0.000498680165037512779
0.00609528645873069763 0.0249767471104860306 0.00232940493151545525
0.0140322325751185417 0.0249462258070707321 0.000316361227305606008
0.0134825520217418671 0.0249483399093151093 -0.000527036783751100302
-0.00810990296304225922 0.0250313710421323776 0.00865494273602962494
0.0139602087438106537 0.0249465014785528183 -0.00216970662586390972
0.00835827924311161041 0.0249680448323488235 0.000310340430587530136
0.014670906588435173 0.0249437708407640457 -0.00254920730367302895
0.00973132625222206116 0.0249627642333507538 0.00172980339266359806
0.00536576937884092331 0.0249795522540807724 0.00323289842344820499
0.0145690031349658966 0.0249441619962453842 -0.00219586677849292755
0.0126741863787174225 0.0249514468014240265 0.00015086133498698473
0.00975466892123222351 0.0249626729637384415 0.00215766369365155697
0.0143649280071258545 0.0249449443072080612 -0.00272074667736887932
0.0148537261411547661 0.0249430667608976364 -0.00247994158416986465
0.0152808213606476784 0.0249414239078760147 -0.000932654831558465958
-0.00156299397349357605 0.0250061936676502228 0.00622860202565789223
0.00603693258017301559 0.0249769706279039383 0.00563901988789439201
-0.00112181715667247772 0.0250044986605644226 0.00794560462236404419
0.0138703882694244385 0.0249468479305505753 0.000932498369365930557
0.0132812196388840675 0.0249491129070520401 0.00390065065585076809
0.014947802759706974 0.0249427035450935364 0.000926940061617642641
0.00205485150218009949 0.024992283433675766 0.00671864813193678856
0.00933362729847431183 0.0249642934650182724 0.00260545965284109116
0.00425831787288188934 0.0249838102608919144 0.00631716148927807808
0.0066955098882317543 0.0249744374305009842 0.0046580946072936058
0.00997797213494777679 0.024961814284324646 0.00254971859976649284
0.00951363146305084229 0.0249636024236679077 0.00499549368396401405
0.0130255445837974548 0.024950096383690834 0.0032007808331400156
0.00108754262328147888 0.0249960031360387802 0.0066814720630645752
0.0131420670077204704 0.0249496493488550186 0.00115263951011002064
0.0142566198483109474 0.0249453634023666382 0.00130280444864183664
0.00896940287202596664 0.0249656941741704941 0.00382321327924728394
0.0149816861376166344 0.0249425731599330902 0.00204395502805709839
0.00861251354217529297 0.0249670669436454773 0.00520582916215062141
0.00866239611059427261 0.0249668750911951065 0.0038468213751912117
0.0155650144442915916 0.0249403305351734161 0.00360970082692801952
0.00209460221230983734 0.0249921306967735291 0.00608691945672035217
-0.0038890540599822998 0.0250151399523019791 0.00779197458177804947
0.00430073030292987823 0.024983646348118782 0.00470423372462391853
0.00695394910871982574 0.0249734427779912949 0.00374382641166448593
0.0146761937066912651 0.0249437503516674042 0.00388487335294485092
0.0158785451203584671 0.0249391254037618637 0.00149367796257138252
-0.00435826927423477173 0.0250169448554515839 0.00814703013747930527
0.012755359522998333 0.0249511357396841049 0.00283870799466967583
0.00101085565984249115 0.0249962974339723587 0.00692967697978019714
0.0132537214085459709 0.0249492190778255463 0.00402361713349819183
0.00266974326223134995 0.0249899197369813919 0.00604400644078850746
0.0154792200773954391 0.0249406620860099792 0.003613306675106287
0.0140543868765234947 0.0249461401253938675 0.000878600636497139931
0.00961890816688537598 0.0249631945043802261 0.00371474423445761204
0.00891666766256093979 0.0249658972024917603 0.00526931975036859512
-0.0103876274079084396 0.0250401310622692108 0.0102327596396207809
0.00669958721846342087 0.0249744225293397903 0.00513373780995607376
-0.00625987537205219269 0.0250242557376623154 0.00945504941046237946
0.00972715951502323151 0.0249627791345119476 0.00616673799231648445
0.00125406496226787567 0.0249953605234622955 0.00888758990913629532
0.00338367372751235962 0.0249871741980314255 0.00714787328615784645
-0.00261926837265491486 0.0250102579593658447 0.0086513906717300415
0.0124967601150274277 0.024952128529548645 0.00754154007881879807
0.00121061038225889206 0.0249955281615257263 0.00850427243858575821
0.00528865586966276169 0.0249798484146595001 0.00852229911834001541
0.00836790911853313446 0.0249680075794458389 0.007078586146235466
0.00801280047744512558 0.0249693728983402252 0.00699156103655695915
0.0123809892684221268 0.0249525755643844604 0.00513886334374547005
0.010480804368853569 0.0249598808586597443 0.006023406982421875
0.0072668842040002346 0.0249722413718700409 0.00655269669368863106
0.0118349064141511917 0.0249546729028224945 0.00635261926800012589
-0.00915606599301099777 0.0250353943556547165 0.0100400876253843307
0.0092935953289270401 0.0249644480645656586 0.00583920255303382874
0.00796093232929706573 0.0249695722013711929 0.00578374322503805161
0.00100643467158079147 0.024996316060423851 0.00777733698487281799
0.00894039496779441833 0.0249658040702342987 0.0075967530719935894
-0.00325194559991359711 0.0250126887112855911 0.00893870927393436432
0.0122699588537216187 0.0249530002474784851 0.00732294609770178795
0.00254575628787279129 0.0249903947114944458 0.00863538309931755066
0.0143222566694021225 0.024945111945271492 0.00424451706930994987
0.00932669080793857574 0.0249643195420503616 0.00582711212337017059
-0.00334142241626977921 0.0250130351632833481 0.00939973536878824234
-0.00239073857665061951 0.0250093769282102585 0.00831385515630245209
0.0126321287825703621 0.0249516069889068604 0.00750008225440979004
-0.00285849906504154205 0.0250111762434244156 0.00859248824417591095
0.00473575852811336517 0.0249819736927747726 0.00819469243288040161
0.00855345185846090317 0.0249672941863536835 0.00591422896832227707
0.0143760973587632179 0.0249449014663696289 0.00676138792186975479
-0.000309445895254611969 0.0250013750046491623 0.00823989789932966232
0.0022295881062746048 0.0249916110187768936 0.00725642265751957893
0.0131633058190345764 0.0249495655298233032 0.00776329031214118004
0.010052928701043129 0.0249615255743265152 0.00823018979281187057
0.00630026590079069138 0.0249759573489427567 0.0105343656614422798
0.00959494989365339279 0.0249632876366376877 0.00917070731520652771
0.0117890611290931702 0.0249548498541116714 0.00876106414943933487
0.0114539721980690956 0.0249561388045549393 0.00962442532181739807
0.0067653958685696125 0.0249741673469543457 0.00910643860697746277
0.00758095365017652512 0.02497103251516819 0.00923960935324430466
-0.00528514385223388672 0.0250205080956220627 0.00998442806303501129
0.00414782669395208359 0.024984234943985939 0.00963951461017131805
0.0138838868588209152 0.0249467939138412476 0.0076179862953722477
0.00974478200078010559 0.0249627120792865753 0.00824988540261983871
-0.00558531470596790314 0.0250216629356145859 0.00992273446172475815
0.0086053553968667984 0.0249670930206775665 0.00896011944860219955
-0.00332529563456773758 0.0250129718333482742 0.0104750441387295723
0.0132741890847682953 0.0249491408467292786 0.00794747285544872284
0.012816011905670166 0.0249509010463953018 0.00915964972227811813
0.0123949572443962097 0.0249525196850299835 0.00974780973047018051
-0.00176423043012619019 0.0250069685280323029 0.00947936903685331345
0.000992724671959877014 0.0249963682144880295 0.00940628442913293839
0.0130574600771069527 0.0249499734491109848 0.00875345803797245026
0.00173688493669033051 0.0249935053288936615 0.0105006974190473557
-0.00122196972370147705 0.0250048842281103134 0.0105787431821227074
0.00622269418090581894 0.0249762553721666336 0.00862922705709934235
0.0126681197434663773 0.0249514710158109665 0.00962961930781602859
0.00573230069130659103 0.0249781403690576553 0.00924118887633085251
0.0121587049216032028 0.0249534286558628082 0.00936086103320121765
0.00691260676831007004 0.0249736029654741287 0.00969814974814653397
0.00764931552112102509 0.0249707698822021484 0.0111660072579979897
-0.00323867611587047577 0.0250126384198665619 0.0115111498162150383
0.00022875610738992691 0.0249993037432432175 0.010734102688729763
-0.0030070766806602478 0.0250117462128400803 0.011643601581454277
0.00996415410190820694 0.0249618683010339737 0.0107544772326946259
-0.00252620875835418701 0.0250098984688520432 0.0112044764682650566
0.00927324872463941574 0.024964524433016777 0.0117209786549210548
-0.00462064333260059357 0.0250179525464773178 0.0114126699045300484
-0.00549629703164100647 0.0250213202089071274 0.0107300598174333572
0.00370811019092798233 0.0249859262257814407 0.0110822077840566635
0.00936251692473888397 0.0249641817063093185 0.0113911377266049385
0.00974378641694784164 0.0249627158045768738 0.0119755277410149574
-0.0104110157117247581 0.0250402186065912247 0.0107073020190000534
0.00467712385579943657 0.0249821990728378296 0.0114835929125547409
0.00272570876404643059 0.0249897018074989319 0.012140939012169838
0.00558742182329297066 0.0249786991626024246 0.0119823692366480827
0.00489916838705539703 0.0249813459813594818 0.0111081665381789207
0.00749233923852443695 0.0249713733792304993 0.0118339518085122108
0.00931357685476541519 0.0249643698334693909 0.0128059880807995796
0.00434089219197630882 0.0249834917485713959 0.0115051111206412315
0.00953140668570995331 0.0249635316431522369 0.0121930902823805809
0.00416884385049343109 0.0249841529875993729 0.0107000861316919327
0.00657923612743616104 0.0249748844653367996 0.0128043536096811295
0.00290379766374826431 0.0249890182167291641 0.0126207545399665833
0.00833706744015216827 0.0249681230634450912 0.0132607007399201393
-0.00658057071268558502 0.0250254906713962555 0.0118357427418231964
-0.00307766161859035492 0.0250120200216770172 0.0117573412135243416
-0.00575842801481485367 0.0250223297625780106 0.0114222113043069839
-0.0039309370331466198 0.0250153001397848129 0.0120347598567605019
0.00872770417481660843 0.0249666217714548111 0.0133934561163187027
0.00615136651322245598 0.0249765291810035706 0.0129631562158465385
