ply
format ascii 1.0
element vertex 713
property float x
property float y
property float z
end_header
-0.0316575691103935242 0.0250007808208465576 0.0107487067580223083
-0.0262147150933742523 0.025000646710395813 0.0136251430958509445
-0.0248981975018978119 0.0250006150454282761 0.0131827965378761292
-0.0163942426443099976 0.025000404566526413 0.0203447043895721436
-0.0222342833876609802 0.025000549852848053 0.0142007768154144287
-0.0317612215876579285 0.0250007845461368561 0.0107151474803686142
-0.0237901359796524048 0.0250005871057510376 0.0162622164934873581
-0.0209646206349134445 0.0250005181878805161 0.0154866203665733337
-0.0105280876159667969 0.0250002611428499222 0.02358224056661129
-0.0178348198533058167 0.0250004399567842484 0.0193804465234279633
-0.0222020801156759262 0.0250005479902029037 0.0163501612842082977
-0.0265656597912311554 0.0250006560236215591 0.0112463245168328285
-0.0279363654553890228 0.0250006895512342453 0.0117980297654867172
-0.0306355096399784088 0.0250007566064596176 0.0117140812799334526
-0.0220977682620286942 0.0250005461275577545 0.0154250366613268852
-0.024975726380944252 0.0250006169080734253 0.013032909482717514
-0.0225941687822341919 0.0250005591660737991 0.0145851802080869675
-0.0269989613443613052 0.0250006671994924545 0.0104928305372595787
-0.0205638781189918518 0.0250005088746547699 0.0169982090592384338
-0.0269370861351490021 0.0250006634742021561 0.0140875615179538727
-0.00902648270130157471 0.0250002238899469376 0.0251231342554092407
-0.0313020795583724976 0.0250007733702659607 0.00903046410530805588
-0.0265869535505771637 0.0250006560236215591 0.0111937616020441055
-0.0291050616651773453 0.0250007174909114838 0.0104942983016371727
-0.011169901117682457 0.0250002741813659668 0.0238650869578123093
-0.03014349564909935 0.025000743567943573 0.00830095447599887848
-0.0315731167793273926 0.0250007789582014084 0.0104907006025314331
-0.0145679209381341934 0.0250003580003976822 0.0209835991263389587
-0.0149687081575393677 0.0250003691762685776 0.0211653783917427063
-0.032069232314825058 0.0250007901340723038 0.0113848531618714333
-0.0294511113315820694 0.0250007268041372299 0.011085929349064827
-0.0225387457758188248 0.0250005554407835007 0.0147578474134206772
-0.0254210624843835831 0.0250006280839443207 0.0147426407784223557
-0.0145021397620439529 0.0250003580003976822 0.0211463160812854767
-0.0300025008618831635 0.0250007417052984238 0.00815068557858467102
-0.0269525479525327682 0.0250006653368473053 0.0108795342966914177
-0.0157978367060422897 0.0250003896653652191 0.0210596434772014618
-0.0258569028228521347 0.0250006392598152161 0.0150020457804203033
-0.0239769592881202698 0.0250005908310413361 0.0153803247958421707
-0.017757093533873558 0.0250004399567842484 0.0189520400017499924
-0.0194989852607250214 0.0250004809349775314 0.0181052032858133316
-0.00580924004316329956 0.0250001437962055206 0.0270682442933320999
-0.0114870071411132812 0.025000283494591713 0.022856488823890686
-0.0305332448333501816 0.0250007547438144684 0.00842116866260766983
-0.0195037741214036942 0.0250004809349775314 0.0179138742387294769
-0.00696945562958717346 0.0250001717358827591 0.0262272302061319351
-0.0191916618496179581 0.0250004734843969345 0.0184302516281604767
-0.0310166087001562119 0.0250007640570402145 0.009886888787150383
-0.0290048848837614059 0.0250007156282663345 0.00984476599842309952
-0.0174312219023704529 0.0250004306435585022 0.0201816000044345856
-0.029483456164598465 0.0250007286667823792 0.0115777216851711273
-0.0095582231879234314 0.0250002350658178329 0.0244749411940574646
-0.026751253753900528 0.0250006616115570068 0.0113722831010818481
-0.0279187150299549103 0.0250006895512342453 0.011751965619623661
-0.0279336888343095779 0.0250006895512342453 0.0113516068086028099
-0.0256982967257499695 0.0250006336718797684 0.0126954549923539162
-0.00868835486471652985 0.0250002145767211914 0.0251937825232744217
-0.0136072058230638504 0.0250003356486558914 0.0208036545664072037
-0.028495369479060173 0.0250007044523954391 0.012119353748857975
-0.0259012207388877869 0.0250006392598152161 0.0145468767732381821
-0.0126135032624006271 0.0250003114342689514 0.0228164438158273697
-0.00845103897154331207 0.0250002089887857437 0.0254332609474658966
-0.0213907100260257721 0.0250005293637514114 0.0152694582939147949
-0.0261100195348262787 0.0250006429851055145 0.0132872201502323151
-0.0164987072348594666 0.0250004064291715622 0.0204970501363277435
-0.0272658020257949829 0.0250006727874279022 0.011785067617893219
-0.0284928120672702789 0.0250007044523954391 0.00952260475605726242
-0.0303753428161144257 0.0250007491558790207 0.00859609246253967285
-0.0259501319378614426 0.0250006411224603653 0.0120061160996556282
-0.0156511515378952026 0.0250003859400749207 0.0193684175610542297
-0.0288199484348297119 0.0250007119029760361 0.00895018316805362701
-0.0159391630440950394 0.0250003933906555176 0.0199684202671051025
-0.0162978656589984894 0.0250004027038812637 0.02008802630007267
-0.0236074849963188171 0.0250005833804607391 0.015459008514881134
-0.0303126983344554901 0.0250007491558790207 0.00862147659063339233
-0.0131982266902923584 0.025000324472784996 0.021855134516954422
-0.00719140656292438507 0.0250001773238182068 0.0262609012424945831
-0.0293050613254308701 0.0250007249414920807 0.00953019969165325165
-0.0304164700210094452 0.0250007510185241699 0.00980607885867357254
-0.0237918402999639511 0.0250005871057510376 0.0133264325559139252
-0.0209113918244838715 0.0250005163252353668 0.0158475078642368317
-0.0257180575281381607 0.0250006336718797684 0.0124921910464763641
-0.00746320001780986786 0.0250001847743988037 0.0261463522911071777
-0.0310515742748975754 0.0250007659196853638 0.00899183843284845352
-0.0121554452925920486 0.025000300258398056 0.0226791128516197205
-0.030552031472325325 0.0250007547438144684 0.011373491957783699
-0.0270550362765789032 0.0250006690621376038 0.0106467073783278465
-0.0209570284932851791 0.0250005181878805161 0.0152056589722633362
-0.0108632836490869522 0.0250002685934305191 0.0239272098988294601
-0.030884983018040657 0.0250007621943950653 0.00965016055852174759
-0.0280272625386714935 0.0250006914138793945 0.00985935889184474945
-0.0240883659571409225 0.0250005945563316345 0.0157701149582862854
-0.0231569204479455948 0.0250005722045898438 0.0137153938412666321
-0.0314174145460128784 0.0250007752329111099 0.00952664483338594437
-0.0289334021508693695 0.0250007137656211853 0.0096625080332159996
-0.0214607231318950653 0.0250005293637514114 0.0171007104218006134
-0.0247248578816652298 0.0250006094574928284 0.0157775934785604477
-0.0252487212419509888 0.0250006243586540222 0.0152750741690397263
-0.028441406786441803 0.0250007025897502899 0.013096771202981472
-0.0252285264432430267 0.025000622496008873 0.0140538737177848816
-0.0300196073949337006 0.0250007417052984238 0.00964522548019886017
-0.0239475425332784653 0.0250005908310413361 0.0156501084566116333
-0.0266735777258872986 0.0250006578862667084 0.0123888775706291199
-0.0106426216661930084 0.0250002630054950714 0.0240179374814033508
-0.0219541788101196289 0.0250005405396223068 0.0152030140161514282
-0.0170275606215000153 0.025000421330332756 0.0193637385964393616
-0.0281728748232126236 0.025000695139169693 0.0130318403244018555
-0.0309659428894519806 0.0250007640570402145 0.0112340869382023811
-0.0287623610347509384 0.0250007100403308868 0.010094180703163147
-0.0292001720517873764 0.0250007212162017822 0.00878503639250993729
-0.0305401477962732315 0.0250007547438144684 0.00842689163982868195
-0.0143512096256017685 0.0250003542751073837 0.0209418423473834991
-0.0107962153851985931 0.0250002667307853699 0.0236246399581432343
-0.0156535450369119644 0.0250003878027200699 0.0210503078997135162
-0.031499519944190979 0.0250007789582014084 0.0112469978630542755
-0.0202619805932044983 0.0250004995614290237 0.0158465653657913208
-0.00678712129592895508 0.0250001680105924606 0.0262235887348651886
-0.017897164449095726 0.0250004418194293976 0.019367951899766922
-0.00620544701814651489 0.0250001531094312668 0.026668129488825798
-0.0166869368404150009 0.0250004120171070099 0.0188891105353832245
-0.0220868811011314392 0.0250005461275577545 0.0156156588345766068
-0.0270295534282922745 0.0250006671994924545 0.0108449980616569519
-0.018210848793387413 0.0250004492700099945 0.0176901239901781082
-0.00632565468549728394 0.0250001568347215652 0.0266070030629634857
-0.0136498548090457916 0.0250003375113010406 0.02217850461602211
-0.0177960246801376343 0.0250004380941390991 0.0191086865961551666
-0.0236778650432825089 0.0250005852431058884 0.0131146572530269623
-0.0239711366593837738 0.0250005908310413361 0.0144503628835082054
-0.0260790362954139709 0.0250006429851055145 0.0110712926834821701
-0.0203161705285310745 0.025000501424074173 0.0160386413335800171
-0.0285442862659692764 0.0250007044523954391 0.0100593231618404388
-0.0272615384310483932 0.0250006746500730515 0.0111135151237249374
-0.0104577764868736267 0.0250002574175596237 0.0237662643194198608
-0.0112950149923563004 0.0250002797693014145 0.0235920026898384094
-0.0217984169721603394 0.0250005386769771576 0.0147962626069784164
-0.0306880921125411987 0.0250007584691047668 0.00890558212995529175
-0.0238557234406471252 0.0250005889683961868 0.0128370095044374466
-0.0215394999831914902 0.0250005312263965607 0.0174238793551921844
-0.0294548608362674713 0.0250007268041372299 0.0096883866935968399
-0.0308587662875652313 0.0250007603317499161 0.0121124982833862305
-0.0120575614273548126 0.0250002965331077576 0.0227187834680080414
-0.0277346819639205933 0.0250006839632987976 0.0127328289672732353
-0.0254560243338346481 0.0250006299465894699 0.0146714597940444946
-0.0251150466501712799 0.0250006206333637238 0.0119477910920977592
-0.019929010421037674 0.0250004921108484268 0.0159744098782539368
-0.0124234817922115326 0.025000307708978653 0.0218662060797214508
-0.0282518137246370316 0.0250006970018148422 0.0126359658315777779
-0.0203217770904302597 0.0250005032867193222 0.0173905156552791595
-0.0191841796040534973 0.0250004734843969345 0.0173055790364742279
-0.0291345510631799698 0.025000719353556633 0.013079226016998291
-0.0296769347041845322 0.0250007323920726776 0.0112974364310503006
-0.0290754865854978561 0.0250007174909114838 0.0124686723574995995
-0.0293381977826356888 0.0250007249414920807 0.01235240139067173
-0.0241898391395807266 0.0250005964189767838 0.0130210760980844498
-0.019038541242480278 0.025000469759106636 0.0186383351683616638
-0.00681300088763237 0.0250001680105924606 0.0256996713578701019
-0.0215057730674743652 0.0250005293637514114 0.0120104514062404633
-0.0187969505786895752 0.0250004641711711884 0.01519741490483284
-0.0287976711988449097 0.0250007100403308868 0.00877824518829584122
-0.0243744608014822006 0.0250006020069122314 0.0106584047898650169
-0.00916662998497486115 0.0250002257525920868 0.0237360633909702301
-0.00873078778386116028 0.0250002164393663406 0.0242681112140417099
-0.0171384885907173157 0.0250004231929779053 0.0166717581450939178
-0.0215829536318778992 0.0250005330890417099 0.012820044532418251
-0.0245355889201164246 0.0250006057322025299 0.0118681155145168304
-0.011232469230890274 0.0250002779066562653 0.0219122935086488724
-0.0205432437360286713 0.0250005070120096207 0.0120516372844576836
-0.0221666470170021057 0.0250005479902029037 0.0137026719748973846
-0.0206016376614570618 0.0250005088746547699 0.0133141390979290009
-0.020777704194188118 0.0250005125999450684 0.0138930473476648331
-0.0189606137573719025 0.0250004678964614868 0.0151407234370708466
-0.0248945374041795731 0.0250006150454282761 0.00930708926171064377
-0.0270251166075468063 0.0250006671994924545 0.00563313718885183334
-0.0133157270029187202 0.0250003281980752945 0.0197342224419116974
-0.0266198478639125824 0.0250006578862667084 0.00779121462255716324
-0.0107763539999723434 0.0250002667307853699 0.0222104750573635101
-0.0177530534565448761 0.0250004380941390991 0.0172864384949207306
-0.0203666742891073227 0.0250005032867193222 0.0139238825067877769
-0.0216501262038946152 0.0250005330890417099 0.0107457879930734634
-0.0265444628894329071 0.0250006541609764099 0.00827255565673112869
-0.018230099231004715 0.0250004511326551437 0.0145229045301675797
-0.0284610278904438019 0.0250007025897502899 0.00501084048300981522
-0.0236507132649421692 0.0250005833804607391 0.00887446850538253784
-0.0187902264297008514 0.0250004641711711884 0.0158114731311798096
-0.0193243101239204407 0.025000477209687233 0.0145757365971803665
-0.0218020323663949966 0.0250005386769771576 0.0130809657275676727
-0.0196461435407400131 0.0250004846602678299 0.0134456418454647064
-0.019571211189031601 0.0250004827976226807 0.0142840184271335602
-0.0205813385546207428 0.0250005088746547699 0.0126474536955356598
-0.0266812257468700409 0.0250006597489118576 0.00804094225168228149
-0.0210506580770015717 0.0250005200505256653 0.0138160595670342445
-0.0108158234506845474 0.0250002667307853699 0.0224085263907909393
-0.0206470005214214325 0.0250005088746547699 0.0141247231513261795
-0.0282547082751989365 0.0250006970018148422 0.0074642612598836422
-0.0198814049363136292 0.0250004921108484268 0.0158379022032022476
-0.028803311288356781 0.0250007119029760361 0.00671727163717150688
-0.0236977152526378632 0.0250005833804607391 0.0112943453714251518
-0.027505531907081604 0.0250006783753633499 0.00546841556206345558
-0.0281523615121841431 0.025000695139169693 0.00900028273463249207
-0.0189970917999744415 0.025000469759106636 0.0146354604512453079
-0.0287498943507671356 0.0250007100403308868 0.0081063341349363327
-0.0180640965700149536 0.025000445544719696 0.015328526496887207
-0.0266575049608945847 0.0250006578862667084 0.00821414962410926819
-0.0282601546496152878 0.0250006970018148422 0.00548663642257452011
-0.0132190072908997536 0.0250003263354301453 0.0202096328139305115
-0.0157666075974702835 0.0250003896653652191 0.0173911247402429581
-0.0102348234504461288 0.0250002536922693253 0.0227503497153520584
-0.0250782966613769531 0.0250006187707185745 0.00869430415332317352
-0.0118134189397096634 0.0250002928078174591 0.0217599216848611832
-0.0261811837553977966 0.025000646710395813 0.00792758166790008545
-0.0270311776548624039 0.0250006671994924545 0.00754137896001338959
-0.0268219467252492905 0.0250006616115570068 0.00666161626577377319
-0.0276085585355758667 0.0250006821006536484 0.0057966131716966629
-0.0282301176339387894 0.0250006970018148422 0.00700111407786607742
-0.0273869112133979797 0.0250006746500730515 0.00678188540041446686
-0.0238164104521274567 0.0250005871057510376 0.0126075465232133865
-0.016858220100402832 0.0250004157423973083 0.0177242793142795563
-0.0174228549003601074 0.0250004306435585022 0.0174445640295743942
-0.0205310210585594177 0.0250005070120096207 0.0140654714778065681
-0.0115168765187263489 0.0250002853572368622 0.02224741131067276
-0.0244559310376644135 0.0250006038695573807 0.00880768802016973495
-0.0141160031780600548 0.025000348687171936 0.0199462268501520157
-0.0290720071643590927 0.0250007174909114838 0.0084222862496972084
-0.0295642949640750885 0.0250007305294275284 0.00658340845257043839
-0.00965129025280475616 0.0250002387911081314 0.0233331192284822464
-0.0182171575725078583 0.0250004511326551437 0.0166456326842308044
-0.0274608004838228226 0.0250006783753633499 0.00789985246956348419
-0.0227218717336654663 0.0250005610287189484 0.0128645617514848709
-0.0281261727213859558 0.025000695139169693 0.005925716832280159
-0.0292956456542015076 0.0250007230788469315 0.00787374377250671387
-0.0118004493415355682 0.0250002909451723099 0.0214906129986047745
-0.0241817310452461243 0.025000598281621933 0.00938160158693790436
-0.0270432773977518082 0.0250006671994924545 0.00822555366903543472
-0.0134024741128087044 0.0250003300607204437 0.0197922009974718094
-0.0173675566911697388 0.025000428780913353 0.0169183425605297089
-0.0184435099363327026 0.0250004548579454422 0.0158087387681007385
-0.0150673547759652138 0.0250003710389137268 0.0192675814032554626
-0.0195562466979026794 0.0250004827976226807 0.014783238060772419
-0.0185315385460853577 0.0250004585832357407 0.0149141829460859299
-0.0194884836673736572 0.0250004809349775314 0.0132983997464179993
-0.0177279431372880936 0.0250004380941390991 0.0169214028865098953
-0.0294247902929782867 0.0250007268041372299 0.0072585325688123703
-0.0213188454508781433 0.025000525638461113 0.0130056720227003098
-0.0277348048985004425 0.0250006839632987976 0.0078965136781334877
-0.023395296186208725 0.0250005777925252914 0.0127177238464355469
-0.0271555967628955841 0.025000670924782753 0.00892235152423381805
-0.0210408754646778107 0.0250005181878805161 0.0114729069173336029
-0.0281013809144496918 0.0250006932765245438 0.00562658486887812614
-0.0183087103068828583 0.0250004511326551437 0.0168342236429452896
-0.026998789981007576 0.0250006653368473053 0.00843899883329868317
-0.0252524390816688538 0.0250006243586540222 0.00863166619092226028
-0.0209389235824346542 0.0250005163252353668 0.0133976228535175323
-0.0106157828122377396 0.0250002611428499222 0.023069014772772789
-0.0206745564937591553 0.0250005107372999191 0.0125720072537660599
-0.0191607587039470673 0.0250004716217517853 0.0141826178878545761
-0.0219017788767814636 0.0250005405396223068 0.010532669723033905
-0.0287815555930137634 0.0250007119029760361 0.00737456511706113815
-0.0185451768338680267 0.0250004567205905914 0.0157783478498458862
-0.00904448516666889191 0.0250002238899469376 0.023949354887008667
-0.0278738196939229965 0.0250006876885890961 0.00520300865173339844
-0.0300028529018163681 0.0250007398426532745 0.00685929600149393082
-0.0267166811972856522 0.0250006597489118576 0.00977921951562166214
-0.019488409161567688 0.0250004809349775314 0.0142949512228369713
-0.0226659271866083145 0.0250005591660737991 0.010766688734292984
-0.0112309586256742477 0.025000276044011116 0.0224981661885976791
-0.0215127691626548767 0.0250005293637514114 0.0113770626485347748
-0.0110581871122121811 0.0250002723187208176 0.0221344325691461563
-0.0201705023646354675 0.0250004976987838745 0.012222575955092907
-0.0278296004980802536 0.0250006858259439468 0.00730146095156669617
-0.0205680206418037415 0.0250005070120096207 0.0128912348300218582
-0.0272077955305576324 0.025000670924782753 0.00691656814888119698
-0.0273614153265953064 0.0250006746500730515 0.00656761694699525833
-0.0289216898381710052 0.0250007137656211853 0.0057053971104323864
-0.0267893746495246887 0.0250006616115570068 0.00871723145246505737
-0.0287959519773721695 0.0250007119029760361 0.0078891729936003685
-0.0280234087258577347 0.0250006914138793945 0.00836340151727199554
-0.0115601327270269394 0.0250002853572368622 0.0214773416519165039
-0.0267260372638702393 0.0250006597489118576 0.00840832851827144623
-0.0218848269432783127 0.0250005386769771576 0.0114888278767466545
-0.029143674299120903 0.025000719353556633 0.00713095720857381821
-0.0230383798480033875 0.0250005684792995453 0.0125342989340424538
-0.0219544023275375366 0.0250005424022674561 0.0113361943513154984
-0.0236224345862865448 0.0250005833804607391 0.0129631403833627701
-0.0136809209361672401 0.0250003375113010406 0.018743760883808136
-0.0103241149336099625 0.0250002536922693253 0.0220993310213088989
-0.0117159504443407059 0.0250002890825271606 0.0219521541148424149
-0.0149508640170097351 0.0250003691762685776 0.0185125973075628281
-0.0295757073909044266 0.0250007305294275284 0.00828496646136045456
-0.0136776678264141083 0.0250003375113010406 0.0200273729860782623
-0.0252373628318309784 0.025000622496008873 0.0112219825387001038
-0.027066301554441452 0.0250006671994924545 0.00543652568012475967
-0.023093298077583313 0.0250005703419446945 0.0113641489297151566
-0.0276016294956207275 0.0250006802380084991 0.0096325259655714035
-0.0264507457613945007 0.0250006522983312607 0.00673751626163721085
-0.0248221307992935181 0.0250006131827831268 0.0103689823299646378
-0.0168599579483270645 0.0250004157423973083 0.0158211924135684967
-0.0267365183681249619 0.0250006597489118576 0.00660922518000006676
-0.0236395411193370819 0.0250005833804607391 0.00963157415390014648
-0.026925995945930481 0.0250006634742021561 0.00805409997701644897
-0.0303099025040864944 0.0250007472932338715 0.00773266423493623734
-0.0207575485110282898 0.0250005125999450684 0.0146519895642995834
-0.0216222554445266724 0.0250005330890417099 0.0144356042146682739
-0.0239220205694437027 0.0250005908310413361 0.0106541486456990242
-0.0280384160578250885 0.0250006914138793945 0.0064286310225725174
-0.0271091237664222717 0.0250006690621376038 0.00799706205725669861
-0.0220800265669822693 0.0250005461275577545 0.0131476186215877533
-0.00984646938741207123 0.0250002425163984299 0.0231720302253961563
-0.0164079274982213974 0.025000404566526413 0.0185072608292102814
-0.0270454101264476776 0.0250006671994924545 0.00935465004295110703
-0.0257496125996112823 0.0250006355345249176 0.00982229504734277725
-0.0170107334852218628 0.0250004194676876068 0.0168036632239818573
-0.0241847969591617584 0.0250005964189767838 0.0120194088667631149
-0.0210243538022041321 0.0250005181878805161 0.0139392036944627762
-0.00774640403687953949 0.0250001903623342514 0.0249597672373056412
-0.0286330059170722961 0.0250007063150405884 0.00862796790897846222
-0.0192229636013507843 0.0250004753470420837 0.0135586746037006378
-0.0285353157669305801 0.0250007044523954391 0.00881546735763549805
-0.0276587866246700287 0.0250006839632987976 0.00945449713617563248
-0.0250709746032953262 0.0250006187707185745 0.0110605023801326752
-0.0184472762048244476 0.0250004548579454422 0.0144920479506254196
-0.026388874277472496 0.0250006504356861115 0.00616719108074903488
-0.0261629875749349594 0.0250006448477506638 0.00629640650004148483
-0.0136682149022817612 0.0250003375113010406 0.019094560295343399
-0.0277604907751083374 0.0250006858259439468 0.00732666254043579102
-0.0252027641981840134 0.025000622496008873 0.00866489764302968979
-0.0219251271337270737 0.0250005424022674561 0.0129502350464463234
-0.0196115784347057343 0.0250004846602678299 0.0144963022321462631
-0.0154000017791986465 0.025000380352139473 0.0170431733131408691
-0.0284265279769897461 0.0250007007271051407 0.00616079382598400116
-0.0237584449350833893 0.0250005871057510376 0.0114969303831458092
-0.0199914835393428802 0.025000493973493576 0.0127730295062065125
-0.0246031917631626129 0.0250006057322025299 0.0107136741280555725
-0.0178233310580253601 0.0250004399567842484 0.0162294153124094009
-0.0109696909785270691 0.0250002704560756683 0.0218456704169511795
-0.0292725060135126114 0.0250007230788469315 0.00646638358011841774
-0.0240215770900249481 0.0250005926936864853 0.0126010347157716751
-0.0256795380264520645 0.0250006336718797684 0.0100288651883602142
-0.0156865492463111877 0.0250003878027200699 0.0189594775438308716
-0.0128436069935560226 0.0250003170222043991 0.0198426954448223114
-0.0103633161634206772 0.0250002555549144745 0.0226838253438472748
-0.0267582759261131287 0.0250006597489118576 0.00627537164837121964
-0.0286510530859231949 0.0250007063150405884 0.00775100104510784149
-0.0242080055177211761 0.025000598281621933 0.0124775180593132973
-0.0242902021855115891 0.0250006001442670822 0.0071781529113650322
-0.0226641744375228882 0.0250005591660737991 0.00552838016301393509
-0.0251195468008518219 0.0250006206333637238 0.00238019786775112152
-0.0270079206675291061 0.0250006671994924545 0.0048116031102836132
-0.022399289533495903 0.0250005535781383514 0.0080080665647983551
-0.0226471088826656342 0.0250005610287189484 0.00592355150729417801
-0.0227552950382232666 0.0250005628913640976 0.00720865046605467796
-0.0212405659258365631 0.025000525638461113 0.0066601005382835865
-0.0190596841275691986 0.025000469759106636 0.00959054101258516312
-0.00925051234662532806 0.025000227615237236 0.0229960419237613678
-0.0241655260324478149 0.0250005964189767838 0.00696884142234921455
-0.0117750857025384903 0.0250002909451723099 0.0204388368874788284
-0.0116810975596308708 0.0250002890825271606 0.0190128739923238754
-0.0185380131006240845 0.0250004585832357407 0.0120092043653130531
-0.0143332332372665405 0.0250003542751073837 0.0154514573514461517
-0.0165885798633098602 0.0250004082918167114 0.0155327431857585907
-0.0187163837254047394 0.0250004623085260391 0.0112661495804786682
-0.0115898903459310532 0.0250002853572368622 0.0195068400353193283
-0.00827172957360744476 0.025000203400850296 0.0235987715423107147
-0.0190231055021286011 0.025000469759106636 0.0104888910427689552
-0.019716339185833931 0.0250004865229129791 0.0115589415654540062
-0.0247164741158485413 0.0250006113201379776 0.00589320249855518341
-0.0193571113049983978 0.025000477209687233 0.0127172088250517845
-0.0193737838417291641 0.0250004790723323822 0.0101494062691926956
-0.0133857307955622673 0.0250003300607204437 0.018946254625916481
-0.0108527597039937973 0.0250002685934305191 0.0213038083165884018
-0.0120682232081890106 0.0250002983957529068 0.0200116559863090515
-0.00915813818573951721 0.0250002257525920868 0.0218457244336605072
-0.0167260505259037018 0.0250004120171070099 0.0123085081577301025
-0.0166832990944385529 0.0250004120171070099 0.0128988372161984444
-0.0211757980287075043 0.0250005237758159637 0.0075181545689702034
-0.0214592162519693375 0.0250005312263965607 0.00779743213206529617
-0.0255308039486408234 0.0250006299465894699 0.00291886692866683006
-0.0112179191783070564 0.0250002779066562653 0.0199142489582300186
-0.0149104585871100426 0.0250003673136234283 0.0161471962928771973
-0.0211624745279550552 0.0250005237758159637 0.00936637446284294128
-0.0157104134559631348 0.0250003878027200699 0.0165001228451728821
-0.0173379518091678619 0.025000428780913353 0.0127068767324090004
-0.0171116795390844345 0.0250004231929779053 0.0147443665191531181
-0.0121304905042052269 0.0250002983957529068 0.0186692178249359131
-0.0171283259987831116 0.0250004231929779053 0.0142002003267407417
-0.0211735684424638748 0.0250005237758159637 0.00999054871499538422
-0.0247371159493923187 0.0250006094574928284 0.00459644710645079613
-0.0174288526177406311 0.0250004306435585022 0.0124394791200757027
-0.0056420154869556427 0.0250001400709152222 0.026662653312087059
-0.0118815843015909195 0.0250002928078174591 0.0201422926038503647
-0.0204415693879127502 0.0250005051493644714 0.00932287238538265228
-0.0162399075925350189 0.0250004008412361145 0.0142494430765509605
-0.0182172469794750214 0.0250004492700099945 0.0138916019350290298
-0.0259672738611698151 0.0250006411224603653 0.00483607687056064606
-0.0262073781341314316 0.025000646710395813 0.00515641551464796066
-0.00809535756707191467 0.0250001996755599976 0.0233994927257299423
-0.0192613415420055389 0.0250004753470420837 0.00948833860456943512
-0.0247363746166229248 0.0250006113201379776 0.00349523779004812241
-0.0241214465349912643 0.0250005945563316345 0.00278823403641581535
-0.0136396884918212891 0.0250003356486558914 0.0184102337807416916
-0.0185401830822229385 0.0250004585832357407 0.0103371050208806992
-0.0183017812669277191 0.025000452995300293 0.0136685911566019058
-0.0161128528416156769 0.025000397115945816 0.0153837753459811211
-0.0237676780670881271 0.0250005871057510376 0.00610112305730581284
-0.0242571476846933365 0.0250006001442670822 0.00264957896433770657
-0.0111245615407824516 0.025000276044011116 0.019589567556977272
-0.023387296125292778 0.0250005777925252914 0.00563486199826002121
-0.0110940979793667793 0.0250002741813659668 0.0198312941938638687
-0.0118895396590232849 0.0250002946704626083 0.0196536630392074585
-0.0263799801468849182 0.0250006522983312607 0.00466931937262415886
-0.0185606479644775391 0.0250004585832357407 0.011914379894733429
-0.0178353823721408844 0.0250004418194293976 0.0121399760246276855
-0.0187112409621477127 0.0250004623085260391 0.0102209746837615967
-0.0106593305245041847 0.0250002630054950714 0.0201875418424606323
-0.0218173041939735413 0.0250005386769771576 0.00741990422829985619
-0.0114193130284547806 0.0250002816319465637 0.0195171721279621124
-0.0227471049875020981 0.0250005610287189484 0.00678743328899145126
-0.0248914472758769989 0.0250006150454282761 0.00370444054715335369
-0.0251842066645622253 0.025000622496008873 0.00589250354096293449
-0.0146051840856671333 0.0250003598630428314 0.0166524648666381836
-0.0176458917558193207 0.0250004343688488007 0.0127923786640167236
-0.0148159340023994446 0.0250003654509782791 0.0148836616426706314
-0.0186742004007101059 0.0250004604458808899 0.0116247609257698059
-0.0127457929775118828 0.0250003151595592499 0.0173618309199810028
-0.0200270749628543854 0.025000493973493576 0.0108830155804753304
-0.0100599462166428566 0.0250002481043338776 0.0208358913660049438
-0.0116436826065182686 0.0250002872198820114 0.0204920843243598938
-0.0216129720211029053 0.0250005330890417099 0.00997671764343976974
-0.0100509431213140488 0.0250002481043338776 0.0218178890645503998
-0.017704986035823822 0.0250004362314939499 0.0145329767838120461
-0.0159178860485553741 0.0250003933906555176 0.0148550104349851608
-0.0116825271397829056 0.0250002890825271606 0.0204371288418769836
-0.0256653372198343277 0.0250006336718797684 0.0057398560456931591
-0.0239868871867656708 0.0250005908310413361 0.00795323215425014496
-0.0200006682425737381 0.025000493973493576 0.0114061739295721054
-0.0123868528753519058 0.0250003058463335037 0.01788339763879776
-0.0253095608204603195 0.0250006243586540222 0.00694450130686163902
-0.0233361124992370605 0.0250005777925252914 0.00365087995305657387
-0.0147326774895191193 0.0250003635883331299 0.0174431521445512772
-0.018531477078795433 0.0250004567205905914 0.010898577980697155
-0.0237634573131799698 0.0250005852431058884 0.00508537515997886658
-0.0135597288608551025 0.0250003356486558914 0.0173637568950653076
-0.0229650363326072693 0.0250005666166543961 0.00823860522359609604
-0.0239511318504810333 0.0250005908310413361 0.00526602752506732941
-0.0261595640331506729 0.0250006448477506638 0.00468240492045879364
-0.00993629079312086105 0.0250002462416887283 0.02233143150806427
-0.0226656738668680191 0.0250005591660737991 0.0083070630207657814
-0.0161164067685604095 0.025000397115945816 0.0146166607737541199
-0.0174421686679124832 0.0250004306435585022 0.0120509443804621696
-0.0205193441361188889 0.0250005070120096207 0.00873495452105998993
-0.024994581937789917 0.0250006169080734253 0.0033132513053715229
-0.0156950335949659348 0.0250003878027200699 0.013703630305826664
-0.0142742777243256569 0.0250003542751073837 0.0167089011520147324
-0.0188760440796613693 0.0250004660338163376 0.0132438410073518753
-0.00514247454702854156 0.0250001270323991776 0.0271100327372550964
-0.0231948867440223694 0.0250005722045898438 0.00486999005079269409
-0.0179513879120349884 0.0250004436820745468 0.0115147978067398071
-0.0237359330058097839 0.0250005871057510376 0.00413713324815034866
-0.0247089359909296036 0.0250006094574928284 0.00577790243551135063
-0.0176564399152994156 0.0250004362314939499 0.0118620358407497406
-0.0169308837503194809 0.0250004176050424576 0.0136747965589165688
-0.0180113762617111206 0.025000445544719696 0.0120810512453317642
-0.0196992531418800354 0.0250004846602678299 0.0124608892947435379
-0.0233542565256357193 0.0250005759298801422 0.00699044624343514442
-0.0256022792309522629 0.0250006336718797684 0.00289438455365598202
-0.0250767935067415237 0.0250006187707185745 0.00625794846564531326
-0.0260905809700489044 0.0250006429851055145 0.00546056497842073441
-0.0172632299363613129 0.0250004269182682037 0.0129408929497003555
-0.0248234570026397705 0.0250006131827831268 0.00340451719239354134
-0.00992988049983978271 0.0250002443790435791 0.0216805730015039444
-0.0189195089042186737 0.0250004678964614868 0.0113661345094442368
-0.0244304779917001724 0.0250006038695573807 0.00637705856934189796
-0.0175832100212574005 0.0250004343688488007 0.0117820613086223602
-0.0244870241731405258 0.0250006038695573807 0.00763694848865270615
-0.0170718953013420105 0.0250004231929779053 0.012815806083381176
-0.0255482159554958344 0.0250006299465894699 0.00595825957134366035
-0.025972459465265274 0.0250006411224603653 0.00627996586263179779
-0.0245882794260978699 0.0250006075948476791 0.00510550476610660553
-0.0221450645476579666 0.0250005461275577545 0.00959100667387247086
-0.0225349608808755875 0.0250005554407835007 0.00726989377290010452
-0.0232461243867874146 0.0250005759298801422 0.0040854262188076973
-0.024011760950088501 0.0250005926936864853 0.00700102467089891434
-0.0190885290503501892 0.0250004716217517853 0.0109404856339097023
-0.0153334001079201698 0.025000380352139473 0.015188140794634819
-0.0208136290311813354 0.0250005144625902176 0.00732313841581344604
-0.0159527454525232315 0.0250003933906555176 0.0143487546592950821
-0.0267801936715841293 0.0250006597489118576 0.00484205968677997589
-0.0182960852980613708 0.0250004511326551437 0.0131192915141582489
-0.014393332414329052 0.025000356137752533 0.0156584251672029495
-0.0161562841385602951 0.0250003989785909653 0.0154315140098333359
-0.017255004495382309 0.0250004269182682037 0.0145659418776631355
-0.0220658276230096817 0.0250005442649126053 0.00524748070165514946
-0.0185317099094390869 0.0250004567205905914 0.0134473005309700966
-0.019265374168753624 0.0250004753470420837 0.0115716177970170975
-0.0223149619996547699 0.0250005517154932022 0.00513935741037130356
-0.0235814973711967468 0.0250005815178155899 0.00499865319579839706
-0.0224654711782932281 0.0250005554407835007 0.00569499051198363304
-0.0224200673401355743 0.0250005535781383514 0.00603055767714977264
-0.0168693326413631439 0.0250004176050424576 0.0147469928488135338
-0.0103384982794523239 0.0250002555549144745 0.0218180473893880844
-0.0228437837213277817 0.0250005628913640976 0.00835267454385757446
-0.024762764573097229 0.0250006113201379776 0.00563006894662976265
-0.0264118369668722153 0.0250006522983312607 0.00430221483111381531
-0.0238909311592578888 0.0250005889683961868 0.00488237850368022919
-0.0122423721477389336 0.0250003021210432053 0.0199699662625789642
-0.0130352219566702843 0.0250003226101398468 0.0176208373159170151
-0.0150298317894339561 0.0250003710389137268 0.0152422254905104637
-0.012626240961253643 0.0250003114342689514 0.0194992944598197937
-0.0249370187520980835 0.0250006169080734253 0.0041944943368434906
-0.0205290950834751129 0.0250005070120096207 0.008531142957508564
-0.0169746633619070053 0.0250004194676876068 0.0124208368360996246
-0.022484825924038887 0.0250005554407835007 0.00679273437708616257
-0.0271455533802509308 0.0250006690621376038 0.00406158482655882835
-0.00539110414683818817 0.0250001326203346252 0.0267091598361730576
-0.0132979946210980415 0.0250003281980752945 0.0173040963709354401
-0.0216721761971712112 0.0250005349516868591 0.0103296916931867599
-0.0253033954650163651 0.0250006262212991714 0.00312623195350170135
-0.00880398228764533997 0.0250002183020114899 0.0233331955969333649
-0.0234897639602422714 0.0250005815178155899 0.00606902316212654114
-0.0238270983099937439 0.0250005889683961868 0.00433308817446231842
-0.0259445738047361374 0.0250006392598152161 0.00500581506639719009
-0.0248942561447620392 0.0250006150454282761 0.00700888922438025475
-0.0163618046790361404 0.0250004027038812637 0.0155152399092912674
-0.0225171763449907303 0.0250005554407835007 0.00805325154215097427
-0.00997062493115663528 0.0250002462416887283 0.0223393309861421585
-0.0265707280486822128 0.0250006560236215591 0.0046284915879368782
-0.0201917532831430435 0.0250004976987838745 0.0115971788763999939
-0.0242062434554100037 0.025000598281621933 0.00245970673859119415
-0.0204722005873918533 0.0250005051493644714 0.0112597234547138214
-0.0139819039031863213 0.0250003449618816376 0.0142850466072559357
-0.0157957524061203003 0.0250003896653652191 0.00941783003509044647
-0.0198905952274799347 0.0250004921108484268 0.00462224101647734642
-0.0173994209617376328 0.025000428780913353 0.00838358607143163681
-0.015507308766245842 0.0250003840774297714 0.00996018201112747192
-0.0179666765034198761 0.0250004436820745468 0.00970823876559734344
-0.0189658515155315399 0.0250004678964614868 0.0088087012991309166
-0.0193403009325265884 0.025000477209687233 0.00487447017803788185
-0.0207527577877044678 0.0250005125999450684 0.00608669966459274292
-0.00833153259009122849 0.0250002052634954453 0.0227322839200496674
-0.0205398071557283401 0.0250005070120096207 0.00148041127249598503
-0.0174692980945110321 0.0250004306435585022 0.00700000114738941193
-0.0134640047326683998 0.025000331923365593 0.0162471812218427658
-0.0121484678238630295 0.025000300258398056 0.0172300301492214203
-0.0148592181503772736 0.0250003673136234283 0.0140089699998497963
-0.0100580519065260887 0.0250002481043338776 0.0199431553483009338
-0.0203639119863510132 0.0250005032867193222 0.00258011184632778168
-0.0150524284690618515 0.0250003710389137268 0.0120342662557959557
-0.0211427118629217148 0.0250005219131708145 0.00391016807407140732
-0.0175300408154726028 0.0250004325062036514 0.00923565123230218887
-0.020306779071688652 0.025000501424074173 0.00596181303262710571
-0.0132162915542721748 0.0250003263354301453 0.0160840824246406555
-0.00822667498141527176 0.025000203400850296 0.0227192267775535583
-0.0146423652768135071 0.0250003617256879807 0.0116653228178620338
-0.0122606018558144569 0.0250003021210432053 0.0147819593548774719
-0.00832541752606630325 0.0250002052634954453 0.0222383663058280945
-0.0169316902756690979 0.0250004176050424576 0.00906960666179656982
-0.020165393128991127 0.0250004976987838745 0.00198991363868117332
-0.0233017150312662125 0.0250005759298801422 0.00303548597730696201
-0.0147470496594905853 0.0250003635883331299 0.0125951524823904037
-0.0149030173197388649 0.0250003673136234283 0.0136729851365089417
-0.0146062644198536873 0.0250003617256879807 0.0147401466965675354
-0.0136781223118305206 0.0250003375113010406 0.0146055622026324272
-0.0169576108455657959 0.0250004194676876068 0.01084149070084095
-0.0172611214220523834 0.0250004269182682037 0.0110864397138357162
-0.018300764262676239 0.0250004511326551437 0.00545744923874735832
-0.0148802278563380241 0.0250003691762685776 0.0131689142435789108
-0.017634119838476181 0.0250004343688488007 0.0101852072402834892
-0.0112695107236504555 0.0250002797693014145 0.0181790366768836975
-0.0196255911141633987 0.0250004846602678299 0.00691987853497266769
-0.0126744229346513748 0.0250003132969141006 0.0167321208864450455
-0.0148094892501831055 0.0250003654509782791 0.0122910086065530777
-0.0210683140903711319 0.0250005200505256653 0.000806423195172101259
-0.0174093618988990784 0.0250004306435585022 0.00614186283200979233
-0.0174525417387485504 0.0250004306435585022 0.00733714690431952477
-0.017160346731543541 0.0250004231929779053 0.00711494963616132736
-0.0213965345174074173 0.0250005293637514114 0.00111342174932360649
-0.0170252826064825058 0.0250004194676876068 0.0105747301131486893
-0.0156766213476657867 0.0250003878027200699 0.0112913614138960838
-0.021977204829454422 0.0250005424022674561 0.00408803578466176987
-0.0102028399705886841 0.025000251829624176 0.0192617364227771759
-0.0210098214447498322 0.0250005181878805161 0.00420228950679302216
-0.0157387815415859222 0.0250003878027200699 0.0105992835015058517
-0.010744970291852951 0.0250002648681402206 0.0173560120165348053
-0.0181251578032970428 0.0250004474073648453 0.00777470553293824196
-0.0190016850829124451 0.0250004678964614868 0.00418056081980466843
-0.0207319539040327072 0.0250005125999450684 0.00320662790909409523
-0.0209606066346168518 0.0250005181878805161 0.00218756310641765594
-0.0164327472448348999 0.0250004064291715622 0.00946957990527153015
-0.0167560931295156479 0.0250004138797521591 0.00731574604287743568
-0.0126403085887432098 0.0250003132969141006 0.0171527564525604248
-0.0100584868341684341 0.0250002499669790268 0.0205287914723157883
-0.0188012495636940002 0.0250004641711711884 0.00637908186763525009
-0.012147463858127594 0.025000300258398056 0.0158547945320606232
-0.0210449770092964172 0.0250005181878805161 0.00136935245245695114
-0.0156955551356077194 0.0250003859400749207 0.0103773344308137894
-0.014465969055891037 0.0250003580003976822 0.0138683421537280083
-0.0206596329808235168 0.0250005107372999191 0.00317936879582703114
-0.0131092770025134087 0.025000324472784996 0.0145036950707435608
-0.0192591920495033264 0.0250004753470420837 0.00526568293571472168
-0.019446149468421936 0.0250004809349775314 0.00763335591182112694
-0.0177316479384899139 0.0250004380941390991 0.00855684280395507812
-0.0194689072668552399 0.0250004809349775314 0.00748818274587392807
-0.0199183449149131775 0.0250004921108484268 0.00756555516272783279
-0.0193497203290462494 0.0250004790723323822 0.00502241868525743484
-0.00866792816668748856 0.0250002145767211914 0.0211846251040697098
-0.0206062439829111099 0.0250005088746547699 0.00285395421087741852
-0.0096296258270740509 0.0250002387911081314 0.0204649809747934341
-0.00643331650644540787 0.0250001586973667145 0.0245815441012382507
-0.0188929755240678787 0.0250004660338163376 0.0061839609406888485
-0.0207369700074195862 0.0250005107372999191 0.00543800182640552521
-0.0170181896537542343 0.025000421330332756 0.00850115716457366943
-0.0202413778752088547 0.0250004995614290237 0.00284451455809175968
-0.00982673279941082001 0.0250002443790435791 0.0209263432770967484
-0.016728479415178299 0.0250004138797521591 0.0109076667577028275
-0.0148819182068109512 0.0250003673136234283 0.0136846369132399559
-0.0107385758310556412 0.0250002648681402206 0.0179036799818277359
-0.0181100238114595413 0.0250004474073648453 0.00690105324611067772
-0.0202256087213754654 0.0250004976987838745 0.00290269381366670132
-0.0147348511964082718 0.0250003635883331299 0.0125658437609672546
-0.0148396138101816177 0.0250003654509782791 0.0105117419734597206
-0.015717722475528717 0.0250003878027200699 0.0102748200297355652
-0.0134106418117880821 0.025000331923365593 0.0138520831242203712
-0.0187207125127315521 0.0250004604458808899 0.00575953396037220955
-0.0219845473766326904 0.0250005442649126053 0.00181534793227910995
-0.0155261699110269547 0.0250003822147846222 0.0112982988357543945
-0.0206219330430030823 0.0250005088746547699 0.000911853625439107418
-0.0220706593245267868 0.0250005461275577545 0.00397645868360996246
-0.0132544273510575294 0.0250003263354301453 0.0144505361095070839
-0.00906814448535442352 0.0250002257525920868 0.0212603006511926651
-0.0169166866689920425 0.0250004176050424576 0.0112273022532463074
-0.0187690891325473785 0.0250004641711711884 0.00539811840280890465
-0.0074127689003944397 0.0250001847743988037 0.0235953554511070251
-0.0142129147425293922 0.0250003524124622345 0.0150629878044128418
-0.0237878505140542984 0.0250005889683961868 0.00252561317756772041
-0.00952218472957611084 0.0250002350658178329 0.0199197307229042053
-0.0216628406196832657 0.0250005349516868591 0.00509823812171816826
-0.00786865502595901489 0.0250001940876245499 0.0228492170572280884
-0.0214409511536359787 0.0250005293637514114 0.00284919189289212227
-0.0144638475030660629 0.0250003580003976822 0.0148143414407968521
-0.0215136893093585968 0.0250005312263965607 0.00510390754789113998
-0.0138004869222640991 0.0250003412365913391 0.0133841168135404587
-0.0208039954304695129 0.0250005144625902176 0.00510503724217414856
-0.0138009097427129745 0.0250003393739461899 0.0129647385329008102
-0.0164060015231370926 0.025000404566526413 0.0118893496692180634
-0.0191682055592536926 0.0250004734843969345 0.0079535292461514473
-0.0141817480325698853 0.0250003505498170853 0.0117919836193323135
-0.0117230731993913651 0.0250002890825271606 0.0179599262773990631
-0.00928224530071020126 0.0250002294778823853 0.0211430657655000687
-0.0140403099358081818 0.0250003468245267868 0.0123384278267621994
-0.0204413514584302902 0.0250005051493644714 0.0053454320877790451
-0.0195755325257778168 0.0250004846602678299 0.00821385253220796585
-0.0232821330428123474 0.025000574067234993 0.00206316797994077206
-0.0139496661722660065 0.0250003449618816376 0.0138937365263700485
-0.021641213446855545 0.0250005330890417099 0.00327997538261115551
-0.0137651674449443817 0.0250003393739461899 0.0126838870346546173
-0.0207093004137277603 0.0250005107372999191 0.00140109960921108723
-0.0178252123296260834 0.0250004399567842484 0.00577951688319444656
-0.0196187812834978104 0.0250004846602678299 0.00258943717926740646
-0.0146258324384689331 0.0250003617256879807 0.0130479233339428902
-0.021876579150557518 0.0250005405396223068 0.00129172764718532562
-0.00943463761359453201 0.0250002332031726837 0.0211614985018968582
-0.00883677229285240173 0.0250002183020114899 0.0217193420976400375
-0.0128630893304944038 0.0250003188848495483 0.0164108164608478546
-0.01049080491065979 0.0250002592802047729 0.0200194772332906723
-0.0212691370397806168 0.025000525638461113 0.000919466488994657993
-0.020521361380815506 0.0250005070120096207 0.00589155079796910286
-0.0225913338363170624 0.0250005573034286499 0.00395694281905889511
-0.0215396396815776825 0.0250005312263965607 0.00375122181139886379
-0.0208090599626302719 0.0250005144625902176 0.00225711124949157238
-0.00886349473148584366 0.0250002201646566391 0.02084309421479702
-0.00677330605685710907 0.0250001680105924606 0.0242430996149778366
-0.0179872531443834305 0.0250004436820745468 0.00893305055797100067
-0.0180590804666280746 0.025000445544719696 0.00578465918079018593
-0.00938993413001298904 0.0250002313405275345 0.019730105996131897
-0.0182840824127197266 0.0250004511326551437 0.00652668904513120651
-0.0167183633893728256 0.0250004138797521591 0.00822986941784620285
-0.00538315903395414352 0.0250001326203346252 0.0263173822313547134
-0.013814946636557579 0.0250003412365913391 0.0153942238539457321
-0.0193611960858106613 0.0250004790723323822 0.00392809929326176643
-0.0200211554765701294 0.025000493973493576 0.00780969299376010895
-0.00780523475259542465 0.0250001922249794006 0.0234819259494543076
-0.0137801356613636017 0.0250003393739461899 0.0134325847029685974
-0.0101128537207841873 0.0250002481043338776 0.0185601022094488144
-0.0146970460191369057 0.0250003635883331299 0.0113864531740546227
-0.0206083748489618301 0.0250005088746547699 0.00268600252456963062
-0.0231339596211910248 0.0250005703419446945 0.00228401599451899529
-0.0128707177937030792 0.0250003170222043991 0.01616697758436203
-0.0133395427837967873 0.0250003281980752945 0.0140193384140729904
-0.0206898227334022522 0.0250005107372999191 0.00113464309833943844
-0.0143261458724737167 0.0250003542751073837 0.0113738430663943291
-0.018139965832233429 0.0250004492700099945 0.00923477858304977417
-0.0212769713252782822 0.025000525638461113 0.00356436870060861111
-0.0144443735480308533 0.025000356137752533 0.0134982876479625702
-0.0167412310838699341 0.0250004138797521591 0.00823142938315868378
-0.0174568705260753632 0.0250004306435585022 0.0107621457427740097
-0.0177054964005947113 0.0250004362314939499 0.00863968580961227417
-0.015722963958978653 0.0250003878027200699 0.0132537195459008217
-0.0194148477166891098 0.0250004790723323822 0.00437538605183362961
-0.00637498870491981506 0.0250001568347215652 0.0247965119779109955
-0.018601689487695694 0.0250004585832357407 0.00504091009497642517
-0.0210728999227285385 0.0250005200505256653 0.00605969224125146866
-0.0219552759081125259 0.0250005424022674561 0.00224512629210948944
-0.011532132513821125 0.0250002853572368622 0.0163890905678272247
-0.0133320260792970657 0.0250003281980752945 0.0131189329549670219
-0.0208516344428062439 0.0250005144625902176 0.00567332934588193893
-0.00819468032568693161 0.025000203400850296 0.0216690525412559509
-0.0204202700406312943 0.0250005032867193222 0.0039198179729282856
-0.0134148206561803818 0.025000331923365593 0.0127381430938839912
-0.0194992013275623322 0.0250004809349775314 0.00058433914091438055
-0.0108281401917338371 0.0250002667307853699 0.0141848847270011902
-0.0161401648074388504 0.0250003989785909653 0.00745310494676232338
-0.0133938156068325043 0.025000331923365593 0.00799554958939552307
-0.0205260273069143295 0.0250005070120096207 0.000531867728568613529
-0.0158488359302282333 0.0250003915280103683 0.0018901842413470149
